ply
format ascii 1.0
element vertex 1192
property float x
property float y
property float z
property uchar red
property uchar green
property uchar blue
property uchar alpha
end_header
27.280000 9.020000 36.300000 47 53 47 0
27.500000 9.020000 36.080000 48 55 48 0
27.720000 9.020000 42.240000 48 53 48 0
27.940000 9.020000 42.020000 48 53 48 0
28.160000 9.020000 41.140000 48 54 48 0
28.380000 9.020000 39.600000 49 55 49 0
28.600000 9.020000 38.940000 47 52 47 0
28.820000 9.020000 38.940000 49 56 49 0
29.040000 9.020000 38.720000 49 56 49 0
29.260000 9.020000 37.840000 48 52 48 0
29.480000 9.020000 37.400000 48 55 48 0
29.700000 9.020000 37.620000 48 54 48 0
29.920000 9.020000 37.620000 50 54 50 0
30.140000 9.020000 37.840000 49 54 49 0
30.360000 9.020000 37.840000 49 53 49 0
30.580000 9.020000 37.840000 49 54 49 0
30.800000 9.020000 37.620000 49 54 49 0
31.020000 9.020000 30.140000 52 57 52 0
31.240000 9.020000 22.220000 55 70 55 0
31.460000 9.020000 4.180000 52 83 52 0
31.680000 9.020000 4.400000 52 87 52 0
31.900000 9.020000 43.560000 54 88 54 0
32.120000 9.020000 43.560000 51 86 51 0
32.340000 9.020000 43.560000 52 87 52 0
32.560000 9.020000 43.560000 52 87 52 0
32.780000 9.020000 43.560000 53 87 53 0
33.000000 9.020000 43.560000 52 86 52 0
33.220000 9.020000 43.560000 52 88 52 0
33.440000 9.020000 43.560000 50 85 50 0
33.660000 9.020000 43.560000 53 88 53 0
33.880000 9.020000 43.560000 53 89 53 0
34.100000 9.020000 43.560000 53 87 53 0
34.320000 9.020000 43.560000 54 85 54 0
34.540000 9.020000 43.560000 59 79 59 0
34.760000 9.020000 43.560000 64 67 64 0
34.980000 9.020000 43.560000 65 65 65 0
35.200000 9.020000 43.560000 65 65 65 0
35.420000 9.020000 43.560000 65 65 65 0
35.640000 9.020000 43.560000 65 65 65 0
35.860000 9.020000 13.640000 65 65 65 0
36.080000 9.020000 22.220000 64 64 64 0
36.300000 9.020000 13.420000 64 64 64 0
36.520000 9.020000 43.560000 65 65 65 0
36.740000 9.020000 43.560000 65 65 65 0
36.960000 9.020000 18.040000 64 64 64 0
37.180000 9.020000 35.860000 65 65 65 0
0.000000 9.240000 41.800000 50 56 50 0
0.220000 9.240000 41.800000 49 53 49 0
0.440000 9.240000 41.800000 47 52 47 0
0.660000 9.240000 41.800000 49 53 49 0
0.880000 9.240000 34.760000 48 54 48 0
1.100000 9.240000 34.540000 47 52 47 0
1.320000 9.240000 34.540000 50 55 50 0
1.540000 9.240000 34.980000 48 53 48 0
1.760000 9.240000 42.680000 48 53 48 0
1.980000 9.240000 43.120000 49 59 49 0
2.200000 9.240000 42.900000 47 60 47 0
2.420000 9.240000 42.460000 47 61 47 0
2.640000 9.240000 42.020000 49 61 49 0
2.860000 9.240000 41.800000 48 55 48 0
3.080000 9.240000 34.540000 48 54 48 0
3.300000 9.240000 34.100000 37 42 37 0
3.520000 9.240000 33.660000 34 36 34 0
3.740000 9.240000 33.440000 35 37 35 0
3.960000 9.240000 33.440000 34 38 34 0
4.180000 9.240000 33.440000 36 40 36 0
4.400000 9.240000 33.220000 30 33 30 0
4.620000 9.240000 25.300000 27 30 27 0
4.840000 9.240000 25.520000 28 30 28 0
5.060000 9.240000 25.740000 31 34 31 0
5.280000 9.240000 26.180000 42 47 42 0
5.500000 9.240000 26.620000 41 43 41 0
5.720000 9.240000 26.840000 42 46 42 0
5.940000 9.240000 27.060000 45 48 45 0
6.160000 9.240000 27.280000 46 50 46 0
6.380000 9.240000 27.280000 46 48 46 0
6.600000 9.240000 27.280000 48 56 48 0
6.820000 9.240000 27.280000 49 57 49 0
7.040000 9.240000 27.280000 51 57 51 0
7.260000 9.240000 34.980000 48 54 48 0
7.480000 9.240000 34.980000 46 52 46 0
7.700000 9.240000 34.980000 49 54 49 0
7.920000 9.240000 34.980000 49 53 49 0
8.140000 9.240000 34.760000 45 49 45 0
8.360000 9.240000 34.760000 47 52 47 0
8.580000 9.240000 34.760000 48 52 48 0
8.800000 9.240000 34.760000 49 52 49 0
9.020000 9.240000 34.760000 48 52 48 0
9.240000 9.240000 34.760000 46 49 46 0
9.460000 9.240000 34.760000 47 50 47 0
9.680000 9.240000 34.760000 46 49 46 0
9.900000 9.240000 34.760000 45 48 45 0
10.120000 9.240000 34.760000 49 54 49 0
10.340000 9.240000 34.760000 50 52 50 0
10.560000 9.240000 34.760000 51 55 51 0
10.780000 9.240000 34.760000 48 51 48 0
11.000000 9.240000 34.760000 48 52 48 0
11.220000 9.240000 34.760000 48 52 48 0
11.440000 9.240000 34.540000 48 52 48 0
11.660000 9.240000 34.540000 48 50 48 0
11.880000 9.240000 34.540000 46 50 46 0
12.100000 9.240000 34.540000 48 50 48 0
12.320000 9.240000 34.540000 50 52 50 0
12.540000 9.240000 34.540000 47 49 47 0
12.760000 9.240000 34.540000 48 52 48 0
12.980000 9.240000 34.540000 46 49 46 0
13.200000 9.240000 34.540000 48 52 48 0
13.420000 9.240000 34.760000 50 53 50 0
13.640000 9.240000 34.760000 49 55 49 0
13.860000 9.240000 34.760000 46 50 46 0
14.080000 9.240000 34.760000 49 51 49 0
14.300000 9.240000 34.760000 49 51 49 0
14.520000 9.240000 34.760000 49 55 49 0
14.740000 9.240000 34.760000 46 50 46 0
14.960000 9.240000 27.060000 47 51 47 0
15.180000 9.240000 27.060000 45 49 45 0
15.400000 9.240000 27.280000 47 49 47 0
15.620000 9.240000 27.280000 48 50 48 0
15.840000 9.240000 27.280000 46 49 46 0
16.060000 9.240000 27.280000 48 50 48 0
16.280000 9.240000 34.980000 49 50 49 0
16.500000 9.240000 35.200000 46 49 46 0
16.720000 9.240000 35.200000 49 51 49 0
16.940000 9.240000 35.420000 48 55 48 0
17.160000 9.240000 35.420000 47 51 47 0
17.380000 9.240000 35.640000 46 51 46 0
17.600000 9.240000 35.640000 48 52 48 0
17.820000 9.240000 35.860000 49 54 49 0
18.040000 9.240000 36.080000 48 53 48 0
18.260000 9.240000 35.640000 47 52 47 0
18.480000 9.240000 34.980000 49 53 49 0
18.700000 9.240000 34.540000 48 54 48 0
18.920000 9.240000 40.920000 47 51 47 0
19.140000 9.240000 39.380000 48 53 48 0
19.360000 9.240000 38.500000 49 54 49 0
19.580000 9.240000 38.720000 50 56 50 0
19.800000 9.240000 38.280000 48 55 48 0
20.020000 9.240000 37.400000 49 55 49 0
20.240000 9.240000 36.960000 49 60 49 0
20.460000 9.240000 43.560000 49 59 49 0
20.680000 9.240000 43.560000 48 66 48 0
20.900000 9.240000 38.720000 51 62 51 0
21.120000 9.240000 33.000000 38 45 38 0
21.340000 9.240000 25.960000 33 37 33 0
21.560000 9.240000 26.180000 38 44 38 0
21.780000 9.240000 34.100000 38 44 38 0
22.000000 9.240000 34.320000 39 44 39 0
22.220000 9.240000 34.320000 41 46 41 0
22.440000 9.240000 34.540000 42 48 42 0
22.660000 9.240000 34.540000 44 50 44 0
22.880000 9.240000 34.760000 43 50 43 0
23.100000 9.240000 34.760000 44 51 44 0
23.320000 9.240000 34.760000 44 49 44 0
23.540000 9.240000 34.760000 47 52 47 0
23.760000 9.240000 34.980000 46 50 46 0
23.980000 9.240000 34.980000 48 55 48 0
24.200000 9.240000 34.980000 46 52 46 0
24.420000 9.240000 34.980000 48 51 48 0
24.640000 9.240000 34.980000 47 54 47 0
24.860000 9.240000 35.200000 47 53 47 0
25.080000 9.240000 35.200000 48 52 48 0
25.300000 9.240000 35.200000 45 52 45 0
25.520000 9.240000 35.420000 48 54 48 0
25.740000 9.240000 35.420000 47 51 47 0
25.960000 9.240000 35.640000 47 55 47 0
26.180000 9.240000 35.640000 49 56 49 0
26.400000 9.240000 35.860000 49 55 49 0
26.620000 9.240000 36.080000 48 54 48 0
26.840000 9.240000 42.680000 46 52 46 0
27.060000 9.240000 42.020000 48 52 48 0
27.280000 9.240000 41.800000 48 55 48 0
27.500000 9.240000 40.920000 49 54 49 0
27.720000 9.240000 39.380000 48 54 48 0
27.940000 9.240000 38.500000 46 51 46 0
28.160000 9.240000 38.280000 49 55 49 0
28.380000 9.240000 37.400000 46 51 46 0
28.600000 9.240000 37.180000 48 54 48 0
28.820000 9.240000 37.180000 50 55 50 0
29.040000 9.240000 37.400000 45 53 45 0
29.260000 9.240000 37.400000 47 52 47 0
29.480000 9.240000 37.400000 45 52 45 0
29.700000 9.240000 37.400000 48 54 48 0
29.920000 9.240000 37.620000 49 55 49 0
30.140000 9.240000 37.620000 47 53 47 0
30.360000 9.240000 37.840000 50 54 50 0
30.580000 9.240000 37.840000 48 52 48 0
30.800000 9.240000 37.840000 50 55 50 0
31.020000 9.240000 30.140000 49 54 49 0
31.240000 9.240000 30.140000 52 56 52 0
31.460000 9.240000 22.220000 56 67 56 0
31.680000 9.240000 3.960000 53 80 53 0
31.900000 9.240000 4.400000 53 85 53 0
32.120000 9.240000 43.560000 52 84 52 0
32.340000 9.240000 43.560000 51 84 51 0
32.560000 9.240000 43.560000 52 84 52 0
32.780000 9.240000 43.560000 51 84 51 0
33.000000 9.240000 43.560000 52 85 52 0
33.220000 9.240000 43.560000 52 85 52 0
33.440000 9.240000 43.560000 52 84 52 0
33.660000 9.240000 43.560000 52 86 52 0
33.880000 9.240000 43.560000 51 85 51 0
34.100000 9.240000 43.560000 50 84 50 0
34.320000 9.240000 43.560000 52 86 52 0
34.540000 9.240000 43.560000 55 85 55 0
34.760000 9.240000 43.560000 58 77 58 0
34.980000 9.240000 43.560000 63 66 63 0
35.200000 9.240000 43.560000 65 65 65 0
35.420000 9.240000 43.560000 65 65 65 0
35.640000 9.240000 43.560000 65 65 65 0
35.860000 9.240000 43.560000 65 65 65 0
36.080000 9.240000 12.980000 64 64 64 0
36.300000 9.240000 12.980000 64 64 64 0
36.520000 9.240000 2.860000 65 65 65 0
36.740000 9.240000 43.560000 65 65 65 0
36.960000 9.240000 7.700000 64 64 64 0
37.180000 9.240000 18.700000 65 65 65 0
0.000000 9.460000 38.280000 48 52 48 0
0.220000 9.460000 38.280000 49 53 49 0
0.440000 9.460000 38.500000 47 52 47 0
0.660000 9.460000 38.500000 50 54 50 0
0.880000 9.460000 38.280000 47 53 47 0
1.100000 9.460000 38.280000 50 56 50 0
1.320000 9.460000 38.280000 50 57 50 0
1.540000 9.460000 38.940000 52 58 52 0
1.760000 9.460000 40.700000 50 56 50 0
1.980000 9.460000 41.800000 49 55 49 0
2.200000 9.460000 35.200000 47 56 47 0
2.420000 9.460000 35.200000 49 56 49 0
2.640000 9.460000 41.800000 48 57 48 0
2.860000 9.460000 41.580000 47 58 47 0
3.080000 9.460000 34.320000 49 56 49 0
3.300000 9.460000 33.880000 41 43 41 0
3.520000 9.460000 33.660000 41 43 41 0
3.740000 9.460000 33.660000 38 42 38 0
3.960000 9.460000 33.440000 36 40 36 0
4.180000 9.460000 33.440000 32 36 32 0
4.400000 9.460000 33.440000 34 36 34 0
4.620000 9.460000 25.300000 32 35 32 0
4.840000 9.460000 25.520000 27 30 27 0
5.060000 9.460000 25.520000 38 42 38 0
5.280000 9.460000 26.180000 41 46 41 0
5.500000 9.460000 26.400000 43 48 43 0
5.720000 9.460000 26.620000 46 49 46 0
5.940000 9.460000 26.840000 45 48 45 0
6.160000 9.460000 26.840000 45 50 45 0
6.380000 9.460000 26.840000 47 52 47 0
6.600000 9.460000 27.060000 47 52 47 0
6.820000 9.460000 27.060000 48 54 48 0
7.040000 9.460000 27.060000 50 54 50 0
7.260000 9.460000 34.760000 49 54 49 0
7.480000 9.460000 34.760000 47 52 47 0
7.700000 9.460000 34.760000 49 53 49 0
7.920000 9.460000 34.760000 48 53 48 0
8.140000 9.460000 34.760000 48 52 48 0
8.360000 9.460000 34.540000 47 52 47 0
8.580000 9.460000 34.540000 47 52 47 0
8.800000 9.460000 34.540000 46 49 46 0
9.020000 9.460000 34.540000 46 50 46 0
9.240000 9.460000 34.540000 48 51 48 0
9.460000 9.460000 34.540000 47 50 47 0
9.680000 9.460000 34.540000 47 51 47 0
9.900000 9.460000 34.540000 47 52 47 0
10.120000 9.460000 34.540000 48 52 48 0
10.340000 9.460000 34.540000 47 52 47 0
10.560000 9.460000 34.540000 47 51 47 0
10.780000 9.460000 34.540000 47 52 47 0
11.000000 9.460000 34.540000 48 52 48 0
11.220000 9.460000 34.540000 47 52 47 0
11.440000 9.460000 34.540000 47 51 47 0
11.660000 9.460000 34.540000 47 51 47 0
11.880000 9.460000 34.320000 47 49 47 0
12.100000 9.460000 34.320000 46 50 46 0
12.320000 9.460000 34.320000 46 49 46 0
12.540000 9.460000 34.320000 48 51 48 0
12.760000 9.460000 34.540000 45 51 45 0
12.980000 9.460000 34.540000 46 52 46 0
13.200000 9.460000 34.540000 47 50 47 0
13.420000 9.460000 34.540000 47 51 47 0
13.640000 9.460000 34.540000 46 50 46 0
13.860000 9.460000 34.540000 47 51 47 0
14.080000 9.460000 34.540000 48 52 48 0
14.300000 9.460000 34.540000 49 53 49 0
14.520000 9.460000 34.540000 48 50 48 0
14.740000 9.460000 34.540000 50 52 50 0
14.960000 9.460000 34.760000 48 52 48 0
15.180000 9.460000 34.760000 48 51 48 0
15.400000 9.460000 34.760000 48 52 48 0
15.620000 9.460000 34.760000 49 54 49 0
15.840000 9.460000 34.760000 49 53 49 0
16.060000 9.460000 34.760000 48 50 48 0
16.280000 9.460000 34.980000 47 49 47 0
16.500000 9.460000 34.980000 49 55 49 0
16.720000 9.460000 34.980000 48 50 48 0
16.940000 9.460000 35.200000 47 51 47 0
17.160000 9.460000 35.420000 49 54 49 0
17.380000 9.460000 35.420000 46 52 46 0
17.600000 9.460000 35.640000 47 52 47 0
17.820000 9.460000 35.420000 47 52 47 0
18.040000 9.460000 34.540000 46 52 46 0
18.260000 9.460000 33.440000 48 52 48 0
18.480000 9.460000 31.680000 49 52 49 0
18.700000 9.460000 38.280000 49 53 49 0
18.920000 9.460000 38.060000 49 56 49 0
19.140000 9.460000 36.960000 49 54 49 0
19.360000 9.460000 43.560000 48 54 48 0
19.580000 9.460000 43.560000 50 55 50 0
19.800000 9.460000 36.740000 50 59 50 0
20.020000 9.460000 36.960000 50 59 50 0
20.240000 9.460000 43.560000 50 62 50 0
20.460000 9.460000 43.560000 48 59 48 0
20.680000 9.460000 38.060000 52 63 52 0
20.900000 9.460000 39.160000 38 46 38 0
21.120000 9.460000 25.080000 37 41 37 0
21.340000 9.460000 25.740000 36 40 36 0
21.560000 9.460000 33.880000 35 40 35 0
21.780000 9.460000 34.100000 38 45 38 0
22.000000 9.460000 34.100000 41 46 41 0
22.220000 9.460000 34.320000 42 50 42 0
22.440000 9.460000 34.320000 43 52 43 0
22.660000 9.460000 34.320000 45 48 45 0
22.880000 9.460000 34.540000 46 54 46 0
23.100000 9.460000 34.540000 44 49 44 0
23.320000 9.460000 34.540000 46 53 46 0
23.540000 9.460000 34.540000 45 50 45 0
23.760000 9.460000 34.760000 46 54 46 0
23.980000 9.460000 34.760000 45 51 45 0
24.200000 9.460000 34.760000 46 49 46 0
24.420000 9.460000 34.760000 49 54 49 0
24.640000 9.460000 34.980000 45 52 45 0
24.860000 9.460000 34.980000 48 54 48 0
25.080000 9.460000 34.980000 48 54 48 0
25.300000 9.460000 35.200000 47 54 47 0
25.520000 9.460000 35.200000 49 55 49 0
25.740000 9.460000 35.420000 48 52 48 0
25.960000 9.460000 35.640000 46 53 46 0
26.180000 9.460000 35.200000 48 54 48 0
26.400000 9.460000 41.580000 47 52 47 0
26.620000 9.460000 41.360000 48 57 48 0
26.840000 9.460000 40.480000 46 52 46 0
27.060000 9.460000 38.940000 46 53 46 0
27.280000 9.460000 38.280000 48 55 48 0
27.500000 9.460000 38.060000 49 54 49 0
27.720000 9.460000 37.180000 50 56 50 0
27.940000 9.460000 36.740000 46 51 46 0
28.160000 9.460000 36.960000 47 52 47 0
28.380000 9.460000 36.960000 45 51 45 0
28.600000 9.460000 37.180000 49 56 49 0
28.820000 9.460000 37.180000 47 54 47 0
29.040000 9.460000 37.180000 49 55 49 0
29.260000 9.460000 37.400000 49 54 49 0
29.480000 9.460000 37.400000 47 53 47 0
29.700000 9.460000 37.400000 50 56 50 0
29.920000 9.460000 37.400000 49 55 49 0
30.140000 9.460000 37.620000 50 55 50 0
30.360000 9.460000 37.620000 51 56 51 0
30.580000 9.460000 37.620000 50 56 50 0
30.800000 9.460000 37.620000 48 56 48 0
31.020000 9.460000 37.620000 50 57 50 0
31.240000 9.460000 30.140000 49 54 49 0
31.460000 9.460000 30.140000 51 57 51 0
31.680000 9.460000 22.220000 52 62 52 0
31.900000 9.460000 3.740000 52 77 52 0
32.120000 9.460000 4.180000 52 82 52 0
32.340000 9.460000 43.560000 52 82 52 0
32.560000 9.460000 43.560000 53 83 53 0
32.780000 9.460000 43.560000 51 83 51 0
33.000000 9.460000 43.560000 53 83 53 0
33.220000 9.460000 43.560000 52 87 52 0
33.440000 9.460000 43.560000 52 82 52 0
33.660000 9.460000 43.560000 52 83 52 0
33.880000 9.460000 43.560000 52 83 52 0
34.100000 9.460000 43.560000 53 83 53 0
34.320000 9.460000 43.560000 53 84 53 0
34.540000 9.460000 43.560000 54 84 54 0
34.760000 9.460000 43.560000 53 82 53 0
34.980000 9.460000 43.560000 58 77 58 0
35.200000 9.460000 43.560000 64 66 64 0
35.420000 9.460000 43.560000 64 65 64 0
35.640000 9.460000 43.560000 65 65 65 0
35.860000 9.460000 43.560000 64 64 64 0
36.080000 9.460000 3.080000 65 65 65 0
36.300000 9.460000 2.640000 65 65 65 0
36.520000 9.460000 2.420000 64 64 64 0
36.740000 9.460000 43.560000 64 64 64 0
36.960000 9.460000 43.560000 65 65 65 0
37.180000 9.460000 43.560000 65 65 65 0
0.000000 9.680000 43.560000 47 51 47 0
0.220000 9.680000 43.560000 50 55 50 0
0.440000 9.680000 36.740000 49 53 49 0
0.660000 9.680000 36.740000 48 53 48 0
0.880000 9.680000 36.520000 48 55 48 0
1.100000 9.680000 36.520000 49 54 49 0
1.320000 9.680000 36.300000 49 58 49 0
1.540000 9.680000 36.740000 49 56 49 0
1.760000 9.680000 37.620000 50 59 50 0
1.980000 9.680000 38.720000 49 55 49 0
2.200000 9.680000 40.480000 48 58 48 0
2.420000 9.680000 41.580000 48 59 48 0
2.640000 9.680000 41.580000 49 62 49 0
2.860000 9.680000 41.360000 46 54 46 0
3.080000 9.680000 33.880000 45 51 45 0
3.300000 9.680000 33.880000 43 47 43 0
3.520000 9.680000 33.660000 42 45 42 0
3.740000 9.680000 33.660000 37 41 37 0
3.960000 9.680000 33.660000 38 45 38 0
4.180000 9.680000 33.440000 38 41 38 0
4.400000 9.680000 25.520000 36 40 36 0
4.620000 9.680000 25.520000 38 43 38 0
4.840000 9.680000 25.300000 31 34 31 0
5.060000 9.680000 25.520000 37 39 37 0
5.280000 9.680000 25.740000 40 44 40 0
5.500000 9.680000 26.180000 43 46 43 0
5.720000 9.680000 26.400000 45 50 45 0
5.940000 9.680000 26.400000 46 51 46 0
6.160000 9.680000 26.620000 47 53 47 0
6.380000 9.680000 26.620000 49 52 49 0
6.600000 9.680000 26.840000 48 52 48 0
6.820000 9.680000 26.840000 46 53 46 0
7.040000 9.680000 26.840000 49 52 49 0
7.260000 9.680000 34.760000 49 55 49 0
7.480000 9.680000 34.760000 48 53 48 0
7.700000 9.680000 34.540000 49 57 49 0
7.920000 9.680000 34.540000 47 54 47 0
8.140000 9.680000 34.540000 48 53 48 0
8.360000 9.680000 34.320000 48 54 48 0
8.580000 9.680000 34.320000 48 53 48 0
8.800000 9.680000 34.320000 48 53 48 0
9.020000 9.680000 34.320000 48 51 48 0
9.240000 9.680000 34.320000 47 51 47 0
9.460000 9.680000 34.320000 49 52 49 0
9.680000 9.680000 34.320000 45 49 45 0
9.900000 9.680000 34.320000 46 50 46 0
10.120000 9.680000 34.320000 48 52 48 0
10.340000 9.680000 34.320000 45 50 45 0
10.560000 9.680000 34.320000 48 51 48 0
10.780000 9.680000 34.320000 47 51 47 0
11.000000 9.680000 34.320000 47 53 47 0
11.220000 9.680000 34.320000 46 51 46 0
11.440000 9.680000 34.320000 50 53 50 0
11.660000 9.680000 34.320000 46 54 46 0
11.880000 9.680000 34.320000 48 51 48 0
12.100000 9.680000 34.320000 44 47 44 0
12.320000 9.680000 34.320000 46 49 46 0
12.540000 9.680000 34.320000 49 52 49 0
12.760000 9.680000 34.320000 47 50 47 0
12.980000 9.680000 34.320000 48 51 48 0
13.200000 9.680000 34.320000 46 52 46 0
13.420000 9.680000 34.320000 45 48 45 0
13.640000 9.680000 34.320000 47 51 47 0
13.860000 9.680000 34.320000 46 50 46 0
14.080000 9.680000 34.540000 46 50 46 0
14.300000 9.680000 34.540000 46 49 46 0
14.520000 9.680000 34.540000 47 50 47 0
14.740000 9.680000 34.540000 48 50 48 0
14.960000 9.680000 34.540000 48 51 48 0
15.180000 9.680000 34.540000 47 50 47 0
15.400000 9.680000 34.540000 47 50 47 0
15.620000 9.680000 34.540000 48 50 48 0
15.840000 9.680000 34.540000 47 50 47 0
16.060000 9.680000 34.760000 49 56 49 0
16.280000 9.680000 34.760000 50 53 50 0
16.500000 9.680000 34.760000 47 49 47 0
16.720000 9.680000 34.980000 47 50 47 0
16.940000 9.680000 35.200000 46 50 46 0
17.160000 9.680000 35.200000 47 53 47 0
17.380000 9.680000 34.980000 48 52 48 0
17.600000 9.680000 34.320000 47 52 47 0
17.820000 9.680000 33.000000 49 52 49 0
18.040000 9.680000 31.240000 48 53 48 0
18.260000 9.680000 30.140000 48 57 48 0
18.480000 9.680000 36.740000 51 55 51 0
18.700000 9.680000 36.300000 49 54 49 0
18.920000 9.680000 36.520000 48 55 48 0
19.140000 9.680000 43.560000 51 58 51 0
19.360000 9.680000 43.560000 50 56 50 0
19.580000 9.680000 36.740000 48 55 48 0
19.800000 9.680000 36.740000 50 59 50 0
20.020000 9.680000 43.560000 49 61 49 0
20.240000 9.680000 43.560000 51 63 51 0
20.460000 9.680000 37.620000 52 63 52 0
20.680000 9.680000 38.280000 40 49 40 0
20.900000 9.680000 32.120000 35 37 35 0
21.120000 9.680000 25.080000 35 38 35 0
21.340000 9.680000 25.740000 39 44 39 0
21.560000 9.680000 33.880000 37 41 37 0
21.780000 9.680000 33.880000 42 49 42 0
22.000000 9.680000 34.100000 38 42 38 0
22.220000 9.680000 34.100000 45 49 45 0
22.440000 9.680000 34.100000 43 48 43 0
22.660000 9.680000 34.320000 45 50 45 0
22.880000 9.680000 34.320000 43 50 43 0
23.100000 9.680000 34.320000 48 51 48 0
23.320000 9.680000 34.320000 47 52 47 0
23.540000 9.680000 34.540000 47 56 47 0
23.760000 9.680000 34.540000 43 51 43 0
23.980000 9.680000 34.540000 44 52 44 0
24.200000 9.680000 34.540000 45 51 45 0
24.420000 9.680000 34.760000 45 52 45 0
24.640000 9.680000 34.760000 47 50 47 0
24.860000 9.680000 34.980000 47 53 47 0
25.080000 9.680000 34.980000 46 52 46 0
25.300000 9.680000 35.200000 45 52 45 0
25.520000 9.680000 35.420000 47 54 47 0
25.740000 9.680000 34.980000 46 53 46 0
25.960000 9.680000 34.100000 49 54 49 0
26.180000 9.680000 40.260000 47 51 47 0
26.400000 9.680000 38.720000 49 54 49 0
26.620000 9.680000 37.840000 48 56 48 0
26.840000 9.680000 37.620000 47 55 47 0
27.060000 9.680000 36.740000 46 54 46 0
27.280000 9.680000 36.520000 49 54 49 0
27.500000 9.680000 36.520000 49 55 49 0
27.720000 9.680000 36.740000 46 53 46 0
27.940000 9.680000 36.740000 49 55 49 0
28.160000 9.680000 36.740000 48 53 48 0
28.380000 9.680000 36.960000 48 55 48 0
28.600000 9.680000 36.960000 50 56 50 0
28.820000 9.680000 37.180000 45 51 45 0
29.040000 9.680000 37.180000 47 54 47 0
29.260000 9.680000 37.180000 49 55 49 0
29.480000 9.680000 37.180000 48 54 48 0
29.700000 9.680000 37.400000 49 57 49 0
29.920000 9.680000 37.400000 47 53 47 0
30.140000 9.680000 37.400000 50 54 50 0
30.360000 9.680000 37.400000 46 54 46 0
30.580000 9.680000 37.400000 49 53 49 0
30.800000 9.680000 37.620000 50 56 50 0
31.020000 9.680000 37.620000 51 57 51 0
31.240000 9.680000 37.620000 49 55 49 0
31.460000 9.680000 29.920000 49 55 49 0
31.680000 9.680000 29.920000 54 59 54 0
31.900000 9.680000 22.000000 55 66 55 0
32.120000 9.680000 3.520000 53 78 53 0
32.340000 9.680000 43.560000 51 80 51 0
32.560000 9.680000 43.560000 51 81 51 0
32.780000 9.680000 43.560000 51 81 51 0
33.000000 9.680000 43.560000 52 82 52 0
33.220000 9.680000 43.560000 52 81 52 0
33.440000 9.680000 43.560000 52 82 52 0
33.660000 9.680000 43.560000 51 81 51 0
33.880000 9.680000 43.560000 52 82 52 0
34.100000 9.680000 43.560000 54 83 54 0
34.320000 9.680000 43.560000 51 81 51 0
34.540000 9.680000 43.560000 53 82 53 0
34.760000 9.680000 43.560000 53 81 53 0
34.980000 9.680000 43.560000 53 80 53 0
35.200000 9.680000 43.560000 59 76 59 0
35.420000 9.680000 43.560000 64 66 64 0
35.640000 9.680000 43.560000 65 65 65 0
35.860000 9.680000 43.560000 64 64 64 0
36.080000 9.680000 43.560000 64 64 64 0
36.300000 9.680000 43.560000 65 65 65 0
36.520000 9.680000 43.560000 64 64 64 0
36.740000 9.680000 43.560000 65 65 65 0
36.960000 9.680000 43.560000 65 65 65 0
37.180000 9.680000 43.560000 65 65 65 0
0.000000 9.900000 43.560000 49 54 49 0
0.220000 9.900000 36.520000 49 55 49 0
0.440000 9.900000 36.520000 47 51 47 0
0.660000 9.900000 36.520000 48 54 48 0
0.880000 9.900000 36.520000 48 58 48 0
1.100000 9.900000 36.300000 50 59 50 0
1.320000 9.900000 36.300000 49 53 49 0
1.540000 9.900000 36.300000 48 55 48 0
1.760000 9.900000 36.080000 49 58 49 0
1.980000 9.900000 36.960000 51 57 51 0
2.200000 9.900000 38.940000 50 61 50 0
2.420000 9.900000 40.920000 48 57 48 0
2.640000 9.900000 41.140000 47 55 47 0
2.860000 9.900000 41.140000 49 53 49 0
3.080000 9.900000 33.660000 41 49 41 0
3.300000 9.900000 33.660000 42 43 42 0
3.520000 9.900000 33.660000 36 40 36 0
3.740000 9.900000 33.660000 38 43 38 0
3.960000 9.900000 33.440000 40 44 40 0
4.180000 9.900000 33.440000 35 39 35 0
4.400000 9.900000 25.520000 38 44 38 0
4.620000 9.900000 25.300000 34 36 34 0
4.840000 9.900000 25.300000 36 39 36 0
5.060000 9.900000 25.300000 33 36 33 0
5.280000 9.900000 25.520000 38 41 38 0
5.500000 9.900000 25.740000 42 46 42 0
5.720000 9.900000 25.960000 44 48 44 0
5.940000 9.900000 26.180000 44 49 44 0
6.160000 9.900000 26.180000 44 49 44 0
6.380000 9.900000 26.400000 47 52 47 0
6.600000 9.900000 26.620000 48 50 48 0
6.820000 9.900000 26.620000 48 53 48 0
7.040000 9.900000 26.840000 48 53 48 0
7.260000 9.900000 26.840000 49 55 49 0
7.480000 9.900000 34.540000 47 53 47 0
7.700000 9.900000 34.540000 49 56 49 0
7.920000 9.900000 34.540000 49 54 49 0
8.140000 9.900000 34.320000 48 52 48 0
8.360000 9.900000 34.320000 49 52 49 0
8.580000 9.900000 34.320000 47 53 47 0
8.800000 9.900000 34.320000 48 53 48 0
9.020000 9.900000 34.100000 51 54 51 0
9.240000 9.900000 34.100000 48 51 48 0
9.460000 9.900000 34.100000 48 51 48 0
9.680000 9.900000 34.100000 46 51 46 0
9.900000 9.900000 34.100000 49 52 49 0
10.120000 9.900000 34.100000 50 54 50 0
10.340000 9.900000 34.100000 49 52 49 0
10.560000 9.900000 34.100000 46 49 46 0
10.780000 9.900000 34.100000 47 51 47 0
11.000000 9.900000 34.100000 48 51 48 0
11.220000 9.900000 34.100000 48 52 48 0
11.440000 9.900000 34.100000 51 53 51 0
11.660000 9.900000 34.100000 51 54 51 0
11.880000 9.900000 34.100000 47 53 47 0
12.100000 9.900000 34.100000 46 49 46 0
12.320000 9.900000 34.100000 48 53 48 0
12.540000 9.900000 34.100000 44 50 44 0
12.760000 9.900000 34.100000 46 50 46 0
12.980000 9.900000 34.100000 47 52 47 0
13.200000 9.900000 34.100000 45 49 45 0
13.420000 9.900000 34.320000 46 50 46 0
13.640000 9.900000 34.320000 48 52 48 0
13.860000 9.900000 34.320000 47 51 47 0
14.080000 9.900000 34.320000 46 52 46 0
14.300000 9.900000 34.320000 49 53 49 0
14.520000 9.900000 34.320000 48 51 48 0
14.740000 9.900000 34.320000 45 50 45 0
14.960000 9.900000 34.320000 48 52 48 0
15.180000 9.900000 34.320000 47 50 47 0
15.400000 9.900000 34.320000 48 51 48 0
15.620000 9.900000 34.320000 48 52 48 0
15.840000 9.900000 34.540000 48 52 48 0
16.060000 9.900000 34.540000 46 52 46 0
16.280000 9.900000 34.760000 47 51 47 0
16.500000 9.900000 34.760000 46 50 46 0
16.720000 9.900000 34.540000 46 50 46 0
16.940000 9.900000 33.660000 47 51 47 0
17.160000 9.900000 33.440000 48 51 48 0
17.380000 9.900000 32.560000 47 55 47 0
17.600000 9.900000 31.020000 51 57 51 0
17.820000 9.900000 29.700000 47 51 47 0
18.040000 9.900000 28.820000 47 53 47 0
18.260000 9.900000 36.080000 47 54 47 0
18.480000 9.900000 36.300000 50 54 50 0
18.700000 9.900000 36.300000 49 54 49 0
18.920000 9.900000 43.560000 48 56 48 0
19.140000 9.900000 43.560000 49 58 49 0
19.360000 9.900000 36.520000 50 57 50 0
19.580000 9.900000 36.520000 47 58 47 0
19.800000 9.900000 36.740000 51 59 51 0
20.020000 9.900000 43.560000 51 63 51 0
20.240000 9.900000 43.560000 50 61 50 0
20.460000 9.900000 37.620000 45 57 45 0
20.680000 9.900000 31.020000 32 35 32 0
20.900000 9.900000 32.120000 37 43 37 0
21.120000 9.900000 25.080000 35 42 35 0
21.340000 9.900000 33.660000 41 49 41 0
21.560000 9.900000 33.660000 41 50 41 0
21.780000 9.900000 33.880000 44 51 44 0
22.000000 9.900000 33.880000 42 46 42 0
22.220000 9.900000 33.880000 41 45 41 0
22.440000 9.900000 33.880000 44 50 44 0
22.660000 9.900000 34.100000 46 50 46 0
22.880000 9.900000 34.100000 44 51 44 0
23.100000 9.900000 34.100000 46 51 46 0
23.320000 9.900000 34.100000 47 55 47 0
23.540000 9.900000 34.320000 44 50 44 0
23.760000 9.900000 34.320000 46 52 46 0
23.980000 9.900000 34.320000 44 48 44 0
24.200000 9.900000 34.540000 46 53 46 0
24.420000 9.900000 34.540000 47 53 47 0
24.640000 9.900000 34.760000 47 53 47 0
24.860000 9.900000 34.980000 49 57 49 0
25.080000 9.900000 34.540000 47 54 47 0
25.300000 9.900000 33.880000 45 50 45 0
25.520000 9.900000 40.700000 49 53 49 0
25.740000 9.900000 40.040000 48 54 48 0
25.960000 9.900000 38.500000 48 55 48 0
26.180000 9.900000 37.180000 47 55 47 0
26.400000 9.900000 36.520000 47 50 47 0
26.620000 9.900000 36.080000 48 55 48 0
26.840000 9.900000 36.300000 47 54 47 0
27.060000 9.900000 36.300000 46 51 46 0
27.280000 9.900000 36.300000 51 57 51 0
27.500000 9.900000 36.520000 48 57 48 0
27.720000 9.900000 36.740000 48 54 48 0
27.940000 9.900000 36.740000 48 54 48 0
28.160000 9.900000 36.740000 47 54 47 0
28.380000 9.900000 36.740000 49 58 49 0
28.600000 9.900000 36.960000 49 58 49 0
28.820000 9.900000 36.960000 48 54 48 0
29.040000 9.900000 36.960000 49 56 49 0
29.260000 9.900000 37.180000 49 57 49 0
29.480000 9.900000 37.180000 49 56 49 0
29.700000 9.900000 37.180000 47 54 47 0
29.920000 9.900000 37.180000 49 56 49 0
30.140000 9.900000 37.180000 49 55 49 0
30.360000 9.900000 37.180000 48 53 48 0
30.580000 9.900000 37.400000 46 52 46 0
30.800000 9.900000 37.400000 46 52 46 0
31.020000 9.900000 37.400000 47 51 47 0
31.240000 9.900000 37.400000 48 53 48 0
31.460000 9.900000 37.400000 51 57 51 0
31.680000 9.900000 29.700000 52 58 52 0
31.900000 9.900000 29.920000 53 58 53 0
32.120000 9.900000 12.760000 56 69 56 0
32.340000 9.900000 3.300000 52 77 52 0
32.560000 9.900000 43.560000 51 79 51 0
32.780000 9.900000 43.560000 51 78 51 0
33.000000 9.900000 43.560000 53 79 53 0
33.220000 9.900000 43.560000 52 79 52 0
33.440000 9.900000 43.560000 53 80 53 0
33.660000 9.900000 43.560000 52 79 52 0
33.880000 9.900000 43.560000 52 79 52 0
34.100000 9.900000 43.560000 52 79 52 0
34.320000 9.900000 43.560000 52 80 52 0
34.540000 9.900000 43.560000 53 81 53 0
34.760000 9.900000 43.560000 51 79 51 0
34.980000 9.900000 43.560000 52 79 52 0
35.200000 9.900000 43.560000 55 80 55 0
35.420000 9.900000 43.560000 57 73 57 0
35.640000 9.900000 43.560000 63 66 63 0
35.860000 9.900000 43.560000 64 64 64 0
36.080000 9.900000 43.560000 64 64 64 0
36.300000 9.900000 43.560000 65 65 65 0
36.520000 9.900000 43.560000 65 65 65 0
36.740000 9.900000 43.560000 64 64 64 0
36.960000 9.900000 43.560000 65 65 65 0
37.180000 9.900000 43.560000 65 65 65 0
0.000000 10.120000 36.520000 47 55 47 0
0.220000 10.120000 36.520000 48 56 48 0
0.440000 10.120000 36.520000 46 54 46 0
0.660000 10.120000 36.520000 51 55 51 0
0.880000 10.120000 36.300000 49 55 49 0
1.100000 10.120000 36.300000 50 60 50 0
1.320000 10.120000 36.080000 48 57 48 0
1.540000 10.120000 36.080000 46 56 46 0
1.760000 10.120000 36.080000 49 57 49 0
1.980000 10.120000 37.180000 49 61 49 0
2.200000 10.120000 39.380000 46 56 46 0
2.420000 10.120000 40.920000 50 63 50 0
2.640000 10.120000 40.920000 50 58 50 0
2.860000 10.120000 40.920000 45 51 45 0
3.080000 10.120000 33.440000 40 44 40 0
3.300000 10.120000 33.440000 44 48 44 0
3.520000 10.120000 33.440000 41 46 41 0
3.740000 10.120000 33.440000 39 43 39 0
3.960000 10.120000 33.440000 41 47 41 0
4.180000 10.120000 33.440000 40 46 40 0
4.400000 10.120000 25.300000 39 43 39 0
4.620000 10.120000 25.080000 38 41 38 0
4.840000 10.120000 25.080000 35 39 35 0
5.060000 10.120000 25.080000 33 37 33 0
5.280000 10.120000 25.300000 37 42 37 0
5.500000 10.120000 25.520000 46 49 46 0
5.720000 10.120000 25.740000 43 46 43 0
5.940000 10.120000 25.960000 46 50 46 0
6.160000 10.120000 25.960000 46 49 46 0
6.380000 10.120000 26.180000 49 53 49 0
6.600000 10.120000 26.400000 46 51 46 0
6.820000 10.120000 26.620000 47 51 47 0
7.040000 10.120000 26.620000 49 53 49 0
7.260000 10.120000 26.840000 50 54 50 0
7.480000 10.120000 34.540000 48 51 48 0
7.700000 10.120000 34.540000 47 52 47 0
7.920000 10.120000 34.540000 48 53 48 0
8.140000 10.120000 34.320000 49 54 49 0
8.360000 10.120000 34.320000 49 54 49 0
8.580000 10.120000 34.320000 47 52 47 0
8.800000 10.120000 34.100000 50 55 50 0
9.020000 10.120000 34.100000 46 50 46 0
9.240000 10.120000 34.100000 48 50 48 0
9.460000 10.120000 34.100000 49 52 49 0
9.680000 10.120000 34.100000 46 50 46 0
9.900000 10.120000 34.100000 47 51 47 0
10.120000 10.120000 34.100000 48 51 48 0
10.340000 10.120000 34.100000 46 53 46 0
10.560000 10.120000 34.100000 45 48 45 0
10.780000 10.120000 34.100000 47 51 47 0
11.000000 10.120000 34.100000 47 51 47 0
11.220000 10.120000 34.100000 46 50 46 0
11.440000 10.120000 34.100000 46 50 46 0
11.660000 10.120000 34.100000 47 50 47 0
11.880000 10.120000 33.880000 46 48 46 0
12.100000 10.120000 33.880000 47 51 47 0
12.320000 10.120000 33.880000 49 54 49 0
12.540000 10.120000 34.100000 48 52 48 0
12.760000 10.120000 34.100000 47 50 47 0
12.980000 10.120000 34.100000 46 53 46 0
13.200000 10.120000 34.100000 47 52 47 0
13.420000 10.120000 34.100000 46 51 46 0
13.640000 10.120000 34.320000 45 50 45 0
13.860000 10.120000 34.320000 48 51 48 0
14.080000 10.120000 34.320000 47 52 47 0
14.300000 10.120000 34.320000 47 51 47 0
14.520000 10.120000 34.320000 48 52 48 0
14.740000 10.120000 34.320000 47 52 47 0
14.960000 10.120000 34.320000 47 51 47 0
15.180000 10.120000 34.320000 48 50 48 0
15.400000 10.120000 34.320000 46 50 46 0
15.620000 10.120000 34.320000 49 54 49 0
15.840000 10.120000 34.540000 45 48 45 0
16.060000 10.120000 34.100000 47 51 47 0
16.280000 10.120000 33.440000 46 49 46 0
16.500000 10.120000 33.000000 48 52 48 0
16.720000 10.120000 32.120000 45 49 45 0
16.940000 10.120000 38.060000 49 54 49 0
17.160000 10.120000 29.700000 46 51 46 0
17.380000 10.120000 29.260000 49 53 49 0
17.600000 10.120000 28.380000 48 55 48 0
17.820000 10.120000 27.940000 46 51 46 0
18.040000 10.120000 35.860000 49 56 49 0
18.260000 10.120000 36.080000 47 51 47 0
18.480000 10.120000 36.080000 48 54 48 0
18.700000 10.120000 36.300000 49 56 49 0
18.920000 10.120000 36.300000 49 58 49 0
19.140000 10.120000 36.300000 48 55 48 0
19.360000 10.120000 36.300000 50 57 50 0
19.580000 10.120000 36.520000 50 60 50 0
19.800000 10.120000 43.560000 50 59 50 0
20.020000 10.120000 43.560000 49 59 49 0
20.240000 10.120000 37.180000 49 62 49 0
20.460000 10.120000 37.840000 36 39 36 0
20.680000 10.120000 31.460000 32 35 32 0
20.900000 10.120000 24.420000 38 42 38 0
21.120000 10.120000 33.220000 37 46 37 0
21.340000 10.120000 33.440000 38 46 38 0
21.560000 10.120000 40.920000 38 44 38 0
21.780000 10.120000 33.660000 38 47 38 0
22.000000 10.120000 33.660000 40 47 40 0
22.220000 10.120000 33.660000 45 51 45 0
22.440000 10.120000 33.880000 46 50 46 0
22.660000 10.120000 33.880000 47 54 47 0
22.880000 10.120000 33.880000 46 53 46 0
23.100000 10.120000 34.100000 43 49 43 0
23.320000 10.120000 34.100000 46 51 46 0
23.540000 10.120000 34.100000 47 55 47 0
23.760000 10.120000 34.320000 47 53 47 0
23.980000 10.120000 34.540000 48 52 48 0
24.200000 10.120000 34.100000 46 52 46 0
24.420000 10.120000 33.220000 49 54 49 0
24.640000 10.120000 40.260000 45 50 45 0
24.860000 10.120000 40.480000 45 51 45 0
25.080000 10.120000 39.600000 46 52 46 0
25.300000 10.120000 38.060000 44 53 44 0
25.520000 10.120000 37.180000 47 52 47 0
25.740000 10.120000 36.960000 47 52 47 0
25.960000 10.120000 36.080000 46 54 46 0
26.180000 10.120000 35.860000 46 54 46 0
26.400000 10.120000 35.860000 47 55 47 0
26.620000 10.120000 36.080000 47 55 47 0
26.840000 10.120000 36.080000 47 52 47 0
27.060000 10.120000 36.300000 48 54 48 0
27.280000 10.120000 36.300000 47 53 47 0
27.500000 10.120000 36.520000 46 56 46 0
27.720000 10.120000 36.520000 46 51 46 0
27.940000 10.120000 36.520000 48 57 48 0
28.160000 10.120000 36.740000 47 52 47 0
28.380000 10.120000 36.740000 47 54 47 0
28.600000 10.120000 36.740000 49 56 49 0
28.820000 10.120000 36.740000 49 57 49 0
29.040000 10.120000 36.740000 48 53 48 0
29.260000 10.120000 36.960000 47 54 47 0
29.480000 10.120000 36.960000 47 53 47 0
29.700000 10.120000 36.960000 49 59 49 0
29.920000 10.120000 36.960000 48 56 48 0
30.140000 10.120000 36.960000 49 55 49 0
30.360000 10.120000 37.180000 47 55 47 0
30.580000 10.120000 37.180000 50 59 50 0
30.800000 10.120000 37.180000 48 54 48 0
31.020000 10.120000 37.180000 48 55 48 0
31.240000 10.120000 37.180000 51 57 51 0
31.460000 10.120000 37.180000 49 56 49 0
31.680000 10.120000 37.180000 50 55 50 0
31.900000 10.120000 29.480000 51 58 51 0
32.120000 10.120000 21.340000 52 58 52 0
32.340000 10.120000 12.540000 55 68 55 0
32.560000 10.120000 3.080000 52 76 52 0
32.780000 10.120000 43.560000 53 78 53 0
33.000000 10.120000 43.560000 52 77 52 0
33.220000 10.120000 43.560000 53 77 53 0
33.440000 10.120000 43.560000 52 77 52 0
33.660000 10.120000 43.560000 53 79 53 0
33.880000 10.120000 43.560000 52 77 52 0
34.100000 10.120000 43.560000 53 80 53 0
34.320000 10.120000 43.560000 52 78 52 0
34.540000 10.120000 43.560000 52 78 52 0
34.760000 10.120000 43.560000 53 78 53 0
34.980000 10.120000 43.560000 53 80 53 0
35.200000 10.120000 43.560000 53 78 53 0
35.420000 10.120000 43.560000 53 77 53 0
35.640000 10.120000 43.560000 59 74 59 0
35.860000 10.120000 43.560000 64 66 64 0
36.080000 10.120000 43.560000 65 65 65 0
36.300000 10.120000 43.560000 65 65 65 0
36.520000 10.120000 43.560000 65 65 65 0
36.740000 10.120000 43.560000 64 64 64 0
36.960000 10.120000 43.560000 65 65 65 0
37.180000 10.120000 43.560000 65 65 65 0
0.000000 10.340000 36.300000 48 55 48 0
0.220000 10.340000 36.300000 51 57 51 0
0.440000 10.340000 36.300000 48 55 48 0
0.660000 10.340000 36.300000 47 55 47 0
0.880000 10.340000 36.300000 49 54 49 0
1.100000 10.340000 36.080000 48 54 48 0
1.320000 10.340000 36.080000 48 56 48 0
1.540000 10.340000 36.080000 47 55 47 0
1.760000 10.340000 36.300000 48 59 48 0
1.980000 10.340000 38.060000 50 59 50 0
2.200000 10.340000 40.260000 43 53 43 0
2.420000 10.340000 40.920000 46 57 46 0
2.640000 10.340000 40.700000 46 57 46 0
2.860000 10.340000 40.700000 44 48 44 0
3.080000 10.340000 33.440000 44 48 44 0
3.300000 10.340000 33.440000 45 49 45 0
3.520000 10.340000 33.440000 41 44 41 0
3.740000 10.340000 33.220000 41 46 41 0
3.960000 10.340000 33.220000 37 43 37 0
4.180000 10.340000 33.220000 39 44 39 0
4.400000 10.340000 33.220000 38 43 38 0
4.620000 10.340000 24.860000 37 43 37 0
4.840000 10.340000 24.860000 35 39 35 0
5.060000 10.340000 24.860000 34 38 34 0
5.280000 10.340000 25.080000 35 38 35 0
5.500000 10.340000 25.300000 43 45 43 0
5.720000 10.340000 25.520000 46 52 46 0
5.940000 10.340000 25.740000 46 50 46 0
6.160000 10.340000 25.960000 45 49 45 0
6.380000 10.340000 26.180000 46 49 46 0
6.600000 10.340000 25.740000 47 52 47 0
6.820000 10.340000 24.860000 46 50 46 0
7.040000 10.340000 24.640000 48 50 48 0
7.260000 10.340000 32.780000 49 52 49 0
7.480000 10.340000 32.780000 47 52 47 0
7.700000 10.340000 32.780000 47 51 47 0
7.920000 10.340000 32.780000 50 54 50 0
8.140000 10.340000 32.560000 48 53 48 0
8.360000 10.340000 32.560000 48 53 48 0
8.580000 10.340000 32.340000 48 53 48 0
8.800000 10.340000 32.780000 49 53 49 0
9.020000 10.340000 33.660000 48 51 48 0
9.240000 10.340000 34.320000 50 57 50 0
9.460000 10.340000 34.320000 49 52 49 0
9.680000 10.340000 34.100000 47 52 47 0
9.900000 10.340000 34.100000 47 52 47 0
10.120000 10.340000 34.100000 47 50 47 0
10.340000 10.340000 34.100000 49 54 49 0
10.560000 10.340000 34.100000 48 53 48 0
10.780000 10.340000 34.100000 47 52 47 0
11.000000 10.340000 34.100000 48 51 48 0
11.220000 10.340000 34.100000 47 50 47 0
11.440000 10.340000 34.100000 49 52 49 0
11.660000 10.340000 34.100000 49 53 49 0
11.880000 10.340000 33.880000 47 50 47 0
12.100000 10.340000 33.880000 48 52 48 0
12.320000 10.340000 34.100000 47 51 47 0
12.540000 10.340000 34.100000 45 50 45 0
12.760000 10.340000 34.100000 45 50 45 0
12.980000 10.340000 40.920000 48 53 48 0
13.200000 10.340000 40.260000 49 54 49 0
13.420000 10.340000 39.820000 46 50 46 0
13.640000 10.340000 39.820000 47 53 47 0
13.860000 10.340000 40.040000 48 53 48 0
14.080000 10.340000 40.040000 48 53 48 0
14.300000 10.340000 40.040000 46 50 46 0
14.520000 10.340000 40.040000 47 52 47 0
14.740000 10.340000 40.040000 45 49 45 0
14.960000 10.340000 39.820000 49 53 49 0
15.180000 10.340000 40.040000 47 52 47 0
15.400000 10.340000 40.040000 48 52 48 0
15.620000 10.340000 40.040000 45 49 45 0
15.840000 10.340000 40.260000 47 51 47 0
16.060000 10.340000 39.380000 46 51 46 0
16.280000 10.340000 37.620000 44 50 44 0
16.500000 10.340000 36.960000 47 52 47 0
16.720000 10.340000 36.740000 49 54 49 0
16.940000 10.340000 35.860000 46 51 46 0
17.160000 10.340000 35.420000 47 52 47 0
17.380000 10.340000 27.720000 48 53 48 0
17.600000 10.340000 35.640000 47 54 47 0
17.820000 10.340000 35.860000 48 56 48 0
18.040000 10.340000 35.860000 47 54 47 0
18.260000 10.340000 35.860000 48 54 48 0
18.480000 10.340000 36.080000 48 56 48 0
18.700000 10.340000 36.080000 50 58 50 0
18.920000 10.340000 36.080000 47 56 47 0
19.140000 10.340000 36.300000 49 56 49 0
19.360000 10.340000 36.300000 48 61 48 0
19.580000 10.340000 43.340000 50 60 50 0
19.800000 10.340000 43.560000 48 62 48 0
20.020000 10.340000 36.740000 46 59 46 0
20.240000 10.340000 37.180000 39 47 39 0
20.460000 10.340000 30.580000 34 40 34 0
20.680000 10.340000 23.540000 33 38 33 0
20.900000 10.340000 24.420000 37 40 37 0
21.120000 10.340000 33.000000 40 44 40 0
21.340000 10.340000 33.220000 40 47 40 0
21.560000 10.340000 40.700000 42 49 42 0
21.780000 10.340000 33.440000 42 46 42 0
22.000000 10.340000 33.440000 43 49 43 0
22.220000 10.340000 33.660000 45 50 45 0
22.440000 10.340000 33.660000 44 53 44 0
22.660000 10.340000 33.880000 46 53 46 0
22.880000 10.340000 33.880000 45 53 45 0
23.100000 10.340000 33.880000 47 51 47 0
23.320000 10.340000 34.100000 45 53 45 0
23.540000 10.340000 33.660000 43 51 43 0
23.760000 10.340000 33.000000 46 52 46 0
23.980000 10.340000 32.560000 45 52 45 0
24.200000 10.340000 39.160000 46 52 46 0
24.420000 10.340000 37.620000 45 57 45 0
24.640000 10.340000 36.740000 48 51 48 0
24.860000 10.340000 36.960000 47 52 47 0
25.080000 10.340000 36.520000 48 56 48 0
25.300000 10.340000 35.860000 47 54 47 0
25.520000 10.340000 35.420000 47 57 47 0
25.740000 10.340000 35.640000 47 56 47 0
25.960000 10.340000 35.640000 49 55 49 0
26.180000 10.340000 35.860000 49 54 49 0
26.400000 10.340000 35.860000 51 56 51 0
26.620000 10.340000 36.080000 49 53 49 0
26.840000 10.340000 36.080000 46 54 46 0
27.060000 10.340000 36.080000 47 53 47 0
27.280000 10.340000 36.300000 46 52 46 0
27.500000 10.340000 36.300000 48 57 48 0
27.720000 10.340000 36.300000 46 53 46 0
27.940000 10.340000 36.300000 48 56 48 0
28.160000 10.340000 36.520000 47 55 47 0
28.380000 10.340000 36.520000 47 55 47 0
28.600000 10.340000 36.520000 46 52 46 0
28.820000 10.340000 36.520000 49 55 49 0
29.040000 10.340000 36.520000 50 58 50 0
29.260000 10.340000 36.740000 48 56 48 0
29.480000 10.340000 36.740000 47 54 47 0
29.700000 10.340000 36.740000 49 58 49 0
29.920000 10.340000 36.740000 48 57 48 0
30.140000 10.340000 36.740000 49 56 49 0
30.360000 10.340000 36.960000 50 58 50 0
30.580000 10.340000 36.960000 49 56 49 0
30.800000 10.340000 36.960000 46 53 46 0
31.020000 10.340000 36.960000 49 59 49 0
31.240000 10.340000 36.960000 48 55 48 0
31.460000 10.340000 36.960000 51 59 51 0
31.680000 10.340000 36.960000 49 56 49 0
31.900000 10.340000 36.960000 50 57 50 0
32.120000 10.340000 29.260000 49 57 49 0
32.340000 10.340000 21.120000 56 62 56 0
32.560000 10.340000 12.540000 56 73 56 0
32.780000 10.340000 3.300000 53 75 53 0
33.000000 10.340000 43.560000 51 75 51 0
33.220000 10.340000 43.560000 54 78 54 0
33.440000 10.340000 43.560000 51 75 51 0
33.660000 10.340000 43.560000 52 76 52 0
33.880000 10.340000 43.560000 52 79 52 0
34.100000 10.340000 43.560000 50 74 50 0
34.320000 10.340000 43.560000 52 77 52 0
34.540000 10.340000 43.560000 52 76 52 0
34.760000 10.340000 43.560000 52 76 52 0
34.980000 10.340000 43.560000 53 77 53 0
35.200000 10.340000 43.560000 54 77 54 0
35.420000 10.340000 43.560000 54 77 54 0
35.640000 10.340000 43.560000 54 76 54 0
35.860000 10.340000 43.560000 59 72 59 0
36.080000 10.340000 43.560000 65 66 65 0
36.300000 10.340000 43.560000 64 64 64 0
36.520000 10.340000 43.560000 65 65 65 0
36.740000 10.340000 43.560000 65 65 65 0
36.960000 10.340000 43.560000 65 65 65 0
37.180000 10.340000 43.560000 64 64 64 0
0.000000 10.560000 36.080000 47 56 47 0
0.220000 10.560000 36.080000 49 53 49 0
0.440000 10.560000 36.080000 48 55 48 0
0.660000 10.560000 36.080000 49 55 49 0
0.880000 10.560000 36.080000 48 57 48 0
1.100000 10.560000 35.860000 48 55 48 0
1.320000 10.560000 35.860000 48 57 48 0
1.540000 10.560000 35.860000 50 60 50 0
1.760000 10.560000 36.300000 49 62 49 0
1.980000 10.560000 38.060000 47 56 47 0
2.200000 10.560000 39.600000 49 57 49 0
2.420000 10.560000 40.260000 50 57 50 0
2.640000 10.560000 40.480000 46 52 46 0
2.860000 10.560000 40.700000 42 48 42 0
3.080000 10.560000 33.220000 41 45 41 0
3.300000 10.560000 33.440000 43 49 43 0
3.520000 10.560000 33.220000 41 49 41 0
3.740000 10.560000 33.220000 41 48 41 0
3.960000 10.560000 33.220000 38 45 38 0
4.180000 10.560000 33.220000 44 48 44 0
4.400000 10.560000 33.000000 41 45 41 0
4.620000 10.560000 33.000000 41 46 41 0
4.840000 10.560000 32.780000 36 40 36 0
5.060000 10.560000 32.780000 35 39 35 0
5.280000 10.560000 24.860000 37 43 37 0
5.500000 10.560000 24.860000 45 49 45 0
5.720000 10.560000 25.080000 43 49 43 0
5.940000 10.560000 25.520000 44 48 44 0
6.160000 10.560000 25.300000 46 51 46 0
6.380000 10.560000 24.640000 48 51 48 0
6.600000 10.560000 31.240000 49 53 49 0
6.820000 10.560000 29.480000 47 54 47 0
7.040000 10.560000 28.600000 47 51 47 0
7.260000 10.560000 28.820000 48 55 48 0
7.480000 10.560000 28.820000 48 51 48 0
7.700000 10.560000 28.820000 48 52 48 0
7.920000 10.560000 36.520000 49 54 49 0
8.140000 10.560000 36.520000 46 52 46 0
8.360000 10.560000 36.520000 46 51 46 0
8.580000 10.560000 36.300000 48 55 48 0
8.800000 10.560000 37.180000 48 54 48 0
9.020000 10.560000 38.940000 48 52 48 0
9.240000 10.560000 40.040000 46 54 46 0
9.460000 10.560000 40.040000 47 51 47 0
9.680000 10.560000 40.040000 47 53 47 0
9.900000 10.560000 39.820000 50 56 50 0
10.120000 10.560000 39.820000 45 51 45 0
10.340000 10.560000 39.820000 47 51 47 0
10.560000 10.560000 39.820000 48 53 48 0
10.780000 10.560000 39.820000 48 53 48 0
11.000000 10.560000 39.820000 49 54 49 0
11.220000 10.560000 39.820000 47 52 47 0
11.440000 10.560000 39.820000 47 55 47 0
11.660000 10.560000 39.820000 49 53 49 0
11.880000 10.560000 39.820000 47 53 47 0
12.100000 10.560000 39.820000 48 53 48 0
12.320000 10.560000 39.820000 48 53 48 0
12.540000 10.560000 39.820000 48 54 48 0
12.760000 10.560000 39.820000 48 52 48 0
12.980000 10.560000 38.940000 47 53 47 0
13.200000 10.560000 37.180000 48 53 48 0
13.420000 10.560000 36.520000 48 52 48 0
13.640000 10.560000 36.520000 47 51 47 0
13.860000 10.560000 36.520000 49 55 49 0
14.080000 10.560000 36.520000 47 52 47 0
14.300000 10.560000 36.520000 47 53 47 0
14.520000 10.560000 36.520000 49 56 49 0
14.740000 10.560000 36.520000 47 52 47 0
14.960000 10.560000 36.520000 48 52 48 0
15.180000 10.560000 36.520000 48 54 48 0
15.400000 10.560000 36.520000 47 51 47 0
15.620000 10.560000 36.520000 49 53 49 0
15.840000 10.560000 36.520000 47 53 47 0
16.060000 10.560000 36.300000 47 51 47 0
16.280000 10.560000 35.420000 47 53 47 0
16.500000 10.560000 34.980000 46 51 46 0
16.720000 10.560000 35.200000 47 50 47 0
16.940000 10.560000 35.420000 46 52 46 0
17.160000 10.560000 35.420000 47 53 47 0
17.380000 10.560000 35.420000 49 54 49 0
17.600000 10.560000 35.640000 47 51 47 0
17.820000 10.560000 35.640000 48 54 48 0
18.040000 10.560000 35.860000 46 55 46 0
18.260000 10.560000 35.860000 48 54 48 0
18.480000 10.560000 35.860000 49 58 49 0
18.700000 10.560000 35.860000 49 56 49 0
18.920000 10.560000 36.080000 48 57 48 0
19.140000 10.560000 36.080000 48 59 48 0
19.360000 10.560000 43.120000 48 57 48 0
19.580000 10.560000 43.340000 49 60 49 0
19.800000 10.560000 36.300000 47 60 47 0
20.020000 10.560000 36.740000 43 53 43 0
20.240000 10.560000 29.700000 34 41 34 0
20.460000 10.560000 22.660000 34 40 34 0
20.680000 10.560000 23.760000 38 46 38 0
20.900000 10.560000 32.560000 40 43 40 0
21.120000 10.560000 33.000000 41 50 41 0
21.340000 10.560000 33.220000 42 49 42 0
21.560000 10.560000 33.440000 42 50 42 0
21.780000 10.560000 33.440000 44 50 44 0
22.000000 10.560000 33.440000 44 50 44 0
22.220000 10.560000 33.660000 42 48 42 0
22.440000 10.560000 33.660000 47 53 47 0
22.660000 10.560000 33.220000 45 49 45 0
22.880000 10.560000 32.560000 47 52 47 0
23.100000 10.560000 32.120000 48 55 48 0
23.320000 10.560000 32.340000 46 53 46 0
23.540000 10.560000 38.940000 46 52 46 0
23.760000 10.560000 37.180000 47 51 47 0
23.980000 10.560000 36.520000 46 52 46 0
24.200000 10.560000 36.080000 47 55 47 0
24.420000 10.560000 35.200000 47 53 47 0
24.640000 10.560000 34.980000 46 52 46 0
24.860000 10.560000 34.980000 47 55 47 0
25.080000 10.560000 35.200000 46 53 46 0
25.300000 10.560000 35.200000 48 55 48 0
25.520000 10.560000 35.420000 48 54 48 0
25.740000 10.560000 35.420000 46 54 46 0
25.960000 10.560000 35.640000 47 54 47 0
26.180000 10.560000 35.640000 48 55 48 0
26.400000 10.560000 35.860000 47 56 47 0
26.620000 10.560000 35.860000 46 53 46 0
26.840000 10.560000 35.860000 48 55 48 0
27.060000 10.560000 35.860000 47 54 47 0
27.280000 10.560000 36.080000 49 59 49 0
27.500000 10.560000 36.080000 47 53 47 0
