ply
format ascii 1.0
element vertex 1203
property float x
property float y
property float z
property uchar red
property uchar green
property uchar blue
property uchar alpha
end_header
30.360000 1.980000 1.760000 51 145 51 0
30.580000 1.980000 1.760000 53 147 53 0
30.800000 1.980000 1.980000 52 147 52 0
31.020000 1.980000 1.760000 52 146 52 0
31.240000 1.980000 1.980000 51 147 51 0
31.460000 1.980000 1.760000 51 145 51 0
31.680000 1.980000 1.980000 51 145 51 0
31.900000 1.980000 1.980000 52 144 52 0
32.120000 1.980000 1.980000 53 142 53 0
32.340000 1.980000 1.980000 52 140 52 0
32.560000 1.980000 1.980000 54 138 54 0
32.780000 1.980000 1.980000 55 130 55 0
33.000000 1.980000 1.980000 58 114 58 0
33.220000 1.980000 43.560000 62 88 62 0
33.440000 1.980000 43.560000 64 70 64 0
33.660000 1.980000 43.560000 65 66 65 0
33.880000 1.980000 43.560000 64 64 64 0
34.100000 1.980000 43.560000 65 65 65 0
34.320000 1.980000 43.560000 65 65 65 0
34.540000 1.980000 43.560000 65 65 65 0
34.760000 1.980000 43.560000 64 64 64 0
34.980000 1.980000 43.560000 65 65 65 0
35.200000 1.980000 43.560000 65 65 65 0
35.420000 1.980000 43.560000 64 64 64 0
35.640000 1.980000 43.560000 65 65 65 0
35.860000 1.980000 43.560000 65 65 65 0
36.080000 1.980000 43.560000 64 64 64 0
36.300000 1.980000 43.560000 65 65 65 0
36.520000 1.980000 43.560000 64 64 64 0
36.740000 1.980000 43.560000 64 64 64 0
36.960000 1.980000 43.560000 65 65 65 0
37.180000 1.980000 43.560000 65 65 65 0
0.000000 2.200000 36.740000 49 52 49 0
0.220000 2.200000 30.140000 46 50 46 0
0.440000 2.200000 36.740000 48 55 48 0
0.660000 2.200000 36.740000 49 51 49 0
0.880000 2.200000 36.740000 50 53 50 0
1.100000 2.200000 36.960000 50 52 50 0
1.320000 2.200000 30.140000 48 52 48 0
1.540000 2.200000 30.140000 48 53 48 0
1.760000 2.200000 36.740000 48 49 48 0
1.980000 2.200000 36.740000 50 55 50 0
2.200000 2.200000 36.520000 48 50 48 0
2.420000 2.200000 36.520000 47 48 47 0
2.640000 2.200000 36.520000 49 50 49 0
2.860000 2.200000 36.520000 47 50 47 0
3.080000 2.200000 36.520000 49 51 49 0
3.300000 2.200000 36.520000 48 49 48 0
3.520000 2.200000 36.300000 48 50 48 0
3.740000 2.200000 36.300000 48 49 48 0
3.960000 2.200000 36.300000 48 50 48 0
4.180000 2.200000 36.300000 48 50 48 0
4.400000 2.200000 36.080000 46 48 46 0
4.620000 2.200000 36.080000 49 50 49 0
4.840000 2.200000 36.300000 51 53 51 0
5.060000 2.200000 36.300000 53 59 53 0
5.280000 2.200000 33.440000 53 68 53 0
5.500000 2.200000 10.780000 54 125 54 0
5.720000 2.200000 43.560000 52 145 52 0
5.940000 2.200000 1.540000 50 145 50 0
6.160000 2.200000 1.540000 52 144 52 0
6.380000 2.200000 1.540000 51 143 51 0
6.600000 2.200000 43.560000 51 137 51 0
6.820000 2.200000 43.560000 53 136 53 0
7.040000 2.200000 43.560000 52 136 52 0
7.260000 2.200000 43.560000 53 140 53 0
7.480000 2.200000 43.560000 51 142 51 0
7.700000 2.200000 43.560000 53 142 53 0
7.920000 2.200000 43.560000 51 144 51 0
8.140000 2.200000 43.560000 51 146 51 0
8.360000 2.200000 43.560000 51 147 51 0
8.580000 2.200000 43.560000 51 149 51 0
8.800000 2.200000 43.560000 50 152 50 0
9.020000 2.200000 1.320000 52 150 52 0
9.240000 2.200000 1.320000 50 149 50 0
9.460000 2.200000 1.320000 51 149 51 0
9.680000 2.200000 1.100000 50 150 50 0
9.900000 2.200000 1.100000 52 150 52 0
10.120000 2.200000 1.100000 51 150 51 0
10.340000 2.200000 1.100000 50 150 50 0
10.560000 2.200000 1.100000 49 150 49 0
10.780000 2.200000 1.100000 50 149 50 0
11.000000 2.200000 1.100000 52 149 52 0
11.220000 2.200000 1.320000 52 151 52 0
11.440000 2.200000 1.100000 51 151 51 0
11.660000 2.200000 1.100000 49 148 49 0
11.880000 2.200000 1.320000 51 150 51 0
12.100000 2.200000 1.320000 50 148 50 0
12.320000 2.200000 1.320000 52 150 52 0
12.540000 2.200000 1.320000 52 150 52 0
12.760000 2.200000 1.320000 51 147 51 0
12.980000 2.200000 1.320000 49 150 49 0
13.200000 2.200000 1.540000 50 147 50 0
13.420000 2.200000 1.540000 52 148 52 0
13.640000 2.200000 1.540000 52 148 52 0
13.860000 2.200000 1.540000 51 151 51 0
14.080000 2.200000 1.540000 52 149 52 0
14.300000 2.200000 1.540000 51 149 51 0
14.520000 2.200000 1.540000 50 151 50 0
14.740000 2.200000 1.540000 51 151 51 0
14.960000 2.200000 1.540000 51 150 51 0
15.180000 2.200000 1.540000 49 147 49 0
15.400000 2.200000 1.540000 52 153 52 0
15.620000 2.200000 1.540000 50 149 50 0
15.840000 2.200000 1.540000 52 150 52 0
16.060000 2.200000 1.540000 51 150 51 0
16.280000 2.200000 1.540000 51 149 51 0
16.500000 2.200000 1.540000 51 151 51 0
16.720000 2.200000 1.540000 50 149 50 0
16.940000 2.200000 1.540000 50 151 50 0
17.160000 2.200000 1.540000 50 150 50 0
17.380000 2.200000 1.540000 50 150 50 0
17.600000 2.200000 1.540000 51 149 51 0
17.820000 2.200000 1.540000 50 151 50 0
18.040000 2.200000 1.540000 52 151 52 0
18.260000 2.200000 1.540000 50 148 50 0
18.480000 2.200000 1.540000 51 148 51 0
18.700000 2.200000 1.540000 49 148 49 0
18.920000 2.200000 1.540000 50 148 50 0
19.140000 2.200000 1.540000 50 149 50 0
19.360000 2.200000 1.540000 50 148 50 0
19.580000 2.200000 1.540000 51 150 51 0
19.800000 2.200000 1.540000 50 150 50 0
20.020000 2.200000 1.540000 51 150 51 0
20.240000 2.200000 1.540000 51 149 51 0
20.460000 2.200000 1.540000 51 150 51 0
20.680000 2.200000 1.540000 50 148 50 0
20.900000 2.200000 1.540000 50 147 50 0
21.120000 2.200000 1.540000 51 150 51 0
21.340000 2.200000 1.540000 51 147 51 0
21.560000 2.200000 1.540000 50 147 50 0
21.780000 2.200000 1.540000 50 149 50 0
22.000000 2.200000 1.540000 52 149 52 0
22.220000 2.200000 1.540000 52 150 52 0
22.440000 2.200000 1.540000 50 149 50 0
22.660000 2.200000 1.540000 50 147 50 0
22.880000 2.200000 1.540000 51 147 51 0
23.100000 2.200000 1.540000 51 148 51 0
23.320000 2.200000 1.540000 51 149 51 0
23.540000 2.200000 1.540000 52 150 52 0
23.760000 2.200000 1.540000 50 148 50 0
23.980000 2.200000 1.540000 52 150 52 0
24.200000 2.200000 1.540000 50 147 50 0
24.420000 2.200000 1.540000 52 148 52 0
24.640000 2.200000 1.760000 51 146 51 0
24.860000 2.200000 1.540000 50 146 50 0
25.080000 2.200000 1.540000 52 147 52 0
25.300000 2.200000 1.760000 51 147 51 0
25.520000 2.200000 1.760000 51 147 51 0
25.740000 2.200000 1.760000 52 148 52 0
25.960000 2.200000 1.760000 52 148 52 0
26.180000 2.200000 1.760000 51 146 51 0
26.400000 2.200000 1.760000 52 146 52 0
26.620000 2.200000 1.760000 51 147 51 0
26.840000 2.200000 1.760000 51 145 51 0
27.060000 2.200000 1.760000 52 146 52 0
27.280000 2.200000 1.760000 51 146 51 0
27.500000 2.200000 1.760000 51 146 51 0
27.720000 2.200000 1.760000 52 146 52 0
27.940000 2.200000 1.760000 53 146 53 0
28.160000 2.200000 1.760000 50 145 50 0
28.380000 2.200000 1.760000 50 145 50 0
28.600000 2.200000 1.760000 51 145 51 0
28.820000 2.200000 1.760000 50 145 50 0
29.040000 2.200000 1.760000 52 144 52 0
29.260000 2.200000 1.760000 52 145 52 0
29.480000 2.200000 1.760000 50 146 50 0
29.700000 2.200000 1.760000 51 145 51 0
29.920000 2.200000 1.760000 51 145 51 0
30.140000 2.200000 1.760000 51 145 51 0
30.360000 2.200000 1.760000 51 145 51 0
30.580000 2.200000 1.760000 52 144 52 0
30.800000 2.200000 1.760000 51 145 51 0
31.020000 2.200000 1.760000 50 143 50 0
31.240000 2.200000 1.980000 52 144 52 0
31.460000 2.200000 1.760000 51 144 51 0
31.680000 2.200000 1.980000 51 143 51 0
31.900000 2.200000 1.980000 52 142 52 0
32.120000 2.200000 1.980000 52 143 52 0
32.340000 2.200000 1.980000 53 142 53 0
32.560000 2.200000 1.980000 53 141 53 0
32.780000 2.200000 1.980000 53 140 53 0
33.000000 2.200000 1.980000 51 135 51 0
33.220000 2.200000 1.980000 55 131 55 0
33.440000 2.200000 1.760000 56 116 56 0
33.660000 2.200000 1.760000 62 92 62 0
33.880000 2.200000 43.560000 64 71 64 0
34.100000 2.200000 1.320000 65 65 65 0
34.320000 2.200000 43.560000 64 64 64 0
34.540000 2.200000 43.560000 65 65 65 0
34.760000 2.200000 43.560000 64 64 64 0
34.980000 2.200000 43.560000 64 64 64 0
35.200000 2.200000 43.560000 65 65 65 0
35.420000 2.200000 43.560000 64 64 64 0
35.640000 2.200000 43.560000 64 64 64 0
35.860000 2.200000 43.560000 65 65 65 0
36.080000 2.200000 43.560000 65 65 65 0
36.300000 2.200000 43.560000 65 65 65 0
36.520000 2.200000 43.560000 65 65 65 0
36.740000 2.200000 43.560000 65 65 65 0
36.960000 2.200000 43.560000 65 65 65 0
37.180000 2.200000 43.560000 65 65 65 0
0.000000 2.420000 36.520000 51 54 51 0
0.220000 2.420000 36.520000 48 52 48 0
0.440000 2.420000 36.740000 50 52 50 0
0.660000 2.420000 36.740000 49 51 49 0
0.880000 2.420000 36.740000 48 51 48 0
1.100000 2.420000 36.740000 47 53 47 0
1.320000 2.420000 36.740000 47 52 47 0
1.540000 2.420000 36.520000 50 53 50 0
1.760000 2.420000 42.900000 53 54 53 0
1.980000 2.420000 42.680000 46 51 46 0
2.200000 2.420000 36.520000 48 50 48 0
2.420000 2.420000 36.520000 50 52 50 0
2.640000 2.420000 36.520000 49 52 49 0
2.860000 2.420000 36.520000 48 51 48 0
3.080000 2.420000 36.300000 51 52 51 0
3.300000 2.420000 36.300000 51 52 51 0
3.520000 2.420000 36.300000 49 51 49 0
3.740000 2.420000 36.300000 49 51 49 0
3.960000 2.420000 36.080000 48 50 48 0
4.180000 2.420000 36.080000 46 47 46 0
4.400000 2.420000 36.080000 48 50 48 0
4.620000 2.420000 42.240000 49 50 49 0
4.840000 2.420000 42.240000 50 52 50 0
5.060000 2.420000 42.240000 52 54 52 0
5.280000 2.420000 35.200000 52 59 52 0
5.500000 2.420000 33.660000 57 92 57 0
5.720000 2.420000 26.400000 56 112 56 0
5.940000 2.420000 26.400000 57 95 57 0
6.160000 2.420000 26.180000 58 82 58 0
6.380000 2.420000 32.780000 57 75 57 0
6.600000 2.420000 32.560000 61 73 61 0
6.820000 2.420000 32.780000 56 66 56 0
7.040000 2.420000 34.320000 61 70 61 0
7.260000 2.420000 39.600000 58 69 58 0
7.480000 2.420000 32.780000 60 71 60 0
7.700000 2.420000 32.780000 60 79 60 0
7.920000 2.420000 25.960000 59 86 59 0
8.140000 2.420000 18.480000 57 86 57 0
8.360000 2.420000 10.340000 58 97 58 0
8.580000 2.420000 10.340000 59 110 59 0
8.800000 2.420000 1.320000 52 120 52 0
9.020000 2.420000 1.320000 54 134 54 0
9.240000 2.420000 1.100000 51 140 51 0
9.460000 2.420000 1.100000 49 146 49 0
9.680000 2.420000 1.100000 51 146 51 0
9.900000 2.420000 0.880000 49 147 49 0
10.120000 2.420000 0.880000 52 150 52 0
10.340000 2.420000 0.880000 51 150 51 0
10.560000 2.420000 0.880000 51 148 51 0
10.780000 2.420000 0.880000 52 149 52 0
11.000000 2.420000 0.880000 51 147 51 0
11.220000 2.420000 1.100000 51 148 51 0
11.440000 2.420000 1.100000 50 148 50 0
11.660000 2.420000 1.100000 50 149 50 0
11.880000 2.420000 1.100000 49 145 49 0
12.100000 2.420000 1.100000 50 147 50 0
12.320000 2.420000 1.320000 51 148 51 0
12.540000 2.420000 1.320000 50 150 50 0
12.760000 2.420000 1.320000 50 147 50 0
12.980000 2.420000 1.320000 49 143 49 0
13.200000 2.420000 1.320000 52 145 52 0
13.420000 2.420000 1.540000 52 148 52 0
13.640000 2.420000 1.540000 51 146 51 0
13.860000 2.420000 1.540000 51 145 51 0
14.080000 2.420000 1.540000 51 147 51 0
14.300000 2.420000 1.540000 52 144 52 0
14.520000 2.420000 1.540000 51 147 51 0
14.740000 2.420000 1.540000 51 146 51 0
14.960000 2.420000 1.540000 51 146 51 0
15.180000 2.420000 1.540000 49 150 49 0
15.400000 2.420000 1.540000 49 148 49 0
15.620000 2.420000 1.540000 51 149 51 0
15.840000 2.420000 1.540000 48 149 48 0
16.060000 2.420000 1.540000 50 147 50 0
16.280000 2.420000 1.540000 51 147 51 0
16.500000 2.420000 1.540000 51 146 51 0
16.720000 2.420000 1.540000 50 146 50 0
16.940000 2.420000 1.540000 51 146 51 0
17.160000 2.420000 1.540000 49 145 49 0
17.380000 2.420000 1.540000 53 147 53 0
17.600000 2.420000 1.540000 50 148 50 0
17.820000 2.420000 1.540000 51 147 51 0
18.040000 2.420000 1.540000 50 147 50 0
18.260000 2.420000 1.540000 50 147 50 0
18.480000 2.420000 1.540000 50 146 50 0
18.700000 2.420000 1.540000 49 146 49 0
18.920000 2.420000 1.540000 51 148 51 0
19.140000 2.420000 1.540000 52 149 52 0
19.360000 2.420000 1.540000 51 148 51 0
19.580000 2.420000 1.540000 50 148 50 0
19.800000 2.420000 1.540000 51 146 51 0
20.020000 2.420000 1.540000 50 147 50 0
20.240000 2.420000 1.540000 50 147 50 0
20.460000 2.420000 1.540000 51 146 51 0
20.680000 2.420000 1.540000 51 147 51 0
20.900000 2.420000 1.540000 48 144 48 0
21.120000 2.420000 1.540000 50 147 50 0
21.340000 2.420000 1.540000 49 146 49 0
21.560000 2.420000 1.540000 51 145 51 0
21.780000 2.420000 1.540000 51 146 51 0
22.000000 2.420000 1.540000 49 145 49 0
22.220000 2.420000 1.540000 51 145 51 0
22.440000 2.420000 1.540000 52 147 52 0
22.660000 2.420000 1.760000 51 145 51 0
22.880000 2.420000 1.540000 51 145 51 0
23.100000 2.420000 1.760000 51 147 51 0
23.320000 2.420000 1.540000 50 146 50 0
23.540000 2.420000 1.760000 51 147 51 0
23.760000 2.420000 1.540000 51 144 51 0
23.980000 2.420000 1.760000 51 146 51 0
24.200000 2.420000 1.760000 52 145 52 0
24.420000 2.420000 1.760000 50 145 50 0
24.640000 2.420000 1.760000 50 144 50 0
24.860000 2.420000 1.760000 51 143 51 0
25.080000 2.420000 1.760000 51 146 51 0
25.300000 2.420000 1.760000 51 144 51 0
25.520000 2.420000 1.760000 52 145 52 0
25.740000 2.420000 1.760000 51 146 51 0
25.960000 2.420000 1.760000 52 145 52 0
26.180000 2.420000 1.760000 52 144 52 0
26.400000 2.420000 1.760000 52 144 52 0
26.620000 2.420000 1.760000 51 143 51 0
26.840000 2.420000 1.760000 53 145 53 0
27.060000 2.420000 1.760000 51 145 51 0
27.280000 2.420000 1.760000 52 143 52 0
27.500000 2.420000 1.760000 50 142 50 0
27.720000 2.420000 1.760000 50 142 50 0
27.940000 2.420000 1.760000 52 143 52 0
28.160000 2.420000 1.760000 51 143 51 0
28.380000 2.420000 1.760000 51 142 51 0
28.600000 2.420000 1.760000 52 142 52 0
28.820000 2.420000 1.760000 51 143 51 0
29.040000 2.420000 1.760000 51 143 51 0
29.260000 2.420000 1.760000 52 144 52 0
29.480000 2.420000 1.760000 52 145 52 0
29.700000 2.420000 1.760000 52 142 52 0
29.920000 2.420000 1.760000 52 142 52 0
30.140000 2.420000 1.760000 53 144 53 0
30.360000 2.420000 1.760000 53 142 53 0
30.580000 2.420000 1.760000 49 141 49 0
30.800000 2.420000 1.760000 52 143 52 0
31.020000 2.420000 1.760000 50 141 50 0
31.240000 2.420000 1.760000 52 142 52 0
31.460000 2.420000 1.760000 51 141 51 0
31.680000 2.420000 1.980000 52 143 52 0
31.900000 2.420000 1.980000 51 140 51 0
32.120000 2.420000 1.980000 52 141 52 0
32.340000 2.420000 1.980000 50 140 50 0
32.560000 2.420000 1.980000 52 141 52 0
32.780000 2.420000 1.980000 53 139 53 0
33.000000 2.420000 1.980000 50 139 50 0
33.220000 2.420000 2.200000 52 135 52 0
33.440000 2.420000 1.980000 52 133 52 0
33.660000 2.420000 1.980000 54 129 54 0
33.880000 2.420000 1.760000 58 118 58 0
34.100000 2.420000 1.320000 62 94 62 0
34.320000 2.420000 1.320000 63 74 63 0
34.540000 2.420000 0.440000 64 65 64 0
34.760000 2.420000 9.460000 65 65 65 0
34.980000 2.420000 10.120000 65 65 65 0
35.200000 2.420000 10.560000 65 65 65 0
35.420000 2.420000 19.580000 64 64 64 0
35.640000 2.420000 11.660000 65 65 65 0
35.860000 2.420000 12.760000 65 65 65 0
36.080000 2.420000 14.080000 65 65 65 0
36.300000 2.420000 3.080000 65 65 65 0
36.520000 2.420000 43.560000 65 65 65 0
36.740000 2.420000 43.560000 65 65 65 0
36.960000 2.420000 43.560000 65 65 65 0
37.180000 2.420000 43.560000 65 65 65 0
0.000000 2.640000 36.300000 47 54 47 0
0.220000 2.640000 36.520000 50 53 50 0
0.440000 2.640000 36.520000 48 52 48 0
0.660000 2.640000 36.520000 46 49 46 0
0.880000 2.640000 36.520000 49 53 49 0
1.100000 2.640000 42.680000 49 53 49 0
1.320000 2.640000 42.680000 49 53 49 0
1.540000 2.640000 42.680000 50 52 50 0
1.760000 2.640000 42.680000 46 50 46 0
1.980000 2.640000 42.680000 47 49 47 0
2.200000 2.640000 42.680000 48 49 48 0
2.420000 2.640000 36.300000 49 52 49 0
2.640000 2.640000 36.300000 48 49 48 0
2.860000 2.640000 36.300000 47 49 47 0
3.080000 2.640000 36.300000 48 51 48 0
3.300000 2.640000 36.080000 48 50 48 0
3.520000 2.640000 36.080000 50 52 50 0
3.740000 2.640000 36.080000 51 52 51 0
3.960000 2.640000 36.080000 49 50 49 0
4.180000 2.640000 36.080000 50 52 50 0
4.400000 2.640000 35.860000 47 50 47 0
4.620000 2.640000 42.240000 48 50 48 0
4.840000 2.640000 42.240000 46 49 46 0
5.060000 2.640000 42.240000 52 54 52 0
5.280000 2.640000 35.860000 54 57 54 0
5.500000 2.640000 35.640000 52 57 52 0
5.720000 2.640000 35.640000 53 56 53 0
5.940000 2.640000 36.080000 56 58 56 0
6.160000 2.640000 36.300000 56 57 56 0
6.380000 2.640000 36.300000 57 58 57 0
6.600000 2.640000 42.680000 57 58 57 0
6.820000 2.640000 42.680000 57 60 57 0
7.040000 2.640000 42.680000 57 60 57 0
7.260000 2.640000 42.680000 59 61 59 0
7.480000 2.640000 36.520000 58 60 58 0
7.700000 2.640000 36.520000 60 60 60 0
7.920000 2.640000 36.520000 59 61 59 0
8.140000 2.640000 36.300000 61 62 61 0
8.360000 2.640000 36.080000 59 61 59 0
8.580000 2.640000 35.640000 62 64 62 0
8.800000 2.640000 34.980000 61 65 61 0
9.020000 2.640000 33.660000 62 71 62 0
9.240000 2.640000 33.000000 60 79 60 0
9.460000 2.640000 25.960000 61 96 61 0
9.680000 2.640000 10.120000 57 110 57 0
9.900000 2.640000 1.100000 53 129 53 0
10.120000 2.640000 1.100000 52 139 52 0
10.340000 2.640000 0.880000 52 144 52 0
10.560000 2.640000 0.880000 51 145 51 0
10.780000 2.640000 0.880000 50 146 50 0
11.000000 2.640000 0.880000 51 147 51 0
11.220000 2.640000 0.880000 51 149 51 0
11.440000 2.640000 1.100000 50 144 50 0
11.660000 2.640000 1.100000 50 145 50 0
11.880000 2.640000 1.100000 49 146 49 0
12.100000 2.640000 1.100000 52 146 52 0
12.320000 2.640000 1.320000 49 147 49 0
12.540000 2.640000 1.320000 48 145 48 0
12.760000 2.640000 1.320000 49 147 49 0
12.980000 2.640000 1.320000 50 147 50 0
13.200000 2.640000 1.320000 50 141 50 0
13.420000 2.640000 1.540000 49 139 49 0
13.640000 2.640000 1.540000 49 144 49 0
13.860000 2.640000 1.540000 50 143 50 0
14.080000 2.640000 1.540000 51 142 51 0
14.300000 2.640000 1.540000 52 144 52 0
14.520000 2.640000 1.540000 53 144 53 0
14.740000 2.640000 1.540000 53 144 53 0
14.960000 2.640000 1.540000 51 145 51 0
15.180000 2.640000 1.540000 52 143 52 0
15.400000 2.640000 1.540000 50 144 50 0
15.620000 2.640000 1.540000 51 145 51 0
15.840000 2.640000 1.540000 52 145 52 0
16.060000 2.640000 1.540000 52 146 52 0
16.280000 2.640000 1.540000 48 144 48 0
16.500000 2.640000 1.540000 50 144 50 0
16.720000 2.640000 1.540000 50 146 50 0
16.940000 2.640000 1.540000 52 146 52 0
17.160000 2.640000 1.540000 51 146 51 0
17.380000 2.640000 1.540000 50 145 50 0
17.600000 2.640000 1.540000 51 145 51 0
17.820000 2.640000 1.540000 49 144 49 0
18.040000 2.640000 1.540000 52 146 52 0
18.260000 2.640000 1.540000 51 146 51 0
18.480000 2.640000 1.540000 50 145 50 0
18.700000 2.640000 1.540000 49 144 49 0
18.920000 2.640000 1.540000 52 145 52 0
19.140000 2.640000 1.540000 50 146 50 0
19.360000 2.640000 1.540000 51 145 51 0
19.580000 2.640000 1.540000 51 145 51 0
19.800000 2.640000 1.540000 51 147 51 0
20.020000 2.640000 1.540000 50 144 50 0
20.240000 2.640000 1.540000 50 145 50 0
20.460000 2.640000 1.760000 52 143 52 0
20.680000 2.640000 1.540000 51 145 51 0
20.900000 2.640000 1.760000 51 143 51 0
21.120000 2.640000 1.540000 51 144 51 0
21.340000 2.640000 1.760000 52 146 52 0
21.560000 2.640000 1.540000 50 144 50 0
21.780000 2.640000 1.760000 50 144 50 0
22.000000 2.640000 1.760000 51 145 51 0
22.220000 2.640000 1.760000 51 144 51 0
22.440000 2.640000 1.760000 51 145 51 0
22.660000 2.640000 1.760000 52 143 52 0
22.880000 2.640000 1.760000 50 142 50 0
23.100000 2.640000 1.760000 52 143 52 0
23.320000 2.640000 1.760000 50 142 50 0
23.540000 2.640000 1.760000 51 142 51 0
23.760000 2.640000 1.760000 51 144 51 0
23.980000 2.640000 1.760000 51 143 51 0
24.200000 2.640000 1.760000 52 144 52 0
24.420000 2.640000 1.760000 51 143 51 0
24.640000 2.640000 1.760000 51 142 51 0
24.860000 2.640000 1.760000 51 142 51 0
25.080000 2.640000 1.760000 52 143 52 0
25.300000 2.640000 1.760000 53 143 53 0
25.520000 2.640000 1.760000 51 142 51 0
25.740000 2.640000 1.760000 48 141 48 0
25.960000 2.640000 1.760000 51 143 51 0
26.180000 2.640000 1.760000 50 140 50 0
26.400000 2.640000 1.760000 51 140 51 0
26.620000 2.640000 1.760000 52 142 52 0
26.840000 2.640000 1.760000 51 141 51 0
27.060000 2.640000 1.760000 51 141 51 0
27.280000 2.640000 1.760000 52 143 52 0
27.500000 2.640000 1.760000 51 141 51 0
27.720000 2.640000 1.760000 52 141 52 0
27.940000 2.640000 1.760000 51 141 51 0
28.160000 2.640000 1.760000 51 140 51 0
28.380000 2.640000 1.760000 53 143 53 0
28.600000 2.640000 1.760000 51 141 51 0
28.820000 2.640000 1.760000 52 141 52 0
29.040000 2.640000 1.760000 52 140 52 0
29.260000 2.640000 1.760000 50 139 50 0
29.480000 2.640000 1.760000 51 141 51 0
29.700000 2.640000 1.760000 51 141 51 0
29.920000 2.640000 1.760000 51 141 51 0
30.140000 2.640000 1.760000 51 140 51 0
30.360000 2.640000 1.760000 49 140 49 0
30.580000 2.640000 1.760000 50 139 50 0
30.800000 2.640000 1.760000 51 138 51 0
31.020000 2.640000 1.760000 52 140 52 0
31.240000 2.640000 1.760000 52 140 52 0
31.460000 2.640000 1.760000 50 139 50 0
31.680000 2.640000 1.760000 51 139 51 0
31.900000 2.640000 1.760000 51 138 51 0
32.120000 2.640000 1.760000 53 139 53 0
32.340000 2.640000 1.980000 51 140 51 0
32.560000 2.640000 1.980000 52 139 52 0
32.780000 2.640000 1.980000 50 138 50 0
33.000000 2.640000 1.980000 53 138 53 0
33.220000 2.640000 1.980000 53 137 53 0
33.440000 2.640000 1.980000 51 135 51 0
33.660000 2.640000 1.980000 51 133 51 0
33.880000 2.640000 1.760000 54 133 54 0
34.100000 2.640000 1.760000 55 128 55 0
34.320000 2.640000 1.540000 57 119 57 0
34.540000 2.640000 1.320000 61 95 61 0
34.760000 2.640000 0.880000 64 74 64 0
34.980000 2.640000 9.680000 65 65 65 0
35.200000 2.640000 9.900000 65 65 65 0
35.420000 2.640000 10.780000 65 65 65 0
35.640000 2.640000 19.140000 65 65 65 0
35.860000 2.640000 19.360000 65 65 65 0
36.080000 2.640000 19.360000 65 65 65 0
36.300000 2.640000 43.560000 64 64 64 0
36.520000 2.640000 43.560000 65 65 65 0
36.740000 2.640000 43.560000 65 65 65 0
36.960000 2.640000 43.560000 64 64 64 0
37.180000 2.640000 43.560000 65 65 65 0
0.000000 2.860000 42.460000 51 53 51 0
0.220000 2.860000 42.460000 48 50 48 0
0.440000 2.860000 42.680000 51 55 51 0
0.660000 2.860000 36.300000 47 52 47 0
0.880000 2.860000 42.680000 46 49 46 0
1.100000 2.860000 42.680000 50 56 50 0
1.320000 2.860000 42.680000 50 53 50 0
1.540000 2.860000 42.460000 50 53 50 0
1.760000 2.860000 42.460000 51 54 51 0
1.980000 2.860000 42.460000 51 54 51 0
2.200000 2.860000 42.460000 50 51 50 0
2.420000 2.860000 42.460000 48 53 48 0
2.640000 2.860000 42.460000 50 53 50 0
2.860000 2.860000 36.080000 48 50 48 0
3.080000 2.860000 36.080000 48 51 48 0
3.300000 2.860000 36.080000 49 52 49 0
3.520000 2.860000 36.080000 50 52 50 0
3.740000 2.860000 35.860000 47 49 47 0
3.960000 2.860000 35.860000 47 48 47 0
4.180000 2.860000 35.860000 46 48 46 0
4.400000 2.860000 35.860000 49 50 49 0
4.620000 2.860000 42.240000 47 49 47 0
4.840000 2.860000 42.240000 47 50 47 0
5.060000 2.860000 42.240000 50 52 50 0
5.280000 2.860000 42.240000 53 55 53 0
5.500000 2.860000 42.240000 52 55 52 0
5.720000 2.860000 36.080000 52 54 52 0
5.940000 2.860000 36.080000 53 55 53 0
6.160000 2.860000 36.300000 54 57 54 0
6.380000 2.860000 36.520000 54 56 54 0
6.600000 2.860000 42.900000 53 56 53 0
6.820000 2.860000 42.900000 54 56 54 0
7.040000 2.860000 42.900000 57 58 57 0
7.260000 2.860000 42.900000 54 58 54 0
7.480000 2.860000 42.900000 54 57 54 0
7.700000 2.860000 42.900000 57 60 57 0
7.920000 2.860000 42.900000 59 60 59 0
8.140000 2.860000 42.900000 59 61 59 0
8.360000 2.860000 42.900000 57 60 57 0
8.580000 2.860000 42.680000 60 62 60 0
8.800000 2.860000 36.520000 60 61 60 0
9.020000 2.860000 36.300000 58 60 58 0
9.240000 2.860000 36.080000 59 60 59 0
9.460000 2.860000 35.860000 58 59 58 0
9.680000 2.860000 35.200000 60 64 60 0
9.900000 2.860000 34.760000 62 68 62 0
10.120000 2.860000 34.540000 60 74 60 0
10.340000 2.860000 27.060000 58 86 58 0
10.560000 2.860000 10.560000 57 102 57 0
10.780000 2.860000 1.320000 56 123 56 0
11.000000 2.860000 1.100000 55 131 55 0
11.220000 2.860000 1.100000 52 142 52 0
11.440000 2.860000 0.880000 49 142 49 0
11.660000 2.860000 0.880000 49 143 49 0
11.880000 2.860000 0.880000 51 147 51 0
12.100000 2.860000 1.100000 50 143 50 0
12.320000 2.860000 1.100000 50 145 50 0
12.540000 2.860000 1.320000 51 144 51 0
12.760000 2.860000 1.320000 51 144 51 0
12.980000 2.860000 1.320000 52 145 52 0
13.200000 2.860000 1.320000 49 142 49 0
13.420000 2.860000 1.540000 47 138 47 0
13.640000 2.860000 1.540000 50 138 50 0
13.860000 2.860000 1.540000 49 140 49 0
14.080000 2.860000 1.540000 49 140 49 0
14.300000 2.860000 1.540000 49 139 49 0
14.520000 2.860000 1.540000 51 143 51 0
14.740000 2.860000 1.540000 51 141 51 0
14.960000 2.860000 1.540000 51 138 51 0
15.180000 2.860000 1.540000 51 138 51 0
15.400000 2.860000 1.540000 51 139 51 0
15.620000 2.860000 1.540000 50 140 50 0
15.840000 2.860000 1.540000 51 142 51 0
16.060000 2.860000 1.540000 50 139 50 0
16.280000 2.860000 1.540000 50 140 50 0
16.500000 2.860000 1.540000 50 142 50 0
16.720000 2.860000 1.540000 51 143 51 0
16.940000 2.860000 1.540000 51 144 51 0
17.160000 2.860000 1.540000 50 142 50 0
17.380000 2.860000 1.540000 51 144 51 0
17.600000 2.860000 1.540000 51 143 51 0
17.820000 2.860000 1.540000 51 143 51 0
18.040000 2.860000 1.540000 49 143 49 0
18.260000 2.860000 1.540000 51 142 51 0
18.480000 2.860000 1.540000 51 143 51 0
18.700000 2.860000 1.540000 51 143 51 0
18.920000 2.860000 1.540000 50 145 50 0
19.140000 2.860000 1.540000 49 143 49 0
19.360000 2.860000 1.540000 51 141 51 0
19.580000 2.860000 1.540000 51 142 51 0
19.800000 2.860000 1.540000 51 144 51 0
20.020000 2.860000 1.540000 51 143 51 0
20.240000 2.860000 1.540000 51 144 51 0
20.460000 2.860000 1.540000 49 142 49 0
20.680000 2.860000 1.540000 51 142 51 0
20.900000 2.860000 1.540000 51 143 51 0
21.120000 2.860000 1.540000 49 140 49 0
21.340000 2.860000 1.540000 50 141 50 0
21.560000 2.860000 1.540000 51 143 51 0
21.780000 2.860000 1.540000 52 143 52 0
22.000000 2.860000 1.540000 50 141 50 0
22.220000 2.860000 1.540000 50 139 50 0
22.440000 2.860000 1.540000 51 141 51 0
22.660000 2.860000 1.540000 52 143 52 0
22.880000 2.860000 1.540000 50 140 50 0
23.100000 2.860000 1.540000 50 140 50 0
23.320000 2.860000 1.540000 51 142 51 0
23.540000 2.860000 1.540000 51 142 51 0
23.760000 2.860000 1.540000 51 142 51 0
23.980000 2.860000 1.540000 52 141 52 0
24.200000 2.860000 1.540000 53 141 53 0
24.420000 2.860000 1.540000 52 142 52 0
24.640000 2.860000 1.760000 49 139 49 0
24.860000 2.860000 1.540000 52 142 52 0
25.080000 2.860000 1.540000 49 138 49 0
25.300000 2.860000 1.760000 51 139 51 0
25.520000 2.860000 1.760000 50 139 50 0
25.740000 2.860000 1.760000 52 140 52 0
25.960000 2.860000 1.760000 51 140 51 0
26.180000 2.860000 1.760000 51 139 51 0
26.400000 2.860000 1.760000 51 139 51 0
26.620000 2.860000 1.760000 50 139 50 0
26.840000 2.860000 1.760000 51 140 51 0
27.060000 2.860000 1.760000 51 139 51 0
27.280000 2.860000 1.760000 52 140 52 0
27.500000 2.860000 1.760000 51 138 51 0
27.720000 2.860000 1.760000 51 137 51 0
27.940000 2.860000 1.540000 51 139 51 0
28.160000 2.860000 1.760000 52 140 52 0
28.380000 2.860000 1.760000 51 138 51 0
28.600000 2.860000 1.760000 49 138 49 0
28.820000 2.860000 1.760000 52 139 52 0
29.040000 2.860000 1.760000 52 137 52 0
29.260000 2.860000 1.760000 53 138 53 0
29.480000 2.860000 1.760000 49 137 49 0
29.700000 2.860000 1.760000 50 138 50 0
29.920000 2.860000 1.760000 53 139 53 0
30.140000 2.860000 1.760000 51 138 51 0
30.360000 2.860000 1.760000 52 139 52 0
30.580000 2.860000 1.760000 51 136 51 0
30.800000 2.860000 1.760000 51 136 51 0
31.020000 2.860000 1.760000 50 138 50 0
31.240000 2.860000 1.760000 52 138 52 0
31.460000 2.860000 1.760000 52 138 52 0
31.680000 2.860000 1.760000 53 138 53 0
31.900000 2.860000 1.760000 53 137 53 0
32.120000 2.860000 1.760000 51 137 51 0
32.340000 2.860000 1.760000 51 135 51 0
32.560000 2.860000 1.760000 51 136 51 0
32.780000 2.860000 1.760000 50 136 50 0
33.000000 2.860000 1.980000 52 137 52 0
33.220000 2.860000 1.980000 53 136 53 0
33.440000 2.860000 1.980000 52 134 52 0
33.660000 2.860000 1.980000 52 133 52 0
33.880000 2.860000 1.980000 53 133 53 0
34.100000 2.860000 1.760000 52 131 52 0
34.320000 2.860000 1.540000 53 130 53 0
34.540000 2.860000 1.320000 54 128 54 0
34.760000 2.860000 1.100000 56 117 56 0
34.980000 2.860000 0.880000 61 95 61 0
35.200000 2.860000 1.320000 63 74 63 0
35.420000 2.860000 43.560000 64 65 64 0
35.640000 2.860000 43.560000 65 65 65 0
35.860000 2.860000 2.420000 65 65 65 0
36.080000 2.860000 11.000000 65 65 65 0
36.300000 2.860000 43.560000 65 65 65 0
36.520000 2.860000 43.560000 65 65 65 0
36.740000 2.860000 43.560000 64 64 64 0
36.960000 2.860000 43.560000 64 64 64 0
37.180000 2.860000 43.560000 64 64 64 0
0.000000 3.080000 42.460000 49 53 49 0
0.220000 3.080000 42.460000 48 53 48 0
0.440000 3.080000 42.460000 50 52 50 0
0.660000 3.080000 42.460000 49 56 49 0
0.880000 3.080000 42.460000 48 51 48 0
1.100000 3.080000 42.460000 49 52 49 0
1.320000 3.080000 42.460000 49 52 49 0
1.540000 3.080000 42.460000 48 51 48 0
1.760000 3.080000 42.460000 50 56 50 0
1.980000 3.080000 42.240000 48 52 48 0
2.200000 3.080000 42.240000 48 52 48 0
2.420000 3.080000 42.240000 47 53 47 0
2.640000 3.080000 35.860000 48 51 48 0
2.860000 3.080000 35.860000 49 54 49 0
3.080000 3.080000 35.860000 48 50 48 0
3.300000 3.080000 35.860000 49 50 49 0
3.520000 3.080000 35.860000 48 50 48 0
3.740000 3.080000 35.860000 48 51 48 0
3.960000 3.080000 35.640000 46 48 46 0
4.180000 3.080000 35.640000 48 50 48 0
4.400000 3.080000 35.640000 47 51 47 0
4.620000 3.080000 42.020000 44 47 44 0
4.840000 3.080000 42.240000 50 52 50 0
5.060000 3.080000 42.240000 50 52 50 0
5.280000 3.080000 42.240000 53 56 53 0
5.500000 3.080000 42.460000 49 51 49 0
5.720000 3.080000 36.300000 52 55 52 0
5.940000 3.080000 36.300000 51 54 51 0
6.160000 3.080000 36.520000 51 55 51 0
6.380000 3.080000 42.900000 52 55 52 0
6.600000 3.080000 43.120000 51 54 51 0
6.820000 3.080000 43.120000 53 56 53 0
7.040000 3.080000 43.120000 52 54 52 0
7.260000 3.080000 43.120000 54 56 54 0
7.480000 3.080000 43.120000 54 57 54 0
7.700000 3.080000 43.120000 55 57 55 0
7.920000 3.080000 43.120000 56 58 56 0
8.140000 3.080000 43.120000 55 57 55 0
8.360000 3.080000 42.900000 57 59 57 0
8.580000 3.080000 42.900000 58 60 58 0
8.800000 3.080000 42.900000 60 61 60 0
9.020000 3.080000 42.900000 57 59 57 0
9.240000 3.080000 42.680000 59 61 59 0
9.460000 3.080000 42.680000 61 63 61 0
9.680000 3.080000 42.460000 60 61 60 0
9.900000 3.080000 42.460000 60 62 60 0
10.120000 3.080000 35.860000 60 61 60 0
10.340000 3.080000 35.860000 60 62 60 0
10.560000 3.080000 35.640000 60 62 60 0
10.780000 3.080000 34.980000 58 61 58 0
11.000000 3.080000 34.540000 62 71 62 0
11.220000 3.080000 27.280000 62 81 62 0
11.440000 3.080000 19.580000 59 97 59 0
11.660000 3.080000 11.000000 58 115 58 0
11.880000 3.080000 1.760000 54 128 54 0
12.100000 3.080000 1.540000 51 136 51 0
12.320000 3.080000 1.540000 53 139 53 0
12.540000 3.080000 1.760000 52 137 52 0
12.760000 3.080000 1.540000 49 138 49 0
12.980000 3.080000 1.540000 50 141 50 0
13.200000 3.080000 1.540000 50 143 50 0
13.420000 3.080000 1.540000 51 141 51 0
13.640000 3.080000 1.540000 49 134 49 0
13.860000 3.080000 1.760000 48 135 48 0
14.080000 3.080000 1.760000 47 132 47 0
14.300000 3.080000 1.760000 51 140 51 0
14.520000 3.080000 1.760000 51 140 51 0
14.740000 3.080000 1.760000 51 140 51 0
14.960000 3.080000 1.760000 51 141 51 0
15.180000 3.080000 1.760000 51 138 51 0
15.400000 3.080000 1.760000 51 136 51 0
15.620000 3.080000 1.760000 51 137 51 0
15.840000 3.080000 1.760000 49 135 49 0
16.060000 3.080000 1.540000 52 138 52 0
16.280000 3.080000 1.540000 53 139 53 0
16.500000 3.080000 1.540000 53 138 53 0
16.720000 3.080000 1.540000 50 138 50 0
16.940000 3.080000 1.540000 50 139 50 0
17.160000 3.080000 1.760000 50 138 50 0
17.380000 3.080000 1.540000 50 137 50 0
17.600000 3.080000 1.540000 52 140 52 0
17.820000 3.080000 1.540000 51 140 51 0
18.040000 3.080000 1.540000 52 139 52 0
18.260000 3.080000 1.540000 49 139 49 0
18.480000 3.080000 1.540000 49 141 49 0
18.700000 3.080000 1.540000 51 140 51 0
18.920000 3.080000 1.540000 50 140 50 0
19.140000 3.080000 1.540000 50 139 50 0
19.360000 3.080000 1.540000 52 141 52 0
19.580000 3.080000 1.540000 50 140 50 0
19.800000 3.080000 1.760000 50 141 50 0
20.020000 3.080000 1.540000 51 138 51 0
20.240000 3.080000 1.760000 50 138 50 0
20.460000 3.080000 1.760000 51 140 51 0
20.680000 3.080000 1.760000 53 139 53 0
20.900000 3.080000 1.540000 51 140 51 0
21.120000 3.080000 1.540000 52 142 52 0
21.340000 3.080000 1.760000 50 139 50 0
21.560000 3.080000 1.760000 49 138 49 0
21.780000 3.080000 1.760000 50 138 50 0
22.000000 3.080000 1.760000 52 141 52 0
22.220000 3.080000 1.760000 49 138 49 0
22.440000 3.080000 1.760000 50 137 50 0
22.660000 3.080000 1.760000 51 137 51 0
22.880000 3.080000 1.760000 50 138 50 0
23.100000 3.080000 1.760000 51 139 51 0
23.320000 3.080000 1.760000 51 137 51 0
23.540000 3.080000 1.760000 51 137 51 0
23.760000 3.080000 1.760000 49 138 49 0
23.980000 3.080000 1.760000 51 137 51 0
24.200000 3.080000 1.760000 51 140 51 0
24.420000 3.080000 1.760000 50 136 50 0
24.640000 3.080000 1.760000 50 138 50 0
24.860000 3.080000 1.760000 49 137 49 0
25.080000 3.080000 1.760000 50 136 50 0
25.300000 3.080000 1.760000 50 137 50 0
25.520000 3.080000 1.760000 51 138 51 0
25.740000 3.080000 1.760000 51 137 51 0
25.960000 3.080000 1.760000 52 137 52 0
26.180000 3.080000 1.760000 49 137 49 0
26.400000 3.080000 1.760000 52 137 52 0
26.620000 3.080000 1.760000 51 136 51 0
26.840000 3.080000 1.760000 51 136 51 0
27.060000 3.080000 1.760000 51 137 51 0
27.280000 3.080000 1.760000 51 138 51 0
27.500000 3.080000 1.760000 51 136 51 0
27.720000 3.080000 1.760000 53 136 53 0
27.940000 3.080000 1.760000 53 137 53 0
28.160000 3.080000 1.760000 51 136 51 0
28.380000 3.080000 1.760000 50 135 50 0
28.600000 3.080000 1.760000 51 134 51 0
28.820000 3.080000 1.760000 50 136 50 0
29.040000 3.080000 1.760000 52 135 52 0
29.260000 3.080000 1.760000 51 135 51 0
29.480000 3.080000 1.760000 52 136 52 0
29.700000 3.080000 1.760000 52 136 52 0
29.920000 3.080000 1.760000 52 136 52 0
30.140000 3.080000 1.760000 50 137 50 0
30.360000 3.080000 1.760000 52 135 52 0
30.580000 3.080000 1.760000 52 134 52 0
30.800000 3.080000 1.760000 50 133 50 0
31.020000 3.080000 1.760000 51 137 51 0
31.240000 3.080000 1.760000 49 133 49 0
31.460000 3.080000 1.760000 51 134 51 0
31.680000 3.080000 1.760000 53 136 53 0
31.900000 3.080000 1.760000 53 135 53 0
32.120000 3.080000 1.760000 51 135 51 0
32.340000 3.080000 1.760000 51 136 51 0
32.560000 3.080000 1.980000 52 134 52 0
32.780000 3.080000 1.980000 49 132 49 0
33.000000 3.080000 1.980000 51 133 51 0
33.220000 3.080000 1.980000 51 133 51 0
33.440000 3.080000 1.980000 51 132 51 0
33.660000 3.080000 1.980000 53 134 53 0
33.880000 3.080000 1.980000 51 132 51 0
34.100000 3.080000 1.980000 52 131 52 0
34.320000 3.080000 1.980000 52 130 52 0
34.540000 3.080000 1.760000 52 129 52 0
34.760000 3.080000 1.540000 54 128 54 0
34.980000 3.080000 1.100000 54 126 54 0
35.200000 3.080000 1.320000 56 115 56 0
35.420000 3.080000 1.540000 59 94 59 0
35.640000 3.080000 43.560000 63 74 63 0
35.860000 3.080000 43.560000 64 66 64 0
36.080000 3.080000 43.560000 65 65 65 0
36.300000 3.080000 43.560000 65 65 65 0
36.520000 3.080000 43.560000 65 65 65 0
36.740000 3.080000 43.560000 64 64 64 0
36.960000 3.080000 43.560000 64 64 64 0
37.180000 3.080000 43.560000 64 64 64 0
0.000000 3.300000 42.240000 48 50 48 0
0.220000 3.300000 42.460000 50 54 50 0
0.440000 3.300000 42.460000 48 53 48 0
0.660000 3.300000 42.460000 47 49 47 0
0.880000 3.300000 42.460000 49 53 49 0
1.100000 3.300000 42.460000 49 54 49 0
1.320000 3.300000 42.460000 52 53 52 0
1.540000 3.300000 42.240000 50 55 50 0
1.760000 3.300000 42.240000 50 55 50 0
1.980000 3.300000 42.240000 48 53 48 0
2.200000 3.300000 42.240000 44 48 44 0
2.420000 3.300000 42.240000 50 53 50 0
2.640000 3.300000 42.240000 50 53 50 0
2.860000 3.300000 42.020000 49 50 49 0
3.080000 3.300000 42.020000 49 53 49 0
3.300000 3.300000 42.020000 49 52 49 0
3.520000 3.300000 42.020000 48 50 48 0
3.740000 3.300000 35.640000 47 49 47 0
3.960000 3.300000 35.640000 47 49 47 0
4.180000 3.300000 35.640000 47 49 47 0
4.400000 3.300000 35.640000 46 48 46 0
4.620000 3.300000 42.020000 47 49 47 0
4.840000 3.300000 42.020000 48 52 48 0
5.060000 3.300000 42.240000 50 52 50 0
5.280000 3.300000 42.240000 51 55 51 0
5.500000 3.300000 42.460000 49 52 49 0
5.720000 3.300000 36.300000 52 54 52 0
5.940000 3.300000 36.520000 51 54 51 0
6.160000 3.300000 43.120000 50 53 50 0
6.380000 3.300000 43.120000 52 54 52 0
6.600000 3.300000 43.340000 50 53 50 0
6.820000 3.300000 43.340000 50 53 50 0
7.040000 3.300000 43.340000 51 55 51 0
7.260000 3.300000 43.340000 50 53 50 0
7.480000 3.300000 43.340000 50 53 50 0
7.700000 3.300000 43.340000 52 55 52 0
7.920000 3.300000 43.340000 53 55 53 0
8.140000 3.300000 43.340000 54 57 54 0
8.360000 3.300000 43.340000 55 58 55 0
8.580000 3.300000 43.340000 54 57 54 0
8.800000 3.300000 43.120000 56 59 56 0
9.020000 3.300000 43.120000 56 58 56 0
9.240000 3.300000 43.120000 56 59 56 0
9.460000 3.300000 42.900000 57 59 57 0
9.680000 3.300000 42.900000 58 61 58 0
9.900000 3.300000 42.680000 58 60 58 0
10.120000 3.300000 42.680000 59 61 59 0
10.340000 3.300000 42.460000 58 60 58 0
10.560000 3.300000 42.460000 60 62 60 0
10.780000 3.300000 35.860000 57 59 57 0
11.000000 3.300000 35.640000 60 61 60 0
11.220000 3.300000 35.420000 60 62 60 0
11.440000 3.300000 35.200000 59 61 59 0
11.660000 3.300000 35.200000 61 63 61 0
11.880000 3.300000 34.980000 59 67 59 0
12.100000 3.300000 27.720000 60 73 60 0
12.320000 3.300000 20.020000 60 84 60 0
12.540000 3.300000 11.880000 55 90 55 0
12.760000 3.300000 11.660000 55 101 55 0
12.980000 3.300000 2.420000 54 109 54 0
13.200000 3.300000 2.420000 55 123 55 0
13.420000 3.300000 2.200000 53 132 53 0
13.640000 3.300000 1.980000 49 131 49 0
13.860000 3.300000 1.980000 49 129 49 0
14.080000 3.300000 1.760000 52 133 52 0
14.300000 3.300000 1.760000 47 133 47 0
14.520000 3.300000 1.760000 52 138 52 0
14.740000 3.300000 1.760000 50 138 50 0
14.960000 3.300000 1.760000 50 139 50 0
15.180000 3.300000 1.760000 50 139 50 0
15.400000 3.300000 1.760000 50 135 50 0
15.620000 3.300000 1.760000 51 136 51 0
15.840000 3.300000 1.760000 51 135 51 0
16.060000 3.300000 1.760000 51 137 51 0
16.280000 3.300000 1.760000 50 134 50 0
16.500000 3.300000 1.760000 51 134 51 0
16.720000 3.300000 1.760000 51 136 51 0
16.940000 3.300000 1.760000 52 135 52 0
17.160000 3.300000 1.760000 50 137 50 0
17.380000 3.300000 1.760000 51 136 51 0
17.600000 3.300000 1.760000 52 136 52 0
17.820000 3.300000 1.760000 51 135 51 0
18.040000 3.300000 1.760000 51 137 51 0
18.260000 3.300000 1.760000 50 135 50 0
18.480000 3.300000 1.760000 52 138 52 0
18.700000 3.300000 1.760000 50 136 50 0
18.920000 3.300000 1.760000 49 135 49 0
19.140000 3.300000 1.760000 49 137 49 0
19.360000 3.300000 1.760000 51 137 51 0
19.580000 3.300000 1.760000 50 136 50 0
19.800000 3.300000 1.760000 51 137 51 0
20.020000 3.300000 1.760000 52 140 52 0
20.240000 3.300000 1.760000 51 139 51 0
20.460000 3.300000 1.760000 51 137 51 0
20.680000 3.300000 1.760000 49 137 49 0
20.900000 3.300000 1.760000 50 138 50 0
21.120000 3.300000 1.760000 50 136 50 0
21.340000 3.300000 1.760000 51 138 51 0
21.560000 3.300000 1.760000 50 138 50 0
21.780000 3.300000 1.760000 50 137 50 0
22.000000 3.300000 1.760000 50 136 50 0
22.220000 3.300000 1.760000 51 135 51 0
22.440000 3.300000 1.760000 50 134 50 0
22.660000 3.300000 1.760000 51 138 51 0
22.880000 3.300000 1.760000 51 136 51 0
23.100000 3.300000 1.760000 50 134 50 0
23.320000 3.300000 1.760000 51 135 51 0
23.540000 3.300000 1.760000 51 134 51 0
23.760000 3.300000 1.760000 49 133 49 0
23.980000 3.300000 1.760000 51 134 51 0
24.200000 3.300000 1.760000 50 134 50 0
24.420000 3.300000 1.760000 49 134 49 0
24.640000 3.300000 1.760000 50 135 50 0
24.860000 3.300000 1.760000 50 135 50 0
25.080000 3.300000 1.760000 52 137 52 0
25.300000 3.300000 1.760000 50 136 50 0
25.520000 3.300000 1.760000 51 134 51 0
25.740000 3.300000 1.760000 51 133 51 0
25.960000 3.300000 1.760000 51 136 51 0
26.180000 3.300000 1.760000 51 134 51 0
26.400000 3.300000 1.760000 51 135 51 0
26.620000 3.300000 1.760000 50 134 50 0
26.840000 3.300000 1.760000 52 134 52 0
27.060000 3.300000 1.760000 51 134 51 0
27.280000 3.300000 1.760000 52 133 52 0
27.500000 3.300000 1.760000 51 133 51 0
27.720000 3.300000 1.760000 51 134 51 0
27.940000 3.300000 1.760000 52 134 52 0
28.160000 3.300000 1.760000 49 133 49 0
28.380000 3.300000 1.760000 51 133 51 0
28.600000 3.300000 1.760000 52 134 52 0
28.820000 3.300000 1.760000 50 132 50 0
29.040000 3.300000 1.760000 52 133 52 0
29.260000 3.300000 1.760000 51 134 51 0
29.480000 3.300000 1.760000 52 134 52 0
29.700000 3.300000 1.760000 51 132 51 0
29.920000 3.300000 1.760000 50 133 50 0
30.140000 3.300000 1.760000 51 132 51 0
30.360000 3.300000 1.760000 51 131 51 0
30.580000 3.300000 1.760000 51 132 51 0
30.800000 3.300000 1.760000 51 131 51 0
31.020000 3.300000 1.760000 52 132 52 0
31.240000 3.300000 1.760000 51 132 51 0
31.460000 3.300000 1.980000 51 132 51 0
31.680000 3.300000 1.980000 50 132 50 0
31.900000 3.300000 1.980000 51 131 51 0
32.120000 3.300000 1.980000 52 132 52 0
32.340000 3.300000 1.980000 51 133 51 0
32.560000 3.300000 1.980000 50 130 50 0
32.780000 3.300000 1.980000 53 132 53 0
33.000000 3.300000 1.980000 52 131 52 0
33.220000 3.300000 1.980000 53 131 53 0
33.440000 3.300000 1.980000 51 131 51 0
33.660000 3.300000 1.980000 52 132 52 0
33.880000 3.300000 1.980000 51 130 51 0
34.100000 3.300000 1.980000 53 131 53 0
34.320000 3.300000 1.980000 50 128 50 0
34.540000 3.300000 1.980000 51 128 51 0
34.760000 3.300000 1.980000 52 128 52 0
34.980000 3.300000 1.980000 52 128 52 0
35.200000 3.300000 1.980000 52 125 52 0
35.420000 3.300000 1.980000 54 122 54 0
35.640000 3.300000 1.760000 57 114 57 0
35.860000 3.300000 43.560000 61 93 61 0
36.080000 3.300000 43.560000 64 72 64 0
36.300000 3.300000 43.560000 64 65 64 0
36.520000 3.300000 43.560000 64 64 64 0
36.740000 3.300000 43.560000 65 65 65 0
36.960000 3.300000 43.560000 64 64 64 0
37.180000 3.300000 43.560000 64 64 64 0
0.000000 3.520000 43.560000 49 52 49 0
0.220000 3.520000 43.560000 49 52 49 0
0.440000 3.520000 43.560000 49 51 49 0
0.660000 3.520000 42.460000 49 56 49 0
0.880000 3.520000 42.460000 49 55 49 0
1.100000 3.520000 42.240000 47 52 47 0
1.320000 3.520000 42.240000 49 52 49 0
1.540000 3.520000 42.240000 48 51 48 0
1.760000 3.520000 42.240000 48 51 48 0
1.980000 3.520000 42.240000 47 52 47 0
2.200000 3.520000 42.240000 47 49 47 0
2.420000 3.520000 42.020000 48 53 48 0
2.640000 3.520000 42.020000 46 50 46 0
2.860000 3.520000 42.020000 48 52 48 0
3.080000 3.520000 42.020000 49 53 49 0
3.300000 3.520000 42.020000 47 49 47 0
3.520000 3.520000 42.020000 48 51 48 0
3.740000 3.520000 42.020000 48 50 48 0
3.960000 3.520000 41.800000 48 49 48 0
4.180000 3.520000 35.420000 47 49 47 0
4.400000 3.520000 41.800000 49 51 49 0
4.620000 3.520000 41.800000 46 48 46 0
4.840000 3.520000 42.020000 49 52 49 0
5.060000 3.520000 42.240000 49 51 49 0
5.280000 3.520000 42.460000 53 55 53 0
5.500000 3.520000 42.680000 51 54 51 0
5.720000 3.520000 36.520000 51 54 51 0
5.940000 3.520000 36.520000 50 54 50 0
6.160000 3.520000 43.120000 51 54 51 0
6.380000 3.520000 43.120000 53 56 53 0
6.600000 3.520000 43.340000 51 55 51 0
6.820000 3.520000 43.340000 51 55 51 0
7.040000 3.520000 43.340000 52 54 52 0
7.260000 3.520000 43.340000 51 55 51 0
7.480000 3.520000 43.560000 51 56 51 0
7.700000 3.520000 43.560000 49 52 49 0
7.920000 3.520000 43.560000 51 55 51 0
8.140000 3.520000 43.560000 54 57 54 0
8.360000 3.520000 43.560000 52 55 52 0
8.580000 3.520000 43.340000 52 56 52 0
8.800000 3.520000 43.340000 54 57 54 0
9.020000 3.520000 43.340000 55 57 55 0
9.240000 3.520000 43.340000 56 58 56 0
9.460000 3.520000 43.340000 54 57 54 0
9.680000 3.520000 43.120000 56 58 56 0
9.900000 3.520000 43.120000 57 59 57 0
10.120000 3.520000 43.120000 56 59 56 0
10.340000 3.520000 43.120000 58 60 58 0
10.560000 3.520000 42.900000 58 60 58 0
10.780000 3.520000 42.680000 58 60 58 0
11.000000 3.520000 42.460000 58 60 58 0
11.220000 3.520000 42.240000 58 61 58 0
11.440000 3.520000 42.020000 58 59 58 0
11.660000 3.520000 41.800000 59 61 59 0
11.880000 3.520000 41.800000 59 61 59 0
12.100000 3.520000 35.200000 59 60 59 0
12.320000 3.520000 35.200000 61 63 61 0
12.540000 3.520000 35.200000 60 65 60 0
12.760000 3.520000 34.980000 57 69 57 0
12.980000 3.520000 34.980000 55 74 55 0
13.200000 3.520000 27.720000 55 77 55 0
13.420000 3.520000 20.020000 57 82 57 0
13.640000 3.520000 11.440000 55 89 55 0
13.860000 3.520000 11.220000 57 99 57 0
14.080000 3.520000 11.220000 56 107 56 0
14.300000 3.520000 2.200000 54 117 54 0
14.520000 3.520000 1.980000 52 126 52 0
14.740000 3.520000 1.980000 51 131 51 0
14.960000 3.520000 1.980000 49 136 49 0
15.180000 3.520000 1.980000 49 135 49 0
15.400000 3.520000 1.980000 50 134 50 0
15.620000 3.520000 1.980000 51 137 51 0
15.840000 3.520000 1.980000 51 137 51 0
16.060000 3.520000 1.980000 49 136 49 0
16.280000 3.520000 1.980000 52 135 52 0
16.500000 3.520000 1.980000 50 134 50 0
16.720000 3.520000 1.980000 51 132 51 0
16.940000 3.520000 1.760000 52 135 52 0
17.160000 3.520000 1.760000 51 133 51 0
17.380000 3.520000 1.760000 51 130 51 0
17.600000 3.520000 1.760000 49 132 49 0
17.820000 3.520000 1.760000 50 132 50 0
18.040000 3.520000 1.760000 52 130 52 0
18.260000 3.520000 1.760000 50 131 50 0
18.480000 3.520000 1.760000 51 130 51 0
18.700000 3.520000 1.760000 51 131 51 0
18.920000 3.520000 1.760000 52 133 52 0
19.140000 3.520000 1.760000 51 131 51 0
19.360000 3.520000 1.760000 50 135 50 0
19.580000 3.520000 1.760000 50 133 50 0
19.800000 3.520000 1.760000 51 136 51 0
20.020000 3.520000 1.760000 50 133 50 0
20.240000 3.520000 1.760000 50 133 50 0
20.460000 3.520000 1.760000 50 135 50 0
20.680000 3.520000 1.760000 52 136 52 0
20.900000 3.520000 1.760000 51 135 51 0
21.120000 3.520000 1.760000 50 135 50 0
21.340000 3.520000 1.760000 51 134 51 0
21.560000 3.520000 1.760000 51 134 51 0
21.780000 3.520000 1.760000 50 133 50 0
22.000000 3.520000 1.760000 49 134 49 0
22.220000 3.520000 1.760000 51 132 51 0
22.440000 3.520000 1.760000 50 132 50 0
22.660000 3.520000 1.760000 50 133 50 0
22.880000 3.520000 1.760000 52 132 52 0
23.100000 3.520000 1.760000 51 134 51 0
23.320000 3.520000 1.760000 52 135 52 0
23.540000 3.520000 1.760000 51 133 51 0
23.760000 3.520000 1.760000 51 133 51 0
23.980000 3.520000 1.760000 50 132 50 0
24.200000 3.520000 1.760000 51 135 51 0
24.420000 3.520000 1.760000 50 131 50 0
24.640000 3.520000 1.760000 53 133 53 0
24.860000 3.520000 1.760000 50 132 50 0
25.080000 3.520000 1.760000 49 131 49 0
25.300000 3.520000 1.760000 51 131 51 0
25.520000 3.520000 1.760000 52 133 52 0
25.740000 3.520000 1.760000 50 130 50 0
25.960000 3.520000 1.760000 51 133 51 0
26.180000 3.520000 1.760000 50 131 50 0
26.400000 3.520000 1.760000 53 131 53 0
26.620000 3.520000 1.760000 50 131 50 0
26.840000 3.520000 1.760000 51 131 51 0
27.060000 3.520000 1.760000 50 131 50 0
27.280000 3.520000 1.760000 51 132 51 0
27.500000 3.520000 1.760000 52 134 52 0
27.720000 3.520000 1.760000 52 132 52 0
27.940000 3.520000 1.760000 51 131 51 0
28.160000 3.520000 1.760000 51 131 51 0
28.380000 3.520000 1.760000 50 130 50 0
28.600000 3.520000 1.760000 52 131 52 0
28.820000 3.520000 1.760000 50 130 50 0
29.040000 3.520000 1.760000 50 129 50 0
29.260000 3.520000 1.760000 51 131 51 0
29.480000 3.520000 1.760000 51 132 51 0
29.700000 3.520000 1.760000 51 131 51 0
29.920000 3.520000 1.760000 50 129 50 0
30.140000 3.520000 1.760000 50 130 50 0
30.360000 3.520000 1.760000 51 129 51 0
30.580000 3.520000 1.760000 50 129 50 0
30.800000 3.520000 1.760000 51 129 51 0
31.020000 3.520000 1.760000 51 130 51 0
31.240000 3.520000 1.760000 51 129 51 0
31.460000 3.520000 1.760000 50 129 50 0
31.680000 3.520000 1.760000 51 129 51 0
31.900000 3.520000 1.760000 52 130 52 0
32.120000 3.520000 1.760000 52 131 52 0
32.340000 3.520000 1.760000 50 128 50 0
32.560000 3.520000 1.980000 51 129 51 0
32.780000 3.520000 1.980000 53 129 53 0
33.000000 3.520000 1.760000 51 128 51 0
