ply
format ascii 1.0
element vertex 1203
property float x
property float y
property float z
property uchar red
property uchar green
property uchar blue
property uchar alpha
end_header
29.480000 6.820000 26.840000 42 44 42 0
29.700000 6.820000 27.060000 46 49 46 0
29.920000 6.820000 27.280000 46 49 46 0
30.140000 6.820000 27.280000 46 48 46 0
30.360000 6.820000 27.280000 48 51 48 0
30.580000 6.820000 27.500000 48 51 48 0
30.800000 6.820000 27.500000 48 51 48 0
31.020000 6.820000 27.500000 47 49 47 0
31.240000 6.820000 27.500000 50 52 50 0
31.460000 6.820000 27.500000 48 51 48 0
31.680000 6.820000 27.720000 50 53 50 0
31.900000 6.820000 27.720000 50 53 50 0
32.120000 6.820000 19.800000 46 49 46 0
32.340000 6.820000 19.800000 45 48 45 0
32.560000 6.820000 27.720000 45 47 45 0
32.780000 6.820000 27.720000 47 49 47 0
33.000000 6.820000 27.720000 46 47 46 0
33.220000 6.820000 27.720000 46 49 46 0
33.440000 6.820000 27.720000 47 48 47 0
33.660000 6.820000 27.940000 47 48 47 0
33.880000 6.820000 27.940000 47 50 47 0
34.100000 6.820000 28.160000 48 50 48 0
34.320000 6.820000 28.160000 45 48 45 0
34.540000 6.820000 28.380000 48 51 48 0
34.760000 6.820000 35.860000 48 49 48 0
34.980000 6.820000 36.080000 49 51 49 0
35.200000 6.820000 29.040000 48 49 48 0
35.420000 6.820000 29.260000 47 51 47 0
35.640000 6.820000 29.480000 49 53 49 0
35.860000 6.820000 29.700000 46 49 46 0
36.080000 6.820000 37.180000 50 50 50 0
36.300000 6.820000 37.180000 48 50 48 0
36.520000 6.820000 37.400000 48 51 48 0
36.740000 6.820000 37.400000 48 51 48 0
36.960000 6.820000 30.360000 48 49 48 0
37.180000 6.820000 30.360000 46 49 46 0
0.000000 7.040000 34.100000 46 52 46 0
0.220000 7.040000 33.880000 47 51 47 0
0.440000 7.040000 33.880000 44 49 44 0
0.660000 7.040000 34.100000 44 47 44 0
0.880000 7.040000 35.420000 45 48 45 0
1.100000 7.040000 30.140000 50 54 50 0
1.320000 7.040000 31.020000 47 49 47 0
1.540000 7.040000 38.060000 49 52 49 0
1.760000 7.040000 38.060000 47 51 47 0
1.980000 7.040000 38.060000 49 50 49 0
2.200000 7.040000 38.060000 47 48 47 0
2.420000 7.040000 31.020000 47 49 47 0
2.640000 7.040000 31.020000 45 48 45 0
2.860000 7.040000 31.020000 47 48 47 0
3.080000 7.040000 31.020000 46 47 46 0
3.300000 7.040000 31.020000 47 51 47 0
3.520000 7.040000 31.020000 47 49 47 0
3.740000 7.040000 38.280000 46 48 46 0
3.960000 7.040000 38.280000 45 47 45 0
4.180000 7.040000 38.280000 48 50 48 0
4.400000 7.040000 38.280000 47 50 47 0
4.620000 7.040000 38.060000 46 50 46 0
4.840000 7.040000 31.020000 44 46 44 0
5.060000 7.040000 29.920000 47 48 47 0
5.280000 7.040000 35.200000 49 51 49 0
5.500000 7.040000 33.660000 46 49 46 0
5.720000 7.040000 33.440000 50 52 50 0
5.940000 7.040000 33.660000 49 49 49 0
6.160000 7.040000 33.660000 49 53 49 0
6.380000 7.040000 33.880000 47 53 47 0
6.600000 7.040000 33.880000 49 53 49 0
6.820000 7.040000 33.880000 49 50 49 0
7.040000 7.040000 33.880000 48 49 48 0
7.260000 7.040000 33.880000 48 49 48 0
7.480000 7.040000 33.880000 48 51 48 0
7.700000 7.040000 33.880000 48 49 48 0
7.920000 7.040000 33.660000 47 50 47 0
8.140000 7.040000 33.660000 46 50 46 0
8.360000 7.040000 33.660000 49 52 49 0
8.580000 7.040000 33.660000 48 51 48 0
8.800000 7.040000 33.660000 50 52 50 0
9.020000 7.040000 33.660000 47 51 47 0
9.240000 7.040000 33.660000 49 50 49 0
9.460000 7.040000 33.440000 48 49 48 0
9.680000 7.040000 33.440000 48 53 48 0
9.900000 7.040000 33.440000 49 52 49 0
10.120000 7.040000 33.880000 49 50 49 0
10.340000 7.040000 34.760000 48 51 48 0
10.560000 7.040000 34.980000 48 50 48 0
10.780000 7.040000 27.500000 48 50 48 0
11.000000 7.040000 27.500000 47 49 47 0
11.220000 7.040000 27.500000 51 53 51 0
11.440000 7.040000 28.380000 44 47 44 0
11.660000 7.040000 29.920000 47 48 47 0
11.880000 7.040000 30.800000 47 49 47 0
12.100000 7.040000 30.800000 45 47 45 0
12.320000 7.040000 30.800000 46 47 46 0
12.540000 7.040000 30.800000 45 48 45 0
12.760000 7.040000 31.020000 46 48 46 0
12.980000 7.040000 31.020000 47 49 47 0
13.200000 7.040000 31.020000 48 49 48 0
13.420000 7.040000 30.140000 45 47 45 0
13.640000 7.040000 28.380000 48 50 48 0
13.860000 7.040000 27.500000 49 50 49 0
14.080000 7.040000 27.720000 49 51 49 0
14.300000 7.040000 27.720000 47 50 47 0
14.520000 7.040000 27.940000 50 52 50 0
14.740000 7.040000 27.940000 48 51 48 0
14.960000 7.040000 35.200000 47 48 47 0
15.180000 7.040000 27.940000 50 53 50 0
15.400000 7.040000 27.940000 47 51 47 0
15.620000 7.040000 27.720000 48 57 48 0
15.840000 7.040000 27.500000 45 49 45 0
16.060000 7.040000 28.380000 48 51 48 0
16.280000 7.040000 29.920000 47 52 47 0
16.500000 7.040000 30.800000 48 52 48 0
16.720000 7.040000 30.580000 49 51 49 0
16.940000 7.040000 30.580000 48 52 48 0
17.160000 7.040000 31.020000 44 45 44 0
17.380000 7.040000 31.900000 43 46 43 0
17.600000 7.040000 32.340000 44 47 44 0
17.820000 7.040000 31.900000 47 49 47 0
18.040000 7.040000 30.360000 49 50 49 0
18.260000 7.040000 28.380000 46 48 46 0
18.480000 7.040000 27.720000 46 49 46 0
18.700000 7.040000 34.760000 48 49 48 0
18.920000 7.040000 33.880000 50 53 50 0
19.140000 7.040000 33.440000 48 51 48 0
19.360000 7.040000 33.660000 49 51 49 0
19.580000 7.040000 26.180000 49 51 49 0
19.800000 7.040000 26.180000 48 50 48 0
20.020000 7.040000 26.400000 48 50 48 0
20.240000 7.040000 26.400000 49 51 49 0
20.460000 7.040000 26.400000 49 52 49 0
20.680000 7.040000 26.400000 49 53 49 0
20.900000 7.040000 26.620000 49 53 49 0
21.120000 7.040000 26.620000 49 52 49 0
21.340000 7.040000 26.620000 49 51 49 0
21.560000 7.040000 26.620000 48 50 48 0
21.780000 7.040000 26.840000 48 50 48 0
22.000000 7.040000 26.840000 49 50 49 0
22.220000 7.040000 26.840000 47 49 47 0
22.440000 7.040000 26.840000 49 54 49 0
22.660000 7.040000 27.060000 48 52 48 0
22.880000 7.040000 27.060000 50 53 50 0
23.100000 7.040000 27.060000 50 52 50 0
23.320000 7.040000 27.060000 48 51 48 0
23.540000 7.040000 27.060000 48 52 48 0
23.760000 7.040000 27.060000 49 52 49 0
23.980000 7.040000 27.060000 47 50 47 0
24.200000 7.040000 34.540000 49 53 49 0
24.420000 7.040000 34.540000 50 52 50 0
24.640000 7.040000 34.540000 49 54 49 0
24.860000 7.040000 34.540000 50 53 50 0
25.080000 7.040000 34.540000 49 53 49 0
25.300000 7.040000 34.760000 45 50 45 0
25.520000 7.040000 34.540000 48 54 48 0
25.740000 7.040000 34.540000 47 50 47 0
25.960000 7.040000 34.540000 45 49 45 0
26.180000 7.040000 34.100000 45 50 45 0
26.400000 7.040000 26.400000 46 50 46 0
26.620000 7.040000 27.060000 46 48 46 0
26.840000 7.040000 27.280000 44 46 44 0
27.060000 7.040000 27.500000 41 43 41 0
27.280000 7.040000 27.500000 44 46 44 0
27.500000 7.040000 27.500000 41 43 41 0
27.720000 7.040000 28.380000 38 40 38 0
27.940000 7.040000 30.140000 41 43 41 0
28.160000 7.040000 31.020000 38 40 38 0
28.380000 7.040000 30.140000 40 42 40 0
28.600000 7.040000 28.380000 39 42 39 0
28.820000 7.040000 27.280000 43 44 43 0
29.040000 7.040000 26.620000 44 48 44 0
29.260000 7.040000 26.620000 45 47 45 0
29.480000 7.040000 26.840000 46 50 46 0
29.700000 7.040000 27.060000 50 53 50 0
29.920000 7.040000 27.060000 44 49 44 0
30.140000 7.040000 27.060000 47 50 47 0
30.360000 7.040000 27.280000 48 49 48 0
30.580000 7.040000 27.280000 48 50 48 0
30.800000 7.040000 27.280000 47 48 47 0
31.020000 7.040000 27.280000 49 52 49 0
31.240000 7.040000 27.280000 47 49 47 0
31.460000 7.040000 27.500000 48 50 48 0
31.680000 7.040000 27.500000 50 54 50 0
31.900000 7.040000 19.360000 48 51 48 0
32.120000 7.040000 19.360000 48 52 48 0
32.340000 7.040000 27.500000 47 50 47 0
32.560000 7.040000 27.500000 47 49 47 0
32.780000 7.040000 27.500000 48 50 48 0
33.000000 7.040000 27.500000 46 48 46 0
33.220000 7.040000 27.500000 48 49 48 0
33.440000 7.040000 34.980000 49 50 49 0
33.660000 7.040000 34.980000 47 50 47 0
33.880000 7.040000 35.200000 48 50 48 0
34.100000 7.040000 27.940000 48 50 48 0
34.320000 7.040000 28.160000 45 48 45 0
34.540000 7.040000 28.380000 45 47 45 0
34.760000 7.040000 35.860000 48 53 48 0
34.980000 7.040000 36.080000 47 51 47 0
35.200000 7.040000 29.040000 49 50 49 0
35.420000 7.040000 29.480000 47 50 47 0
35.640000 7.040000 29.700000 46 50 46 0
35.860000 7.040000 29.920000 48 50 48 0
36.080000 7.040000 29.920000 49 51 49 0
36.300000 7.040000 37.400000 48 51 48 0
36.520000 7.040000 37.400000 47 49 47 0
36.740000 7.040000 37.620000 49 50 49 0
36.960000 7.040000 37.620000 49 52 49 0
37.180000 7.040000 30.360000 49 51 49 0
0.000000 7.260000 34.100000 47 51 47 0
0.220000 7.260000 34.100000 47 50 47 0
0.440000 7.260000 33.880000 49 53 49 0
0.660000 7.260000 33.660000 45 47 45 0
0.880000 7.260000 33.880000 49 52 49 0
1.100000 7.260000 34.540000 49 52 49 0
1.320000 7.260000 34.760000 46 48 46 0
1.540000 7.260000 34.760000 46 47 46 0
1.760000 7.260000 34.760000 49 51 49 0
1.980000 7.260000 34.760000 48 52 48 0
2.200000 7.260000 34.760000 49 50 49 0
2.420000 7.260000 34.760000 47 49 47 0
2.640000 7.260000 34.760000 46 49 46 0
2.860000 7.260000 34.760000 46 47 46 0
3.080000 7.260000 34.760000 48 50 48 0
3.300000 7.260000 34.980000 48 49 48 0
3.520000 7.260000 34.980000 46 48 46 0
3.740000 7.260000 34.980000 47 49 47 0
3.960000 7.260000 34.980000 46 48 46 0
4.180000 7.260000 34.980000 48 48 48 0
4.400000 7.260000 34.980000 48 50 48 0
4.620000 7.260000 34.760000 45 47 45 0
4.840000 7.260000 34.760000 45 46 45 0
5.060000 7.260000 34.320000 45 47 45 0
5.280000 7.260000 33.440000 46 48 46 0
5.500000 7.260000 33.220000 45 49 45 0
5.720000 7.260000 33.440000 47 48 47 0
5.940000 7.260000 33.660000 47 52 47 0
6.160000 7.260000 33.880000 46 47 46 0
6.380000 7.260000 33.880000 48 51 48 0
6.600000 7.260000 33.880000 48 52 48 0
6.820000 7.260000 33.880000 47 50 47 0
7.040000 7.260000 33.880000 47 49 47 0
7.260000 7.260000 33.880000 49 51 49 0
7.480000 7.260000 33.880000 47 51 47 0
7.700000 7.260000 33.880000 47 50 47 0
7.920000 7.260000 33.660000 47 49 47 0
8.140000 7.260000 33.660000 49 52 49 0
8.360000 7.260000 33.660000 50 53 50 0
8.580000 7.260000 26.180000 50 52 50 0
8.800000 7.260000 26.180000 50 52 50 0
9.020000 7.260000 33.660000 48 52 48 0
9.240000 7.260000 33.660000 46 49 46 0
9.460000 7.260000 33.660000 47 49 47 0
9.680000 7.260000 33.440000 48 50 48 0
9.900000 7.260000 33.440000 48 50 48 0
10.120000 7.260000 33.440000 49 50 49 0
10.340000 7.260000 33.440000 48 51 48 0
10.560000 7.260000 33.440000 50 53 50 0
10.780000 7.260000 25.740000 49 53 49 0
11.000000 7.260000 25.740000 48 50 48 0
11.220000 7.260000 25.520000 48 49 48 0
11.440000 7.260000 25.740000 48 49 48 0
11.660000 7.260000 26.620000 45 46 45 0
11.880000 7.260000 27.060000 46 48 46 0
12.100000 7.260000 27.060000 48 50 48 0
12.320000 7.260000 27.280000 49 50 49 0
12.540000 7.260000 27.280000 49 50 49 0
12.760000 7.260000 27.280000 46 48 46 0
12.980000 7.260000 27.280000 48 49 48 0
13.200000 7.260000 27.280000 49 52 49 0
13.420000 7.260000 27.060000 45 48 45 0
13.640000 7.260000 26.180000 46 49 46 0
13.860000 7.260000 25.740000 46 49 46 0
14.080000 7.260000 33.440000 47 49 47 0
14.300000 7.260000 33.660000 47 50 47 0
14.520000 7.260000 33.660000 49 54 49 0
14.740000 7.260000 33.660000 52 54 52 0
14.960000 7.260000 33.660000 50 53 50 0
15.180000 7.260000 33.660000 50 53 50 0
15.400000 7.260000 33.660000 49 51 49 0
15.620000 7.260000 33.660000 49 57 49 0
15.840000 7.260000 25.740000 45 48 45 0
16.060000 7.260000 26.180000 49 51 49 0
16.280000 7.260000 27.060000 47 51 47 0
16.500000 7.260000 27.280000 47 50 47 0
16.720000 7.260000 27.060000 49 52 49 0
16.940000 7.260000 34.540000 47 49 47 0
17.160000 7.260000 35.200000 44 47 44 0
17.380000 7.260000 29.700000 43 48 43 0
17.600000 7.260000 30.580000 46 49 46 0
17.820000 7.260000 29.700000 46 48 46 0
18.040000 7.260000 34.980000 48 51 48 0
18.260000 7.260000 33.440000 48 49 48 0
18.480000 7.260000 33.220000 47 50 47 0
18.700000 7.260000 33.440000 45 49 45 0
18.920000 7.260000 33.440000 47 49 47 0
19.140000 7.260000 33.660000 48 50 48 0
19.360000 7.260000 33.660000 46 49 46 0
19.580000 7.260000 33.660000 48 52 48 0
19.800000 7.260000 26.180000 48 51 48 0
20.020000 7.260000 26.180000 48 50 48 0
20.240000 7.260000 26.180000 49 53 49 0
20.460000 7.260000 26.400000 49 50 49 0
20.680000 7.260000 26.400000 49 51 49 0
20.900000 7.260000 26.400000 48 50 48 0
21.120000 7.260000 26.400000 49 50 49 0
21.340000 7.260000 26.620000 49 50 49 0
21.560000 7.260000 26.620000 48 50 48 0
21.780000 7.260000 26.620000 48 50 48 0
22.000000 7.260000 26.620000 50 53 50 0
22.220000 7.260000 26.620000 48 53 48 0
22.440000 7.260000 26.620000 47 48 47 0
22.660000 7.260000 26.840000 49 51 49 0
22.880000 7.260000 26.840000 50 53 50 0
23.100000 7.260000 26.840000 48 48 48 0
23.320000 7.260000 26.840000 49 54 49 0
23.540000 7.260000 26.840000 47 50 47 0
23.760000 7.260000 26.840000 48 53 48 0
23.980000 7.260000 26.840000 47 50 47 0
24.200000 7.260000 34.320000 48 52 48 0
24.420000 7.260000 34.320000 49 53 49 0
24.640000 7.260000 34.320000 46 51 46 0
24.860000 7.260000 34.320000 48 51 48 0
25.080000 7.260000 34.320000 48 52 48 0
25.300000 7.260000 34.540000 46 51 46 0
25.520000 7.260000 34.320000 46 48 46 0
25.740000 7.260000 34.320000 48 51 48 0
25.960000 7.260000 34.100000 48 53 48 0
26.180000 7.260000 33.880000 46 50 46 0
26.400000 7.260000 33.220000 46 49 46 0
26.620000 7.260000 33.000000 46 48 46 0
26.840000 7.260000 25.520000 42 45 42 0
27.060000 7.260000 25.520000 42 43 42 0
27.280000 7.260000 25.740000 39 41 39 0
27.500000 7.260000 25.740000 37 42 37 0
27.720000 7.260000 26.180000 42 44 42 0
27.940000 7.260000 27.060000 39 41 39 0
28.160000 7.260000 27.500000 44 46 44 0
28.380000 7.260000 27.060000 41 44 41 0
28.600000 7.260000 26.180000 38 40 38 0
28.820000 7.260000 25.960000 45 46 45 0
29.040000 7.260000 26.180000 42 43 42 0
29.260000 7.260000 26.620000 44 45 44 0
29.480000 7.260000 26.840000 44 45 44 0
29.700000 7.260000 26.840000 44 48 44 0
29.920000 7.260000 26.840000 45 51 45 0
30.140000 7.260000 26.840000 46 48 46 0
30.360000 7.260000 27.060000 47 48 47 0
30.580000 7.260000 27.060000 48 53 48 0
30.800000 7.260000 27.060000 46 53 46 0
31.020000 7.260000 27.060000 48 52 48 0
31.240000 7.260000 27.060000 48 52 48 0
31.460000 7.260000 27.060000 47 48 47 0
31.680000 7.260000 27.280000 48 50 48 0
31.900000 7.260000 19.140000 48 51 48 0
32.120000 7.260000 19.140000 46 48 46 0
32.340000 7.260000 27.280000 44 46 44 0
32.560000 7.260000 27.280000 46 47 46 0
32.780000 7.260000 27.280000 48 49 48 0
33.000000 7.260000 27.280000 47 47 47 0
33.220000 7.260000 27.280000 45 47 45 0
33.440000 7.260000 34.760000 49 51 49 0
33.660000 7.260000 34.980000 48 50 48 0
33.880000 7.260000 35.200000 47 50 47 0
34.100000 7.260000 27.940000 48 50 48 0
34.320000 7.260000 28.380000 47 49 47 0
34.540000 7.260000 28.600000 48 49 48 0
34.760000 7.260000 28.820000 49 53 49 0
34.980000 7.260000 29.040000 48 51 48 0
35.200000 7.260000 29.260000 51 55 51 0
35.420000 7.260000 29.480000 49 52 49 0
35.640000 7.260000 29.700000 47 48 47 0
35.860000 7.260000 29.920000 49 53 49 0
36.080000 7.260000 29.920000 47 50 47 0
36.300000 7.260000 30.140000 47 48 47 0
36.520000 7.260000 30.140000 47 50 47 0
36.740000 7.260000 37.400000 46 49 46 0
36.960000 7.260000 37.620000 49 51 49 0
37.180000 7.260000 30.360000 50 51 50 0
0.000000 7.480000 33.880000 47 51 47 0
0.220000 7.480000 33.880000 49 53 49 0
0.440000 7.480000 33.880000 48 52 48 0
0.660000 7.480000 33.660000 49 52 49 0
0.880000 7.480000 33.440000 48 53 48 0
1.100000 7.480000 33.220000 47 49 47 0
1.320000 7.480000 33.000000 46 48 46 0
1.540000 7.480000 33.220000 47 48 47 0
1.760000 7.480000 33.220000 49 51 49 0
1.980000 7.480000 33.220000 48 49 48 0
2.200000 7.480000 33.220000 47 48 47 0
2.420000 7.480000 33.220000 48 48 48 0
2.640000 7.480000 33.220000 48 48 48 0
2.860000 7.480000 33.220000 49 51 49 0
3.080000 7.480000 33.220000 47 49 47 0
3.300000 7.480000 33.220000 47 50 47 0
3.520000 7.480000 33.220000 49 51 49 0
3.740000 7.480000 33.220000 50 52 50 0
3.960000 7.480000 33.220000 49 49 49 0
4.180000 7.480000 33.220000 47 48 47 0
4.400000 7.480000 33.220000 48 48 48 0
4.620000 7.480000 33.220000 47 48 47 0
4.840000 7.480000 33.220000 48 49 48 0
5.060000 7.480000 33.000000 45 46 45 0
5.280000 7.480000 33.000000 42 45 42 0
5.500000 7.480000 33.220000 45 47 45 0
5.720000 7.480000 33.220000 46 47 46 0
5.940000 7.480000 33.440000 45 47 45 0
6.160000 7.480000 33.660000 47 50 47 0
6.380000 7.480000 33.660000 47 49 47 0
6.600000 7.480000 33.660000 48 50 48 0
6.820000 7.480000 33.660000 46 50 46 0
7.040000 7.480000 33.660000 49 51 49 0
7.260000 7.480000 33.660000 48 50 48 0
7.480000 7.480000 33.660000 49 54 49 0
7.700000 7.480000 33.660000 50 51 50 0
7.920000 7.480000 33.660000 48 49 48 0
8.140000 7.480000 33.660000 48 51 48 0
8.360000 7.480000 25.960000 46 49 46 0
8.580000 7.480000 25.960000 49 52 49 0
8.800000 7.480000 25.960000 48 50 48 0
9.020000 7.480000 25.960000 49 50 49 0
9.240000 7.480000 25.960000 48 52 48 0
9.460000 7.480000 25.960000 50 51 50 0
9.680000 7.480000 25.960000 47 51 47 0
9.900000 7.480000 25.960000 48 50 48 0
10.120000 7.480000 25.960000 46 48 46 0
10.340000 7.480000 25.960000 45 47 45 0
10.560000 7.480000 25.740000 47 49 47 0
10.780000 7.480000 25.740000 49 51 49 0
11.000000 7.480000 25.740000 48 50 48 0
11.220000 7.480000 25.300000 47 50 47 0
11.440000 7.480000 25.080000 45 46 45 0
11.660000 7.480000 25.080000 48 49 48 0
11.880000 7.480000 25.300000 47 50 47 0
12.100000 7.480000 25.300000 48 50 48 0
12.320000 7.480000 25.300000 47 50 47 0
12.540000 7.480000 25.520000 48 50 48 0
12.760000 7.480000 25.520000 49 50 49 0
12.980000 7.480000 25.520000 49 51 49 0
13.200000 7.480000 25.520000 47 50 47 0
13.420000 7.480000 25.740000 49 50 49 0
13.640000 7.480000 25.740000 48 50 48 0
13.860000 7.480000 25.960000 50 52 50 0
14.080000 7.480000 33.660000 49 52 49 0
14.300000 7.480000 33.660000 47 49 47 0
14.520000 7.480000 33.660000 50 51 50 0
14.740000 7.480000 33.660000 49 51 49 0
14.960000 7.480000 33.660000 46 50 46 0
15.180000 7.480000 33.660000 47 51 47 0
15.400000 7.480000 33.660000 48 51 48 0
15.620000 7.480000 33.660000 51 55 51 0
15.840000 7.480000 33.440000 45 49 45 0
16.060000 7.480000 25.740000 49 50 49 0
16.280000 7.480000 25.520000 46 49 46 0
16.500000 7.480000 33.000000 47 52 47 0
16.720000 7.480000 33.000000 45 47 45 0
16.940000 7.480000 33.000000 49 52 49 0
17.160000 7.480000 33.220000 46 48 46 0
17.380000 7.480000 34.100000 44 49 44 0
17.600000 7.480000 34.540000 46 47 46 0
17.820000 7.480000 34.100000 46 48 46 0
18.040000 7.480000 33.440000 49 51 49 0
18.260000 7.480000 33.000000 46 49 46 0
18.480000 7.480000 33.220000 50 51 50 0
18.700000 7.480000 33.440000 48 51 48 0
18.920000 7.480000 33.440000 47 49 47 0
19.140000 7.480000 33.440000 49 50 49 0
19.360000 7.480000 33.440000 49 51 49 0
19.580000 7.480000 33.660000 48 50 48 0
19.800000 7.480000 33.660000 50 51 50 0
20.020000 7.480000 26.180000 50 52 50 0
20.240000 7.480000 26.180000 48 51 48 0
20.460000 7.480000 26.180000 47 49 47 0
20.680000 7.480000 26.180000 51 52 51 0
20.900000 7.480000 26.180000 48 50 48 0
21.120000 7.480000 26.180000 47 49 47 0
21.340000 7.480000 26.400000 49 50 49 0
21.560000 7.480000 26.400000 47 48 47 0
21.780000 7.480000 26.400000 48 49 48 0
22.000000 7.480000 26.400000 49 50 49 0
22.220000 7.480000 26.400000 47 51 47 0
22.440000 7.480000 26.400000 49 52 49 0
22.660000 7.480000 26.620000 51 53 51 0
22.880000 7.480000 26.620000 45 49 45 0
23.100000 7.480000 26.620000 48 51 48 0
23.320000 7.480000 26.620000 48 51 48 0
23.540000 7.480000 34.100000 48 52 48 0
23.760000 7.480000 34.100000 47 52 47 0
23.980000 7.480000 34.320000 46 49 46 0
24.200000 7.480000 34.100000 48 51 48 0
24.420000 7.480000 34.100000 46 49 46 0
24.640000 7.480000 34.100000 48 51 48 0
24.860000 7.480000 34.100000 44 48 44 0
25.080000 7.480000 34.100000 46 50 46 0
25.300000 7.480000 34.100000 47 50 47 0
25.520000 7.480000 34.100000 49 52 49 0
25.740000 7.480000 34.100000 45 49 45 0
25.960000 7.480000 33.880000 47 49 47 0
26.180000 7.480000 33.660000 42 46 42 0
26.400000 7.480000 33.220000 44 45 44 0
26.620000 7.480000 33.220000 44 47 44 0
26.840000 7.480000 25.520000 42 43 42 0
27.060000 7.480000 25.740000 42 44 42 0
27.280000 7.480000 25.740000 44 44 44 0
27.500000 7.480000 25.740000 42 43 42 0
27.720000 7.480000 25.740000 41 43 41 0
27.940000 7.480000 25.740000 41 45 41 0
28.160000 7.480000 33.440000 45 47 45 0
28.380000 7.480000 33.220000 42 44 42 0
28.600000 7.480000 33.440000 43 46 43 0
28.820000 7.480000 33.440000 42 44 42 0
29.040000 7.480000 26.180000 41 43 41 0
29.260000 7.480000 26.400000 46 48 46 0
29.480000 7.480000 26.400000 44 47 44 0
29.700000 7.480000 26.620000 47 49 47 0
29.920000 7.480000 26.620000 47 50 47 0
30.140000 7.480000 26.620000 48 51 48 0
30.360000 7.480000 26.840000 46 48 46 0
30.580000 7.480000 26.840000 48 49 48 0
30.800000 7.480000 26.840000 47 48 47 0
31.020000 7.480000 26.840000 46 47 46 0
31.240000 7.480000 26.840000 49 52 49 0
31.460000 7.480000 26.840000 49 51 49 0
31.680000 7.480000 27.060000 49 49 49 0
31.900000 7.480000 27.060000 49 53 49 0
32.120000 7.480000 27.060000 49 49 49 0
32.340000 7.480000 27.060000 49 51 49 0
32.560000 7.480000 27.280000 43 45 43 0
32.780000 7.480000 27.280000 47 48 47 0
33.000000 7.480000 27.280000 43 44 43 0
33.220000 7.480000 27.280000 49 52 49 0
33.440000 7.480000 27.500000 49 51 49 0
33.660000 7.480000 27.500000 48 48 48 0
33.880000 7.480000 27.940000 46 48 46 0
34.100000 7.480000 28.160000 48 49 48 0
34.320000 7.480000 28.600000 47 49 47 0
34.540000 7.480000 28.820000 47 52 47 0
34.760000 7.480000 29.040000 48 50 48 0
34.980000 7.480000 29.040000 49 53 49 0
35.200000 7.480000 29.260000 45 47 45 0
35.420000 7.480000 29.480000 49 52 49 0
35.640000 7.480000 29.700000 49 51 49 0
35.860000 7.480000 29.920000 50 52 50 0
36.080000 7.480000 29.920000 49 50 49 0
36.300000 7.480000 29.920000 47 50 47 0
36.520000 7.480000 37.400000 48 51 48 0
36.740000 7.480000 37.400000 50 52 50 0
36.960000 7.480000 37.400000 49 51 49 0
37.180000 7.480000 30.140000 48 51 48 0
0.000000 7.700000 33.660000 49 54 49 0
0.220000 7.700000 33.660000 45 49 45 0
0.440000 7.700000 33.660000 46 50 46 0
0.660000 7.700000 33.660000 43 46 43 0
0.880000 7.700000 33.440000 45 47 45 0
1.100000 7.700000 33.220000 50 52 50 0
1.320000 7.700000 33.220000 47 47 47 0
1.540000 7.700000 33.220000 47 48 47 0
1.760000 7.700000 33.220000 45 47 45 0
1.980000 7.700000 33.220000 48 50 48 0
2.200000 7.700000 33.220000 49 51 49 0
2.420000 7.700000 33.220000 48 50 48 0
2.640000 7.700000 33.220000 50 52 50 0
2.860000 7.700000 33.220000 50 52 50 0
3.080000 7.700000 33.220000 48 50 48 0
3.300000 7.700000 33.220000 48 49 48 0
3.520000 7.700000 33.220000 50 51 50 0
3.740000 7.700000 33.220000 48 50 48 0
3.960000 7.700000 33.220000 48 49 48 0
4.180000 7.700000 33.220000 49 50 49 0
4.400000 7.700000 33.220000 48 50 48 0
4.620000 7.700000 33.220000 46 47 46 0
4.840000 7.700000 33.220000 47 48 47 0
5.060000 7.700000 33.220000 48 50 48 0
5.280000 7.700000 33.220000 47 49 47 0
5.500000 7.700000 33.220000 48 50 48 0
5.720000 7.700000 33.220000 45 46 45 0
5.940000 7.700000 33.220000 46 47 46 0
6.160000 7.700000 33.220000 48 49 48 0
6.380000 7.700000 33.440000 47 47 47 0
6.600000 7.700000 33.440000 47 51 47 0
6.820000 7.700000 33.440000 47 48 47 0
7.040000 7.700000 33.660000 47 49 47 0
7.260000 7.700000 33.660000 48 49 48 0
7.480000 7.700000 33.660000 47 50 47 0
7.700000 7.700000 33.660000 46 49 46 0
7.920000 7.700000 33.440000 47 50 47 0
8.140000 7.700000 25.960000 48 51 48 0
8.360000 7.700000 25.740000 47 50 47 0
8.580000 7.700000 25.740000 47 50 47 0
8.800000 7.700000 25.740000 49 51 49 0
9.020000 7.700000 25.740000 50 52 50 0
9.240000 7.700000 25.740000 46 50 46 0
9.460000 7.700000 25.740000 47 49 47 0
9.680000 7.700000 25.740000 46 48 46 0
9.900000 7.700000 25.740000 49 50 49 0
10.120000 7.700000 25.740000 46 50 46 0
10.340000 7.700000 25.740000 47 48 47 0
10.560000 7.700000 25.740000 46 48 46 0
10.780000 7.700000 25.520000 46 47 46 0
11.000000 7.700000 25.520000 44 45 44 0
11.220000 7.700000 25.300000 47 50 47 0
11.440000 7.700000 25.080000 45 47 45 0
11.660000 7.700000 25.080000 46 47 46 0
11.880000 7.700000 25.300000 49 51 49 0
12.100000 7.700000 25.300000 47 49 47 0
12.320000 7.700000 25.520000 48 49 48 0
12.540000 7.700000 25.520000 49 50 49 0
12.760000 7.700000 25.520000 48 50 48 0
12.980000 7.700000 25.520000 47 50 47 0
13.200000 7.700000 25.520000 47 50 47 0
13.420000 7.700000 25.740000 49 50 49 0
13.640000 7.700000 33.440000 50 52 50 0
13.860000 7.700000 33.440000 49 51 49 0
14.080000 7.700000 33.440000 50 52 50 0
14.300000 7.700000 33.660000 48 52 48 0
14.520000 7.700000 33.660000 50 52 50 0
14.740000 7.700000 33.660000 48 51 48 0
14.960000 7.700000 33.660000 48 52 48 0
15.180000 7.700000 33.660000 46 50 46 0
15.400000 7.700000 33.660000 48 50 48 0
15.620000 7.700000 33.660000 49 50 49 0
15.840000 7.700000 33.440000 47 51 47 0
16.060000 7.700000 25.740000 47 49 47 0
16.280000 7.700000 25.740000 48 51 48 0
16.500000 7.700000 25.520000 48 51 48 0
16.720000 7.700000 33.000000 47 52 47 0
16.940000 7.700000 33.000000 46 48 46 0
17.160000 7.700000 33.000000 46 49 46 0
17.380000 7.700000 32.780000 45 48 45 0
17.600000 7.700000 32.780000 47 51 47 0
17.820000 7.700000 32.780000 47 50 47 0
18.040000 7.700000 32.780000 48 49 48 0
18.260000 7.700000 33.000000 46 48 46 0
18.480000 7.700000 33.220000 46 48 46 0
18.700000 7.700000 33.220000 46 48 46 0
18.920000 7.700000 33.440000 49 49 49 0
19.140000 7.700000 33.440000 47 49 47 0
19.360000 7.700000 33.440000 50 53 50 0
19.580000 7.700000 33.440000 49 51 49 0
19.800000 7.700000 33.440000 50 54 50 0
20.020000 7.700000 33.440000 49 51 49 0
20.240000 7.700000 33.440000 49 50 49 0
20.460000 7.700000 25.960000 50 51 50 0
20.680000 7.700000 25.960000 50 53 50 0
20.900000 7.700000 25.960000 49 52 49 0
21.120000 7.700000 25.960000 49 50 49 0
21.340000 7.700000 26.180000 48 54 48 0
21.560000 7.700000 26.180000 48 50 48 0
21.780000 7.700000 26.180000 48 51 48 0
22.000000 7.700000 26.180000 47 50 47 0
22.220000 7.700000 26.180000 49 51 49 0
22.440000 7.700000 26.180000 50 54 50 0
22.660000 7.700000 26.400000 49 51 49 0
22.880000 7.700000 26.400000 48 51 48 0
23.100000 7.700000 33.880000 49 53 49 0
23.320000 7.700000 33.880000 50 53 50 0
23.540000 7.700000 33.880000 46 49 46 0
23.760000 7.700000 33.880000 48 54 48 0
23.980000 7.700000 33.880000 47 52 47 0
24.200000 7.700000 33.880000 47 55 47 0
24.420000 7.700000 33.880000 48 53 48 0
24.640000 7.700000 33.880000 49 54 49 0
24.860000 7.700000 33.880000 44 47 44 0
25.080000 7.700000 33.880000 47 51 47 0
25.300000 7.700000 33.880000 46 48 46 0
25.520000 7.700000 33.880000 45 47 45 0
25.740000 7.700000 33.660000 47 50 47 0
25.960000 7.700000 33.660000 45 48 45 0
26.180000 7.700000 33.440000 44 46 44 0
26.400000 7.700000 33.220000 43 46 43 0
26.620000 7.700000 33.220000 43 46 43 0
26.840000 7.700000 25.520000 40 44 40 0
27.060000 7.700000 25.740000 43 44 43 0
27.280000 7.700000 25.740000 42 44 42 0
27.500000 7.700000 25.740000 44 45 44 0
27.720000 7.700000 25.740000 42 46 42 0
27.940000 7.700000 25.740000 42 45 42 0
28.160000 7.700000 33.440000 41 42 41 0
28.380000 7.700000 33.220000 41 42 41 0
28.600000 7.700000 33.220000 45 47 45 0
28.820000 7.700000 33.440000 43 46 43 0
29.040000 7.700000 25.960000 43 45 43 0
29.260000 7.700000 26.180000 45 49 45 0
29.480000 7.700000 26.180000 45 48 45 0
29.700000 7.700000 26.400000 46 49 46 0
29.920000 7.700000 26.400000 47 49 47 0
30.140000 7.700000 26.620000 46 51 46 0
30.360000 7.700000 26.620000 48 51 48 0
30.580000 7.700000 26.620000 48 53 48 0
30.800000 7.700000 26.620000 47 49 47 0
31.020000 7.700000 26.840000 49 51 49 0
31.240000 7.700000 26.840000 48 51 48 0
31.460000 7.700000 26.840000 48 49 48 0
31.680000 7.700000 26.840000 50 51 50 0
31.900000 7.700000 27.060000 45 49 45 0
32.120000 7.700000 27.060000 46 50 46 0
32.340000 7.700000 27.060000 49 51 49 0
32.560000 7.700000 27.280000 46 47 46 0
32.780000 7.700000 27.280000 49 50 49 0
33.000000 7.700000 27.500000 45 46 45 0
33.220000 7.700000 27.500000 45 47 45 0
33.440000 7.700000 27.720000 50 52 50 0
33.660000 7.700000 27.940000 48 52 48 0
33.880000 7.700000 28.160000 47 49 47 0
34.100000 7.700000 28.380000 46 49 46 0
34.320000 7.700000 28.600000 48 49 48 0
34.540000 7.700000 28.820000 47 50 47 0
34.760000 7.700000 29.040000 48 49 48 0
34.980000 7.700000 29.260000 49 51 49 0
35.200000 7.700000 29.480000 46 50 46 0
35.420000 7.700000 29.480000 47 50 47 0
35.640000 7.700000 29.700000 47 51 47 0
35.860000 7.700000 29.700000 47 49 47 0
36.080000 7.700000 29.700000 49 52 49 0
36.300000 7.700000 29.920000 48 51 48 0
36.520000 7.700000 37.180000 48 51 48 0
36.740000 7.700000 37.180000 47 53 47 0
36.960000 7.700000 29.920000 48 50 48 0
37.180000 7.700000 29.920000 49 53 49 0
0.000000 7.920000 33.440000 48 50 48 0
0.220000 7.920000 33.440000 49 56 49 0
0.440000 7.920000 33.440000 46 48 46 0
0.660000 7.920000 33.440000 45 47 45 0
0.880000 7.920000 33.220000 47 50 47 0
1.100000 7.920000 33.220000 47 49 47 0
1.320000 7.920000 33.000000 48 51 48 0
1.540000 7.920000 33.220000 49 50 49 0
1.760000 7.920000 33.220000 45 50 45 0
1.980000 7.920000 33.220000 47 48 47 0
2.200000 7.920000 33.220000 48 49 48 0
2.420000 7.920000 33.220000 48 49 48 0
2.640000 7.920000 33.220000 48 50 48 0
2.860000 7.920000 33.220000 50 53 50 0
3.080000 7.920000 33.220000 49 51 49 0
3.300000 7.920000 33.220000 49 50 49 0
3.520000 7.920000 33.220000 50 52 50 0
3.740000 7.920000 33.220000 50 51 50 0
3.960000 7.920000 33.220000 48 50 48 0
4.180000 7.920000 33.220000 49 51 49 0
4.400000 7.920000 33.220000 49 50 49 0
4.620000 7.920000 33.220000 48 49 48 0
4.840000 7.920000 33.220000 47 49 47 0
5.060000 7.920000 33.220000 48 48 48 0
5.280000 7.920000 33.000000 46 47 46 0
5.500000 7.920000 25.300000 47 50 47 0
5.720000 7.920000 25.300000 46 47 46 0
5.940000 7.920000 33.000000 47 48 47 0
6.160000 7.920000 33.000000 48 49 48 0
6.380000 7.920000 33.000000 50 51 50 0
6.600000 7.920000 33.220000 43 46 43 0
6.820000 7.920000 33.220000 46 47 46 0
7.040000 7.920000 33.220000 46 48 46 0
7.260000 7.920000 33.220000 47 49 47 0
7.480000 7.920000 33.220000 49 51 49 0
7.700000 7.920000 33.440000 46 49 46 0
7.920000 7.920000 33.440000 46 48 46 0
8.140000 7.920000 25.740000 48 49 48 0
8.360000 7.920000 25.520000 47 49 47 0
8.580000 7.920000 25.520000 48 51 48 0
8.800000 7.920000 25.520000 52 52 52 0
9.020000 7.920000 25.520000 48 52 48 0
9.240000 7.920000 25.520000 48 51 48 0
9.460000 7.920000 25.520000 44 51 44 0
9.680000 7.920000 25.520000 47 48 47 0
9.900000 7.920000 25.520000 49 50 49 0
10.120000 7.920000 25.520000 45 48 45 0
10.340000 7.920000 25.520000 46 48 46 0
10.560000 7.920000 25.520000 47 48 47 0
10.780000 7.920000 25.300000 46 47 46 0
11.000000 7.920000 25.080000 48 49 48 0
11.220000 7.920000 25.080000 46 49 46 0
11.440000 7.920000 25.080000 48 49 48 0
11.660000 7.920000 25.080000 47 49 47 0
11.880000 7.920000 25.300000 50 51 50 0
12.100000 7.920000 25.300000 48 49 48 0
12.320000 7.920000 25.300000 48 51 48 0
12.540000 7.920000 25.300000 48 50 48 0
12.760000 7.920000 25.300000 50 52 50 0
12.980000 7.920000 25.300000 47 50 47 0
13.200000 7.920000 25.520000 50 52 50 0
13.420000 7.920000 33.220000 49 53 49 0
13.640000 7.920000 33.220000 49 50 49 0
13.860000 7.920000 33.220000 49 51 49 0
14.080000 7.920000 33.440000 51 52 51 0
14.300000 7.920000 33.440000 49 52 49 0
14.520000 7.920000 33.440000 47 50 47 0
14.740000 7.920000 33.440000 47 49 47 0
14.960000 7.920000 33.440000 50 52 50 0
15.180000 7.920000 33.440000 48 51 48 0
15.400000 7.920000 33.440000 48 51 48 0
15.620000 7.920000 33.440000 46 50 46 0
15.840000 7.920000 33.440000 46 50 46 0
16.060000 7.920000 25.520000 48 51 48 0
16.280000 7.920000 25.520000 45 49 45 0
16.500000 7.920000 25.520000 47 48 47 0
16.720000 7.920000 33.000000 47 52 47 0
16.940000 7.920000 33.000000 47 49 47 0
17.160000 7.920000 33.000000 49 51 49 0
17.380000 7.920000 32.780000 47 49 47 0
17.600000 7.920000 32.780000 47 50 47 0
17.820000 7.920000 32.780000 46 49 46 0
18.040000 7.920000 32.780000 48 50 48 0
18.260000 7.920000 33.000000 47 49 47 0
18.480000 7.920000 33.000000 44 46 44 0
18.700000 7.920000 33.220000 46 48 46 0
18.920000 7.920000 33.220000 46 49 46 0
19.140000 7.920000 33.220000 47 49 47 0
19.360000 7.920000 33.220000 51 54 51 0
19.580000 7.920000 33.220000 50 51 50 0
19.800000 7.920000 33.220000 49 50 49 0
20.020000 7.920000 33.220000 48 51 48 0
20.240000 7.920000 33.440000 47 50 47 0
20.460000 7.920000 33.440000 47 50 47 0
20.680000 7.920000 25.740000 47 49 47 0
20.900000 7.920000 25.740000 48 51 48 0
21.120000 7.920000 25.740000 49 52 49 0
21.340000 7.920000 25.740000 49 53 49 0
21.560000 7.920000 25.960000 49 52 49 0
21.780000 7.920000 25.960000 49 50 49 0
22.000000 7.920000 25.960000 47 52 47 0
22.220000 7.920000 25.960000 47 49 47 0
22.440000 7.920000 25.960000 47 49 47 0
22.660000 7.920000 33.660000 49 50 49 0
22.880000 7.920000 33.660000 48 50 48 0
23.100000 7.920000 33.660000 50 55 50 0
23.320000 7.920000 33.660000 49 51 49 0
23.540000 7.920000 33.660000 48 55 48 0
23.760000 7.920000 33.660000 48 52 48 0
23.980000 7.920000 33.660000 46 50 46 0
24.200000 7.920000 33.660000 46 49 46 0
24.420000 7.920000 33.660000 47 54 47 0
24.640000 7.920000 33.660000 47 54 47 0
24.860000 7.920000 33.660000 45 51 45 0
25.080000 7.920000 25.960000 45 48 45 0
25.300000 7.920000 25.960000 44 46 44 0
25.520000 7.920000 25.960000 46 47 46 0
25.740000 7.920000 33.440000 47 48 47 0
25.960000 7.920000 33.220000 42 45 42 0
26.180000 7.920000 33.220000 43 47 43 0
26.400000 7.920000 33.220000 44 46 44 0
26.620000 7.920000 25.520000 43 44 43 0
26.840000 7.920000 25.520000 46 48 46 0
27.060000 7.920000 25.520000 47 49 47 0
27.280000 7.920000 25.520000 43 45 43 0
27.500000 7.920000 25.520000 43 45 43 0
27.720000 7.920000 25.520000 45 49 45 0
27.940000 7.920000 33.220000 44 46 44 0
28.160000 7.920000 33.220000 43 48 43 0
28.380000 7.920000 33.220000 44 47 44 0
28.600000 7.920000 33.220000 46 48 46 0
28.820000 7.920000 33.220000 46 47 46 0
29.040000 7.920000 33.440000 45 47 45 0
29.260000 7.920000 25.960000 44 46 44 0
29.480000 7.920000 25.960000 47 50 47 0
29.700000 7.920000 26.180000 47 49 47 0
29.920000 7.920000 26.180000 47 52 47 0
30.140000 7.920000 26.400000 50 53 50 0
30.360000 7.920000 26.400000 48 50 48 0
30.580000 7.920000 26.620000 47 53 47 0
30.800000 7.920000 26.620000 47 50 47 0
31.020000 7.920000 26.840000 48 50 48 0
31.240000 7.920000 26.840000 49 51 49 0
31.460000 7.920000 26.840000 46 48 46 0
31.680000 7.920000 27.060000 47 48 47 0
31.900000 7.920000 27.060000 47 47 47 0
32.120000 7.920000 27.280000 48 49 48 0
32.340000 7.920000 27.280000 47 50 47 0
32.560000 7.920000 27.500000 48 49 48 0
32.780000 7.920000 27.500000 46 47 46 0
33.000000 7.920000 27.720000 48 49 48 0
33.220000 7.920000 27.720000 48 50 48 0
33.440000 7.920000 27.940000 46 50 46 0
33.660000 7.920000 28.160000 46 47 46 0
33.880000 7.920000 28.380000 47 48 47 0
34.100000 7.920000 28.600000 49 52 49 0
34.320000 7.920000 28.600000 47 49 47 0
34.540000 7.920000 28.820000 46 49 46 0
34.760000 7.920000 29.040000 49 51 49 0
34.980000 7.920000 29.260000 48 49 48 0
35.200000 7.920000 29.260000 49 52 49 0
35.420000 7.920000 29.480000 49 52 49 0
35.640000 7.920000 29.480000 48 49 48 0
35.860000 7.920000 29.480000 48 51 48 0
36.080000 7.920000 29.700000 48 51 48 0
36.300000 7.920000 29.700000 49 52 49 0
36.520000 7.920000 29.700000 47 51 47 0
36.740000 7.920000 29.700000 51 53 51 0
36.960000 7.920000 29.700000 49 54 49 0
37.180000 7.920000 29.920000 48 50 48 0
0.000000 8.140000 33.220000 48 53 48 0
0.220000 8.140000 33.220000 49 51 49 0
0.440000 8.140000 33.220000 45 47 45 0
0.660000 8.140000 33.220000 45 48 45 0
0.880000 8.140000 33.220000 50 51 50 0
1.100000 8.140000 33.000000 47 50 47 0
1.320000 8.140000 33.000000 47 48 47 0
1.540000 8.140000 33.000000 50 51 50 0
1.760000 8.140000 33.000000 48 50 48 0
1.980000 8.140000 33.000000 49 52 49 0
2.200000 8.140000 33.000000 48 50 48 0
2.420000 8.140000 33.000000 48 51 48 0
2.640000 8.140000 33.000000 48 50 48 0
2.860000 8.140000 33.000000 49 50 49 0
3.080000 8.140000 33.000000 49 50 49 0
3.300000 8.140000 33.000000 48 49 48 0
3.520000 8.140000 33.000000 49 50 49 0
3.740000 8.140000 33.000000 50 54 50 0
3.960000 8.140000 33.000000 50 51 50 0
4.180000 8.140000 33.000000 48 51 48 0
4.400000 8.140000 25.300000 50 52 50 0
4.620000 8.140000 25.300000 46 48 46 0
4.840000 8.140000 25.300000 49 50 49 0
5.060000 8.140000 25.300000 51 53 51 0
5.280000 8.140000 25.300000 48 49 48 0
5.500000 8.140000 25.300000 48 51 48 0
5.720000 8.140000 25.300000 47 48 47 0
5.940000 8.140000 25.300000 46 48 46 0
6.160000 8.140000 25.300000 47 50 47 0
6.380000 8.140000 33.000000 46 49 46 0
6.600000 8.140000 33.000000 49 51 49 0
6.820000 8.140000 33.000000 50 52 50 0
7.040000 8.140000 33.000000 47 48 47 0
7.260000 8.140000 33.000000 49 51 49 0
7.480000 8.140000 33.000000 48 50 48 0
7.700000 8.140000 33.000000 45 49 45 0
7.920000 8.140000 33.000000 48 49 48 0
8.140000 8.140000 33.000000 48 49 48 0
8.360000 8.140000 25.300000 47 49 47 0
8.580000 8.140000 25.300000 45 48 45 0
8.800000 8.140000 25.300000 48 53 48 0
9.020000 8.140000 25.300000 47 48 47 0
9.240000 8.140000 25.300000 48 49 48 0
9.460000 8.140000 25.300000 48 49 48 0
9.680000 8.140000 25.300000 48 49 48 0
9.900000 8.140000 25.300000 47 48 47 0
10.120000 8.140000 25.300000 47 47 47 0
10.340000 8.140000 25.080000 47 49 47 0
10.560000 8.140000 25.080000 45 46 45 0
10.780000 8.140000 25.080000 45 47 45 0
11.000000 8.140000 24.860000 46 47 46 0
11.220000 8.140000 24.860000 49 50 49 0
11.440000 8.140000 25.080000 47 48 47 0
11.660000 8.140000 25.080000 46 48 46 0
11.880000 8.140000 25.080000 51 53 51 0
12.100000 8.140000 25.080000 49 50 49 0
12.320000 8.140000 25.080000 49 50 49 0
12.540000 8.140000 25.080000 48 50 48 0
12.760000 8.140000 25.300000 49 50 49 0
12.980000 8.140000 25.300000 49 52 49 0
13.200000 8.140000 33.000000 50 54 50 0
13.420000 8.140000 33.000000 51 52 51 0
13.640000 8.140000 33.000000 49 53 49 0
13.860000 8.140000 33.220000 50 52 50 0
14.080000 8.140000 33.220000 49 51 49 0
14.300000 8.140000 33.220000 49 53 49 0
14.520000 8.140000 33.440000 51 53 51 0
14.740000 8.140000 33.440000 50 51 50 0
14.960000 8.140000 33.440000 51 54 51 0
15.180000 8.140000 33.440000 49 52 49 0
15.400000 8.140000 33.440000 48 53 48 0
15.620000 8.140000 33.220000 45 49 45 0
15.840000 8.140000 33.220000 46 50 46 0
16.060000 8.140000 25.520000 48 51 48 0
16.280000 8.140000 25.300000 48 50 48 0
16.500000 8.140000 25.300000 45 48 45 0
16.720000 8.140000 25.080000 47 51 47 0
16.940000 8.140000 25.080000 45 49 45 0
17.160000 8.140000 32.780000 46 50 46 0
17.380000 8.140000 32.780000 47 50 47 0
17.600000 8.140000 32.780000 47 49 47 0
17.820000 8.140000 32.780000 46 49 46 0
18.040000 8.140000 32.560000 47 50 47 0
18.260000 8.140000 32.780000 48 49 48 0
18.480000 8.140000 32.780000 47 48 47 0
18.700000 8.140000 33.000000 51 53 51 0
18.920000 8.140000 33.000000 48 49 48 0
19.140000 8.140000 33.000000 46 49 46 0
19.360000 8.140000 33.000000 48 49 48 0
19.580000 8.140000 33.000000 49 51 49 0
19.800000 8.140000 33.000000 49 52 49 0
20.020000 8.140000 33.000000 48 50 48 0
20.240000 8.140000 33.220000 46 49 46 0
20.460000 8.140000 33.220000 47 50 47 0
20.680000 8.140000 25.520000 49 53 49 0
20.900000 8.140000 25.520000 48 50 48 0
21.120000 8.140000 25.520000 48 50 48 0
21.340000 8.140000 25.520000 47 54 47 0
21.560000 8.140000 25.740000 47 48 47 0
21.780000 8.140000 25.740000 49 54 49 0
22.000000 8.140000 25.740000 48 50 48 0
22.220000 8.140000 25.740000 48 52 48 0
22.440000 8.140000 33.440000 48 51 48 0
22.660000 8.140000 33.440000 48 52 48 0
22.880000 8.140000 33.440000 48 54 48 0
23.100000 8.140000 33.440000 47 52 47 0
23.320000 8.140000 33.440000 48 52 48 0
23.540000 8.140000 33.440000 48 53 48 0
23.760000 8.140000 33.440000 48 55 48 0
23.980000 8.140000 33.440000 50 56 50 0
24.200000 8.140000 33.440000 47 51 47 0
24.420000 8.140000 33.440000 50 55 50 0
24.640000 8.140000 33.220000 46 51 46 0
24.860000 8.140000 25.520000 48 52 48 0
25.080000 8.140000 25.520000 47 50 47 0
25.300000 8.140000 25.740000 43 46 43 0
25.520000 8.140000 25.520000 42 44 42 0
25.740000 8.140000 25.520000 45 45 45 0
25.960000 8.140000 25.520000 46 47 46 0
26.180000 8.140000 25.300000 43 44 43 0
26.400000 8.140000 25.300000 42 43 42 0
26.620000 8.140000 25.300000 43 45 43 0
26.840000 8.140000 25.300000 45 46 45 0
27.060000 8.140000 25.300000 46 47 46 0
27.280000 8.140000 25.520000 46 48 46 0
27.500000 8.140000 25.520000 44 46 44 0
27.720000 8.140000 25.520000 46 48 46 0
27.940000 8.140000 33.220000 43 45 43 0
28.160000 8.140000 33.000000 45 48 45 0
28.380000 8.140000 33.000000 44 46 44 0
28.600000 8.140000 33.000000 41 44 41 0
28.820000 8.140000 33.220000 45 46 45 0
29.040000 8.140000 33.220000 44 45 44 0
29.260000 8.140000 25.520000 47 49 47 0
29.480000 8.140000 25.740000 45 47 45 0
29.700000 8.140000 25.960000 47 52 47 0
29.920000 8.140000 26.180000 46 49 46 0
30.140000 8.140000 26.400000 48 50 48 0
30.360000 8.140000 26.620000 47 48 47 0
30.580000 8.140000 26.840000 48 51 48 0
30.800000 8.140000 26.840000 47 48 47 0
31.020000 8.140000 27.060000 49 52 49 0
31.240000 8.140000 27.060000 46 49 46 0
31.460000 8.140000 27.060000 49 50 49 0
31.680000 8.140000 27.060000 49 52 49 0
31.900000 8.140000 27.280000 49 52 49 0
32.120000 8.140000 27.280000 49 51 49 0
32.340000 8.140000 27.500000 47 48 47 0
32.560000 8.140000 27.500000 45 47 45 0
32.780000 8.140000 27.720000 49 51 49 0
33.000000 8.140000 27.720000 46 47 46 0
33.220000 8.140000 27.940000 49 51 49 0
33.440000 8.140000 28.160000 47 49 47 0
33.660000 8.140000 28.160000 47 49 47 0
33.880000 8.140000 28.380000 48 52 48 0
34.100000 8.140000 28.600000 49 52 49 0
34.320000 8.140000 28.600000 49 51 49 0
34.540000 8.140000 28.820000 50 51 50 0
34.760000 8.140000 28.820000 46 49 46 0
34.980000 8.140000 29.040000 48 51 48 0
35.200000 8.140000 29.040000 48 49 48 0
35.420000 8.140000 29.260000 47 50 47 0
35.640000 8.140000 29.260000 49 52 49 0
35.860000 8.140000 29.260000 48 51 48 0
36.080000 8.140000 29.480000 49 52 49 0
36.300000 8.140000 29.480000 48 54 48 0
36.520000 8.140000 29.480000 50 53 50 0
36.740000 8.140000 29.480000 49 50 49 0
36.960000 8.140000 29.700000 45 49 45 0
37.180000 8.140000 29.700000 48 50 48 0
0.000000 8.360000 25.300000 50 54 50 0
0.220000 8.360000 25.300000 48 51 48 0
0.440000 8.360000 33.000000 47 50 47 0
0.660000 8.360000 33.000000 45 51 45 0
0.880000 8.360000 33.000000 50 52 50 0
1.100000 8.360000 32.780000 49 50 49 0
1.320000 8.360000 32.780000 48 49 48 0
1.540000 8.360000 32.780000 48 50 48 0
1.760000 8.360000 32.780000 49 50 49 0
1.980000 8.360000 32.780000 49 51 49 0
2.200000 8.360000 32.780000 46 50 46 0
2.420000 8.360000 33.000000 47 48 47 0
2.640000 8.360000 33.000000 49 50 49 0
2.860000 8.360000 32.780000 47 48 47 0
3.080000 8.360000 32.780000 48 51 48 0
3.300000 8.360000 32.780000 48 50 48 0
3.520000 8.360000 33.000000 48 50 48 0
3.740000 8.360000 33.000000 51 52 51 0
3.960000 8.360000 33.000000 50 51 50 0
4.180000 8.360000 33.000000 46 50 46 0
4.400000 8.360000 25.080000 48 51 48 0
4.620000 8.360000 25.080000 49 51 49 0
4.840000 8.360000 25.080000 49 51 49 0
5.060000 8.360000 25.080000 50 51 50 0
5.280000 8.360000 25.080000 46 49 46 0
5.500000 8.360000 25.080000 48 50 48 0
5.720000 8.360000 25.080000 49 50 49 0
5.940000 8.360000 25.080000 47 49 47 0
6.160000 8.360000 25.080000 48 49 48 0
6.380000 8.360000 25.080000 48 51 48 0
6.600000 8.360000 25.080000 51 52 51 0
6.820000 8.360000 25.080000 47 49 47 0
7.040000 8.360000 25.080000 46 48 46 0
7.260000 8.360000 32.780000 46 49 46 0
7.480000 8.360000 32.780000 49 52 49 0
7.700000 8.360000 32.780000 48 51 48 0
7.920000 8.360000 32.780000 47 50 47 0
8.140000 8.360000 33.000000 50 51 50 0
8.360000 8.360000 25.080000 47 48 47 0
8.580000 8.360000 25.080000 45 47 45 0
8.800000 8.360000 25.080000 46 48 46 0
9.020000 8.360000 25.080000 46 48 46 0
9.240000 8.360000 25.080000 44 44 44 0
9.460000 8.360000 25.080000 45 46 45 0
9.680000 8.360000 24.860000 49 49 49 0
9.900000 8.360000 24.860000 49 50 49 0
10.120000 8.360000 24.860000 48 51 48 0
10.340000 8.360000 24.860000 46 48 46 0
10.560000 8.360000 24.860000 48 50 48 0
10.780000 8.360000 32.560000 49 50 49 0
11.000000 8.360000 32.560000 49 51 49 0
11.220000 8.360000 24.860000 48 49 48 0
11.440000 8.360000 24.860000 49 54 49 0
11.660000 8.360000 24.860000 50 52 50 0
11.880000 8.360000 24.860000 49 50 49 0
12.100000 8.360000 24.860000 48 50 48 0
12.320000 8.360000 24.860000 50 51 50 0
12.540000 8.360000 25.080000 49 52 49 0
12.760000 8.360000 25.080000 49 51 49 0
12.980000 8.360000 25.080000 48 49 48 0
13.200000 8.360000 32.780000 49 51 49 0
13.420000 8.360000 32.780000 50 52 50 0
13.640000 8.360000 33.000000 50 53 50 0
13.860000 8.360000 33.000000 48 50 48 0
14.080000 8.360000 33.220000 48 50 48 0
14.300000 8.360000 33.220000 49 50 49 0
14.520000 8.360000 33.440000 47 49 47 0
14.740000 8.360000 33.440000 50 52 50 0
14.960000 8.360000 33.440000 47 51 47 0
15.180000 8.360000 33.440000 51 53 51 0
15.400000 8.360000 33.220000 48 50 48 0
15.620000 8.360000 33.220000 47 52 47 0
15.840000 8.360000 33.220000 49 50 49 0
16.060000 8.360000 25.300000 46 48 46 0
16.280000 8.360000 25.080000 48 50 48 0
16.500000 8.360000 25.080000 47 50 47 0
16.720000 8.360000 25.080000 46 51 46 0
16.940000 8.360000 24.860000 45 49 45 0
17.160000 8.360000 24.860000 50 53 50 0
17.380000 8.360000 24.860000 50 51 50 0
17.600000 8.360000 32.560000 50 50 50 0
17.820000 8.360000 32.560000 48 50 48 0
18.040000 8.360000 32.560000 47 49 47 0
18.260000 8.360000 32.560000 46 48 46 0
18.480000 8.360000 32.560000 47 49 47 0
18.700000 8.360000 32.780000 48 50 48 0
18.920000 8.360000 32.780000 46 48 46 0
19.140000 8.360000 32.780000 45 49 45 0
19.360000 8.360000 32.780000 49 50 49 0
19.580000 8.360000 32.780000 48 53 48 0
19.800000 8.360000 32.780000 49 51 49 0
20.020000 8.360000 33.000000 48 51 48 0
20.240000 8.360000 33.000000 49 51 49 0
20.460000 8.360000 33.000000 48 54 48 0
20.680000 8.360000 33.000000 48 50 48 0
20.900000 8.360000 33.000000 50 53 50 0
21.120000 8.360000 25.300000 51 52 51 0
21.340000 8.360000 25.300000 50 53 50 0
21.560000 8.360000 25.520000 47 51 47 0
21.780000 8.360000 33.220000 49 52 49 0
22.000000 8.360000 33.220000 48 56 48 0
22.220000 8.360000 33.220000 48 50 48 0
22.440000 8.360000 33.220000 49 52 49 0
22.660000 8.360000 33.220000 48 52 48 0
22.880000 8.360000 33.220000 48 52 48 0
23.100000 8.360000 33.220000 47 53 47 0
23.320000 8.360000 33.220000 49 52 49 0
23.540000 8.360000 33.220000 46 51 46 0
23.760000 8.360000 33.220000 47 53 47 0
23.980000 8.360000 33.220000 47 52 47 0
24.200000 8.360000 33.000000 48 54 48 0
24.420000 8.360000 33.000000 46 49 46 0
24.640000 8.360000 33.000000 48 51 48 0
24.860000 8.360000 25.300000 47 49 47 0
25.080000 8.360000 25.300000 45 46 45 0
25.300000 8.360000 25.520000 45 48 45 0
25.520000 8.360000 25.520000 43 45 43 0
25.740000 8.360000 25.300000 40 42 40 0
25.960000 8.360000 25.300000 42 45 42 0
26.180000 8.360000 25.300000 43 46 43 0
26.400000 8.360000 25.300000 45 46 45 0
26.620000 8.360000 25.300000 46 47 46 0
26.840000 8.360000 25.300000 45 49 45 0
27.060000 8.360000 25.300000 46 47 46 0
27.280000 8.360000 25.300000 46 48 46 0
27.500000 8.360000 25.300000 45 46 45 0
27.720000 8.360000 25.300000 45 47 45 0
27.940000 8.360000 33.000000 46 49 46 0
28.160000 8.360000 33.000000 43 45 43 0
28.380000 8.360000 33.000000 45 48 45 0
28.600000 8.360000 33.000000 44 45 44 0
28.820000 8.360000 33.000000 48 49 48 0
29.040000 8.360000 33.000000 45 47 45 0
29.260000 8.360000 25.520000 45 47 45 0
29.480000 8.360000 25.740000 47 49 47 0
29.700000 8.360000 25.960000 43 46 43 0
29.920000 8.360000 26.400000 49 51 49 0
30.140000 8.360000 26.620000 49 52 49 0
30.360000 8.360000 26.840000 47 49 47 0
30.580000 8.360000 26.840000 48 50 48 0
30.800000 8.360000 27.060000 51 54 51 0
31.020000 8.360000 27.060000 49 53 49 0
31.240000 8.360000 27.060000 48 50 48 0
31.460000 8.360000 27.280000 43 46 43 0
31.680000 8.360000 27.280000 49 51 49 0
31.900000 8.360000 27.280000 47 48 47 0
32.120000 8.360000 27.280000 47 48 47 0
