ply
format ascii 1.0
element vertex 1205
property float x
property float y
property float z
property uchar red
property uchar green
property uchar blue
property uchar alpha
end_header
27.940000 7.920000 29.260000 50 51 50 0
28.160000 7.920000 29.260000 49 51 49 0
28.380000 7.920000 29.260000 51 52 51 0
28.600000 7.920000 29.260000 51 51 51 0
28.820000 7.920000 29.260000 50 51 50 0
29.040000 7.920000 29.260000 48 50 48 0
29.260000 7.920000 29.260000 49 51 49 0
29.480000 7.920000 29.260000 47 48 47 0
29.700000 7.920000 29.260000 47 49 47 0
29.920000 7.920000 29.260000 48 49 48 0
30.140000 7.920000 29.260000 51 52 51 0
30.360000 7.920000 29.260000 49 51 49 0
30.580000 7.920000 29.260000 49 50 49 0
30.800000 7.920000 29.260000 50 50 50 0
31.020000 7.920000 29.260000 49 50 49 0
31.240000 7.920000 29.040000 50 51 50 0
31.460000 7.920000 29.040000 47 49 47 0
31.680000 7.920000 29.040000 49 50 49 0
31.900000 7.920000 29.040000 48 50 48 0
32.120000 7.920000 29.040000 47 49 47 0
32.340000 7.920000 29.040000 50 51 50 0
32.560000 7.920000 29.040000 49 51 49 0
32.780000 7.920000 29.040000 46 49 46 0
33.000000 7.920000 29.260000 48 50 48 0
33.220000 7.920000 29.260000 49 50 49 0
33.440000 7.920000 29.260000 47 49 47 0
33.660000 7.920000 29.260000 51 53 51 0
33.880000 7.920000 29.260000 48 49 48 0
34.100000 7.920000 29.480000 51 52 51 0
34.320000 7.920000 29.480000 52 52 52 0
34.540000 7.920000 29.480000 52 53 52 0
34.760000 7.920000 29.260000 54 54 54 0
34.980000 7.920000 29.260000 55 56 55 0
35.200000 7.920000 28.820000 56 57 56 0
35.420000 7.920000 11.440000 61 70 61 0
35.640000 7.920000 43.560000 53 100 53 0
35.860000 7.920000 43.560000 52 110 52 0
36.080000 7.920000 43.560000 57 91 57 0
36.300000 7.920000 43.560000 65 65 65 0
36.520000 7.920000 43.560000 64 64 64 0
36.740000 7.920000 43.560000 65 65 65 0
36.960000 7.920000 43.560000 65 65 65 0
37.180000 7.920000 43.560000 65 65 65 0
0.000000 8.140000 7.920000 44 49 44 0
0.220000 8.140000 7.920000 47 52 47 0
0.440000 8.140000 7.920000 49 52 49 0
0.660000 8.140000 7.920000 49 52 49 0
0.880000 8.140000 8.140000 50 53 50 0
1.100000 8.140000 8.140000 50 53 50 0
1.320000 8.140000 8.360000 49 52 49 0
1.540000 8.140000 8.360000 48 50 48 0
1.760000 8.140000 8.580000 45 49 45 0
1.980000 8.140000 8.800000 48 50 48 0
2.200000 8.140000 9.020000 48 52 48 0
2.420000 8.140000 9.460000 48 51 48 0
2.640000 8.140000 9.680000 50 52 50 0
2.860000 8.140000 9.900000 50 53 50 0
3.080000 8.140000 10.120000 49 51 49 0
3.300000 8.140000 10.560000 49 50 49 0
3.520000 8.140000 10.780000 49 52 49 0
3.740000 8.140000 11.000000 50 54 50 0
3.960000 8.140000 11.220000 47 50 47 0
4.180000 8.140000 11.440000 47 49 47 0
4.400000 8.140000 11.660000 49 52 49 0
4.620000 8.140000 11.660000 48 49 48 0
4.840000 8.140000 11.880000 48 50 48 0
5.060000 8.140000 11.880000 48 50 48 0
5.280000 8.140000 12.100000 48 50 48 0
5.500000 8.140000 12.320000 50 50 50 0
5.720000 8.140000 21.120000 48 50 48 0
5.940000 8.140000 21.340000 48 51 48 0
6.160000 8.140000 21.340000 52 52 52 0
6.380000 8.140000 21.560000 49 51 49 0
6.600000 8.140000 21.560000 47 51 47 0
6.820000 8.140000 21.560000 48 52 48 0
7.040000 8.140000 21.780000 49 52 49 0
7.260000 8.140000 22.000000 48 49 48 0
7.480000 8.140000 22.220000 50 54 50 0
7.700000 8.140000 21.780000 48 49 48 0
7.920000 8.140000 21.120000 50 52 50 0
8.140000 8.140000 20.680000 48 52 48 0
8.360000 8.140000 19.800000 47 50 47 0
8.580000 8.140000 18.040000 48 51 48 0
8.800000 8.140000 17.160000 48 51 48 0
9.020000 8.140000 16.940000 51 54 51 0
9.240000 8.140000 16.060000 47 49 47 0
9.460000 8.140000 23.980000 48 49 48 0
9.680000 8.140000 24.200000 48 51 48 0
9.900000 8.140000 24.420000 49 50 49 0
10.120000 8.140000 24.640000 49 52 49 0
10.340000 8.140000 24.640000 51 51 51 0
10.560000 8.140000 24.860000 46 48 46 0
10.780000 8.140000 24.860000 50 51 50 0
11.000000 8.140000 25.080000 49 52 49 0
11.220000 8.140000 25.080000 47 49 47 0
11.440000 8.140000 25.080000 49 49 49 0
11.660000 8.140000 25.080000 49 50 49 0
11.880000 8.140000 25.300000 49 51 49 0
12.100000 8.140000 25.300000 47 48 47 0
12.320000 8.140000 25.300000 49 50 49 0
12.540000 8.140000 25.300000 49 49 49 0
12.760000 8.140000 25.520000 46 47 46 0
12.980000 8.140000 25.520000 47 48 47 0
13.200000 8.140000 25.520000 48 51 48 0
13.420000 8.140000 25.520000 49 50 49 0
13.640000 8.140000 25.520000 48 50 48 0
13.860000 8.140000 25.740000 49 50 49 0
14.080000 8.140000 25.740000 47 49 47 0
14.300000 8.140000 25.740000 47 48 47 0
14.520000 8.140000 25.740000 47 48 47 0
14.740000 8.140000 25.740000 43 46 43 0
14.960000 8.140000 25.740000 48 49 48 0
15.180000 8.140000 25.740000 46 48 46 0
15.400000 8.140000 25.960000 45 47 45 0
15.620000 8.140000 25.960000 47 47 47 0
15.840000 8.140000 25.960000 44 45 44 0
16.060000 8.140000 25.960000 45 47 45 0
16.280000 8.140000 25.960000 45 47 45 0
16.500000 8.140000 25.960000 43 46 43 0
16.720000 8.140000 25.960000 46 46 46 0
16.940000 8.140000 25.960000 45 46 45 0
17.160000 8.140000 25.960000 42 43 42 0
17.380000 8.140000 25.960000 41 42 41 0
17.600000 8.140000 25.960000 41 43 41 0
17.820000 8.140000 25.960000 42 44 42 0
18.040000 8.140000 25.960000 41 44 41 0
18.260000 8.140000 25.960000 38 39 38 0
18.480000 8.140000 25.960000 39 41 39 0
18.700000 8.140000 25.960000 37 37 37 0
18.920000 8.140000 26.180000 37 38 37 0
19.140000 8.140000 26.400000 36 37 36 0
19.360000 8.140000 26.620000 30 32 30 0
19.580000 8.140000 26.840000 38 39 38 0
19.800000 8.140000 27.060000 38 40 38 0
20.020000 8.140000 27.500000 39 40 39 0
20.240000 8.140000 27.720000 43 44 43 0
20.460000 8.140000 28.160000 40 43 40 0
20.680000 8.140000 28.600000 41 42 41 0
20.900000 8.140000 28.820000 44 45 44 0
21.120000 8.140000 29.040000 46 47 46 0
21.340000 8.140000 29.260000 45 46 45 0
21.560000 8.140000 29.260000 43 45 43 0
21.780000 8.140000 29.480000 43 44 43 0
22.000000 8.140000 29.700000 46 47 46 0
22.220000 8.140000 29.480000 47 48 47 0
22.440000 8.140000 28.820000 46 49 46 0
22.660000 8.140000 36.080000 49 50 49 0
22.880000 8.140000 28.820000 48 49 48 0
23.100000 8.140000 35.420000 48 49 48 0
23.320000 8.140000 33.880000 47 49 47 0
23.540000 8.140000 33.000000 51 52 51 0
23.760000 8.140000 33.000000 49 50 49 0
23.980000 8.140000 33.000000 51 53 51 0
24.200000 8.140000 33.880000 54 55 54 0
24.420000 8.140000 35.640000 56 57 56 0
24.640000 8.140000 29.040000 53 53 53 0
24.860000 8.140000 28.820000 52 52 52 0
25.080000 8.140000 29.040000 53 53 53 0
25.300000 8.140000 29.700000 53 54 53 0
25.520000 8.140000 29.920000 52 52 52 0
25.740000 8.140000 29.920000 49 51 49 0
25.960000 8.140000 29.700000 50 51 50 0
26.180000 8.140000 29.700000 52 53 52 0
26.400000 8.140000 29.700000 52 52 52 0
26.620000 8.140000 29.480000 51 52 51 0
26.840000 8.140000 29.480000 52 53 52 0
27.060000 8.140000 29.480000 54 54 54 0
27.280000 8.140000 29.260000 51 51 51 0
27.500000 8.140000 29.260000 50 52 50 0
27.720000 8.140000 29.260000 52 53 52 0
27.940000 8.140000 29.040000 50 50 50 0
28.160000 8.140000 29.040000 50 51 50 0
28.380000 8.140000 29.040000 49 51 49 0
28.600000 8.140000 29.040000 47 48 47 0
28.820000 8.140000 29.040000 48 50 48 0
29.040000 8.140000 29.040000 49 50 49 0
29.260000 8.140000 29.040000 51 52 51 0
29.480000 8.140000 29.040000 50 53 50 0
29.700000 8.140000 29.040000 50 52 50 0
29.920000 8.140000 29.040000 50 52 50 0
30.140000 8.140000 29.040000 47 48 47 0
30.360000 8.140000 29.040000 49 51 49 0
30.580000 8.140000 29.040000 51 51 51 0
30.800000 8.140000 29.040000 48 48 48 0
31.020000 8.140000 29.040000 47 48 47 0
31.240000 8.140000 28.820000 49 50 49 0
31.460000 8.140000 29.040000 48 49 48 0
31.680000 8.140000 28.820000 48 49 48 0
31.900000 8.140000 29.040000 49 51 49 0
32.120000 8.140000 29.040000 50 51 50 0
32.340000 8.140000 29.040000 48 50 48 0
32.560000 8.140000 29.040000 49 50 49 0
32.780000 8.140000 29.040000 51 51 51 0
33.000000 8.140000 29.040000 50 51 50 0
33.220000 8.140000 29.040000 50 51 50 0
33.440000 8.140000 29.040000 49 50 49 0
33.660000 8.140000 29.260000 51 54 51 0
33.880000 8.140000 29.260000 49 51 49 0
34.100000 8.140000 29.260000 49 50 49 0
34.320000 8.140000 29.260000 52 53 52 0
34.540000 8.140000 29.260000 51 52 51 0
34.760000 8.140000 29.260000 51 51 51 0
34.980000 8.140000 29.260000 52 53 52 0
35.200000 8.140000 29.040000 54 55 54 0
35.420000 8.140000 20.900000 58 59 58 0
35.640000 8.140000 1.760000 58 81 58 0
35.860000 8.140000 43.560000 53 107 53 0
36.080000 8.140000 43.560000 55 93 55 0
36.300000 8.140000 43.560000 64 65 64 0
36.520000 8.140000 43.560000 65 65 65 0
36.740000 8.140000 43.560000 64 64 64 0
36.960000 8.140000 43.560000 64 64 64 0
37.180000 8.140000 43.560000 64 64 64 0
0.000000 8.360000 7.700000 48 51 48 0
0.220000 8.360000 7.700000 48 52 48 0
0.440000 8.360000 7.700000 48 50 48 0
0.660000 8.360000 7.700000 48 50 48 0
0.880000 8.360000 7.920000 49 53 49 0
1.100000 8.360000 7.920000 48 50 48 0
1.320000 8.360000 8.140000 49 52 49 0
1.540000 8.360000 8.580000 48 50 48 0
1.760000 8.360000 8.800000 47 50 47 0
1.980000 8.360000 9.020000 50 53 50 0
2.200000 8.360000 9.240000 48 50 48 0
2.420000 8.360000 9.460000 49 51 49 0
2.640000 8.360000 9.680000 47 49 47 0
2.860000 8.360000 9.900000 50 51 50 0
3.080000 8.360000 10.120000 46 49 46 0
3.300000 8.360000 10.560000 52 53 52 0
3.520000 8.360000 10.780000 48 51 48 0
3.740000 8.360000 11.000000 49 52 49 0
3.960000 8.360000 11.220000 50 51 50 0
4.180000 8.360000 11.220000 47 50 47 0
4.400000 8.360000 11.440000 47 49 47 0
4.620000 8.360000 11.440000 48 49 48 0
4.840000 8.360000 11.660000 49 52 49 0
5.060000 8.360000 11.660000 49 52 49 0
5.280000 8.360000 11.880000 48 49 48 0
5.500000 8.360000 20.680000 47 51 47 0
5.720000 8.360000 20.900000 49 51 49 0
5.940000 8.360000 20.900000 47 48 47 0
6.160000 8.360000 21.120000 49 53 49 0
6.380000 8.360000 21.340000 48 52 48 0
6.600000 8.360000 21.340000 47 51 47 0
6.820000 8.360000 21.560000 47 49 47 0
7.040000 8.360000 21.340000 49 52 49 0
7.260000 8.360000 20.460000 49 51 49 0
7.480000 8.360000 20.240000 49 52 49 0
7.700000 8.360000 19.360000 48 50 48 0
7.920000 8.360000 17.380000 47 52 47 0
8.140000 8.360000 16.500000 50 52 50 0
8.360000 8.360000 16.280000 49 50 49 0
8.580000 8.360000 15.400000 48 49 48 0
8.800000 8.360000 23.540000 47 49 47 0
9.020000 8.360000 23.760000 48 50 48 0
9.240000 8.360000 23.980000 49 51 49 0
9.460000 8.360000 23.980000 49 51 49 0
9.680000 8.360000 24.200000 47 50 47 0
9.900000 8.360000 24.420000 50 52 50 0
10.120000 8.360000 24.420000 48 48 48 0
10.340000 8.360000 24.640000 50 51 50 0
10.560000 8.360000 24.640000 49 52 49 0
10.780000 8.360000 24.640000 48 50 48 0
11.000000 8.360000 24.860000 49 50 49 0
11.220000 8.360000 24.860000 50 51 50 0
11.440000 8.360000 24.860000 47 49 47 0
11.660000 8.360000 24.860000 48 50 48 0
11.880000 8.360000 25.080000 49 49 49 0
12.100000 8.360000 25.080000 47 49 47 0
12.320000 8.360000 25.080000 51 52 51 0
12.540000 8.360000 25.300000 48 49 48 0
12.760000 8.360000 25.300000 48 49 48 0
12.980000 8.360000 25.300000 49 50 49 0
13.200000 8.360000 25.300000 48 50 48 0
13.420000 8.360000 25.520000 49 52 49 0
13.640000 8.360000 25.520000 48 49 48 0
13.860000 8.360000 25.520000 49 49 49 0
14.080000 8.360000 25.520000 46 46 46 0
14.300000 8.360000 25.740000 46 48 46 0
14.520000 8.360000 25.740000 48 49 48 0
14.740000 8.360000 25.740000 49 50 49 0
14.960000 8.360000 25.740000 48 49 48 0
15.180000 8.360000 25.960000 46 48 46 0
15.400000 8.360000 25.960000 45 45 45 0
15.620000 8.360000 25.960000 48 48 48 0
15.840000 8.360000 26.180000 45 47 45 0
16.060000 8.360000 26.180000 45 46 45 0
16.280000 8.360000 26.180000 45 46 45 0
16.500000 8.360000 26.180000 46 47 46 0
16.720000 8.360000 26.180000 46 47 46 0
16.940000 8.360000 26.180000 46 47 46 0
17.160000 8.360000 26.180000 43 45 43 0
17.380000 8.360000 26.180000 42 43 42 0
17.600000 8.360000 25.960000 40 42 40 0
17.820000 8.360000 25.960000 38 41 38 0
18.040000 8.360000 25.960000 42 43 42 0
18.260000 8.360000 25.960000 41 43 41 0
18.480000 8.360000 25.960000 39 41 39 0
18.700000 8.360000 26.180000 38 39 38 0
18.920000 8.360000 26.400000 36 37 36 0
19.140000 8.360000 26.620000 35 36 35 0
19.360000 8.360000 26.840000 39 40 39 0
19.580000 8.360000 27.060000 40 41 40 0
19.800000 8.360000 27.280000 42 44 42 0
20.020000 8.360000 27.500000 40 43 40 0
20.240000 8.360000 27.940000 44 44 44 0
20.460000 8.360000 28.380000 45 46 45 0
20.680000 8.360000 28.600000 44 45 44 0
20.900000 8.360000 28.820000 45 46 45 0
21.120000 8.360000 29.040000 44 45 44 0
21.340000 8.360000 29.260000 45 45 45 0
21.560000 8.360000 29.480000 46 49 46 0
21.780000 8.360000 29.260000 44 49 44 0
22.000000 8.360000 36.080000 42 47 42 0
22.220000 8.360000 34.980000 46 47 46 0
22.440000 8.360000 33.440000 44 46 44 0
22.660000 8.360000 32.780000 48 50 48 0
22.880000 8.360000 33.000000 50 51 50 0
23.100000 8.360000 32.780000 48 52 48 0
23.320000 8.360000 32.120000 48 48 48 0
23.540000 8.360000 31.680000 47 48 47 0
23.760000 8.360000 31.680000 52 53 52 0
23.980000 8.360000 31.680000 49 52 49 0
24.200000 8.360000 32.120000 51 54 51 0
24.420000 8.360000 33.000000 51 53 51 0
24.640000 8.360000 33.220000 55 56 55 0
24.860000 8.360000 33.000000 54 56 54 0
25.080000 8.360000 33.440000 54 54 54 0
25.300000 8.360000 34.980000 52 54 52 0
25.520000 8.360000 36.300000 54 54 54 0
25.740000 8.360000 29.480000 49 50 49 0
25.960000 8.360000 29.920000 49 50 49 0
26.180000 8.360000 29.700000 50 51 50 0
26.400000 8.360000 29.480000 51 52 51 0
26.620000 8.360000 29.480000 51 52 51 0
26.840000 8.360000 29.260000 51 52 51 0
27.060000 8.360000 29.260000 52 53 52 0
27.280000 8.360000 29.260000 49 51 49 0
27.500000 8.360000 29.040000 50 52 50 0
27.720000 8.360000 29.040000 52 53 52 0
27.940000 8.360000 29.040000 52 52 52 0
28.160000 8.360000 29.040000 52 52 52 0
28.380000 8.360000 28.820000 50 51 50 0
28.600000 8.360000 28.820000 47 50 47 0
28.820000 8.360000 29.040000 50 51 50 0
29.040000 8.360000 29.040000 46 48 46 0
29.260000 8.360000 29.040000 49 50 49 0
29.480000 8.360000 29.040000 49 51 49 0
29.700000 8.360000 28.820000 50 52 50 0
29.920000 8.360000 28.820000 50 50 50 0
30.140000 8.360000 28.820000 50 51 50 0
30.360000 8.360000 28.820000 49 51 49 0
30.580000 8.360000 28.820000 50 50 50 0
30.800000 8.360000 28.820000 47 48 47 0
31.020000 8.360000 28.820000 46 47 46 0
31.240000 8.360000 28.820000 48 49 48 0
31.460000 8.360000 28.820000 49 50 49 0
31.680000 8.360000 28.820000 48 49 48 0
31.900000 8.360000 28.820000 46 48 46 0
32.120000 8.360000 28.820000 47 48 47 0
32.340000 8.360000 28.820000 48 50 48 0
32.560000 8.360000 28.820000 46 48 46 0
32.780000 8.360000 28.820000 48 49 48 0
33.000000 8.360000 28.820000 49 51 49 0
33.220000 8.360000 29.040000 50 52 50 0
33.440000 8.360000 29.040000 49 51 49 0
33.660000 8.360000 29.040000 50 50 50 0
33.880000 8.360000 29.040000 50 52 50 0
34.100000 8.360000 29.040000 48 49 48 0
34.320000 8.360000 29.260000 50 51 50 0
34.540000 8.360000 29.260000 50 51 50 0
34.760000 8.360000 29.260000 50 52 50 0
34.980000 8.360000 29.040000 51 52 51 0
35.200000 8.360000 29.040000 54 54 54 0
35.420000 8.360000 28.820000 57 57 57 0
35.640000 8.360000 11.660000 61 65 61 0
35.860000 8.360000 43.560000 54 94 54 0
36.080000 8.360000 43.560000 54 96 54 0
36.300000 8.360000 43.560000 64 68 64 0
36.520000 8.360000 43.560000 64 64 64 0
36.740000 8.360000 43.560000 65 65 65 0
36.960000 8.360000 43.560000 64 64 64 0
37.180000 8.360000 43.560000 64 64 64 0
0.000000 8.580000 7.700000 49 52 49 0
0.220000 8.580000 7.480000 49 52 49 0
0.440000 8.580000 7.700000 50 51 50 0
0.660000 8.580000 7.700000 49 52 49 0
0.880000 8.580000 7.920000 47 54 47 0
1.100000 8.580000 8.140000 45 49 45 0
1.320000 8.580000 8.360000 47 50 47 0
1.540000 8.580000 8.580000 47 49 47 0
1.760000 8.580000 8.800000 49 52 49 0
1.980000 8.580000 9.240000 51 51 51 0
2.200000 8.580000 9.240000 49 52 49 0
2.420000 8.580000 9.460000 48 51 48 0
2.640000 8.580000 9.680000 47 49 47 0
2.860000 8.580000 9.900000 49 51 49 0
3.080000 8.580000 10.120000 48 52 48 0
3.300000 8.580000 10.340000 49 51 49 0
3.520000 8.580000 10.560000 48 51 48 0
3.740000 8.580000 10.780000 49 51 49 0
3.960000 8.580000 11.000000 50 53 50 0
4.180000 8.580000 11.000000 48 50 48 0
4.400000 8.580000 11.000000 47 51 47 0
4.620000 8.580000 11.220000 47 51 47 0
4.840000 8.580000 11.440000 48 52 48 0
5.060000 8.580000 20.460000 49 52 49 0
5.280000 8.580000 20.460000 49 53 49 0
5.500000 8.580000 20.460000 48 50 48 0
5.720000 8.580000 20.680000 48 52 48 0
5.940000 8.580000 20.900000 48 49 48 0
6.160000 8.580000 21.120000 51 52 51 0
6.380000 8.580000 21.340000 50 54 50 0
6.600000 8.580000 20.900000 50 54 50 0
6.820000 8.580000 20.240000 50 51 50 0
7.040000 8.580000 18.700000 49 52 49 0
7.260000 8.580000 16.720000 50 53 50 0
7.480000 8.580000 16.060000 48 50 48 0
7.700000 8.580000 15.840000 50 50 50 0
7.920000 8.580000 23.540000 47 49 47 0
8.140000 8.580000 23.100000 48 48 48 0
8.360000 8.580000 23.320000 49 51 49 0
8.580000 8.580000 23.540000 46 48 46 0
8.800000 8.580000 23.540000 51 54 51 0
9.020000 8.580000 23.760000 47 50 47 0
9.240000 8.580000 23.760000 50 52 50 0
9.460000 8.580000 23.980000 49 51 49 0
9.680000 8.580000 23.980000 50 52 50 0
9.900000 8.580000 24.200000 50 51 50 0
10.120000 8.580000 24.200000 49 51 49 0
10.340000 8.580000 24.420000 49 50 49 0
10.560000 8.580000 24.420000 50 52 50 0
10.780000 8.580000 24.420000 48 49 48 0
11.000000 8.580000 24.640000 48 50 48 0
11.220000 8.580000 24.640000 48 51 48 0
11.440000 8.580000 24.640000 49 51 49 0
11.660000 8.580000 24.640000 50 50 50 0
11.880000 8.580000 24.860000 48 50 48 0
12.100000 8.580000 24.860000 47 50 47 0
12.320000 8.580000 25.080000 47 49 47 0
12.540000 8.580000 25.080000 45 46 45 0
12.760000 8.580000 25.080000 48 49 48 0
12.980000 8.580000 25.300000 48 49 48 0
13.200000 8.580000 25.300000 49 51 49 0
13.420000 8.580000 25.520000 49 50 49 0
13.640000 8.580000 25.520000 48 50 48 0
13.860000 8.580000 25.740000 49 50 49 0
14.080000 8.580000 25.740000 48 48 48 0
14.300000 8.580000 25.740000 45 48 45 0
14.520000 8.580000 25.960000 48 49 48 0
14.740000 8.580000 25.960000 45 47 45 0
14.960000 8.580000 26.180000 48 49 48 0
15.180000 8.580000 26.180000 47 48 47 0
15.400000 8.580000 26.180000 46 48 46 0
15.620000 8.580000 26.180000 46 47 46 0
15.840000 8.580000 26.400000 45 46 45 0
16.060000 8.580000 26.400000 46 47 46 0
16.280000 8.580000 26.400000 45 47 45 0
16.500000 8.580000 26.400000 46 46 46 0
16.720000 8.580000 26.400000 44 47 44 0
16.940000 8.580000 26.400000 42 43 42 0
17.160000 8.580000 26.400000 45 45 45 0
17.380000 8.580000 26.400000 43 45 43 0
17.600000 8.580000 26.180000 42 42 42 0
17.820000 8.580000 26.180000 43 44 43 0
18.040000 8.580000 26.180000 39 40 39 0
18.260000 8.580000 26.180000 39 40 39 0
18.480000 8.580000 26.180000 33 35 33 0
18.700000 8.580000 26.400000 35 38 35 0
18.920000 8.580000 26.620000 33 36 33 0
19.140000 8.580000 26.840000 35 35 35 0
19.360000 8.580000 27.060000 39 41 39 0
19.580000 8.580000 27.280000 42 42 42 0
19.800000 8.580000 27.500000 42 42 42 0
20.020000 8.580000 27.720000 41 43 41 0
20.240000 8.580000 27.940000 45 46 45 0
20.460000 8.580000 28.380000 44 47 44 0
20.680000 8.580000 28.600000 45 45 45 0
20.900000 8.580000 29.040000 47 49 47 0
21.120000 8.580000 28.820000 43 45 43 0
21.340000 8.580000 35.640000 46 50 46 0
21.560000 8.580000 35.640000 48 51 48 0
21.780000 8.580000 34.760000 47 48 47 0
22.000000 8.580000 33.440000 45 48 45 0
22.220000 8.580000 32.340000 46 47 46 0
22.440000 8.580000 31.900000 50 51 50 0
22.660000 8.580000 31.460000 48 50 48 0
22.880000 8.580000 31.680000 46 48 46 0
23.100000 8.580000 31.900000 45 46 45 0
23.320000 8.580000 31.900000 48 50 48 0
23.540000 8.580000 31.900000 48 50 48 0
23.760000 8.580000 31.900000 48 50 48 0
23.980000 8.580000 31.900000 51 52 51 0
24.200000 8.580000 31.900000 50 51 50 0
24.420000 8.580000 31.900000 53 55 53 0
24.640000 8.580000 31.680000 55 55 55 0
24.860000 8.580000 31.460000 53 54 53 0
25.080000 8.580000 31.460000 53 53 53 0
25.300000 8.580000 32.120000 54 54 54 0
25.520000 8.580000 33.220000 51 52 51 0
25.740000 8.580000 34.760000 53 54 53 0
25.960000 8.580000 35.640000 51 52 51 0
26.180000 8.580000 35.640000 50 52 50 0
26.400000 8.580000 35.420000 50 52 50 0
26.620000 8.580000 35.640000 49 50 49 0
26.840000 8.580000 29.040000 52 53 52 0
27.060000 8.580000 29.260000 51 51 51 0
27.280000 8.580000 29.260000 50 51 50 0
27.500000 8.580000 29.040000 50 52 50 0
27.720000 8.580000 29.040000 51 51 51 0
27.940000 8.580000 28.820000 51 51 51 0
28.160000 8.580000 28.820000 50 51 50 0
28.380000 8.580000 28.820000 49 51 49 0
28.600000 8.580000 28.820000 49 50 49 0
28.820000 8.580000 28.820000 49 50 49 0
29.040000 8.580000 28.820000 48 50 48 0
29.260000 8.580000 28.820000 50 50 50 0
29.480000 8.580000 28.820000 50 51 50 0
29.700000 8.580000 28.600000 51 52 51 0
29.920000 8.580000 28.600000 51 52 51 0
30.140000 8.580000 28.600000 50 51 50 0
30.360000 8.580000 28.600000 49 51 49 0
30.580000 8.580000 28.600000 47 47 47 0
30.800000 8.580000 28.600000 45 46 45 0
31.020000 8.580000 28.600000 45 46 45 0
31.240000 8.580000 28.600000 46 47 46 0
31.460000 8.580000 28.600000 48 49 48 0
31.680000 8.580000 28.600000 49 50 49 0
31.900000 8.580000 28.600000 49 50 49 0
32.120000 8.580000 28.600000 49 50 49 0
32.340000 8.580000 28.600000 50 52 50 0
32.560000 8.580000 28.600000 48 49 48 0
32.780000 8.580000 28.820000 48 50 48 0
33.000000 8.580000 28.820000 51 52 51 0
33.220000 8.580000 28.820000 50 52 50 0
33.440000 8.580000 28.820000 50 50 50 0
33.660000 8.580000 28.820000 52 52 52 0
33.880000 8.580000 29.040000 49 50 49 0
34.100000 8.580000 29.040000 50 51 50 0
34.320000 8.580000 29.040000 50 51 50 0
34.540000 8.580000 29.040000 52 53 52 0
34.760000 8.580000 29.040000 50 50 50 0
34.980000 8.580000 29.040000 52 52 52 0
35.200000 8.580000 29.040000 54 55 54 0
35.420000 8.580000 28.820000 53 54 53 0
35.640000 8.580000 20.460000 57 57 57 0
35.860000 8.580000 1.320000 60 79 60 0
36.080000 8.580000 43.560000 54 97 54 0
36.300000 8.580000 43.560000 63 69 63 0
36.520000 8.580000 43.560000 65 65 65 0
36.740000 8.580000 43.560000 65 65 65 0
36.960000 8.580000 43.560000 65 65 65 0
37.180000 8.580000 43.560000 65 65 65 0
0.000000 8.800000 7.700000 49 54 49 0
0.220000 8.800000 7.700000 50 51 50 0
0.440000 8.800000 7.920000 48 50 48 0
0.660000 8.800000 7.920000 48 49 48 0
0.880000 8.800000 8.140000 43 49 43 0
1.100000 8.800000 8.360000 47 50 47 0
1.320000 8.800000 8.580000 48 51 48 0
1.540000 8.800000 8.800000 48 51 48 0
1.760000 8.800000 9.020000 49 51 49 0
1.980000 8.800000 9.240000 48 51 48 0
2.200000 8.800000 9.460000 47 51 47 0
2.420000 8.800000 9.460000 47 49 47 0
2.640000 8.800000 9.680000 49 52 49 0
2.860000 8.800000 9.900000 48 49 48 0
3.080000 8.800000 10.120000 49 51 49 0
3.300000 8.800000 10.120000 47 50 47 0
3.520000 8.800000 10.340000 48 51 48 0
3.740000 8.800000 10.560000 49 51 49 0
3.960000 8.800000 10.560000 50 52 50 0
4.180000 8.800000 19.800000 49 52 49 0
4.400000 8.800000 19.800000 48 52 48 0
4.620000 8.800000 20.020000 50 51 50 0
4.840000 8.800000 20.020000 49 51 49 0
5.060000 8.800000 20.240000 49 51 49 0
5.280000 8.800000 20.240000 49 52 49 0
5.500000 8.800000 20.460000 48 51 48 0
5.720000 8.800000 20.680000 50 51 50 0
5.940000 8.800000 20.900000 50 51 50 0
6.160000 8.800000 20.460000 50 52 50 0
6.380000 8.800000 19.800000 50 52 50 0
6.600000 8.800000 18.260000 48 49 48 0
6.820000 8.800000 16.500000 47 49 47 0
7.040000 8.800000 15.180000 49 52 49 0
7.260000 8.800000 14.300000 48 51 48 0
7.480000 8.800000 22.660000 51 53 51 0
7.700000 8.800000 22.660000 50 54 50 0
7.920000 8.800000 22.880000 47 50 47 0
8.140000 8.800000 23.100000 47 49 47 0
8.360000 8.800000 23.320000 48 51 48 0
8.580000 8.800000 23.320000 47 49 47 0
8.800000 8.800000 23.540000 47 50 47 0
9.020000 8.800000 23.540000 47 50 47 0
9.240000 8.800000 23.760000 50 51 50 0
9.460000 8.800000 23.760000 50 54 50 0
9.680000 8.800000 23.760000 49 50 49 0
9.900000 8.800000 23.980000 48 49 48 0
10.120000 8.800000 23.980000 47 50 47 0
10.340000 8.800000 24.200000 47 50 47 0
10.560000 8.800000 24.200000 49 51 49 0
10.780000 8.800000 24.200000 48 49 48 0
11.000000 8.800000 24.420000 50 52 50 0
11.220000 8.800000 24.420000 46 49 46 0
11.440000 8.800000 24.420000 48 50 48 0
11.660000 8.800000 24.640000 50 51 50 0
11.880000 8.800000 24.640000 49 49 49 0
12.100000 8.800000 24.860000 48 49 48 0
12.320000 8.800000 25.080000 49 51 49 0
12.540000 8.800000 25.080000 48 49 48 0
12.760000 8.800000 25.300000 49 50 49 0
12.980000 8.800000 25.520000 47 51 47 0
13.200000 8.800000 25.520000 48 49 48 0
13.420000 8.800000 25.740000 50 50 50 0
13.640000 8.800000 25.740000 48 50 48 0
13.860000 8.800000 25.960000 46 47 46 0
14.080000 8.800000 25.960000 48 49 48 0
14.300000 8.800000 25.960000 49 50 49 0
14.520000 8.800000 26.180000 48 48 48 0
14.740000 8.800000 26.180000 47 48 47 0
14.960000 8.800000 26.180000 47 47 47 0
15.180000 8.800000 26.400000 48 50 48 0
15.400000 8.800000 26.400000 47 49 47 0
15.620000 8.800000 26.400000 46 47 46 0
15.840000 8.800000 26.400000 47 48 47 0
16.060000 8.800000 26.400000 46 49 46 0
16.280000 8.800000 26.400000 47 48 47 0
16.500000 8.800000 26.620000 44 46 44 0
16.720000 8.800000 26.620000 46 47 46 0
16.940000 8.800000 26.620000 45 48 45 0
17.160000 8.800000 26.400000 39 42 39 0
17.380000 8.800000 26.400000 44 46 44 0
17.600000 8.800000 26.400000 40 41 40 0
17.820000 8.800000 26.180000 40 42 40 0
18.040000 8.800000 26.180000 38 38 38 0
18.260000 8.800000 26.180000 40 40 40 0
18.480000 8.800000 26.400000 38 39 38 0
18.700000 8.800000 26.620000 35 37 35 0
18.920000 8.800000 26.840000 36 38 36 0
19.140000 8.800000 27.060000 40 41 40 0
19.360000 8.800000 27.280000 41 42 41 0
19.580000 8.800000 27.280000 43 45 43 0
19.800000 8.800000 27.500000 43 46 43 0
20.020000 8.800000 27.720000 43 44 43 0
20.240000 8.800000 28.160000 44 47 44 0
20.460000 8.800000 28.380000 48 49 48 0
20.680000 8.800000 28.380000 48 50 48 0
20.900000 8.800000 27.940000 47 48 47 0
21.120000 8.800000 34.540000 44 46 44 0
21.340000 8.800000 33.000000 47 49 47 0
21.560000 8.800000 32.340000 47 49 47 0
21.780000 8.800000 32.120000 48 51 48 0
22.000000 8.800000 31.680000 48 51 48 0
22.220000 8.800000 31.460000 47 49 47 0
22.440000 8.800000 31.680000 50 51 50 0
22.660000 8.800000 31.680000 48 52 48 0
22.880000 8.800000 31.900000 51 53 51 0
23.100000 8.800000 31.900000 46 49 46 0
23.320000 8.800000 31.900000 47 49 47 0
23.540000 8.800000 31.900000 50 52 50 0
23.760000 8.800000 31.900000 49 51 49 0
23.980000 8.800000 31.900000 52 54 52 0
24.200000 8.800000 31.900000 51 55 51 0
24.420000 8.800000 31.900000 53 55 53 0
24.640000 8.800000 31.680000 57 58 57 0
24.860000 8.800000 31.460000 57 57 57 0
25.080000 8.800000 31.240000 54 55 54 0
25.300000 8.800000 30.800000 52 53 52 0
25.520000 8.800000 31.240000 54 54 54 0
25.740000 8.800000 31.900000 51 52 51 0
25.960000 8.800000 32.120000 50 50 50 0
26.180000 8.800000 32.120000 48 49 48 0
26.400000 8.800000 31.900000 51 52 51 0
26.620000 8.800000 32.780000 50 51 50 0
26.840000 8.800000 34.320000 51 52 51 0
27.060000 8.800000 35.200000 52 53 52 0
27.280000 8.800000 34.980000 51 51 51 0
27.500000 8.800000 35.420000 50 52 50 0
27.720000 8.800000 28.600000 51 52 51 0
27.940000 8.800000 29.040000 50 52 50 0
28.160000 8.800000 28.820000 52 52 52 0
28.380000 8.800000 28.820000 50 51 50 0
28.600000 8.800000 28.820000 47 49 47 0
28.820000 8.800000 28.820000 49 51 49 0
29.040000 8.800000 28.820000 48 50 48 0
29.260000 8.800000 28.600000 50 52 50 0
29.480000 8.800000 28.600000 52 52 52 0
29.700000 8.800000 28.600000 50 51 50 0
29.920000 8.800000 28.600000 50 51 50 0
30.140000 8.800000 28.380000 50 51 50 0
30.360000 8.800000 28.380000 47 49 47 0
30.580000 8.800000 28.380000 46 47 46 0
30.800000 8.800000 28.380000 45 46 45 0
31.020000 8.800000 28.380000 49 49 49 0
31.240000 8.800000 28.380000 44 47 44 0
31.460000 8.800000 28.380000 48 49 48 0
31.680000 8.800000 28.380000 48 49 48 0
31.900000 8.800000 28.600000 49 50 49 0
32.120000 8.800000 28.600000 49 51 49 0
32.340000 8.800000 28.600000 50 52 50 0
32.560000 8.800000 28.600000 51 52 51 0
32.780000 8.800000 28.600000 48 48 48 0
33.000000 8.800000 28.820000 49 50 49 0
33.220000 8.800000 28.820000 50 51 50 0
33.440000 8.800000 28.820000 49 50 49 0
33.660000 8.800000 29.040000 51 51 51 0
33.880000 8.800000 29.040000 51 53 51 0
34.100000 8.800000 29.040000 51 52 51 0
34.320000 8.800000 28.600000 49 51 49 0
34.540000 8.800000 35.420000 50 51 50 0
34.760000 8.800000 34.980000 51 52 51 0
34.980000 8.800000 35.420000 52 52 52 0
35.200000 8.800000 28.600000 53 54 53 0
35.420000 8.800000 29.040000 53 54 53 0
35.640000 8.800000 28.600000 56 56 56 0
35.860000 8.800000 11.000000 58 65 58 0
36.080000 8.800000 43.560000 56 94 56 0
36.300000 8.800000 43.560000 63 71 63 0
36.520000 8.800000 43.560000 65 65 65 0
36.740000 8.800000 43.560000 65 65 65 0
36.960000 8.800000 43.560000 64 64 64 0
37.180000 8.800000 43.560000 65 65 65 0
0.000000 9.020000 7.700000 46 48 46 0
0.220000 9.020000 7.700000 46 49 46 0
0.440000 9.020000 7.920000 50 52 50 0
0.660000 9.020000 8.140000 47 49 47 0
0.880000 9.020000 8.360000 48 50 48 0
1.100000 9.020000 8.580000 48 51 48 0
1.320000 9.020000 8.800000 46 49 46 0
1.540000 9.020000 8.800000 50 53 50 0
1.760000 9.020000 9.020000 48 52 48 0
1.980000 9.020000 9.240000 46 47 46 0
2.200000 9.020000 9.240000 47 49 47 0
2.420000 9.020000 9.460000 49 51 49 0
2.640000 9.020000 9.680000 47 50 47 0
2.860000 9.020000 9.680000 48 51 48 0
3.080000 9.020000 9.900000 47 50 47 0
3.300000 9.020000 9.900000 50 53 50 0
3.520000 9.020000 10.120000 48 50 48 0
3.740000 9.020000 10.120000 49 53 49 0
3.960000 9.020000 10.340000 51 54 51 0
4.180000 9.020000 19.580000 50 53 50 0
4.400000 9.020000 19.580000 51 54 51 0
4.620000 9.020000 19.800000 50 53 50 0
4.840000 9.020000 20.020000 50 51 50 0
5.060000 9.020000 20.020000 49 52 49 0
5.280000 9.020000 20.240000 50 50 50 0
5.500000 9.020000 19.800000 47 49 47 0
5.720000 9.020000 19.140000 48 50 48 0
5.940000 9.020000 18.700000 47 48 47 0
6.160000 9.020000 17.820000 47 50 47 0
6.380000 9.020000 16.060000 48 50 48 0
6.600000 9.020000 14.740000 50 53 50 0
6.820000 9.020000 22.660000 44 46 44 0
7.040000 9.020000 22.220000 47 49 47 0
7.260000 9.020000 22.440000 47 51 47 0
7.480000 9.020000 22.660000 47 49 47 0
7.700000 9.020000 22.660000 50 52 50 0
7.920000 9.020000 22.880000 49 52 49 0
8.140000 9.020000 22.880000 49 51 49 0
8.360000 9.020000 23.100000 48 49 48 0
8.580000 9.020000 23.100000 49 51 49 0
8.800000 9.020000 23.320000 47 49 47 0
9.020000 9.020000 23.320000 48 53 48 0
9.240000 9.020000 23.540000 49 50 49 0
9.460000 9.020000 23.540000 48 51 48 0
9.680000 9.020000 23.540000 48 51 48 0
9.900000 9.020000 23.760000 50 53 50 0
10.120000 9.020000 23.760000 51 55 51 0
10.340000 9.020000 23.980000 49 50 49 0
10.560000 9.020000 23.980000 48 49 48 0
10.780000 9.020000 24.200000 48 49 48 0
11.000000 9.020000 24.200000 47 49 47 0
11.220000 9.020000 24.420000 49 49 49 0
11.440000 9.020000 24.640000 47 49 47 0
11.660000 9.020000 24.640000 50 51 50 0
11.880000 9.020000 24.860000 48 49 48 0
12.100000 9.020000 25.080000 48 50 48 0
12.320000 9.020000 25.300000 47 49 47 0
12.540000 9.020000 25.520000 49 50 49 0
12.760000 9.020000 25.520000 49 50 49 0
12.980000 9.020000 25.740000 49 51 49 0
13.200000 9.020000 25.740000 47 48 47 0
13.420000 9.020000 25.960000 46 48 46 0
13.640000 9.020000 25.960000 49 50 49 0
13.860000 9.020000 25.960000 47 51 47 0
14.080000 9.020000 26.180000 48 50 48 0
14.300000 9.020000 26.180000 48 49 48 0
14.520000 9.020000 26.180000 47 49 47 0
14.740000 9.020000 26.400000 47 47 47 0
14.960000 9.020000 26.400000 48 49 48 0
15.180000 9.020000 26.400000 48 50 48 0
15.400000 9.020000 26.400000 48 49 48 0
15.620000 9.020000 26.400000 47 49 47 0
15.840000 9.020000 26.400000 47 48 47 0
16.060000 9.020000 26.620000 48 49 48 0
16.280000 9.020000 26.620000 44 46 44 0
16.500000 9.020000 26.620000 49 50 49 0
16.720000 9.020000 26.620000 42 45 42 0
16.940000 9.020000 26.620000 43 46 43 0
17.160000 9.020000 26.620000 42 43 42 0
17.380000 9.020000 26.400000 41 42 41 0
17.600000 9.020000 26.400000 41 42 41 0
17.820000 9.020000 26.180000 39 40 39 0
18.040000 9.020000 26.180000 38 39 38 0
18.260000 9.020000 26.180000 32 33 32 0
18.480000 9.020000 26.400000 33 34 33 0
18.700000 9.020000 26.620000 39 40 39 0
18.920000 9.020000 26.840000 41 43 41 0
19.140000 9.020000 27.060000 41 42 41 0
19.360000 9.020000 27.280000 46 47 46 0
19.580000 9.020000 27.280000 46 49 46 0
19.800000 9.020000 27.500000 44 46 44 0
20.020000 9.020000 27.940000 47 49 47 0
20.240000 9.020000 27.720000 43 44 43 0
20.460000 9.020000 27.500000 46 51 46 0
20.680000 9.020000 34.100000 49 50 49 0
20.900000 9.020000 32.780000 48 51 48 0
21.120000 9.020000 31.680000 45 47 45 0
21.340000 9.020000 31.240000 48 50 48 0
21.560000 9.020000 30.800000 49 50 49 0
21.780000 9.020000 31.240000 52 54 52 0
22.000000 9.020000 31.240000 49 52 49 0
22.220000 9.020000 31.460000 49 51 49 0
22.440000 9.020000 31.680000 49 51 49 0
22.660000 9.020000 31.680000 49 51 49 0
22.880000 9.020000 39.160000 48 51 48 0
23.100000 9.020000 39.160000 49 51 49 0
23.320000 9.020000 39.160000 47 50 47 0
23.540000 9.020000 39.160000 50 52 50 0
23.760000 9.020000 39.160000 51 52 51 0
23.980000 9.020000 39.160000 52 53 52 0
24.200000 9.020000 39.160000 51 54 51 0
24.420000 9.020000 31.680000 53 55 53 0
24.640000 9.020000 31.460000 55 56 55 0
24.860000 9.020000 31.460000 56 58 56 0
25.080000 9.020000 31.240000 52 54 52 0
25.300000 9.020000 30.800000 53 54 53 0
25.520000 9.020000 30.580000 54 55 54 0
25.740000 9.020000 30.580000 53 53 53 0
25.960000 9.020000 30.360000 51 52 51 0
26.180000 9.020000 30.360000 47 48 47 0
26.400000 9.020000 30.140000 52 53 52 0
26.620000 9.020000 30.580000 51 52 51 0
26.840000 9.020000 31.460000 50 51 50 0
27.060000 9.020000 31.680000 51 52 51 0
27.280000 9.020000 31.680000 53 54 53 0
27.500000 9.020000 32.340000 51 51 51 0
27.720000 9.020000 34.100000 52 52 52 0
27.940000 9.020000 34.980000 51 51 51 0
28.160000 9.020000 34.760000 51 52 51 0
28.380000 9.020000 34.760000 51 52 51 0
28.600000 9.020000 34.760000 49 50 49 0
28.820000 9.020000 34.540000 49 50 49 0
29.040000 9.020000 34.540000 50 52 50 0
29.260000 9.020000 34.980000 51 53 51 0
29.480000 9.020000 35.860000 52 53 52 0
29.700000 9.020000 28.600000 52 53 52 0
29.920000 9.020000 28.380000 50 51 50 0
30.140000 9.020000 28.380000 47 49 47 0
30.360000 9.020000 28.380000 46 46 46 0
30.580000 9.020000 28.160000 41 42 41 0
30.800000 9.020000 28.160000 41 42 41 0
31.020000 9.020000 28.160000 46 47 46 0
31.240000 9.020000 28.380000 48 49 48 0
31.460000 9.020000 28.380000 49 50 49 0
31.680000 9.020000 28.600000 47 49 47 0
31.900000 9.020000 28.600000 49 51 49 0
32.120000 9.020000 28.160000 47 48 47 0
32.340000 9.020000 34.980000 49 50 49 0
32.560000 9.020000 34.540000 49 51 49 0
32.780000 9.020000 34.540000 49 51 49 0
33.000000 9.020000 34.760000 51 52 51 0
33.220000 9.020000 34.760000 49 51 49 0
33.440000 9.020000 34.980000 48 49 48 0
33.660000 9.020000 34.980000 50 51 50 0
33.880000 9.020000 34.980000 52 53 52 0
34.100000 9.020000 35.200000 49 51 49 0
34.320000 9.020000 34.100000 49 51 49 0
34.540000 9.020000 32.340000 51 53 51 0
34.760000 9.020000 31.460000 48 49 48 0
34.980000 9.020000 32.340000 51 53 51 0
35.200000 9.020000 34.100000 52 53 52 0
35.420000 9.020000 34.980000 53 54 53 0
35.640000 9.020000 35.200000 56 56 56 0
35.860000 9.020000 19.800000 60 62 60 0
36.080000 9.020000 43.560000 55 84 55 0
36.300000 9.020000 43.560000 60 72 60 0
36.520000 9.020000 43.560000 65 65 65 0
36.740000 9.020000 43.560000 65 65 65 0
36.960000 9.020000 43.560000 64 64 64 0
37.180000 9.020000 43.560000 65 65 65 0
0.000000 9.240000 7.700000 49 52 49 0
0.220000 9.240000 7.700000 50 52 50 0
0.440000 9.240000 7.920000 49 52 49 0
0.660000 9.240000 8.140000 46 50 46 0
0.880000 9.240000 8.360000 49 51 49 0
1.100000 9.240000 8.360000 47 50 47 0
1.320000 9.240000 8.580000 49 52 49 0
1.540000 9.240000 8.800000 47 50 47 0
1.760000 9.240000 8.800000 46 49 46 0
1.980000 9.240000 9.020000 50 53 50 0
2.200000 9.240000 9.020000 50 51 50 0
2.420000 9.240000 9.240000 49 52 49 0
2.640000 9.240000 9.240000 48 50 48 0
2.860000 9.240000 9.460000 49 52 49 0
3.080000 9.240000 9.460000 48 52 48 0
3.300000 9.240000 9.680000 48 53 48 0
3.520000 9.240000 18.920000 48 54 48 0
3.740000 9.240000 19.140000 49 51 49 0
3.960000 9.240000 19.140000 49 51 49 0
4.180000 9.240000 19.360000 49 51 49 0
4.400000 9.240000 19.580000 50 52 50 0
4.620000 9.240000 19.800000 48 51 48 0
4.840000 9.240000 19.360000 50 52 50 0
5.060000 9.240000 18.480000 47 49 47 0
5.280000 9.240000 18.260000 49 50 49 0
5.500000 9.240000 17.160000 46 48 46 0
5.720000 9.240000 15.180000 48 53 48 0
5.940000 9.240000 14.300000 47 51 47 0
6.160000 9.240000 14.080000 48 52 48 0
6.380000 9.240000 22.220000 49 50 49 0
6.600000 9.240000 21.780000 47 51 47 0
6.820000 9.240000 22.000000 50 53 50 0
7.040000 9.240000 22.220000 49 50 49 0
7.260000 9.240000 22.440000 48 51 48 0
7.480000 9.240000 22.440000 49 50 49 0
7.700000 9.240000 22.660000 49 54 49 0
7.920000 9.240000 22.660000 47 48 47 0
8.140000 9.240000 22.880000 48 51 48 0
8.360000 9.240000 22.880000 50 51 50 0
8.580000 9.240000 22.880000 46 48 46 0
8.800000 9.240000 23.100000 49 50 49 0
9.020000 9.240000 23.100000 47 47 47 0
9.240000 9.240000 23.320000 48 49 48 0
9.460000 9.240000 23.320000 47 51 47 0
9.680000 9.240000 23.320000 47 50 47 0
9.900000 9.240000 23.540000 49 51 49 0
10.120000 9.240000 23.540000 50 53 50 0
10.340000 9.240000 23.760000 47 48 47 0
10.560000 9.240000 23.980000 50 51 50 0
10.780000 9.240000 24.200000 46 49 46 0
11.000000 9.240000 24.420000 49 50 49 0
11.220000 9.240000 24.640000 47 49 47 0
11.440000 9.240000 24.860000 49 52 49 0
11.660000 9.240000 25.080000 49 50 49 0
11.880000 9.240000 25.080000 50 51 50 0
12.100000 9.240000 25.300000 48 49 48 0
12.320000 9.240000 25.300000 50 51 50 0
12.540000 9.240000 25.520000 48 50 48 0
12.760000 9.240000 25.740000 52 54 52 0
12.980000 9.240000 25.740000 49 50 49 0
13.200000 9.240000 25.960000 47 48 47 0
13.420000 9.240000 25.960000 48 49 48 0
13.640000 9.240000 26.180000 49 49 49 0
13.860000 9.240000 26.180000 46 48 46 0
14.080000 9.240000 26.180000 48 49 48 0
14.300000 9.240000 26.180000 47 49 47 0
14.520000 9.240000 26.400000 47 50 47 0
14.740000 9.240000 26.400000 47 49 47 0
14.960000 9.240000 26.400000 47 49 47 0
15.180000 9.240000 26.400000 47 48 47 0
15.400000 9.240000 26.400000 48 50 48 0
15.620000 9.240000 26.400000 47 48 47 0
15.840000 9.240000 26.620000 46 48 46 0
16.060000 9.240000 26.620000 45 47 45 0
16.280000 9.240000 26.620000 45 46 45 0
16.500000 9.240000 26.620000 44 46 44 0
16.720000 9.240000 26.620000 42 43 42 0
16.940000 9.240000 26.620000 44 45 44 0
17.160000 9.240000 26.620000 43 44 43 0
17.380000 9.240000 26.400000 41 42 41 0
17.600000 9.240000 26.400000 43 44 43 0
17.820000 9.240000 26.180000 42 43 42 0
18.040000 9.240000 26.180000 35 36 35 0
18.260000 9.240000 26.180000 34 35 34 0
18.480000 9.240000 26.400000 41 42 41 0
18.700000 9.240000 26.620000 44 45 44 0
18.920000 9.240000 26.840000 44 46 44 0
19.140000 9.240000 27.060000 41 42 41 0
19.360000 9.240000 27.280000 44 46 44 0
19.580000 9.240000 27.500000 44 45 44 0
19.800000 9.240000 27.280000 47 50 47 0
20.020000 9.240000 26.840000 46 48 46 0
20.240000 9.240000 33.660000 46 50 46 0
20.460000 9.240000 32.340000 46 48 46 0
20.680000 9.240000 31.460000 48 50 48 0
20.900000 9.240000 30.800000 46 48 46 0
21.120000 9.240000 30.800000 46 48 46 0
21.340000 9.240000 31.020000 46 49 46 0
21.560000 9.240000 31.020000 47 49 47 0
21.780000 9.240000 31.240000 47 52 47 0
22.000000 9.240000 31.240000 46 50 46 0
22.220000 9.240000 38.720000 49 51 49 0
22.440000 9.240000 38.940000 49 51 49 0
22.660000 9.240000 38.940000 49 50 49 0
22.880000 9.240000 38.940000 48 50 48 0
23.100000 9.240000 39.160000 48 50 48 0
23.320000 9.240000 39.160000 50 52 50 0
23.540000 9.240000 39.160000 49 52 49 0
23.760000 9.240000 39.160000 50 52 50 0
23.980000 9.240000 39.160000 50 53 50 0
24.200000 9.240000 38.940000 52 54 52 0
24.420000 9.240000 38.940000 54 56 54 0
24.640000 9.240000 38.720000 53 54 53 0
24.860000 9.240000 31.240000 55 56 55 0
25.080000 9.240000 31.020000 56 57 56 0
25.300000 9.240000 30.800000 53 54 53 0
25.520000 9.240000 30.580000 54 55 54 0
25.740000 9.240000 30.580000 50 52 50 0
25.960000 9.240000 30.360000 51 52 51 0
26.180000 9.240000 30.360000 51 53 51 0
26.400000 9.240000 30.360000 51 53 51 0
26.620000 9.240000 30.140000 50 51 50 0
26.840000 9.240000 30.140000 50 51 50 0
27.060000 9.240000 30.140000 51 52 51 0
27.280000 9.240000 29.920000 52 53 52 0
27.500000 9.240000 30.360000 50 51 50 0
27.720000 9.240000 31.240000 50 51 50 0
27.940000 9.240000 31.460000 51 52 51 0
28.160000 9.240000 31.240000 51 52 51 0
28.380000 9.240000 31.240000 49 50 49 0
28.600000 9.240000 31.240000 50 52 50 0
28.820000 9.240000 31.020000 50 53 50 0
29.040000 9.240000 31.020000 50 51 50 0
29.260000 9.240000 31.900000 48 49 48 0
29.480000 9.240000 33.660000 51 52 51 0
29.700000 9.240000 34.540000 49 50 49 0
29.920000 9.240000 34.760000 49 51 49 0
30.140000 9.240000 35.640000 50 51 50 0
30.360000 9.240000 28.380000 44 45 44 0
30.580000 9.240000 28.380000 43 45 43 0
30.800000 9.240000 28.380000 46 47 46 0
31.020000 9.240000 35.420000 45 46 45 0
31.240000 9.240000 34.760000 47 49 47 0
31.460000 9.240000 34.320000 50 50 50 0
31.680000 9.240000 34.540000 48 50 48 0
31.900000 9.240000 34.540000 50 51 50 0
32.120000 9.240000 33.660000 48 51 48 0
32.340000 9.240000 31.900000 48 49 48 0
32.560000 9.240000 31.020000 49 51 49 0
32.780000 9.240000 31.240000 48 50 48 0
33.000000 9.240000 31.240000 50 51 50 0
33.220000 9.240000 31.240000 49 49 49 0
33.440000 9.240000 31.240000 50 53 50 0
33.660000 9.240000 31.460000 49 50 49 0
33.880000 9.240000 31.460000 51 52 51 0
34.100000 9.240000 31.460000 50 52 50 0
34.320000 9.240000 31.020000 51 52 51 0
34.540000 9.240000 30.140000 51 53 51 0
34.760000 9.240000 29.700000 51 53 51 0
34.980000 9.240000 30.140000 51 52 51 0
35.200000 9.240000 31.020000 52 53 52 0
35.420000 9.240000 31.460000 53 54 53 0
35.640000 9.240000 32.120000 55 55 55 0
35.860000 9.240000 17.380000 58 59 58 0
36.080000 9.240000 43.560000 59 78 59 0
36.300000 9.240000 43.560000 62 76 62 0
36.520000 9.240000 43.560000 65 65 65 0
36.740000 9.240000 43.560000 65 65 65 0
36.960000 9.240000 43.560000 64 64 64 0
37.180000 9.240000 43.560000 65 65 65 0
0.000000 9.460000 7.700000 48 50 48 0
0.220000 9.460000 7.700000 47 51 47 0
0.440000 9.460000 7.920000 48 50 48 0
0.660000 9.460000 8.140000 47 49 47 0
0.880000 9.460000 8.140000 49 52 49 0
1.100000 9.460000 8.360000 47 50 47 0
1.320000 9.460000 8.360000 49 52 49 0
1.540000 9.460000 8.580000 46 50 46 0
1.760000 9.460000 8.580000 48 54 48 0
1.980000 9.460000 8.800000 48 52 48 0
2.200000 9.460000 8.800000 49 51 49 0
2.420000 9.460000 8.800000 49 51 49 0
2.640000 9.460000 9.020000 49 50 49 0
2.860000 9.460000 9.020000 50 52 50 0
3.080000 9.460000 9.240000 49 50 49 0
3.300000 9.460000 18.480000 48 49 48 0
3.520000 9.460000 18.700000 48 51 48 0
3.740000 9.460000 18.920000 49 52 49 0
3.960000 9.460000 19.140000 47 51 47 0
4.180000 9.460000 19.360000 51 52 51 0
4.400000 9.460000 18.920000 51 52 51 0
4.620000 9.460000 18.260000 47 51 47 0
4.840000 9.460000 16.720000 50 54 50 0
5.060000 9.460000 14.740000 48 50 48 0
5.280000 9.460000 13.860000 49 50 49 0
5.500000 9.460000 13.420000 47 48 47 0
5.720000 9.460000 21.560000 47 49 47 0
5.940000 9.460000 21.120000 49 52 49 0
6.160000 9.460000 21.340000 49 52 49 0
6.380000 9.460000 21.560000 47 50 47 0
6.600000 9.460000 21.780000 46 48 46 0
6.820000 9.460000 22.000000 49 52 49 0
7.040000 9.460000 22.000000 48 49 48 0
7.260000 9.460000 22.220000 49 51 49 0
7.480000 9.460000 22.220000 44 46 44 0
7.700000 9.460000 22.440000 47 50 47 0
7.920000 9.460000 22.440000 49 52 49 0
8.140000 9.460000 22.440000 47 50 47 0
8.360000 9.460000 22.660000 46 48 46 0
8.580000 9.460000 22.660000 50 53 50 0
8.800000 9.460000 22.880000 48 50 48 0
9.020000 9.460000 22.880000 46 48 46 0
9.240000 9.460000 23.100000 51 52 51 0
9.460000 9.460000 23.100000 48 50 48 0
9.680000 9.460000 23.320000 48 51 48 0
9.900000 9.460000 23.320000 48 50 48 0
10.120000 9.460000 23.540000 48 50 48 0
10.340000 9.460000 23.980000 49 51 49 0
10.560000 9.460000 24.200000 50 52 50 0
10.780000 9.460000 24.420000 48 50 48 0
11.000000 9.460000 24.640000 48 49 48 0
11.220000 9.460000 24.860000 48 51 48 0
11.440000 9.460000 25.080000 49 51 49 0
11.660000 9.460000 25.080000 48 49 48 0
11.880000 9.460000 25.300000 48 49 48 0
12.100000 9.460000 25.300000 49 50 49 0
12.320000 9.460000 25.520000 49 49 49 0
12.540000 9.460000 25.520000 48 49 48 0
12.760000 9.460000 25.740000 48 49 48 0
12.980000 9.460000 25.960000 47 47 47 0
13.200000 9.460000 25.960000 49 50 49 0
13.420000 9.460000 25.960000 49 51 49 0
13.640000 9.460000 26.180000 48 49 48 0
13.860000 9.460000 26.180000 46 48 46 0
14.080000 9.460000 26.180000 49 51 49 0
14.300000 9.460000 26.180000 48 49 48 0
14.520000 9.460000 26.180000 48 49 48 0
14.740000 9.460000 26.400000 46 48 46 0
14.960000 9.460000 26.400000 48 50 48 0
15.180000 9.460000 26.400000 50 51 50 0
15.400000 9.460000 26.400000 46 48 46 0
15.620000 9.460000 26.400000 47 49 47 0
15.840000 9.460000 26.400000 47 49 47 0
16.060000 9.460000 26.400000 47 49 47 0
16.280000 9.460000 26.400000 46 47 46 0
16.500000 9.460000 26.620000 47 47 47 0
16.720000 9.460000 26.620000 44 46 44 0
16.940000 9.460000 26.620000 43 47 43 0
17.160000 9.460000 26.400000 41 43 41 0
17.380000 9.460000 26.400000 42 42 42 0
17.600000 9.460000 26.400000 38 38 38 0
17.820000 9.460000 26.180000 35 36 35 0
18.040000 9.460000 26.180000 41 41 41 0
18.260000 9.460000 26.400000 47 47 47 0
18.480000 9.460000 26.620000 47 48 47 0
18.700000 9.460000 26.840000 43 45 43 0
18.920000 9.460000 26.840000 44 46 44 0
19.140000 9.460000 27.060000 44 46 44 0
19.360000 9.460000 26.840000 43 45 43 0
19.580000 9.460000 26.400000 45 47 45 0
19.800000 9.460000 33.220000 50 51 50 0
20.020000 9.460000 31.900000 49 51 49 0
20.240000 9.460000 30.800000 47 49 47 0
20.460000 9.460000 30.580000 46 51 46 0
20.680000 9.460000 30.360000 46 49 46 0
20.900000 9.460000 30.580000 50 52 50 0
21.120000 9.460000 30.800000 48 50 48 0
21.340000 9.460000 31.020000 46 51 46 0
21.560000 9.460000 31.020000 46 48 46 0
21.780000 9.460000 38.500000 48 52 48 0
22.000000 9.460000 38.720000 48 49 48 0
22.220000 9.460000 38.720000 49 52 49 0
22.440000 9.460000 38.940000 49 51 49 0
22.660000 9.460000 38.940000 50 52 50 0
22.880000 9.460000 39.160000 48 50 48 0
23.100000 9.460000 39.160000 48 53 48 0
23.320000 9.460000 39.380000 48 52 48 0
23.540000 9.460000 39.380000 49 51 49 0
23.760000 9.460000 39.380000 50 53 50 0
23.980000 9.460000 39.160000 52 54 52 0
24.200000 9.460000 39.160000 49 51 49 0
24.420000 9.460000 38.940000 52 56 52 0
24.640000 9.460000 38.720000 52 56 52 0
24.860000 9.460000 38.720000 54 56 54 0
25.080000 9.460000 31.020000 55 55 55 0
25.300000 9.460000 30.800000 56 57 56 0
25.520000 9.460000 30.580000 54 55 54 0
25.740000 9.460000 30.360000 52 53 52 0
25.960000 9.460000 30.360000 51 51 51 0
26.180000 9.460000 30.360000 51 53 51 0
26.400000 9.460000 30.140000 49 51 49 0
26.620000 9.460000 30.140000 49 51 49 0
26.840000 9.460000 30.140000 52 54 52 0
27.060000 9.460000 30.140000 52 52 52 0
27.280000 9.460000 29.920000 52 53 52 0
27.500000 9.460000 29.920000 51 54 51 0
27.720000 9.460000 29.920000 51 53 51 0
27.940000 9.460000 29.700000 51 53 51 0
28.160000 9.460000 29.480000 52 53 52 0
28.380000 9.460000 29.480000 53 54 53 0
28.600000 9.460000 29.480000 50 51 50 0
28.820000 9.460000 29.260000 52 52 52 0
29.040000 9.460000 29.260000 52 53 52 0
29.260000 9.460000 29.700000 51 52 51 0
29.480000 9.460000 30.580000 51 52 51 0
29.700000 9.460000 31.020000 52 52 52 0
29.920000 9.460000 31.680000 48 48 48 0
30.140000 9.460000 33.440000 50 51 50 0
30.360000 9.460000 34.320000 46 47 46 0
30.580000 9.460000 34.320000 46 48 46 0
30.800000 9.460000 34.320000 45 46 45 0
31.020000 9.460000 33.440000 46 47 46 0
