ply
format ascii 1.0
element vertex 1175
property float x
property float y
property float z
property uchar red
property uchar green
property uchar blue
property uchar alpha
end_header
32.120000 13.860000 23.540000 52 53 52 0
32.340000 13.860000 23.540000 50 51 50 0
32.560000 13.860000 23.760000 48 50 48 0
32.780000 13.860000 14.300000 51 52 51 0
33.000000 13.860000 14.300000 50 52 50 0
33.220000 13.860000 14.300000 49 50 49 0
33.440000 13.860000 14.300000 51 53 51 0
33.660000 13.860000 14.300000 52 54 52 0
33.880000 13.860000 14.300000 51 52 51 0
34.100000 13.860000 3.300000 54 55 54 0
34.320000 13.860000 2.200000 55 58 55 0
34.540000 13.860000 1.320000 53 60 53 0
34.760000 13.860000 1.100000 52 61 52 0
34.980000 13.860000 1.100000 51 60 51 0
35.200000 13.860000 0.880000 52 61 52 0
35.420000 13.860000 0.880000 52 62 52 0
35.640000 13.860000 0.660000 52 61 52 0
35.860000 13.860000 0.660000 52 62 52 0
36.080000 13.860000 0.660000 52 60 52 0
36.300000 13.860000 0.440000 58 62 58 0
36.520000 13.860000 43.560000 65 65 65 0
36.740000 13.860000 43.560000 64 64 64 0
36.960000 13.860000 35.860000 65 65 65 0
37.180000 13.860000 43.560000 65 65 65 0
0.000000 14.080000 14.300000 51 53 51 0
0.220000 14.080000 14.300000 48 51 48 0
0.440000 14.080000 14.520000 49 51 49 0
0.660000 14.080000 14.740000 49 50 49 0
0.880000 14.080000 14.740000 49 51 49 0
1.100000 14.080000 14.740000 48 48 48 0
1.320000 14.080000 14.960000 51 53 51 0
1.540000 14.080000 14.960000 49 50 49 0
1.760000 14.080000 15.180000 49 50 49 0
1.980000 14.080000 15.400000 47 51 47 0
2.200000 14.080000 15.400000 52 53 52 0
2.420000 14.080000 15.620000 49 50 49 0
2.640000 14.080000 15.620000 48 50 48 0
2.860000 14.080000 15.840000 48 49 48 0
3.080000 14.080000 15.840000 48 49 48 0
3.300000 14.080000 16.060000 49 50 49 0
3.520000 14.080000 16.280000 50 51 50 0
3.740000 14.080000 16.280000 53 56 53 0
3.960000 14.080000 16.500000 49 51 49 0
4.180000 14.080000 16.720000 51 52 51 0
4.400000 14.080000 16.720000 51 54 51 0
4.620000 14.080000 16.940000 51 53 51 0
4.840000 14.080000 17.160000 47 49 47 0
5.060000 14.080000 17.380000 50 52 50 0
5.280000 14.080000 17.600000 50 52 50 0
5.500000 14.080000 17.820000 51 51 51 0
5.720000 14.080000 17.820000 51 52 51 0
5.940000 14.080000 18.260000 49 50 49 0
6.160000 14.080000 18.480000 50 51 50 0
6.380000 14.080000 18.700000 48 50 48 0
6.600000 14.080000 18.920000 48 51 48 0
6.820000 14.080000 18.920000 51 54 51 0
7.040000 14.080000 19.140000 50 52 50 0
7.260000 14.080000 19.360000 50 51 50 0
7.480000 14.080000 19.580000 52 53 52 0
7.700000 14.080000 19.800000 50 52 50 0
7.920000 14.080000 19.800000 49 51 49 0
8.140000 14.080000 20.020000 51 54 51 0
8.360000 14.080000 20.240000 53 55 53 0
8.580000 14.080000 20.460000 51 54 51 0
8.800000 14.080000 20.680000 50 53 50 0
9.020000 14.080000 11.000000 50 52 50 0
9.240000 14.080000 11.220000 49 51 49 0
9.460000 14.080000 11.440000 49 52 49 0
9.680000 14.080000 21.340000 49 51 49 0
9.900000 14.080000 21.560000 48 50 48 0
10.120000 14.080000 21.560000 49 50 49 0
10.340000 14.080000 21.780000 48 51 48 0
10.560000 14.080000 21.780000 50 51 50 0
10.780000 14.080000 22.000000 49 51 49 0
11.000000 14.080000 22.220000 48 49 48 0
11.220000 14.080000 22.220000 48 51 48 0
11.440000 14.080000 22.440000 49 52 49 0
11.660000 14.080000 22.440000 48 52 48 0
11.880000 14.080000 22.660000 49 50 49 0
12.100000 14.080000 22.660000 47 48 47 0
12.320000 14.080000 22.660000 50 52 50 0
12.540000 14.080000 22.880000 47 49 47 0
12.760000 14.080000 22.880000 50 51 50 0
12.980000 14.080000 22.880000 47 49 47 0
13.200000 14.080000 23.100000 50 52 50 0
13.420000 14.080000 23.100000 48 50 48 0
13.640000 14.080000 23.100000 48 50 48 0
13.860000 14.080000 23.320000 49 50 49 0
14.080000 14.080000 23.320000 46 48 46 0
14.300000 14.080000 23.320000 49 53 49 0
14.520000 14.080000 23.320000 50 52 50 0
14.740000 14.080000 23.320000 48 50 48 0
14.960000 14.080000 23.540000 48 51 48 0
15.180000 14.080000 23.540000 48 51 48 0
15.400000 14.080000 23.540000 47 50 47 0
15.620000 14.080000 23.540000 48 50 48 0
15.840000 14.080000 23.540000 47 50 47 0
16.060000 14.080000 23.540000 46 48 46 0
16.280000 14.080000 23.540000 47 49 47 0
16.500000 14.080000 23.540000 47 49 47 0
16.720000 14.080000 23.540000 47 49 47 0
16.940000 14.080000 23.540000 44 47 44 0
17.160000 14.080000 23.540000 46 49 46 0
17.380000 14.080000 23.760000 46 47 46 0
17.600000 14.080000 23.760000 42 45 42 0
17.820000 14.080000 23.980000 43 46 43 0
18.040000 14.080000 24.200000 46 47 46 0
18.260000 14.080000 24.420000 46 48 46 0
18.480000 14.080000 24.640000 47 49 47 0
18.700000 14.080000 24.860000 47 50 47 0
18.920000 14.080000 24.860000 45 48 45 0
19.140000 14.080000 25.080000 43 45 43 0
19.360000 14.080000 25.300000 45 47 45 0
19.580000 14.080000 25.520000 44 46 44 0
19.800000 14.080000 25.740000 47 50 47 0
20.020000 14.080000 25.960000 44 47 44 0
20.240000 14.080000 26.180000 47 49 47 0
20.460000 14.080000 26.620000 49 51 49 0
20.680000 14.080000 26.620000 49 51 49 0
20.900000 14.080000 26.840000 47 50 47 0
21.120000 14.080000 27.060000 46 50 46 0
21.340000 14.080000 27.280000 50 52 50 0
21.560000 14.080000 27.500000 49 52 49 0
21.780000 14.080000 27.720000 52 55 52 0
22.000000 14.080000 27.720000 49 53 49 0
22.220000 14.080000 27.940000 48 53 48 0
22.440000 14.080000 27.940000 50 54 50 0
22.660000 14.080000 28.160000 48 53 48 0
22.880000 14.080000 28.160000 50 54 50 0
23.100000 14.080000 28.160000 52 57 52 0
23.320000 14.080000 28.160000 52 56 52 0
23.540000 14.080000 27.940000 53 56 53 0
23.760000 14.080000 27.940000 53 55 53 0
23.980000 14.080000 27.720000 52 55 52 0
24.200000 14.080000 27.500000 53 56 53 0
24.420000 14.080000 27.280000 52 55 52 0
24.640000 14.080000 27.280000 53 55 53 0
24.860000 14.080000 27.060000 52 55 52 0
25.080000 14.080000 27.060000 52 54 52 0
25.300000 14.080000 26.620000 53 55 53 0
25.520000 14.080000 26.400000 55 56 55 0
25.740000 14.080000 26.180000 52 54 52 0
25.960000 14.080000 25.740000 53 55 53 0
26.180000 14.080000 25.740000 48 50 48 0
26.400000 14.080000 25.740000 48 50 48 0
26.620000 14.080000 25.740000 48 51 48 0
26.840000 14.080000 25.740000 45 48 45 0
27.060000 14.080000 16.280000 50 52 50 0
27.280000 14.080000 16.280000 50 52 50 0
27.500000 14.080000 16.280000 50 52 50 0
27.720000 14.080000 16.280000 50 52 50 0
27.940000 14.080000 16.280000 50 52 50 0
28.160000 14.080000 25.520000 51 53 51 0
28.380000 14.080000 25.520000 52 54 52 0
28.600000 14.080000 25.520000 55 56 55 0
28.820000 14.080000 25.300000 54 55 54 0
29.040000 14.080000 24.860000 51 52 51 0
29.260000 14.080000 24.640000 49 50 49 0
29.480000 14.080000 24.640000 50 53 50 0
29.700000 14.080000 24.640000 49 50 49 0
29.920000 14.080000 24.640000 48 50 48 0
30.140000 14.080000 24.640000 48 51 48 0
30.360000 14.080000 24.860000 51 53 51 0
30.580000 14.080000 15.180000 49 51 49 0
30.800000 14.080000 15.400000 50 52 50 0
31.020000 14.080000 15.180000 51 54 51 0
31.240000 14.080000 15.180000 54 55 54 0
31.460000 14.080000 24.200000 54 55 54 0
31.680000 14.080000 23.760000 52 53 52 0
31.900000 14.080000 23.540000 49 51 49 0
32.120000 14.080000 23.540000 52 54 52 0
32.340000 14.080000 23.540000 50 53 50 0
32.560000 14.080000 23.540000 51 52 51 0
32.780000 14.080000 14.080000 51 53 51 0
33.000000 14.080000 14.080000 50 52 50 0
33.220000 14.080000 14.080000 49 51 49 0
33.440000 14.080000 14.080000 51 52 51 0
33.660000 14.080000 14.080000 52 53 52 0
33.880000 14.080000 3.300000 54 55 54 0
34.100000 14.080000 2.640000 55 56 55 0
34.320000 14.080000 1.980000 55 61 55 0
34.540000 14.080000 1.320000 51 60 51 0
34.760000 14.080000 1.100000 51 60 51 0
34.980000 14.080000 0.880000 51 59 51 0
35.200000 14.080000 0.880000 50 60 50 0
35.420000 14.080000 0.880000 52 61 52 0
35.640000 14.080000 43.560000 52 60 52 0
35.860000 14.080000 0.660000 53 61 53 0
36.080000 14.080000 0.660000 52 60 52 0
36.300000 14.080000 0.660000 58 62 58 0
36.520000 14.080000 0.220000 64 64 64 0
36.740000 14.080000 43.560000 64 64 64 0
36.960000 14.080000 42.460000 65 65 65 0
37.180000 14.080000 43.560000 64 64 64 0
0.000000 14.300000 14.080000 48 50 48 0
0.220000 14.300000 14.300000 49 52 49 0
0.440000 14.300000 14.520000 50 50 50 0
0.660000 14.300000 14.520000 49 51 49 0
0.880000 14.300000 14.740000 47 48 47 0
1.100000 14.300000 14.960000 49 50 49 0
1.320000 14.300000 14.960000 49 50 49 0
1.540000 14.300000 15.180000 50 51 50 0
1.760000 14.300000 15.180000 50 50 50 0
1.980000 14.300000 15.180000 48 50 48 0
2.200000 14.300000 15.400000 49 51 49 0
2.420000 14.300000 15.400000 49 50 49 0
2.640000 14.300000 15.620000 48 50 48 0
2.860000 14.300000 15.620000 49 50 49 0
3.080000 14.300000 15.840000 48 50 48 0
3.300000 14.300000 15.840000 49 51 49 0
3.520000 14.300000 16.060000 49 50 49 0
3.740000 14.300000 16.280000 50 55 50 0
3.960000 14.300000 16.500000 50 52 50 0
4.180000 14.300000 16.500000 49 50 49 0
4.400000 14.300000 16.720000 48 51 48 0
4.620000 14.300000 16.940000 50 50 50 0
4.840000 14.300000 16.940000 50 53 50 0
5.060000 14.300000 17.160000 50 51 50 0
5.280000 14.300000 17.380000 49 52 49 0
5.500000 14.300000 17.600000 49 50 49 0
5.720000 14.300000 17.820000 51 52 51 0
5.940000 14.300000 18.040000 49 52 49 0
6.160000 14.300000 18.260000 49 50 49 0
6.380000 14.300000 18.480000 50 52 50 0
6.600000 14.300000 18.700000 50 53 50 0
6.820000 14.300000 18.920000 51 53 51 0
7.040000 14.300000 19.140000 49 54 49 0
7.260000 14.300000 19.360000 50 51 50 0
7.480000 14.300000 19.580000 48 50 48 0
7.700000 14.300000 19.800000 50 51 50 0
7.920000 14.300000 20.020000 50 52 50 0
8.140000 14.300000 20.020000 49 50 49 0
8.360000 14.300000 20.240000 52 56 52 0
8.580000 14.300000 20.460000 49 50 49 0
8.800000 14.300000 20.680000 49 53 49 0
9.020000 14.300000 20.900000 51 52 51 0
9.240000 14.300000 21.120000 50 54 50 0
9.460000 14.300000 21.340000 49 51 49 0
9.680000 14.300000 21.340000 49 50 49 0
9.900000 14.300000 21.560000 49 51 49 0
10.120000 14.300000 21.780000 48 50 48 0
10.340000 14.300000 21.780000 50 52 50 0
10.560000 14.300000 21.780000 51 52 51 0
10.780000 14.300000 22.000000 50 52 50 0
11.000000 14.300000 22.220000 51 52 51 0
11.220000 14.300000 22.220000 49 50 49 0
11.440000 14.300000 22.440000 49 51 49 0
11.660000 14.300000 22.440000 48 51 48 0
11.880000 14.300000 22.660000 49 51 49 0
12.100000 14.300000 22.660000 52 53 52 0
12.320000 14.300000 22.880000 50 51 50 0
12.540000 14.300000 22.880000 50 51 50 0
12.760000 14.300000 22.880000 48 51 48 0
12.980000 14.300000 23.100000 48 50 48 0
13.200000 14.300000 23.100000 48 52 48 0
13.420000 14.300000 23.100000 49 51 49 0
13.640000 14.300000 23.100000 48 49 48 0
13.860000 14.300000 23.320000 48 50 48 0
14.080000 14.300000 23.320000 48 51 48 0
14.300000 14.300000 23.320000 49 51 49 0
14.520000 14.300000 23.320000 48 50 48 0
14.740000 14.300000 23.320000 49 51 49 0
14.960000 14.300000 23.320000 49 52 49 0
15.180000 14.300000 23.540000 49 51 49 0
15.400000 14.300000 23.540000 46 48 46 0
15.620000 14.300000 23.540000 47 50 47 0
15.840000 14.300000 23.540000 47 49 47 0
16.060000 14.300000 23.540000 47 50 47 0
16.280000 14.300000 23.540000 45 48 45 0
16.500000 14.300000 23.540000 48 50 48 0
16.720000 14.300000 23.540000 44 48 44 0
16.940000 14.300000 23.540000 47 49 47 0
17.160000 14.300000 23.540000 44 46 44 0
17.380000 14.300000 23.540000 42 44 42 0
17.600000 14.300000 23.760000 40 44 40 0
17.820000 14.300000 23.980000 47 49 47 0
18.040000 14.300000 24.420000 47 50 47 0
18.260000 14.300000 24.640000 47 49 47 0
18.480000 14.300000 24.860000 51 53 51 0
18.700000 14.300000 25.080000 47 50 47 0
18.920000 14.300000 25.300000 47 48 47 0
19.140000 14.300000 25.300000 48 51 48 0
19.360000 14.300000 25.520000 48 51 48 0
19.580000 14.300000 25.740000 49 52 49 0
19.800000 14.300000 25.960000 48 51 48 0
20.020000 14.300000 26.180000 46 50 46 0
20.240000 14.300000 26.400000 49 51 49 0
20.460000 14.300000 26.620000 48 52 48 0
20.680000 14.300000 26.840000 49 52 49 0
20.900000 14.300000 27.060000 48 52 48 0
21.120000 14.300000 27.280000 47 51 47 0
21.340000 14.300000 27.500000 50 54 50 0
21.560000 14.300000 27.500000 46 54 46 0
21.780000 14.300000 27.940000 47 51 47 0
22.000000 14.300000 27.940000 49 54 49 0
22.220000 14.300000 27.940000 49 54 49 0
22.440000 14.300000 28.160000 49 54 49 0
22.660000 14.300000 28.160000 50 55 50 0
22.880000 14.300000 28.160000 50 55 50 0
23.100000 14.300000 28.160000 50 54 50 0
23.320000 14.300000 28.160000 51 55 51 0
23.540000 14.300000 27.940000 52 56 52 0
23.760000 14.300000 27.720000 54 57 54 0
23.980000 14.300000 27.720000 53 56 53 0
24.200000 14.300000 27.720000 53 56 53 0
24.420000 14.300000 27.500000 52 56 52 0
24.640000 14.300000 27.280000 51 54 51 0
24.860000 14.300000 27.060000 51 54 51 0
25.080000 14.300000 27.060000 52 55 52 0
25.300000 14.300000 26.840000 55 57 55 0
25.520000 14.300000 26.400000 53 55 53 0
25.740000 14.300000 26.180000 53 55 53 0
25.960000 14.300000 25.740000 54 56 54 0
26.180000 14.300000 25.740000 52 54 52 0
26.400000 14.300000 25.520000 48 51 48 0
26.620000 14.300000 25.520000 48 50 48 0
26.840000 14.300000 25.520000 47 50 47 0
27.060000 14.300000 16.060000 49 52 49 0
27.280000 14.300000 16.060000 50 53 50 0
27.500000 14.300000 16.060000 49 52 49 0
27.720000 14.300000 16.060000 50 53 50 0
27.940000 14.300000 16.060000 51 54 51 0
28.160000 14.300000 25.300000 52 53 52 0
28.380000 14.300000 25.300000 53 55 53 0
28.600000 14.300000 25.080000 53 54 53 0
28.820000 14.300000 24.860000 54 54 54 0
29.040000 14.300000 24.640000 51 53 51 0
29.260000 14.300000 24.640000 50 52 50 0
29.480000 14.300000 24.640000 48 51 48 0
29.700000 14.300000 24.640000 50 53 50 0
29.920000 14.300000 24.640000 48 50 48 0
30.140000 14.300000 15.180000 51 53 51 0
30.360000 14.300000 15.180000 48 51 48 0
30.580000 14.300000 15.180000 49 51 49 0
30.800000 14.300000 15.180000 52 55 52 0
31.020000 14.300000 14.960000 51 53 51 0
31.240000 14.300000 24.200000 50 52 50 0
31.460000 14.300000 23.760000 50 52 50 0
31.680000 14.300000 23.540000 53 54 53 0
31.900000 14.300000 23.540000 50 52 50 0
32.120000 14.300000 23.320000 53 55 53 0
32.340000 14.300000 23.540000 50 52 50 0
32.560000 14.300000 13.860000 49 51 49 0
32.780000 14.300000 13.860000 48 50 48 0
33.000000 14.300000 13.860000 48 51 48 0
33.220000 14.300000 14.080000 53 54 53 0
33.440000 14.300000 14.080000 51 52 51 0
33.660000 14.300000 3.300000 53 54 53 0
33.880000 14.300000 3.080000 56 56 56 0
34.100000 14.300000 43.560000 56 59 56 0
34.320000 14.300000 1.760000 53 61 53 0
34.540000 14.300000 1.320000 52 60 52 0
34.760000 14.300000 1.320000 52 60 52 0
34.980000 14.300000 1.100000 53 60 53 0
35.200000 14.300000 1.100000 52 59 52 0
35.420000 14.300000 43.560000 50 57 50 0
35.640000 14.300000 43.560000 51 58 51 0
35.860000 14.300000 43.560000 52 59 52 0
36.080000 14.300000 0.660000 52 60 52 0
36.300000 14.300000 0.660000 57 63 57 0
36.520000 14.300000 0.440000 64 64 64 0
36.740000 14.300000 43.560000 65 65 65 0
36.960000 14.300000 43.560000 65 65 65 0
37.180000 14.300000 43.560000 64 64 64 0
0.000000 14.520000 14.080000 50 51 50 0
0.220000 14.520000 14.300000 47 48 47 0
0.440000 14.520000 14.520000 49 50 49 0
0.660000 14.520000 14.520000 50 52 50 0
0.880000 14.520000 14.740000 49 52 49 0
1.100000 14.520000 14.960000 50 52 50 0
1.320000 14.520000 14.960000 49 52 49 0
1.540000 14.520000 14.960000 50 51 50 0
1.760000 14.520000 15.180000 49 51 49 0
1.980000 14.520000 15.180000 50 50 50 0
2.200000 14.520000 15.400000 50 51 50 0
2.420000 14.520000 15.400000 49 52 49 0
2.640000 14.520000 15.620000 51 51 51 0
2.860000 14.520000 15.620000 48 52 48 0
3.080000 14.520000 15.620000 51 53 51 0
3.300000 14.520000 15.840000 49 51 49 0
3.520000 14.520000 16.060000 50 52 50 0
3.740000 14.520000 16.060000 50 51 50 0
3.960000 14.520000 16.280000 48 51 48 0
4.180000 14.520000 16.500000 49 52 49 0
4.400000 14.520000 16.720000 48 48 48 0
4.620000 14.520000 16.940000 50 52 50 0
4.840000 14.520000 17.160000 51 53 51 0
5.060000 14.520000 17.160000 49 51 49 0
5.280000 14.520000 17.380000 49 51 49 0
5.500000 14.520000 17.600000 50 50 50 0
5.720000 14.520000 17.820000 49 52 49 0
5.940000 14.520000 18.040000 50 51 50 0
6.160000 14.520000 18.260000 50 52 50 0
6.380000 14.520000 18.480000 51 53 51 0
6.600000 14.520000 18.700000 50 53 50 0
6.820000 14.520000 18.920000 49 50 49 0
7.040000 14.520000 19.140000 50 53 50 0
7.260000 14.520000 19.360000 51 53 51 0
7.480000 14.520000 19.580000 49 50 49 0
7.700000 14.520000 19.800000 51 53 51 0
7.920000 14.520000 20.020000 52 55 52 0
8.140000 14.520000 20.240000 50 51 50 0
8.360000 14.520000 20.460000 51 52 51 0
8.580000 14.520000 20.460000 48 49 48 0
8.800000 14.520000 20.680000 50 51 50 0
9.020000 14.520000 20.900000 50 52 50 0
9.240000 14.520000 21.120000 49 51 49 0
9.460000 14.520000 21.120000 51 53 51 0
9.680000 14.520000 21.340000 49 51 49 0
9.900000 14.520000 21.560000 50 53 50 0
10.120000 14.520000 21.780000 50 51 50 0
10.340000 14.520000 21.780000 48 50 48 0
10.560000 14.520000 22.000000 48 49 48 0
10.780000 14.520000 22.000000 50 52 50 0
11.000000 14.520000 22.220000 50 52 50 0
11.220000 14.520000 22.440000 50 52 50 0
11.440000 14.520000 22.440000 50 52 50 0
11.660000 14.520000 22.660000 48 50 48 0
11.880000 14.520000 22.660000 49 52 49 0
12.100000 14.520000 22.660000 51 53 51 0
12.320000 14.520000 22.880000 51 53 51 0
12.540000 14.520000 22.880000 47 50 47 0
12.760000 14.520000 22.880000 49 52 49 0
12.980000 14.520000 22.880000 48 50 48 0
13.200000 14.520000 23.100000 48 49 48 0
13.420000 14.520000 23.100000 49 55 49 0
13.640000 14.520000 23.100000 49 51 49 0
13.860000 14.520000 23.100000 49 53 49 0
14.080000 14.520000 23.320000 46 50 46 0
14.300000 14.520000 23.320000 48 52 48 0
14.520000 14.520000 23.320000 51 53 51 0
14.740000 14.520000 23.320000 47 50 47 0
14.960000 14.520000 23.320000 47 50 47 0
15.180000 14.520000 23.540000 46 48 46 0
15.400000 14.520000 23.540000 48 50 48 0
15.620000 14.520000 23.540000 47 50 47 0
15.840000 14.520000 23.540000 46 49 46 0
16.060000 14.520000 23.540000 47 49 47 0
16.280000 14.520000 23.540000 44 47 44 0
16.500000 14.520000 23.540000 46 48 46 0
16.720000 14.520000 23.540000 47 49 47 0
16.940000 14.520000 23.540000 45 48 45 0
17.160000 14.520000 23.540000 45 48 45 0
17.380000 14.520000 23.540000 47 49 47 0
17.600000 14.520000 23.760000 45 47 45 0
17.820000 14.520000 23.980000 48 51 48 0
18.040000 14.520000 24.420000 49 50 49 0
18.260000 14.520000 24.860000 47 49 47 0
18.480000 14.520000 25.080000 48 51 48 0
18.700000 14.520000 25.300000 46 48 46 0
18.920000 14.520000 25.300000 46 49 46 0
19.140000 14.520000 25.520000 47 50 47 0
19.360000 14.520000 25.740000 47 50 47 0
19.580000 14.520000 25.960000 46 49 46 0
19.800000 14.520000 25.960000 48 51 48 0
20.020000 14.520000 26.180000 46 49 46 0
20.240000 14.520000 26.620000 48 51 48 0
20.460000 14.520000 26.840000 47 51 47 0
20.680000 14.520000 26.840000 48 52 48 0
20.900000 14.520000 27.060000 49 53 49 0
21.120000 14.520000 27.280000 47 50 47 0
21.340000 14.520000 27.500000 50 54 50 0
21.560000 14.520000 27.720000 48 53 48 0
21.780000 14.520000 28.160000 49 54 49 0
22.000000 14.520000 28.160000 48 53 48 0
22.220000 14.520000 28.160000 51 56 51 0
22.440000 14.520000 28.160000 51 56 51 0
22.660000 14.520000 28.160000 51 57 51 0
22.880000 14.520000 28.160000 50 56 50 0
23.100000 14.520000 28.160000 53 58 53 0
23.320000 14.520000 28.160000 50 55 50 0
23.540000 14.520000 27.940000 52 56 52 0
23.760000 14.520000 27.940000 52 56 52 0
23.980000 14.520000 27.720000 51 55 51 0
24.200000 14.520000 27.720000 51 55 51 0
24.420000 14.520000 27.500000 52 56 52 0
24.640000 14.520000 27.280000 50 54 50 0
24.860000 14.520000 27.280000 51 56 51 0
25.080000 14.520000 27.060000 54 57 54 0
25.300000 14.520000 26.840000 52 55 52 0
25.520000 14.520000 26.620000 56 58 56 0
25.740000 14.520000 26.180000 53 55 53 0
25.960000 14.520000 25.520000 48 51 48 0
26.180000 14.520000 25.520000 50 52 50 0
26.400000 14.520000 25.300000 47 49 47 0
26.620000 14.520000 25.300000 46 49 46 0
26.840000 14.520000 15.840000 49 52 49 0
27.060000 14.520000 15.840000 48 51 48 0
27.280000 14.520000 15.840000 48 50 48 0
27.500000 14.520000 15.840000 50 52 50 0
27.720000 14.520000 15.840000 49 52 49 0
27.940000 14.520000 15.620000 50 53 50 0
28.160000 14.520000 25.080000 53 54 53 0
28.380000 14.520000 24.860000 54 56 54 0
28.600000 14.520000 24.860000 55 56 55 0
28.820000 14.520000 24.420000 54 55 54 0
29.040000 14.520000 24.200000 50 53 50 0
29.260000 14.520000 24.420000 47 50 47 0
29.480000 14.520000 24.420000 50 52 50 0
29.700000 14.520000 24.420000 50 52 50 0
29.920000 14.520000 24.640000 49 51 49 0
30.140000 14.520000 14.960000 51 53 51 0
30.360000 14.520000 14.960000 49 52 49 0
30.580000 14.520000 14.960000 49 53 49 0
30.800000 14.520000 24.420000 50 52 50 0
31.020000 14.520000 24.200000 50 54 50 0
31.240000 14.520000 23.760000 49 52 49 0
31.460000 14.520000 23.760000 48 51 48 0
31.680000 14.520000 23.540000 52 54 52 0
31.900000 14.520000 23.320000 51 54 51 0
32.120000 14.520000 23.100000 48 50 48 0
32.340000 14.520000 23.320000 48 52 48 0
32.560000 14.520000 13.640000 50 52 50 0
32.780000 14.520000 13.860000 49 52 49 0
33.000000 14.520000 14.080000 52 54 52 0
33.220000 14.520000 3.520000 51 53 51 0
33.440000 14.520000 3.520000 53 54 53 0
33.660000 14.520000 3.300000 52 54 52 0
33.880000 14.520000 43.560000 57 58 57 0
34.100000 14.520000 43.560000 52 58 52 0
34.320000 14.520000 1.760000 53 60 53 0
34.540000 14.520000 1.540000 53 59 53 0
34.760000 14.520000 1.320000 51 59 51 0
34.980000 14.520000 1.320000 53 61 53 0
35.200000 14.520000 1.100000 53 59 53 0
35.420000 14.520000 43.560000 52 58 52 0
35.640000 14.520000 43.560000 52 59 52 0
35.860000 14.520000 43.560000 51 57 51 0
36.080000 14.520000 0.880000 52 59 52 0
36.300000 14.520000 1.100000 53 60 53 0
36.520000 14.520000 12.320000 64 65 64 0
36.740000 14.520000 43.560000 65 65 65 0
36.960000 14.520000 43.560000 65 65 65 0
37.180000 14.520000 43.560000 65 65 65 0
0.000000 14.740000 14.080000 50 52 50 0
0.220000 14.740000 14.300000 47 49 47 0
0.440000 14.740000 14.520000 51 51 51 0
0.660000 14.740000 14.520000 49 51 49 0
0.880000 14.740000 14.740000 50 53 50 0
1.100000 14.740000 14.740000 51 51 51 0
1.320000 14.740000 14.960000 47 48 47 0
1.540000 14.740000 14.960000 50 51 50 0
1.760000 14.740000 14.960000 50 53 50 0
1.980000 14.740000 15.180000 50 51 50 0
2.200000 14.740000 15.180000 47 49 47 0
2.420000 14.740000 15.400000 50 51 50 0
2.640000 14.740000 15.400000 49 51 49 0
2.860000 14.740000 15.400000 49 51 49 0
3.080000 14.740000 15.620000 49 51 49 0
3.300000 14.740000 15.840000 50 53 50 0
3.520000 14.740000 15.840000 50 53 50 0
3.740000 14.740000 16.060000 50 51 50 0
3.960000 14.740000 16.280000 52 53 52 0
4.180000 14.740000 16.500000 51 51 51 0
4.400000 14.740000 16.720000 50 52 50 0
4.620000 14.740000 16.940000 48 49 48 0
4.840000 14.740000 16.940000 51 53 51 0
5.060000 14.740000 17.160000 48 50 48 0
5.280000 14.740000 17.380000 49 50 49 0
5.500000 14.740000 17.600000 49 52 49 0
5.720000 14.740000 17.820000 52 53 52 0
5.940000 14.740000 18.040000 51 55 51 0
6.160000 14.740000 18.260000 50 53 50 0
6.380000 14.740000 18.480000 48 51 48 0
6.600000 14.740000 18.700000 48 50 48 0
6.820000 14.740000 18.920000 51 53 51 0
7.040000 14.740000 19.140000 48 50 48 0
7.260000 14.740000 19.360000 48 51 48 0
7.480000 14.740000 19.580000 49 51 49 0
7.700000 14.740000 19.800000 48 50 48 0
7.920000 14.740000 20.020000 49 50 49 0
8.140000 14.740000 20.240000 49 51 49 0
8.360000 14.740000 20.240000 49 52 49 0
8.580000 14.740000 20.460000 49 53 49 0
8.800000 14.740000 20.680000 51 52 51 0
9.020000 14.740000 20.680000 50 52 50 0
9.240000 14.740000 20.900000 51 53 51 0
9.460000 14.740000 21.120000 50 52 50 0
9.680000 14.740000 21.340000 50 52 50 0
9.900000 14.740000 21.560000 50 52 50 0
10.120000 14.740000 21.780000 50 52 50 0
10.340000 14.740000 21.780000 50 52 50 0
10.560000 14.740000 22.000000 48 50 48 0
10.780000 14.740000 22.000000 48 50 48 0
11.000000 14.740000 22.220000 49 50 49 0
11.220000 14.740000 22.220000 51 52 51 0
11.440000 14.740000 22.440000 48 51 48 0
11.660000 14.740000 22.440000 50 52 50 0
11.880000 14.740000 22.660000 49 51 49 0
12.100000 14.740000 22.660000 50 53 50 0
12.320000 14.740000 22.660000 50 52 50 0
12.540000 14.740000 22.880000 51 52 51 0
12.760000 14.740000 22.880000 49 51 49 0
12.980000 14.740000 22.880000 48 50 48 0
13.200000 14.740000 22.880000 47 50 47 0
13.420000 14.740000 23.100000 49 51 49 0
13.640000 14.740000 23.100000 49 51 49 0
13.860000 14.740000 23.320000 48 51 48 0
14.080000 14.740000 23.320000 48 50 48 0
14.300000 14.740000 23.320000 50 54 50 0
14.520000 14.740000 23.320000 50 52 50 0
14.740000 14.740000 23.540000 49 51 49 0
14.960000 14.740000 23.540000 49 53 49 0
15.180000 14.740000 23.540000 49 52 49 0
15.400000 14.740000 23.540000 47 51 47 0
15.620000 14.740000 23.540000 49 51 49 0
15.840000 14.740000 23.540000 46 50 46 0
16.060000 14.740000 23.540000 46 50 46 0
16.280000 14.740000 23.540000 48 51 48 0
16.500000 14.740000 23.540000 45 47 45 0
16.720000 14.740000 23.540000 44 48 44 0
16.940000 14.740000 23.540000 48 51 48 0
17.160000 14.740000 23.540000 44 48 44 0
17.380000 14.740000 23.540000 47 50 47 0
17.600000 14.740000 23.760000 47 51 47 0
17.820000 14.740000 24.200000 46 50 46 0
18.040000 14.740000 24.640000 49 51 49 0
18.260000 14.740000 24.860000 49 51 49 0
18.480000 14.740000 25.080000 45 47 45 0
18.700000 14.740000 25.300000 48 51 48 0
18.920000 14.740000 25.520000 48 50 48 0
19.140000 14.740000 25.740000 49 53 49 0
19.360000 14.740000 25.740000 46 49 46 0
19.580000 14.740000 25.960000 46 50 46 0
19.800000 14.740000 26.180000 49 52 49 0
20.020000 14.740000 26.400000 50 54 50 0
20.240000 14.740000 26.620000 49 52 49 0
20.460000 14.740000 26.840000 48 52 48 0
20.680000 14.740000 27.060000 49 54 49 0
20.900000 14.740000 27.280000 50 54 50 0
21.120000 14.740000 27.500000 49 52 49 0
21.340000 14.740000 27.720000 45 51 45 0
21.560000 14.740000 27.940000 51 55 51 0
21.780000 14.740000 28.160000 49 55 49 0
22.000000 14.740000 28.380000 50 55 50 0
22.220000 14.740000 28.380000 49 55 49 0
22.440000 14.740000 28.380000 51 58 51 0
22.660000 14.740000 28.380000 50 57 50 0
22.880000 14.740000 28.380000 51 57 51 0
23.100000 14.740000 28.380000 49 56 49 0
23.320000 14.740000 28.160000 52 57 52 0
23.540000 14.740000 28.160000 53 57 53 0
23.760000 14.740000 27.940000 53 57 53 0
23.980000 14.740000 27.940000 51 55 51 0
24.200000 14.740000 27.720000 51 55 51 0
24.420000 14.740000 27.500000 53 57 53 0
24.640000 14.740000 27.280000 52 57 52 0
24.860000 14.740000 27.280000 52 56 52 0
25.080000 14.740000 27.060000 52 56 52 0
25.300000 14.740000 26.840000 51 54 51 0
25.520000 14.740000 35.200000 55 58 55 0
25.740000 14.740000 34.760000 56 58 56 0
25.960000 14.740000 25.520000 51 53 51 0
26.180000 14.740000 25.300000 50 52 50 0
26.400000 14.740000 25.080000 47 50 47 0
26.620000 14.740000 15.620000 46 50 46 0
26.840000 14.740000 15.620000 46 49 46 0
27.060000 14.740000 15.840000 48 51 48 0
27.280000 14.740000 15.620000 50 53 50 0
27.500000 14.740000 15.620000 48 51 48 0
27.720000 14.740000 15.400000 50 53 50 0
27.940000 14.740000 15.400000 53 55 53 0
28.160000 14.740000 15.180000 51 54 51 0
28.380000 14.740000 15.180000 53 55 53 0
28.600000 14.740000 24.420000 54 56 54 0
28.820000 14.740000 23.760000 49 51 49 0
29.040000 14.740000 23.760000 50 52 50 0
29.260000 14.740000 23.980000 51 53 51 0
29.480000 14.740000 24.200000 50 52 50 0
29.700000 14.740000 24.420000 49 52 49 0
29.920000 14.740000 24.420000 48 50 48 0
30.140000 14.740000 24.420000 50 53 50 0
30.360000 14.740000 24.420000 50 52 50 0
30.580000 14.740000 24.200000 49 51 49 0
30.800000 14.740000 24.200000 50 52 50 0
31.020000 14.740000 23.980000 49 51 49 0
31.240000 14.740000 23.760000 48 51 48 0
31.460000 14.740000 23.540000 50 53 50 0
31.680000 14.740000 23.320000 52 54 52 0
31.900000 14.740000 23.100000 49 51 49 0
32.120000 14.740000 23.100000 52 53 52 0
32.340000 14.740000 23.320000 51 53 51 0
32.560000 14.740000 13.640000 49 51 49 0
32.780000 14.740000 13.860000 49 52 49 0
33.000000 14.740000 13.860000 48 50 48 0
33.220000 14.740000 3.300000 51 53 51 0
33.440000 14.740000 3.300000 53 54 53 0
33.660000 14.740000 43.560000 57 58 57 0
33.880000 14.740000 43.560000 56 60 56 0
34.100000 14.740000 43.560000 52 58 52 0
34.320000 14.740000 43.560000 52 57 52 0
34.540000 14.740000 1.320000 51 58 51 0
34.760000 14.740000 1.320000 51 57 51 0
34.980000 14.740000 1.320000 51 56 51 0
35.200000 14.740000 1.320000 52 57 52 0
35.420000 14.740000 43.560000 51 56 51 0
35.640000 14.740000 43.560000 51 58 51 0
35.860000 14.740000 43.560000 50 58 50 0
36.080000 14.740000 43.560000 53 58 53 0
36.300000 14.740000 1.100000 53 58 53 0
36.520000 14.740000 12.320000 62 63 62 0
36.740000 14.740000 43.560000 64 64 64 0
36.960000 14.740000 43.560000 65 65 65 0
37.180000 14.740000 43.560000 65 65 65 0
0.000000 14.960000 14.080000 48 49 48 0
0.220000 14.960000 14.300000 49 51 49 0
0.440000 14.960000 14.300000 49 49 49 0
0.660000 14.960000 14.520000 50 52 50 0
0.880000 14.960000 14.520000 50 52 50 0
1.100000 14.960000 14.740000 49 52 49 0
1.320000 14.960000 14.740000 50 51 50 0
1.540000 14.960000 14.960000 48 51 48 0
1.760000 14.960000 14.960000 49 50 49 0
1.980000 14.960000 14.960000 48 49 48 0
2.200000 14.960000 15.180000 50 51 50 0
2.420000 14.960000 15.180000 51 51 51 0
2.640000 14.960000 15.400000 48 50 48 0
2.860000 14.960000 15.400000 52 54 52 0
3.080000 14.960000 15.620000 50 51 50 0
3.300000 14.960000 15.840000 50 51 50 0
3.520000 14.960000 15.840000 48 49 48 0
3.740000 14.960000 16.060000 49 53 49 0
3.960000 14.960000 16.280000 50 52 50 0
4.180000 14.960000 16.500000 48 49 48 0
4.400000 14.960000 16.720000 48 50 48 0
4.620000 14.960000 16.720000 49 51 49 0
4.840000 14.960000 16.940000 50 54 50 0
5.060000 14.960000 17.160000 50 51 50 0
5.280000 14.960000 17.380000 49 52 49 0
5.500000 14.960000 17.600000 51 53 51 0
5.720000 14.960000 17.820000 50 52 50 0
5.940000 14.960000 18.040000 48 51 48 0
6.160000 14.960000 18.260000 49 50 49 0
6.380000 14.960000 18.480000 50 52 50 0
6.600000 14.960000 18.700000 53 55 53 0
6.820000 14.960000 18.920000 50 52 50 0
7.040000 14.960000 19.140000 50 51 50 0
7.260000 14.960000 19.360000 50 52 50 0
7.480000 14.960000 19.580000 50 52 50 0
7.700000 14.960000 19.800000 49 50 49 0
7.920000 14.960000 20.020000 49 51 49 0
8.140000 14.960000 20.240000 48 51 48 0
8.360000 14.960000 20.240000 49 51 49 0
8.580000 14.960000 20.460000 50 51 50 0
8.800000 14.960000 20.680000 48 50 48 0
9.020000 14.960000 20.900000 51 53 51 0
9.240000 14.960000 21.120000 48 50 48 0
9.460000 14.960000 21.340000 50 52 50 0
9.680000 14.960000 21.340000 50 51 50 0
9.900000 14.960000 21.560000 50 52 50 0
10.120000 14.960000 21.780000 49 50 49 0
10.340000 14.960000 21.780000 48 50 48 0
10.560000 14.960000 22.000000 49 51 49 0
10.780000 14.960000 22.000000 51 52 51 0
11.000000 14.960000 22.220000 48 50 48 0
11.220000 14.960000 22.220000 51 53 51 0
11.440000 14.960000 22.440000 49 52 49 0
11.660000 14.960000 22.440000 49 52 49 0
11.880000 14.960000 22.660000 48 51 48 0
12.100000 14.960000 22.660000 49 51 49 0
12.320000 14.960000 22.660000 49 51 49 0
12.540000 14.960000 22.880000 49 53 49 0
12.760000 14.960000 22.880000 48 51 48 0
12.980000 14.960000 23.100000 49 52 49 0
13.200000 14.960000 23.100000 48 50 48 0
13.420000 14.960000 23.100000 46 49 46 0
13.640000 14.960000 23.100000 48 51 48 0
13.860000 14.960000 23.320000 49 51 49 0
14.080000 14.960000 23.320000 48 50 48 0
14.300000 14.960000 23.320000 51 53 51 0
14.520000 14.960000 23.320000 48 52 48 0
14.740000 14.960000 23.320000 48 51 48 0
14.960000 14.960000 23.540000 48 51 48 0
15.180000 14.960000 23.540000 49 51 49 0
15.400000 14.960000 23.540000 47 49 47 0
15.620000 14.960000 23.540000 45 48 45 0
15.840000 14.960000 23.540000 49 52 49 0
16.060000 14.960000 23.540000 48 51 48 0
16.280000 14.960000 23.540000 44 48 44 0
16.500000 14.960000 23.540000 45 48 45 0
16.720000 14.960000 23.540000 47 49 47 0
16.940000 14.960000 23.540000 46 49 46 0
17.160000 14.960000 23.760000 45 49 45 0
17.380000 14.960000 23.760000 46 48 46 0
17.600000 14.960000 23.980000 49 52 49 0
17.820000 14.960000 24.200000 44 48 44 0
18.040000 14.960000 24.640000 52 53 52 0
18.260000 14.960000 25.080000 50 53 50 0
18.480000 14.960000 25.300000 49 52 49 0
18.700000 14.960000 25.520000 47 50 47 0
18.920000 14.960000 25.740000 48 52 48 0
19.140000 14.960000 25.740000 48 52 48 0
19.360000 14.960000 25.960000 48 51 48 0
19.580000 14.960000 26.180000 47 52 47 0
19.800000 14.960000 26.400000 50 52 50 0
20.020000 14.960000 26.620000 50 54 50 0
20.240000 14.960000 26.840000 49 53 49 0
20.460000 14.960000 27.060000 48 52 48 0
20.680000 14.960000 27.280000 49 53 49 0
20.900000 14.960000 27.500000 49 54 49 0
21.120000 14.960000 27.720000 49 54 49 0
21.340000 14.960000 27.940000 49 55 49 0
21.560000 14.960000 28.160000 51 57 51 0
21.780000 14.960000 28.380000 50 56 50 0
22.000000 14.960000 28.380000 51 57 51 0
22.220000 14.960000 28.380000 50 57 50 0
22.440000 14.960000 28.380000 47 55 47 0
22.660000 14.960000 28.380000 50 58 50 0
22.880000 14.960000 28.380000 48 58 48 0
23.100000 14.960000 28.380000 51 57 51 0
23.320000 14.960000 28.380000 52 57 52 0
23.540000 14.960000 28.160000 53 58 53 0
23.760000 14.960000 28.160000 52 57 52 0
23.980000 14.960000 27.940000 51 55 51 0
24.200000 14.960000 27.720000 53 57 53 0
24.420000 14.960000 27.500000 52 57 52 0
24.640000 14.960000 27.280000 52 57 52 0
24.860000 14.960000 27.280000 52 56 52 0
25.080000 14.960000 27.060000 51 56 51 0
25.300000 14.960000 27.060000 51 55 51 0
25.520000 14.960000 26.400000 57 59 57 0
25.740000 14.960000 34.540000 53 55 53 0
25.960000 14.960000 25.520000 55 57 55 0
26.180000 14.960000 25.300000 50 53 50 0
26.400000 14.960000 24.860000 47 50 47 0
26.620000 14.960000 15.180000 49 52 49 0
26.840000 14.960000 15.180000 49 52 49 0
27.060000 14.960000 15.180000 47 51 47 0
27.280000 14.960000 15.180000 49 52 49 0
27.500000 14.960000 15.180000 49 52 49 0
27.720000 14.960000 15.180000 48 51 48 0
27.940000 14.960000 14.960000 52 54 52 0
28.160000 14.960000 14.960000 51 54 51 0
28.380000 14.960000 24.420000 53 56 53 0
28.600000 14.960000 23.980000 53 56 53 0
28.820000 14.960000 23.320000 49 52 49 0
29.040000 14.960000 23.540000 49 52 49 0
29.260000 14.960000 23.760000 48 51 48 0
29.480000 14.960000 23.980000 50 53 50 0
29.700000 14.960000 23.980000 50 52 50 0
29.920000 14.960000 23.980000 47 50 47 0
30.140000 14.960000 23.980000 47 50 47 0
30.360000 14.960000 23.760000 50 52 50 0
30.580000 14.960000 23.760000 47 49 47 0
30.800000 14.960000 23.760000 50 52 50 0
31.020000 14.960000 23.760000 48 51 48 0
31.240000 14.960000 23.540000 50 52 50 0
31.460000 14.960000 23.320000 49 51 49 0
31.680000 14.960000 23.100000 49 51 49 0
31.900000 14.960000 23.100000 46 51 46 0
32.120000 14.960000 23.100000 48 50 48 0
32.340000 14.960000 23.100000 48 50 48 0
32.560000 14.960000 13.420000 49 51 49 0
32.780000 14.960000 13.640000 49 51 49 0
33.000000 14.960000 2.640000 52 53 52 0
33.220000 14.960000 2.860000 52 54 52 0
33.440000 14.960000 43.560000 56 58 56 0
33.660000 14.960000 43.560000 57 59 57 0
33.880000 14.960000 43.560000 51 56 51 0
34.100000 14.960000 43.560000 50 56 50 0
34.320000 14.960000 43.560000 52 56 52 0
34.540000 14.960000 1.320000 51 56 51 0
34.760000 14.960000 1.320000 52 57 52 0
34.980000 14.960000 1.320000 50 55 50 0
35.200000 14.960000 1.320000 53 58 53 0
35.420000 14.960000 43.560000 52 58 52 0
35.640000 14.960000 43.560000 52 58 52 0
35.860000 14.960000 43.560000 51 56 51 0
36.080000 14.960000 43.560000 52 58 52 0
36.300000 14.960000 1.100000 53 57 53 0
36.520000 14.960000 12.760000 62 63 62 0
36.740000 14.960000 43.560000 65 65 65 0
36.960000 14.960000 40.040000 64 64 64 0
37.180000 14.960000 43.560000 65 65 65 0
0.000000 15.180000 14.080000 50 51 50 0
0.220000 15.180000 14.300000 50 55 50 0
0.440000 15.180000 14.300000 48 50 48 0
0.660000 15.180000 14.300000 50 51 50 0
0.880000 15.180000 14.520000 50 50 50 0
1.100000 15.180000 14.520000 49 50 49 0
1.320000 15.180000 14.740000 50 51 50 0
1.540000 15.180000 14.740000 50 52 50 0
1.760000 15.180000 14.960000 48 49 48 0
1.980000 15.180000 14.960000 49 50 49 0
2.200000 15.180000 15.180000 49 51 49 0
2.420000 15.180000 15.180000 50 51 50 0
2.640000 15.180000 15.400000 50 52 50 0
2.860000 15.180000 15.400000 49 49 49 0
3.080000 15.180000 15.620000 50 52 50 0
3.300000 15.180000 15.840000 49 50 49 0
3.520000 15.180000 15.840000 48 49 48 0
3.740000 15.180000 16.060000 49 51 49 0
3.960000 15.180000 16.280000 49 52 49 0
4.180000 15.180000 16.500000 50 51 50 0
4.400000 15.180000 16.500000 50 51 50 0
4.620000 15.180000 16.720000 49 53 49 0
4.840000 15.180000 16.940000 52 53 52 0
5.060000 15.180000 17.160000 50 55 50 0
5.280000 15.180000 17.380000 51 53 51 0
5.500000 15.180000 17.600000 50 51 50 0
5.720000 15.180000 17.820000 49 51 49 0
5.940000 15.180000 18.040000 49 52 49 0
6.160000 15.180000 18.260000 50 52 50 0
6.380000 15.180000 18.480000 50 51 50 0
6.600000 15.180000 18.700000 48 49 48 0
6.820000 15.180000 18.920000 51 54 51 0
7.040000 15.180000 19.140000 50 53 50 0
7.260000 15.180000 19.360000 48 51 48 0
7.480000 15.180000 19.580000 49 53 49 0
7.700000 15.180000 19.800000 48 53 48 0
7.920000 15.180000 20.020000 50 52 50 0
8.140000 15.180000 20.240000 49 52 49 0
8.360000 15.180000 20.460000 50 52 50 0
8.580000 15.180000 20.680000 49 52 49 0
8.800000 15.180000 20.680000 48 51 48 0
9.020000 15.180000 20.900000 48 50 48 0
9.240000 15.180000 21.120000 49 51 49 0
9.460000 15.180000 21.120000 50 52 50 0
9.680000 15.180000 21.340000 50 51 50 0
9.900000 15.180000 21.560000 50 52 50 0
10.120000 15.180000 21.780000 51 52 51 0
10.340000 15.180000 21.780000 51 53 51 0
10.560000 15.180000 22.000000 48 51 48 0
10.780000 15.180000 22.000000 48 52 48 0
11.000000 15.180000 22.220000 47 50 47 0
11.220000 15.180000 22.220000 49 51 49 0
11.440000 15.180000 22.440000 50 52 50 0
11.660000 15.180000 22.440000 48 50 48 0
11.880000 15.180000 22.660000 50 52 50 0
12.100000 15.180000 22.660000 49 51 49 0
12.320000 15.180000 22.660000 49 52 49 0
12.540000 15.180000 22.880000 46 49 46 0
12.760000 15.180000 22.880000 48 51 48 0
12.980000 15.180000 23.100000 47 50 47 0
13.200000 15.180000 23.100000 50 52 50 0
13.420000 15.180000 23.100000 49 52 49 0
13.640000 15.180000 23.320000 49 51 49 0
13.860000 15.180000 23.320000 49 52 49 0
14.080000 15.180000 23.320000 48 51 48 0
14.300000 15.180000 23.320000 51 54 51 0
14.520000 15.180000 23.320000 50 53 50 0
14.740000 15.180000 23.320000 49 53 49 0
14.960000 15.180000 23.540000 51 53 51 0
15.180000 15.180000 23.540000 50 53 50 0
15.400000 15.180000 23.540000 45 47 45 0
15.620000 15.180000 23.540000 48 52 48 0
15.840000 15.180000 23.540000 47 51 47 0
16.060000 15.180000 23.540000 47 51 47 0
16.280000 15.180000 23.540000 47 50 47 0
16.500000 15.180000 23.540000 47 51 47 0
16.720000 15.180000 23.540000 45 48 45 0
16.940000 15.180000 23.540000 47 50 47 0
17.160000 15.180000 23.760000 48 51 48 0
17.380000 15.180000 23.760000 54 56 54 0
17.600000 15.180000 23.980000 45 49 45 0
17.820000 15.180000 24.420000 50 53 50 0
18.040000 15.180000 24.860000 49 52 49 0
18.260000 15.180000 25.300000 46 50 46 0
18.480000 15.180000 25.520000 48 51 48 0
18.700000 15.180000 25.520000 48 53 48 0
18.920000 15.180000 25.740000 48 54 48 0
19.140000 15.180000 25.960000 48 52 48 0
19.360000 15.180000 26.180000 47 52 47 0
19.580000 15.180000 26.400000 47 51 47 0
19.800000 15.180000 26.620000 49 54 49 0
20.020000 15.180000 26.620000 49 53 49 0
20.240000 15.180000 26.840000 48 52 48 0
20.460000 15.180000 27.280000 50 55 50 0
20.680000 15.180000 27.500000 47 53 47 0
20.900000 15.180000 27.720000 51 56 51 0
21.120000 15.180000 27.940000 47 53 47 0
21.340000 15.180000 27.940000 50 55 50 0
21.560000 15.180000 28.160000 50 55 50 0
21.780000 15.180000 28.160000 49 55 49 0
22.000000 15.180000 28.380000 50 56 50 0
22.220000 15.180000 28.380000 50 57 50 0
22.440000 15.180000 28.380000 49 57 49 0
22.660000 15.180000 28.380000 51 58 51 0
22.880000 15.180000 28.380000 51 59 51 0
23.100000 15.180000 28.380000 51 58 51 0
23.320000 15.180000 28.160000 52 58 52 0
23.540000 15.180000 28.160000 51 57 51 0
23.760000 15.180000 28.160000 50 57 50 0
23.980000 15.180000 27.940000 53 58 53 0
24.200000 15.180000 27.940000 52 57 52 0
24.420000 15.180000 27.720000 52 58 52 0
24.640000 15.180000 27.500000 54 59 54 0
24.860000 15.180000 27.500000 50 55 50 0
25.080000 15.180000 27.280000 51 56 51 0
25.300000 15.180000 27.280000 54 58 54 0
25.520000 15.180000 34.980000 57 59 57 0
25.740000 15.180000 34.320000 55 57 55 0
25.960000 15.180000 25.300000 51 54 51 0
26.180000 15.180000 25.080000 50 53 50 0
26.400000 15.180000 24.860000 49 53 49 0
26.620000 15.180000 24.860000 47 51 47 0
26.840000 15.180000 14.960000 49 52 49 0
27.060000 15.180000 24.640000 48 51 48 0
27.280000 15.180000 24.640000 49 52 49 0
27.500000 15.180000 24.640000 49 52 49 0
27.720000 15.180000 24.420000 48 51 48 0
27.940000 15.180000 24.420000 53 56 53 0
28.160000 15.180000 24.420000 54 56 54 0
28.380000 15.180000 23.980000 53 55 53 0
28.600000 15.180000 22.660000 49 51 49 0
28.820000 15.180000 22.660000 49 51 49 0
29.040000 15.180000 23.100000 48 52 48 0
29.260000 15.180000 23.320000 47 50 47 0
29.480000 15.180000 23.320000 47 49 47 0
29.700000 15.180000 23.540000 48 50 48 0
29.920000 15.180000 23.540000 49 52 49 0
30.140000 15.180000 23.540000 47 50 47 0
30.360000 15.180000 23.320000 48 50 48 0
30.580000 15.180000 23.320000 47 50 47 0
30.800000 15.180000 23.320000 51 54 51 0
31.020000 15.180000 23.320000 48 51 48 0
31.240000 15.180000 23.320000 47 49 47 0
31.460000 15.180000 23.100000 49 53 49 0
31.680000 15.180000 23.100000 48 51 48 0
31.900000 15.180000 23.100000 49 52 49 0
32.120000 15.180000 13.200000 50 52 50 0
32.340000 15.180000 23.100000 51 53 51 0
32.560000 15.180000 13.200000 49 51 49 0
32.780000 15.180000 13.200000 49 52 49 0
33.000000 15.180000 1.980000 53 55 53 0
33.220000 15.180000 1.980000 52 53 52 0
33.440000 15.180000 1.980000 58 59 58 0
33.660000 15.180000 1.760000 56 58 56 0
33.880000 15.180000 1.760000 51 56 51 0
34.100000 15.180000 1.760000 52 58 52 0
34.320000 15.180000 1.540000 53 57 53 0
34.540000 15.180000 1.540000 50 55 50 0
34.760000 15.180000 1.320000 51 56 51 0
34.980000 15.180000 1.320000 52 57 52 0
35.200000 15.180000 1.320000 53 57 53 0
35.420000 15.180000 43.560000 50 55 50 0
35.640000 15.180000 43.560000 51 56 51 0
35.860000 15.180000 43.560000 52 57 52 0
36.080000 15.180000 43.560000 50 55 50 0
36.300000 15.180000 1.100000 53 57 53 0
36.520000 15.180000 12.760000 60 62 60 0
36.740000 15.180000 43.560000 65 65 65 0
36.960000 15.180000 40.040000 64 64 64 0
37.180000 15.180000 43.560000 65 65 65 0
0.000000 15.400000 14.080000 49 50 49 0
0.220000 15.400000 14.080000 50 52 50 0
0.440000 15.400000 14.080000 49 52 49 0
0.660000 15.400000 14.300000 49 51 49 0
0.880000 15.400000 14.520000 49 50 49 0
1.100000 15.400000 14.520000 50 52 50 0
1.320000 15.400000 14.740000 47 49 47 0
1.540000 15.400000 14.740000 48 50 48 0
1.760000 15.400000 14.960000 49 51 49 0
1.980000 15.400000 14.960000 49 54 49 0
2.200000 15.400000 15.180000 48 51 48 0
2.420000 15.400000 15.180000 50 52 50 0
2.640000 15.400000 15.400000 51 53 51 0
2.860000 15.400000 15.400000 50 52 50 0
3.080000 15.400000 15.620000 51 54 51 0
3.300000 15.400000 15.620000 49 51 49 0
3.520000 15.400000 15.840000 49 53 49 0
3.740000 15.400000 16.060000 48 50 48 0
3.960000 15.400000 16.280000 47 50 47 0
4.180000 15.400000 16.280000 52 54 52 0
4.400000 15.400000 16.500000 49 51 49 0
4.620000 15.400000 16.720000 49 52 49 0
4.840000 15.400000 16.940000 49 51 49 0
5.060000 15.400000 17.160000 49 50 49 0
5.280000 15.400000 17.380000 49 51 49 0
5.500000 15.400000 17.600000 49 51 49 0
5.720000 15.400000 17.820000 51 54 51 0
5.940000 15.400000 18.040000 50 51 50 0
6.160000 15.400000 18.260000 48 51 48 0
6.380000 15.400000 18.480000 51 52 51 0
6.600000 15.400000 18.700000 48 52 48 0
6.820000 15.400000 18.920000 51 52 51 0
7.040000 15.400000 19.140000 51 53 51 0
7.260000 15.400000 19.360000 50 51 50 0
7.480000 15.400000 19.580000 50 53 50 0
7.700000 15.400000 19.800000 50 53 50 0
7.920000 15.400000 20.240000 48 50 48 0
8.140000 15.400000 20.240000 50 51 50 0
8.360000 15.400000 20.460000 50 53 50 0
8.580000 15.400000 20.680000 48 49 48 0
8.800000 15.400000 20.680000 48 50 48 0
9.020000 15.400000 20.900000 49 54 49 0
9.240000 15.400000 21.120000 51 55 51 0
9.460000 15.400000 21.120000 51 52 51 0
9.680000 15.400000 21.340000 49 51 49 0
9.900000 15.400000 21.560000 51 54 51 0
10.120000 15.400000 21.780000 49 52 49 0
10.340000 15.400000 21.780000 50 52 50 0
10.560000 15.400000 22.000000 49 53 49 0
10.780000 15.400000 22.000000 49 51 49 0
11.000000 15.400000 22.220000 50 53 50 0
11.220000 15.400000 22.220000 49 52 49 0
11.440000 15.400000 22.440000 51 53 51 0
11.660000 15.400000 22.440000 50 53 50 0
11.880000 15.400000 22.660000 51 53 51 0
12.100000 15.400000 22.660000 48 49 48 0
12.320000 15.400000 22.660000 50 53 50 0
12.540000 15.400000 22.880000 48 53 48 0
12.760000 15.400000 22.880000 50 53 50 0
12.980000 15.400000 23.100000 50 53 50 0
13.200000 15.400000 23.100000 50 52 50 0
13.420000 15.400000 23.100000 47 50 47 0
13.640000 15.400000 23.100000 49 53 49 0
13.860000 15.400000 23.100000 49 53 49 0
14.080000 15.400000 23.320000 49 51 49 0
14.300000 15.400000 23.320000 49 53 49 0
14.520000 15.400000 23.320000 49 54 49 0
14.740000 15.400000 23.320000 50 54 50 0
14.960000 15.400000 23.320000 47 50 47 0
15.180000 15.400000 23.320000 49 52 49 0
15.400000 15.400000 23.540000 48 52 48 0
15.620000 15.400000 23.540000 49 53 49 0
15.840000 15.400000 23.540000 47 52 47 0
16.060000 15.400000 23.540000 47 50 47 0
16.280000 15.400000 23.540000 48 52 48 0
16.500000 15.400000 23.540000 45 51 45 0
16.720000 15.400000 23.540000 45 49 45 0
16.940000 15.400000 23.540000 45 48 45 0
17.160000 15.400000 23.540000 48 52 48 0
17.380000 15.400000 23.980000 51 53 51 0
17.600000 15.400000 24.420000 51 55 51 0
17.820000 15.400000 24.860000 49 53 49 0
18.040000 15.400000 25.080000 47 50 47 0
18.260000 15.400000 25.300000 47 50 47 0
18.480000 15.400000 25.520000 46 51 46 0
18.700000 15.400000 25.740000 46 52 46 0
18.920000 15.400000 25.960000 48 53 48 0
19.140000 15.400000 25.960000 50 55 50 0
19.360000 15.400000 26.180000 47 51 47 0
19.580000 15.400000 26.400000 49 54 49 0
19.800000 15.400000 26.620000 49 53 49 0
20.020000 15.400000 26.840000 48 53 48 0
20.240000 15.400000 27.060000 50 55 50 0
20.460000 15.400000 27.280000 49 54 49 0
20.680000 15.400000 27.500000 49 54 49 0
20.900000 15.400000 27.720000 51 55 51 0
21.120000 15.400000 27.940000 49 54 49 0
21.340000 15.400000 27.940000 50 56 50 0
21.560000 15.400000 28.160000 50 56 50 0
21.780000 15.400000 28.160000 51 58 51 0
22.000000 15.400000 28.380000 49 56 49 0
22.220000 15.400000 28.380000 50 57 50 0
22.440000 15.400000 28.380000 51 59 51 0
22.660000 15.400000 28.380000 50 59 50 0
22.880000 15.400000 28.380000 51 59 51 0
23.100000 15.400000 28.380000 53 60 53 0
23.320000 15.400000 28.160000 52 59 52 0
23.540000 15.400000 28.160000 53 59 53 0
23.760000 15.400000 27.940000 51 58 51 0
23.980000 15.400000 27.940000 53 58 53 0
24.200000 15.400000 27.940000 53 58 53 0
24.420000 15.400000 27.720000 52 58 52 0
24.640000 15.400000 27.720000 51 59 51 0
24.860000 15.400000 27.720000 52 58 52 0
25.080000 15.400000 27.500000 51 57 51 0
25.300000 15.400000 27.720000 53 58 53 0
25.520000 15.400000 35.640000 56 59 56 0
25.740000 15.400000 34.100000 53 55 53 0
25.960000 15.400000 24.860000 53 55 53 0
26.180000 15.400000 24.860000 51 54 51 0
26.400000 15.400000 24.860000 48 51 48 0
26.620000 15.400000 24.860000 46 50 46 0
26.840000 15.400000 24.640000 46 50 46 0
27.060000 15.400000 24.640000 48 52 48 0
27.280000 15.400000 24.640000 48 51 48 0
27.500000 15.400000 24.640000 49 53 49 0
27.720000 15.400000 24.420000 51 53 51 0
27.940000 15.400000 24.200000 52 55 52 0
28.160000 15.400000 24.420000 54 57 54 0
28.380000 15.400000 23.980000 52 54 52 0
28.600000 15.400000 22.880000 50 53 50 0
