ply
format ascii 1.0
element vertex 1101
property float x
property float y
property float z
property uchar red
property uchar green
property uchar blue
property uchar alpha
end_header
26.180000 24.200000 15.620000 146 156 142 0
26.400000 24.200000 26.840000 146 156 142 0
26.620000 24.200000 29.480000 146 156 142 0
26.840000 24.200000 28.160000 146 156 142 0
27.060000 24.200000 22.660000 147 154 141 0
27.280000 24.200000 19.800000 146 153 140 0
27.500000 24.200000 21.120000 149 150 137 0
27.720000 24.200000 17.160000 144 145 132 0
27.940000 24.200000 11.440000 152 136 115 0
28.160000 24.200000 14.300000 145 129 108 0
28.380000 24.200000 16.940000 145 126 104 0
28.600000 24.200000 15.620000 145 126 104 0
28.820000 24.200000 16.940000 146 125 103 0
29.040000 24.200000 16.940000 146 125 103 0
29.260000 24.200000 16.940000 147 126 102 0
29.480000 24.200000 16.940000 146 125 101 0
29.700000 24.200000 16.940000 144 125 103 0
29.920000 24.200000 16.940000 145 126 104 0
30.140000 24.200000 15.620000 144 125 103 0
30.360000 24.200000 15.620000 144 125 103 0
30.580000 24.200000 15.620000 145 124 102 0
30.800000 24.200000 15.620000 145 124 102 0
31.020000 24.200000 15.620000 145 124 100 0
31.240000 24.200000 15.620000 146 125 101 0
31.460000 24.200000 15.400000 148 127 105 0
31.680000 24.200000 15.400000 147 126 104 0
31.900000 24.200000 15.400000 148 125 102 0
32.120000 24.200000 15.620000 150 127 104 0
32.340000 24.200000 15.620000 172 137 110 0
32.560000 24.200000 15.620000 185 150 123 0
32.780000 24.200000 15.620000 198 167 134 0
33.000000 24.200000 15.620000 209 178 145 0
33.220000 24.200000 15.620000 212 181 148 0
33.440000 24.200000 15.620000 212 181 148 0
33.660000 24.200000 15.620000 211 179 149 0
33.880000 24.200000 15.840000 211 179 149 0
34.100000 24.200000 15.840000 212 178 146 0
34.320000 24.200000 15.840000 210 176 144 0
34.540000 24.200000 15.840000 206 175 142 0
34.760000 24.200000 15.840000 204 173 140 0
34.980000 24.200000 16.060000 204 170 140 0
35.200000 24.200000 16.060000 201 167 137 0
35.420000 24.200000 16.060000 199 165 135 0
35.640000 24.200000 16.060000 197 163 133 0
35.860000 24.200000 16.060000 195 161 131 0
36.080000 24.200000 16.060000 193 159 129 0
36.300000 24.200000 16.060000 193 156 132 0
36.520000 24.200000 16.060000 194 157 133 0
36.740000 24.200000 17.600000 193 159 129 0
36.960000 24.200000 17.600000 200 166 136 0
37.180000 24.200000 17.600000 208 176 148 0
0.000000 24.420000 7.040000 191 204 192 0
0.220000 24.420000 7.040000 197 209 200 0
0.440000 24.420000 7.040000 199 211 202 0
0.660000 24.420000 7.040000 198 213 205 0
0.880000 24.420000 7.040000 199 214 206 0
1.100000 24.420000 8.580000 200 215 205 0
1.320000 24.420000 8.580000 201 216 206 0
1.540000 24.420000 8.580000 201 216 206 0
1.760000 24.420000 8.580000 202 217 207 0
1.980000 24.420000 8.800000 203 215 206 0
2.200000 24.420000 8.800000 203 215 206 0
2.420000 24.420000 8.800000 202 217 209 0
2.640000 24.420000 8.800000 201 216 208 0
2.860000 24.420000 9.020000 201 216 206 0
3.080000 24.420000 9.020000 201 216 206 0
3.300000 24.420000 9.020000 200 215 205 0
3.520000 24.420000 9.240000 200 215 205 0
3.740000 24.420000 10.560000 201 216 206 0
3.960000 24.420000 10.560000 201 216 206 0
4.180000 24.420000 10.780000 201 216 208 0
4.400000 24.420000 10.780000 200 215 207 0
4.620000 24.420000 10.780000 199 214 204 0
4.840000 24.420000 10.780000 199 214 204 0
5.060000 24.420000 11.000000 198 213 203 0
5.280000 24.420000 11.000000 196 211 201 0
5.500000 24.420000 10.780000 195 210 202 0
5.720000 24.420000 12.760000 194 209 201 0
5.940000 24.420000 13.860000 190 207 196 0
6.160000 24.420000 13.860000 182 199 188 0
6.380000 24.420000 13.860000 178 185 165 0
6.600000 24.420000 12.540000 165 172 152 0
6.820000 24.420000 12.540000 160 167 147 0
7.040000 24.420000 12.540000 156 163 143 0
7.260000 24.420000 12.540000 151 158 138 0
7.480000 24.420000 12.540000 151 158 138 0
7.700000 24.420000 11.000000 149 156 136 0
7.920000 24.420000 11.220000 149 156 136 0
8.140000 24.420000 11.220000 147 154 134 0
8.360000 24.420000 10.120000 148 155 135 0
8.580000 24.420000 10.340000 148 155 135 0
8.800000 24.420000 9.240000 147 154 134 0
9.020000 24.420000 9.240000 146 153 133 0
9.240000 24.420000 9.020000 146 153 133 0
9.460000 24.420000 9.020000 147 154 134 0
9.680000 24.420000 9.020000 145 152 132 0
9.900000 24.420000 10.340000 145 152 132 0
10.120000 24.420000 10.120000 146 153 133 0
10.340000 24.420000 10.120000 146 153 133 0
10.560000 24.420000 10.120000 146 153 133 0
10.780000 24.420000 10.120000 145 152 132 0
11.000000 24.420000 11.220000 145 152 132 0
11.220000 24.420000 11.220000 145 152 132 0
11.440000 24.420000 10.120000 144 151 131 0
11.660000 24.420000 10.340000 142 158 143 0
11.880000 24.420000 9.900000 158 174 159 0
12.100000 24.420000 9.680000 161 178 163 0
12.320000 24.420000 8.360000 162 179 164 0
12.540000 24.420000 8.360000 161 178 163 0
12.760000 24.420000 7.040000 160 177 162 0
12.980000 24.420000 5.720000 160 176 161 0
13.200000 24.420000 4.400000 158 174 159 0
13.420000 24.420000 4.400000 158 174 159 0
13.640000 24.420000 3.080000 157 173 158 0
13.860000 24.420000 3.080000 156 173 160 0
14.080000 24.420000 3.080000 155 172 159 0
14.300000 24.420000 1.760000 155 172 159 0
14.520000 24.420000 1.760000 154 171 158 0
14.740000 24.420000 1.760000 154 169 157 0
14.960000 24.420000 1.760000 155 170 158 0
15.180000 24.420000 0.220000 156 172 157 0
15.400000 24.420000 0.220000 154 170 155 0
15.620000 24.420000 0.220000 153 170 157 0
15.840000 24.420000 0.220000 154 171 158 0
16.060000 24.420000 0.220000 154 171 158 0
16.280000 24.420000 0.440000 155 172 159 0
16.500000 24.420000 0.440000 156 171 159 0
16.720000 24.420000 0.440000 156 171 159 0
16.940000 24.420000 0.220000 156 171 159 0
17.160000 24.420000 0.220000 156 171 159 0
17.380000 24.420000 0.220000 155 170 158 0
17.600000 24.420000 4.400000 154 169 157 0
17.820000 24.420000 15.620000 153 170 157 0
18.040000 24.420000 18.260000 153 170 157 0
18.260000 24.420000 21.120000 154 169 157 0
18.480000 24.420000 27.940000 154 169 157 0
18.700000 24.420000 22.440000 153 168 156 0
18.920000 24.420000 10.120000 152 167 155 0
19.140000 24.420000 10.120000 153 168 156 0
19.360000 24.420000 25.300000 152 167 155 0
19.580000 24.420000 36.300000 152 167 155 0
19.800000 24.420000 33.660000 151 166 154 0
20.020000 24.420000 33.660000 153 166 154 0
20.240000 24.420000 33.660000 154 167 155 0
20.460000 24.420000 22.660000 151 166 154 0
20.680000 24.420000 17.160000 151 166 154 0
20.900000 24.420000 28.160000 150 165 153 0
21.120000 24.420000 37.840000 150 165 153 0
21.340000 24.420000 40.480000 149 164 152 0
21.560000 24.420000 40.480000 150 165 153 0
21.780000 24.420000 40.480000 151 164 150 0
22.000000 24.420000 40.480000 151 164 150 0
22.220000 24.420000 40.480000 151 164 152 0
22.440000 24.420000 40.480000 151 164 152 0
22.660000 24.420000 37.840000 150 163 151 0
22.880000 24.420000 34.980000 151 164 152 0
23.100000 24.420000 32.120000 150 163 149 0
23.320000 24.420000 19.800000 149 162 148 0
23.540000 24.420000 11.660000 150 161 148 0
23.760000 24.420000 22.660000 149 160 147 0
23.980000 24.420000 28.160000 148 159 146 0
24.200000 24.420000 26.840000 147 158 145 0
24.420000 24.420000 32.340000 147 158 145 0
24.640000 24.420000 33.660000 147 158 145 0
24.860000 24.420000 36.300000 146 157 144 0
25.080000 24.420000 34.980000 146 157 144 0
25.300000 24.420000 26.620000 147 157 143 0
25.520000 24.420000 26.620000 146 156 142 0
25.740000 24.420000 22.440000 147 157 144 0
25.960000 24.420000 11.440000 146 156 143 0
26.180000 24.420000 12.980000 146 156 142 0
26.400000 24.420000 16.940000 145 155 141 0
26.620000 24.420000 15.620000 145 155 141 0
26.840000 24.420000 17.160000 145 155 141 0
27.060000 24.420000 15.620000 146 153 140 0
27.280000 24.420000 10.120000 146 153 140 0
27.500000 24.420000 10.120000 149 150 137 0
27.720000 24.420000 11.440000 144 145 132 0
27.940000 24.420000 10.120000 152 136 115 0
28.160000 24.420000 12.980000 147 131 110 0
28.380000 24.420000 15.620000 145 126 104 0
28.600000 24.420000 15.620000 144 125 103 0
28.820000 24.420000 15.620000 147 126 104 0
29.040000 24.420000 16.940000 147 126 104 0
29.260000 24.420000 16.940000 146 125 101 0
29.480000 24.420000 16.940000 147 126 102 0
29.700000 24.420000 16.940000 144 125 103 0
29.920000 24.420000 16.940000 144 125 103 0
30.140000 24.420000 15.620000 143 124 102 0
30.360000 24.420000 15.620000 143 124 102 0
30.580000 24.420000 15.620000 145 124 102 0
30.800000 24.420000 15.620000 146 125 103 0
31.020000 24.420000 15.620000 146 125 101 0
31.240000 24.420000 15.620000 147 126 102 0
31.460000 24.420000 15.400000 146 125 103 0
31.680000 24.420000 15.400000 148 127 105 0
31.900000 24.420000 15.400000 148 125 102 0
32.120000 24.420000 15.620000 150 127 104 0
32.340000 24.420000 15.620000 171 136 109 0
32.560000 24.420000 15.620000 184 149 122 0
32.780000 24.420000 15.620000 197 166 133 0
33.000000 24.420000 15.620000 209 178 145 0
33.220000 24.420000 15.620000 212 181 148 0
33.440000 24.420000 15.620000 212 181 148 0
33.660000 24.420000 15.620000 212 180 150 0
33.880000 24.420000 15.840000 211 179 149 0
34.100000 24.420000 15.840000 210 176 144 0
34.320000 24.420000 15.840000 209 175 143 0
34.540000 24.420000 15.840000 206 175 142 0
34.760000 24.420000 15.840000 204 173 140 0
34.980000 24.420000 16.060000 204 170 140 0
35.200000 24.420000 16.060000 200 166 136 0
35.420000 24.420000 16.060000 198 164 134 0
35.640000 24.420000 16.060000 197 163 133 0
35.860000 24.420000 16.060000 195 161 131 0
36.080000 24.420000 16.060000 193 159 129 0
36.300000 24.420000 16.060000 192 155 131 0
36.520000 24.420000 17.600000 191 154 130 0
36.740000 24.420000 17.600000 191 157 127 0
36.960000 24.420000 17.600000 199 165 135 0
37.180000 24.420000 17.600000 209 177 149 0
0.000000 24.640000 7.040000 192 203 192 0
0.220000 24.640000 7.040000 196 208 201 0
0.440000 24.640000 7.040000 197 209 202 0
0.660000 24.640000 7.040000 199 211 204 0
0.880000 24.640000 7.040000 201 213 206 0
1.100000 24.640000 8.580000 202 214 205 0
1.320000 24.640000 8.580000 202 214 205 0
1.540000 24.640000 8.580000 203 215 206 0
1.760000 24.640000 8.580000 203 215 206 0
1.980000 24.640000 8.800000 203 215 208 0
2.200000 24.640000 8.800000 203 215 208 0
2.420000 24.640000 8.800000 203 215 208 0
2.640000 24.640000 8.800000 203 215 208 0
2.860000 24.640000 9.020000 203 215 206 0
3.080000 24.640000 9.020000 203 215 206 0
3.300000 24.640000 9.020000 203 215 206 0
3.520000 24.640000 9.240000 202 214 205 0
3.740000 24.640000 10.560000 202 214 207 0
3.960000 24.640000 10.560000 202 214 207 0
4.180000 24.640000 10.780000 202 214 207 0
4.400000 24.640000 10.780000 202 214 207 0
4.620000 24.640000 10.780000 198 213 203 0
4.840000 24.640000 10.780000 198 213 203 0
5.060000 24.640000 11.000000 198 213 203 0
5.280000 24.640000 11.000000 197 212 202 0
5.500000 24.640000 10.780000 195 210 202 0
5.720000 24.640000 12.760000 194 209 201 0
5.940000 24.640000 13.860000 193 206 194 0
6.160000 24.640000 13.860000 186 199 187 0
6.380000 24.640000 13.860000 177 184 164 0
6.600000 24.640000 12.540000 165 172 152 0
6.820000 24.640000 12.540000 160 167 146 0
7.040000 24.640000 12.540000 156 163 142 0
7.260000 24.640000 12.540000 151 159 139 0
7.480000 24.640000 12.540000 149 157 137 0
7.700000 24.640000 11.000000 149 156 136 0
7.920000 24.640000 11.000000 149 156 136 0
8.140000 24.640000 11.000000 148 155 135 0
8.360000 24.640000 11.220000 148 155 135 0
8.580000 24.640000 10.120000 147 154 134 0
8.800000 24.640000 10.120000 148 155 135 0
9.020000 24.640000 9.900000 146 154 134 0
9.240000 24.640000 9.900000 145 153 133 0
9.460000 24.640000 10.120000 146 153 133 0
9.680000 24.640000 9.020000 146 153 133 0
9.900000 24.640000 9.240000 147 154 134 0
10.120000 24.640000 10.120000 146 153 133 0
10.340000 24.640000 11.220000 145 152 132 0
10.560000 24.640000 11.000000 146 153 133 0
10.780000 24.640000 11.000000 145 153 133 0
11.000000 24.640000 11.220000 144 152 132 0
11.220000 24.640000 11.220000 145 152 132 0
11.440000 24.640000 11.220000 144 151 131 0
11.660000 24.640000 9.900000 140 156 141 0
11.880000 24.640000 9.680000 155 171 156 0
12.100000 24.640000 9.680000 163 180 165 0
12.320000 24.640000 8.360000 162 179 164 0
12.540000 24.640000 8.360000 163 178 166 0
12.760000 24.640000 7.040000 161 176 164 0
12.980000 24.640000 5.720000 159 175 160 0
13.200000 24.640000 4.400000 158 174 159 0
13.420000 24.640000 4.400000 157 173 158 0
13.640000 24.640000 3.080000 156 172 157 0
13.860000 24.640000 3.080000 155 172 159 0
14.080000 24.640000 3.080000 155 172 159 0
14.300000 24.640000 1.540000 154 171 158 0
14.520000 24.640000 1.760000 154 171 158 0
14.740000 24.640000 1.760000 154 169 157 0
14.960000 24.640000 1.760000 154 169 157 0
15.180000 24.640000 0.220000 155 170 158 0
15.400000 24.640000 0.220000 154 169 157 0
15.620000 24.640000 0.220000 154 171 158 0
15.840000 24.640000 0.220000 154 171 158 0
16.060000 24.640000 0.220000 155 170 158 0
16.280000 24.640000 0.220000 155 170 158 0
16.500000 24.640000 0.440000 155 171 156 0
16.720000 24.640000 0.440000 156 172 157 0
16.940000 24.640000 3.080000 155 170 158 0
17.160000 24.640000 4.400000 155 170 158 0
17.380000 24.640000 1.760000 154 169 157 0
17.600000 24.640000 1.760000 154 169 157 0
17.820000 24.640000 7.260000 153 168 156 0
18.040000 24.640000 12.760000 153 168 156 0
18.260000 24.640000 23.760000 153 168 156 0
18.480000 24.640000 30.800000 153 168 156 0
18.700000 24.640000 25.300000 152 169 156 0
18.920000 24.640000 15.620000 151 168 155 0
19.140000 24.640000 10.120000 152 167 155 0
19.360000 24.640000 19.800000 153 168 156 0
19.580000 24.640000 30.800000 152 167 155 0
19.800000 24.640000 30.800000 151 166 154 0
20.020000 24.640000 36.300000 151 166 154 0
20.240000 24.640000 36.300000 151 166 154 0
20.460000 24.640000 28.160000 150 165 153 0
20.680000 24.640000 30.800000 151 166 154 0
20.900000 24.640000 36.300000 152 165 153 0
21.120000 24.640000 33.660000 149 162 150 0
21.340000 24.640000 30.800000 151 164 150 0
21.560000 24.640000 30.800000 149 162 148 0
21.780000 24.640000 32.340000 151 164 150 0
22.000000 24.640000 37.840000 151 164 150 0
22.220000 24.640000 40.480000 150 163 149 0
22.440000 24.640000 40.480000 150 163 149 0
22.660000 24.640000 34.980000 150 163 149 0
22.880000 24.640000 28.160000 150 163 149 0
23.100000 24.640000 27.940000 151 162 149 0
23.320000 24.640000 25.300000 150 161 148 0
23.540000 24.640000 16.940000 149 160 147 0
23.760000 24.640000 17.160000 148 159 146 0
23.980000 24.640000 19.800000 148 160 145 0
24.200000 24.640000 22.660000 147 159 144 0
24.420000 24.640000 29.480000 146 157 144 0
24.640000 24.640000 36.300000 146 157 144 0
24.860000 24.640000 36.300000 146 158 143 0
25.080000 24.640000 26.620000 146 158 143 0
25.300000 24.640000 16.940000 146 156 142 0
25.520000 24.640000 22.440000 145 155 141 0
25.740000 24.640000 26.620000 145 155 141 0
25.960000 24.640000 19.800000 145 155 141 0
26.180000 24.640000 14.300000 145 157 142 0
26.400000 24.640000 8.580000 144 156 141 0
26.620000 24.640000 3.080000 144 156 141 0
26.840000 24.640000 4.620000 142 154 139 0
27.060000 24.640000 3.300000 146 153 140 0
27.280000 24.640000 1.760000 145 152 139 0
27.500000 24.640000 7.260000 149 152 136 0
27.720000 24.640000 11.440000 144 147 131 0
27.940000 24.640000 10.120000 150 137 116 0
28.160000 24.640000 10.120000 145 132 111 0
28.380000 24.640000 12.760000 145 126 104 0
28.600000 24.640000 14.300000 144 125 103 0
28.820000 24.640000 15.620000 147 126 104 0
29.040000 24.640000 15.620000 146 125 103 0
29.260000 24.640000 16.940000 143 125 100 0
29.480000 24.640000 16.940000 143 125 100 0
29.700000 24.640000 16.940000 143 124 102 0
29.920000 24.640000 15.620000 143 124 102 0
30.140000 24.640000 15.620000 142 123 101 0
30.360000 24.640000 15.620000 142 123 101 0
30.580000 24.640000 15.620000 142 123 101 0
30.800000 24.640000 15.620000 142 123 101 0
31.020000 24.640000 15.620000 144 126 101 0
31.240000 24.640000 15.620000 144 126 101 0
31.460000 24.640000 15.400000 145 126 104 0
31.680000 24.640000 15.400000 146 127 105 0
31.900000 24.640000 15.400000 148 127 103 0
32.120000 24.640000 15.620000 150 129 105 0
32.340000 24.640000 15.620000 169 134 107 0
32.560000 24.640000 15.620000 186 151 124 0
32.780000 24.640000 15.620000 197 166 133 0
33.000000 24.640000 15.620000 210 179 146 0
33.220000 24.640000 15.620000 212 181 148 0
33.440000 24.640000 15.620000 213 182 149 0
33.660000 24.640000 15.620000 214 180 148 0
33.880000 24.640000 15.840000 212 178 146 0
34.100000 24.640000 15.840000 210 176 144 0
34.320000 24.640000 15.840000 209 175 143 0
34.540000 24.640000 15.840000 207 173 141 0
34.760000 24.640000 15.840000 205 171 139 0
34.980000 24.640000 16.060000 202 168 138 0
35.200000 24.640000 16.060000 199 165 135 0
35.420000 24.640000 16.060000 199 163 136 0
35.640000 24.640000 16.060000 197 161 134 0
35.860000 24.640000 16.060000 194 160 130 0
36.080000 24.640000 16.060000 191 157 127 0
36.300000 24.640000 16.060000 190 154 127 0
36.520000 24.640000 16.060000 190 154 127 0
36.740000 24.640000 17.600000 191 155 126 0
36.960000 24.640000 17.600000 198 162 133 0
37.180000 24.640000 17.600000 206 174 144 0
0.000000 24.860000 5.720000 193 204 193 0
0.220000 24.860000 7.040000 196 208 201 0
0.440000 24.860000 7.040000 197 209 202 0
0.660000 24.860000 7.040000 200 212 205 0
0.880000 24.860000 7.040000 201 213 206 0
1.100000 24.860000 8.580000 201 213 204 0
1.320000 24.860000 8.580000 202 214 205 0
1.540000 24.860000 8.580000 203 215 206 0
1.760000 24.860000 8.580000 203 215 206 0
1.980000 24.860000 8.800000 203 215 208 0
2.200000 24.860000 8.800000 203 215 208 0
2.420000 24.860000 8.800000 203 215 208 0
2.640000 24.860000 8.800000 203 215 208 0
2.860000 24.860000 9.020000 202 214 205 0
3.080000 24.860000 9.020000 202 214 205 0
3.300000 24.860000 9.020000 202 214 205 0
3.520000 24.860000 9.240000 202 214 205 0
3.740000 24.860000 10.560000 202 214 207 0
3.960000 24.860000 10.560000 202 214 207 0
4.180000 24.860000 10.780000 201 213 206 0
4.400000 24.860000 10.780000 201 213 206 0
4.620000 24.860000 10.780000 199 214 204 0
4.840000 24.860000 10.780000 198 213 203 0
5.060000 24.860000 11.000000 198 213 203 0
5.280000 24.860000 11.000000 197 212 202 0
5.500000 24.860000 10.780000 195 210 202 0
5.720000 24.860000 12.760000 194 209 201 0
5.940000 24.860000 13.860000 194 207 195 0
6.160000 24.860000 13.860000 185 198 186 0
6.380000 24.860000 13.860000 177 184 164 0
6.600000 24.860000 12.540000 165 172 152 0
6.820000 24.860000 12.540000 158 165 144 0
7.040000 24.860000 12.540000 155 162 141 0
7.260000 24.860000 12.540000 152 160 140 0
7.480000 24.860000 11.000000 149 157 137 0
7.700000 24.860000 11.000000 149 156 136 0
7.920000 24.860000 11.000000 149 156 136 0
8.140000 24.860000 11.000000 149 156 136 0
8.360000 24.860000 11.220000 147 154 134 0
8.580000 24.860000 11.220000 147 154 134 0
8.800000 24.860000 11.220000 147 154 134 0
9.020000 24.860000 11.000000 146 154 134 0
9.240000 24.860000 11.000000 145 153 133 0
9.460000 24.860000 11.220000 145 152 132 0
9.680000 24.860000 10.120000 146 153 133 0
9.900000 24.860000 10.340000 145 152 132 0
10.120000 24.860000 9.900000 145 152 132 0
10.340000 24.860000 11.000000 145 152 132 0
10.560000 24.860000 11.000000 146 153 133 0
10.780000 24.860000 11.000000 144 152 132 0
11.000000 24.860000 11.220000 144 152 132 0
11.220000 24.860000 9.900000 144 151 131 0
11.440000 24.860000 11.220000 145 152 132 0
11.660000 24.860000 11.000000 141 157 142 0
11.880000 24.860000 9.680000 154 170 155 0
12.100000 24.860000 9.680000 162 179 164 0
12.320000 24.860000 8.360000 162 179 164 0
12.540000 24.860000 8.360000 162 177 165 0
12.760000 24.860000 7.040000 161 176 164 0
12.980000 24.860000 5.720000 160 176 161 0
13.200000 24.860000 4.400000 157 173 158 0
13.420000 24.860000 4.400000 157 173 158 0
13.640000 24.860000 3.080000 158 174 159 0
13.860000 24.860000 3.080000 155 172 159 0
14.080000 24.860000 1.540000 155 172 159 0
14.300000 24.860000 1.540000 154 171 158 0
14.520000 24.860000 1.540000 154 171 158 0
14.740000 24.860000 1.760000 154 169 157 0
14.960000 24.860000 1.760000 154 169 157 0
15.180000 24.860000 1.540000 154 169 157 0
15.400000 24.860000 0.220000 155 170 158 0
15.620000 24.860000 0.220000 154 171 158 0
15.840000 24.860000 0.220000 154 171 158 0
16.060000 24.860000 0.220000 155 170 158 0
16.280000 24.860000 0.220000 154 169 157 0
16.500000 24.860000 0.440000 154 170 155 0
16.720000 24.860000 1.760000 155 171 156 0
16.940000 24.860000 10.120000 155 170 158 0
17.160000 24.860000 12.760000 156 171 159 0
17.380000 24.860000 4.400000 155 170 158 0
18.040000 24.860000 1.760000 153 168 156 0
18.260000 24.860000 15.620000 153 168 156 0
18.480000 24.860000 26.620000 154 169 157 0
18.700000 24.860000 21.120000 152 169 156 0
18.920000 24.860000 15.620000 153 170 157 0
19.140000 24.860000 18.260000 153 168 156 0
19.360000 24.860000 27.940000 152 167 155 0
19.580000 24.860000 36.300000 152 167 155 0
19.800000 24.860000 33.440000 151 166 154 0
20.020000 24.860000 30.800000 152 167 155 0
20.240000 24.860000 27.940000 150 165 153 0
20.460000 24.860000 27.940000 149 164 152 0
20.680000 24.860000 33.440000 150 165 153 0
20.900000 24.860000 30.800000 151 164 152 0
21.120000 24.860000 22.440000 150 163 151 0
21.340000 24.860000 19.800000 149 162 148 0
21.560000 24.860000 19.800000 149 162 148 0
21.780000 24.860000 25.300000 150 163 149 0
22.000000 24.860000 34.980000 150 163 149 0
22.220000 24.860000 40.480000 150 163 149 0
22.440000 24.860000 40.480000 150 163 149 0
22.660000 24.860000 37.840000 149 162 148 0
22.880000 24.860000 30.800000 150 163 149 0
23.100000 24.860000 27.940000 151 162 149 0
23.320000 24.860000 30.580000 150 161 148 0
23.540000 24.860000 25.300000 149 160 147 0
23.760000 24.860000 22.440000 148 159 146 0
23.980000 24.860000 28.160000 147 159 144 0
24.200000 24.860000 28.160000 146 158 143 0
24.420000 24.860000 23.980000 146 157 144 0
24.640000 24.860000 26.620000 146 157 144 0
24.860000 24.860000 23.980000 146 158 143 0
25.080000 24.860000 14.300000 146 158 143 0
25.300000 24.860000 14.300000 146 156 142 0
25.520000 24.860000 25.300000 147 157 143 0
25.740000 24.860000 26.620000 145 155 141 0
25.960000 24.860000 19.800000 144 154 140 0
26.180000 24.860000 11.440000 144 156 141 0
26.400000 24.860000 5.940000 142 154 139 0
26.620000 24.860000 1.760000 142 154 139 0
26.840000 24.860000 1.760000 142 154 139 0
27.060000 24.860000 4.620000 145 152 139 0
27.280000 24.860000 5.940000 144 151 138 0
27.500000 24.860000 11.440000 147 150 134 0
27.720000 24.860000 15.620000 142 145 129 0
27.940000 24.860000 11.440000 149 136 115 0
28.160000 24.860000 8.800000 145 132 111 0
28.380000 24.860000 10.120000 144 125 103 0
28.600000 24.860000 12.760000 143 124 102 0
28.820000 24.860000 12.760000 145 124 102 0
29.040000 24.860000 14.300000 145 124 102 0
29.260000 24.860000 14.300000 143 125 100 0
29.480000 24.860000 14.300000 143 125 100 0
29.700000 24.860000 15.620000 143 124 102 0
29.920000 24.860000 15.620000 143 124 102 0
30.140000 24.860000 15.620000 143 124 102 0
30.360000 24.860000 15.620000 142 123 101 0
30.580000 24.860000 15.620000 143 124 102 0
30.800000 24.860000 15.620000 142 123 101 0
31.020000 24.860000 15.620000 142 124 99 0
31.240000 24.860000 15.620000 144 126 101 0
31.460000 24.860000 15.620000 144 125 103 0
31.680000 24.860000 15.400000 145 126 104 0
31.900000 24.860000 15.620000 148 127 103 0
32.120000 24.860000 15.620000 150 129 105 0
32.340000 24.860000 15.620000 169 134 107 0
32.560000 24.860000 15.620000 184 149 122 0
32.780000 24.860000 15.620000 197 166 133 0
33.000000 24.860000 15.620000 209 178 145 0
33.220000 24.860000 15.620000 212 181 148 0
33.440000 24.860000 15.620000 212 181 148 0
33.660000 24.860000 15.620000 214 180 148 0
33.880000 24.860000 15.840000 212 178 146 0
34.100000 24.860000 15.840000 210 176 144 0
34.320000 24.860000 15.840000 209 175 143 0
34.540000 24.860000 15.840000 206 172 140 0
34.760000 24.860000 15.840000 205 171 139 0
34.980000 24.860000 16.060000 203 169 139 0
35.200000 24.860000 16.060000 200 166 136 0
35.420000 24.860000 16.060000 199 163 136 0
35.640000 24.860000 16.060000 197 161 134 0
35.860000 24.860000 16.060000 194 160 130 0
36.080000 24.860000 16.060000 193 159 129 0
36.300000 24.860000 16.060000 189 153 126 0
36.520000 24.860000 16.060000 190 154 127 0
36.740000 24.860000 17.600000 191 155 126 0
36.960000 24.860000 17.600000 197 161 132 0
37.180000 24.860000 17.600000 205 173 143 0
0.000000 25.080000 5.720000 192 203 190 0
0.220000 25.080000 7.040000 195 207 198 0
0.440000 25.080000 7.040000 197 209 200 0
0.660000 25.080000 7.040000 200 212 203 0
0.880000 25.080000 7.040000 200 212 203 0
1.100000 25.080000 8.580000 201 213 204 0
1.320000 25.080000 8.580000 202 214 205 0
1.540000 25.080000 8.580000 203 215 206 0
1.760000 25.080000 8.580000 203 215 206 0
1.980000 25.080000 8.800000 203 215 206 0
2.200000 25.080000 8.800000 203 215 206 0
2.420000 25.080000 8.800000 204 216 207 0
2.640000 25.080000 8.800000 203 215 206 0
2.860000 25.080000 9.020000 202 214 205 0
3.080000 25.080000 9.020000 203 215 206 0
3.300000 25.080000 9.020000 202 214 205 0
3.520000 25.080000 9.240000 202 214 205 0
3.740000 25.080000 10.560000 202 214 205 0
3.960000 25.080000 10.560000 202 214 205 0
4.180000 25.080000 10.780000 201 213 204 0
4.400000 25.080000 10.780000 202 214 205 0
4.620000 25.080000 10.780000 200 212 203 0
4.840000 25.080000 10.780000 200 212 203 0
5.060000 25.080000 11.000000 200 212 203 0
5.280000 25.080000 11.000000 198 210 201 0
5.500000 25.080000 10.780000 198 210 201 0
5.720000 25.080000 12.760000 194 206 197 0
5.940000 25.080000 13.860000 193 206 194 0
6.160000 25.080000 13.860000 186 199 187 0
6.380000 25.080000 12.540000 178 185 165 0
6.600000 25.080000 12.540000 165 172 152 0
6.820000 25.080000 12.540000 161 168 147 0
7.040000 25.080000 12.540000 157 164 143 0
7.260000 25.080000 12.540000 156 160 140 0
7.480000 25.080000 11.000000 154 158 138 0
7.700000 25.080000 11.000000 150 157 136 0
7.920000 25.080000 11.000000 149 156 135 0
8.140000 25.080000 11.000000 148 155 134 0
8.360000 25.080000 11.000000 146 153 132 0
8.580000 25.080000 11.000000 148 152 132 0
8.800000 25.080000 11.000000 148 152 132 0
9.020000 25.080000 11.000000 148 152 132 0
9.240000 25.080000 11.000000 148 152 132 0
9.460000 25.080000 11.000000 146 153 132 0
9.680000 25.080000 11.220000 144 151 130 0
9.900000 25.080000 11.220000 145 152 131 0
10.120000 25.080000 11.220000 145 152 131 0
10.340000 25.080000 11.000000 147 151 131 0
10.560000 25.080000 11.000000 147 151 131 0
10.780000 25.080000 11.000000 147 151 131 0
11.000000 25.080000 11.220000 146 150 130 0
11.220000 25.080000 11.220000 144 151 130 0
11.440000 25.080000 11.220000 145 152 131 0
11.660000 25.080000 11.220000 142 155 140 0
11.880000 25.080000 9.680000 155 168 153 0
12.100000 25.080000 9.680000 162 178 163 0
12.320000 25.080000 8.360000 163 179 164 0
12.540000 25.080000 7.040000 163 179 164 0
12.760000 25.080000 7.040000 161 177 162 0
12.980000 25.080000 5.720000 159 175 160 0
13.200000 25.080000 4.400000 157 173 158 0
13.420000 25.080000 4.400000 156 172 157 0
13.640000 25.080000 3.080000 155 171 156 0
13.860000 25.080000 3.080000 155 170 158 0
14.080000 25.080000 3.080000 156 171 159 0
14.300000 25.080000 1.540000 156 172 157 0
14.520000 25.080000 1.540000 155 171 156 0
14.740000 25.080000 1.540000 154 169 157 0
14.960000 25.080000 1.540000 155 170 158 0
15.180000 25.080000 1.540000 155 171 156 0
15.400000 25.080000 1.540000 154 170 155 0
15.620000 25.080000 0.220000 155 170 158 0
15.840000 25.080000 0.220000 155 170 158 0
16.060000 25.080000 0.220000 155 171 156 0
16.280000 25.080000 0.220000 155 171 156 0
16.500000 25.080000 0.220000 155 171 156 0
16.720000 25.080000 4.400000 155 171 156 0
16.940000 25.080000 12.760000 156 172 157 0
17.160000 25.080000 9.900000 155 171 156 0
17.380000 25.080000 1.760000 154 169 157 0
18.260000 25.080000 9.900000 154 170 155 0
18.480000 25.080000 23.760000 154 170 155 0
18.700000 25.080000 23.760000 153 169 154 0
18.920000 25.080000 26.620000 153 169 154 0
19.140000 25.080000 33.440000 151 166 154 0
19.360000 25.080000 39.160000 152 167 155 0
19.580000 25.080000 39.160000 152 168 153 0
19.800000 25.080000 30.800000 152 168 153 0
20.020000 25.080000 22.440000 153 166 152 0
20.240000 25.080000 22.440000 152 165 151 0
20.460000 25.080000 30.800000 149 165 150 0
20.680000 25.080000 33.440000 148 164 149 0
20.900000 25.080000 27.940000 151 164 150 0
21.120000 25.080000 27.940000 149 162 148 0
21.340000 25.080000 27.940000 149 162 148 0
21.560000 25.080000 25.300000 150 163 149 0
21.780000 25.080000 30.800000 151 164 150 0
22.000000 25.080000 37.840000 150 163 149 0
22.220000 25.080000 40.480000 149 162 148 0
22.440000 25.080000 40.480000 149 162 148 0
22.660000 25.080000 37.620000 149 162 148 0
22.880000 25.080000 30.800000 149 162 148 0
23.100000 25.080000 28.160000 150 161 148 0
23.320000 25.080000 30.800000 150 161 148 0
23.540000 25.080000 25.300000 149 159 145 0
23.760000 25.080000 25.300000 150 160 146 0
23.980000 25.080000 34.980000 147 158 145 0
24.200000 25.080000 37.840000 147 158 145 0
24.420000 25.080000 29.480000 146 157 144 0
24.640000 25.080000 22.440000 146 157 144 0
24.860000 25.080000 16.940000 146 158 143 0
25.080000 25.080000 14.300000 145 157 142 0
25.300000 25.080000 22.440000 147 157 143 0
25.520000 25.080000 26.620000 146 156 142 0
25.740000 25.080000 16.940000 144 154 140 0
25.960000 25.080000 8.800000 146 156 142 0
26.180000 25.080000 14.080000 144 154 140 0
26.400000 25.080000 18.260000 143 153 139 0
26.620000 25.080000 11.440000 142 154 139 0
26.840000 25.080000 7.260000 143 155 140 0
27.060000 25.080000 10.120000 144 151 138 0
27.280000 25.080000 5.940000 143 150 137 0
27.500000 25.080000 5.940000 146 149 133 0
27.720000 25.080000 11.440000 143 146 130 0
27.940000 25.080000 10.120000 151 135 114 0
28.160000 25.080000 5.940000 146 130 109 0
28.380000 25.080000 7.260000 145 126 104 0
28.600000 25.080000 8.800000 144 125 103 0
28.820000 25.080000 10.120000 143 125 100 0
29.040000 25.080000 12.760000 143 125 100 0
29.260000 25.080000 12.760000 143 125 100 0
29.480000 25.080000 12.760000 143 125 100 0
29.700000 25.080000 14.300000 145 124 100 0
29.920000 25.080000 14.300000 146 125 101 0
30.140000 25.080000 14.300000 143 124 102 0
30.360000 25.080000 15.620000 142 123 101 0
30.580000 25.080000 15.620000 143 125 100 0
30.800000 25.080000 15.620000 142 124 99 0
31.020000 25.080000 15.620000 145 124 100 0
31.240000 25.080000 15.620000 145 124 100 0
31.460000 25.080000 15.620000 146 125 101 0
31.680000 25.080000 15.620000 146 125 101 0
31.900000 25.080000 15.620000 148 127 103 0
32.120000 25.080000 15.620000 148 127 103 0
32.340000 25.080000 15.620000 167 133 103 0
32.560000 25.080000 15.620000 184 150 120 0
32.780000 25.080000 15.620000 199 165 133 0
33.000000 25.080000 15.620000 210 176 144 0
33.220000 25.080000 15.620000 216 182 149 0
33.440000 25.080000 15.620000 215 181 148 0
33.660000 25.080000 15.620000 213 179 147 0
33.880000 25.080000 15.620000 211 177 145 0
34.100000 25.080000 15.840000 211 175 144 0
34.320000 25.080000 15.840000 210 174 143 0
34.540000 25.080000 15.840000 208 172 141 0
34.760000 25.080000 15.840000 207 171 140 0
34.980000 25.080000 16.060000 203 167 136 0
35.200000 25.080000 16.060000 201 165 134 0
35.420000 25.080000 16.060000 200 164 133 0
35.640000 25.080000 16.060000 197 161 130 0
35.860000 25.080000 16.060000 194 158 127 0
36.080000 25.080000 16.060000 192 156 125 0
36.300000 25.080000 16.060000 190 154 125 0
36.520000 25.080000 16.060000 188 152 123 0
36.740000 25.080000 17.600000 191 155 126 0
36.960000 25.080000 17.600000 197 161 132 0
37.180000 25.080000 17.600000 206 172 142 0
0.000000 25.300000 5.720000 191 202 189 0
0.220000 25.300000 7.040000 196 208 199 0
0.440000 25.300000 7.040000 197 209 200 0
0.660000 25.300000 7.040000 199 211 202 0
0.880000 25.300000 7.040000 200 212 203 0
1.100000 25.300000 8.580000 201 213 204 0
1.320000 25.300000 8.580000 201 213 204 0
1.540000 25.300000 8.580000 202 214 205 0
1.760000 25.300000 8.580000 203 215 206 0
1.980000 25.300000 8.800000 203 215 206 0
2.200000 25.300000 8.800000 203 215 206 0
2.420000 25.300000 8.800000 203 215 206 0
2.640000 25.300000 8.800000 203 215 206 0
2.860000 25.300000 9.020000 202 214 205 0
3.080000 25.300000 9.020000 203 215 206 0
3.300000 25.300000 9.020000 203 215 206 0
3.520000 25.300000 9.240000 202 214 205 0
3.740000 25.300000 10.560000 202 214 205 0
3.960000 25.300000 10.560000 202 214 205 0
4.180000 25.300000 10.780000 202 214 205 0
4.400000 25.300000 10.780000 201 213 204 0
4.620000 25.300000 10.780000 201 213 204 0
4.840000 25.300000 10.780000 201 213 204 0
5.060000 25.300000 11.000000 200 212 203 0
5.280000 25.300000 11.000000 199 211 202 0
5.500000 25.300000 10.780000 198 210 201 0
5.720000 25.300000 12.760000 196 208 199 0
5.940000 25.300000 13.860000 193 206 194 0
6.160000 25.300000 13.860000 187 200 188 0
6.380000 25.300000 13.860000 177 184 164 0
6.600000 25.300000 12.540000 166 173 153 0
6.820000 25.300000 12.540000 159 166 145 0
7.040000 25.300000 12.540000 156 163 142 0
7.260000 25.300000 12.540000 155 159 139 0
7.480000 25.300000 11.000000 153 157 137 0
7.700000 25.300000 11.000000 150 157 136 0
7.920000 25.300000 11.000000 148 155 134 0
8.140000 25.300000 11.000000 149 156 135 0
8.360000 25.300000 11.000000 148 155 134 0
8.580000 25.300000 11.000000 148 152 132 0
8.800000 25.300000 11.000000 148 152 132 0
9.020000 25.300000 11.000000 149 153 133 0
9.240000 25.300000 11.000000 148 152 132 0
9.460000 25.300000 11.000000 145 152 131 0
9.680000 25.300000 11.000000 145 152 131 0
9.900000 25.300000 11.000000 146 153 132 0
10.120000 25.300000 11.000000 145 152 131 0
10.340000 25.300000 11.000000 147 151 131 0
10.560000 25.300000 11.000000 147 151 131 0
10.780000 25.300000 11.220000 147 151 131 0
11.000000 25.300000 11.220000 147 151 131 0
11.220000 25.300000 11.220000 144 151 130 0
11.440000 25.300000 11.220000 145 152 131 0
11.660000 25.300000 11.220000 142 155 140 0
11.880000 25.300000 9.680000 155 168 153 0
12.100000 25.300000 9.680000 163 179 164 0
12.320000 25.300000 8.360000 163 179 164 0
12.540000 25.300000 7.040000 161 177 162 0
12.760000 25.300000 7.040000 161 177 162 0
12.980000 25.300000 5.720000 159 175 160 0
13.200000 25.300000 4.400000 158 174 159 0
13.420000 25.300000 4.400000 156 172 157 0
13.640000 25.300000 3.080000 155 171 156 0
13.860000 25.300000 3.080000 155 170 158 0
14.080000 25.300000 2.860000 156 171 159 0
14.300000 25.300000 1.540000 155 171 156 0
14.520000 25.300000 1.540000 155 171 156 0
14.740000 25.300000 1.540000 154 169 157 0
14.960000 25.300000 1.540000 154 169 157 0
15.180000 25.300000 1.540000 155 171 156 0
15.400000 25.300000 1.540000 155 171 156 0
15.620000 25.300000 0.220000 155 170 158 0
15.840000 25.300000 0.220000 155 170 158 0
16.060000 25.300000 0.220000 154 170 155 0
16.280000 25.300000 0.220000 155 171 156 0
16.500000 25.300000 0.220000 155 171 156 0
16.720000 25.300000 3.080000 153 169 154 0
16.940000 25.300000 5.940000 155 171 156 0
17.160000 25.300000 3.080000 154 170 155 0
17.380000 25.300000 0.220000 154 169 157 0
17.600000 25.300000 0.220000 153 168 156 0
17.820000 25.300000 0.220000 153 169 154 0
18.260000 25.300000 9.900000 153 169 154 0
18.480000 25.300000 29.260000 154 170 155 0
18.700000 25.300000 36.300000 153 169 154 0
18.920000 25.300000 38.940000 152 168 153 0
19.140000 25.300000 41.800000 152 167 155 0
19.360000 25.300000 39.160000 153 168 156 0
19.580000 25.300000 30.800000 153 169 154 0
19.800000 25.300000 25.300000 151 167 152 0
20.020000 25.300000 27.940000 153 166 152 0
20.240000 25.300000 33.440000 152 165 151 0
20.460000 25.300000 38.940000 150 166 151 0
20.680000 25.300000 38.940000 148 164 149 0
20.900000 25.300000 36.300000 151 164 150 0
21.120000 25.300000 38.940000 150 163 149 0
21.340000 25.300000 36.300000 150 163 149 0
21.560000 25.300000 30.800000 151 164 150 0
21.780000 25.300000 33.660000 150 163 149 0
22.000000 25.300000 36.300000 150 163 149 0
22.220000 25.300000 39.160000 149 162 148 0
22.440000 25.300000 38.940000 148 161 147 0
22.660000 25.300000 27.940000 149 162 148 0
22.880000 25.300000 16.940000 149 162 148 0
23.100000 25.300000 19.800000 149 160 147 0
23.320000 25.300000 27.940000 149 160 147 0
23.540000 25.300000 30.800000 149 159 145 0
23.760000 25.300000 30.800000 149 159 145 0
23.980000 25.300000 32.120000 146 157 144 0
24.200000 25.300000 37.620000 146 157 144 0
24.420000 25.300000 37.620000 146 157 144 0
24.640000 25.300000 29.480000 146 157 144 0
24.860000 25.300000 23.980000 146 158 143 0
25.080000 25.300000 21.120000 145 157 142 0
25.300000 25.300000 19.800000 146 156 142 0
25.520000 25.300000 16.940000 146 156 142 0
25.740000 25.300000 7.260000 145 155 141 0
25.960000 25.300000 4.620000 144 154 140 0
26.180000 25.300000 18.260000 143 153 139 0
26.400000 25.300000 27.940000 142 152 138 0
26.620000 25.300000 18.480000 141 153 138 0
26.840000 25.300000 10.120000 142 154 139 0
27.060000 25.300000 12.760000 145 152 139 0
27.280000 25.300000 8.580000 144 151 138 0
27.500000 25.300000 3.300000 146 149 133 0
27.720000 25.300000 5.940000 143 146 130 0
27.940000 25.300000 8.800000 151 135 114 0
28.160000 25.300000 8.800000 146 130 109 0
28.380000 25.300000 8.800000 144 125 103 0
28.600000 25.300000 8.800000 142 123 101 0
28.820000 25.300000 8.580000 142 124 99 0
29.040000 25.300000 11.440000 142 124 99 0
29.260000 25.300000 12.760000 143 125 100 0
29.480000 25.300000 14.300000 143 125 100 0
29.700000 25.300000 14.300000 146 125 101 0
29.920000 25.300000 14.300000 146 125 101 0
30.140000 25.300000 14.300000 143 124 102 0
30.360000 25.300000 15.620000 141 122 100 0
30.580000 25.300000 15.620000 143 125 100 0
30.800000 25.300000 15.620000 142 124 99 0
31.020000 25.300000 15.620000 145 124 100 0
31.240000 25.300000 15.620000 145 124 100 0
31.460000 25.300000 15.620000 146 125 101 0
31.680000 25.300000 15.620000 145 124 100 0
31.900000 25.300000 15.620000 147 126 102 0
32.120000 25.300000 15.620000 148 127 103 0
32.340000 25.300000 15.620000 169 135 105 0
32.560000 25.300000 15.620000 183 149 119 0
32.780000 25.300000 15.620000 199 165 133 0
33.000000 25.300000 15.620000 210 176 144 0
33.220000 25.300000 15.620000 214 180 147 0
33.440000 25.300000 15.620000 214 180 147 0
33.660000 25.300000 15.620000 213 179 147 0
33.880000 25.300000 15.620000 211 177 145 0
34.100000 25.300000 15.840000 210 174 143 0
34.320000 25.300000 15.840000 209 173 142 0
34.540000 25.300000 15.840000 208 172 141 0
34.760000 25.300000 15.840000 205 169 138 0
34.980000 25.300000 16.060000 204 168 137 0
35.200000 25.300000 16.060000 201 165 134 0
35.420000 25.300000 16.060000 199 163 132 0
35.640000 25.300000 16.060000 196 160 129 0
35.860000 25.300000 16.060000 194 158 127 0
36.080000 25.300000 16.060000 192 156 125 0
36.300000 25.300000 16.060000 190 154 125 0
36.520000 25.300000 16.060000 187 151 122 0
36.740000 25.300000 17.600000 189 153 124 0
36.960000 25.300000 17.600000 194 158 129 0
37.180000 25.300000 17.600000 204 170 140 0
0.000000 25.520000 5.720000 192 203 192 0
0.220000 25.520000 7.040000 195 207 198 0
0.440000 25.520000 7.040000 197 209 200 0
0.660000 25.520000 7.040000 199 211 202 0
0.880000 25.520000 7.040000 200 212 203 0
1.100000 25.520000 8.580000 199 214 204 0
1.320000 25.520000 8.580000 199 214 204 0
1.540000 25.520000 8.580000 203 215 206 0
1.760000 25.520000 8.580000 202 214 205 0
1.980000 25.520000 8.800000 203 215 206 0
2.200000 25.520000 8.800000 204 216 207 0
2.420000 25.520000 8.800000 203 215 206 0
2.640000 25.520000 8.800000 203 215 206 0
2.860000 25.520000 9.020000 201 216 206 0
3.080000 25.520000 9.020000 200 215 205 0
3.300000 25.520000 9.020000 202 214 205 0
3.520000 25.520000 9.020000 203 215 206 0
3.740000 25.520000 10.560000 202 214 205 0
3.960000 25.520000 10.560000 202 214 205 0
4.180000 25.520000 10.780000 202 214 205 0
4.400000 25.520000 10.780000 201 213 204 0
4.620000 25.520000 10.780000 201 213 204 0
4.840000 25.520000 10.780000 201 213 204 0
5.060000 25.520000 11.000000 200 212 203 0
5.280000 25.520000 11.000000 200 212 203 0
5.500000 25.520000 10.780000 198 210 201 0
5.720000 25.520000 12.760000 196 208 199 0
5.940000 25.520000 13.860000 191 206 194 0
6.160000 25.520000 13.860000 184 199 187 0
6.380000 25.520000 13.860000 178 186 168 0
6.600000 25.520000 12.540000 166 174 156 0
6.820000 25.520000 12.540000 163 167 147 0
7.040000 25.520000 12.540000 159 163 143 0
7.260000 25.520000 12.540000 153 160 139 0
7.480000 25.520000 11.000000 151 158 137 0
7.700000 25.520000 11.000000 149 156 135 0
7.920000 25.520000 11.000000 149 156 135 0
8.140000 25.520000 11.000000 148 155 135 0
8.360000 25.520000 11.000000 148 155 135 0
8.580000 25.520000 11.000000 149 153 133 0
8.800000 25.520000 11.000000 149 153 133 0
9.020000 25.520000 11.220000 146 153 132 0
9.240000 25.520000 11.220000 145 152 131 0
9.460000 25.520000 11.220000 146 153 132 0
9.680000 25.520000 11.000000 146 153 132 0
9.900000 25.520000 11.000000 145 152 132 0
10.120000 25.520000 11.000000 146 153 133 0
10.340000 25.520000 11.000000 146 153 132 0
10.560000 25.520000 11.000000 146 153 132 0
10.780000 25.520000 11.220000 145 152 131 0
11.000000 25.520000 10.120000 145 152 131 0
11.220000 25.520000 11.220000 145 152 131 0
11.440000 25.520000 11.000000 145 152 131 0
11.660000 25.520000 11.220000 143 157 139 0
11.880000 25.520000 9.680000 152 166 148 0
12.100000 25.520000 9.680000 161 179 162 0
12.320000 25.520000 8.360000 162 180 163 0
12.540000 25.520000 8.360000 161 178 163 0
12.760000 25.520000 7.040000 160 177 162 0
12.980000 25.520000 5.720000 159 175 160 0
13.200000 25.520000 4.400000 157 173 158 0
13.420000 25.520000 4.400000 156 172 157 0
13.640000 25.520000 3.080000 156 172 157 0
13.860000 25.520000 3.080000 154 170 155 0
14.080000 25.520000 3.080000 155 171 156 0
14.300000 25.520000 1.540000 156 172 157 0
14.520000 25.520000 1.540000 156 172 157 0
14.740000 25.520000 1.540000 154 171 156 0
14.960000 25.520000 1.540000 154 171 156 0
15.180000 25.520000 1.540000 155 171 156 0
15.400000 25.520000 0.220000 155 171 156 0
15.620000 25.520000 0.220000 155 171 156 0
15.840000 25.520000 0.220000 154 170 155 0
16.060000 25.520000 0.220000 153 170 155 0
16.280000 25.520000 0.220000 153 170 155 0
16.500000 25.520000 0.220000 154 170 155 0
16.720000 25.520000 0.220000 155 171 156 0
16.940000 25.520000 0.220000 155 171 156 0
17.160000 25.520000 0.220000 154 170 155 0
17.380000 25.520000 0.220000 153 169 154 0
17.600000 25.520000 0.220000 154 170 155 0
17.820000 25.520000 0.220000 154 170 155 0
18.040000 25.520000 0.220000 153 169 154 0
18.260000 25.520000 7.260000 153 169 154 0
18.480000 25.520000 23.760000 154 170 155 0
18.700000 25.520000 33.440000 152 167 155 0
18.920000 25.520000 38.940000 152 167 155 0
19.140000 25.520000 38.940000 152 168 153 0
19.360000 25.520000 30.800000 152 168 153 0
19.580000 25.520000 22.440000 152 168 153 0
19.800000 25.520000 25.300000 151 167 152 0
20.020000 25.520000 36.300000 151 167 152 0
20.240000 25.520000 41.800000 149 165 150 0
20.460000 25.520000 41.800000 151 164 150 0
20.680000 25.520000 41.800000 150 163 149 0
20.900000 25.520000 41.800000 150 163 149 0
21.120000 25.520000 41.800000 149 162 148 0
21.340000 25.520000 38.940000 148 164 149 0
21.560000 25.520000 33.440000 149 165 150 0
21.780000 25.520000 27.940000 151 164 150 0
22.000000 25.520000 27.940000 150 163 149 0
22.220000 25.520000 33.440000 149 162 148 0
22.440000 25.520000 30.800000 149 162 148 0
22.660000 25.520000 19.800000 149 160 147 0
22.880000 25.520000 16.940000 149 160 147 0
23.100000 25.520000 19.580000 148 160 145 0
23.320000 25.520000 19.800000 148 160 145 0
23.540000 25.520000 27.940000 147 159 144 0
23.760000 25.520000 33.660000 147 159 144 0
23.980000 25.520000 29.480000 146 157 144 0
24.200000 25.520000 34.980000 147 158 145 0
24.420000 25.520000 40.480000 146 158 143 0
24.640000 25.520000 32.120000 145 157 142 0
24.860000 25.520000 22.440000 144 156 141 0
25.080000 25.520000 19.800000 145 157 142 0
25.300000 25.520000 14.080000 145 155 141 0
25.520000 25.520000 7.260000 145 155 141 0
25.740000 25.520000 1.760000 146 156 142 0
25.960000 25.520000 1.760000 144 154 140 0
26.180000 25.520000 11.440000 143 153 139 0
26.400000 25.520000 18.480000 143 153 139 0
26.620000 25.520000 11.440000 143 153 139 0
26.840000 25.520000 7.260000 142 152 138 0
27.060000 25.520000 16.940000 143 153 139 0
27.280000 25.520000 18.260000 141 151 137 0
27.500000 25.520000 10.120000 147 150 134 0
27.720000 25.520000 8.580000 143 146 130 0
27.940000 25.520000 10.120000 149 138 116 0
28.160000 25.520000 10.120000 143 132 110 0
28.380000 25.520000 11.440000 144 126 101 0
28.600000 25.520000 10.120000 143 125 100 0
28.820000 25.520000 10.120000 145 124 100 0
29.040000 25.520000 10.120000 145 124 100 0
29.260000 25.520000 11.440000 145 124 100 0
29.480000 25.520000 12.760000 145 124 100 0
29.700000 25.520000 14.300000 145 124 100 0
29.920000 25.520000 14.300000 145 124 100 0
30.140000 25.520000 14.300000 143 125 100 0
30.360000 25.520000 15.620000 142 124 99 0
30.580000 25.520000 15.620000 144 123 99 0
30.800000 25.520000 15.620000 143 122 98 0
31.020000 25.520000 15.620000 144 123 101 0
31.240000 25.520000 15.620000 145 124 102 0
31.460000 25.520000 15.620000 146 125 101 0
31.680000 25.520000 15.620000 146 125 101 0
31.900000 25.520000 15.620000 147 124 101 0
32.120000 25.520000 15.620000 149 126 103 0
32.340000 25.520000 15.620000 164 132 104 0
32.560000 25.520000 15.620000 182 150 122 0
32.780000 25.520000 15.620000 198 164 131 0
33.000000 25.520000 15.620000 209 175 142 0
33.220000 25.520000 15.620000 213 179 146 0
33.440000 25.520000 15.620000 214 180 147 0
33.660000 25.520000 15.620000 213 179 147 0
33.880000 25.520000 15.620000 211 177 145 0
34.100000 25.520000 15.840000 210 176 144 0
34.320000 25.520000 15.840000 209 175 143 0
34.540000 25.520000 15.840000 206 172 140 0
34.760000 25.520000 15.840000 204 170 138 0
34.980000 25.520000 15.840000 203 167 136 0
35.200000 25.520000 16.060000 201 165 134 0
35.420000 25.520000 16.060000 199 163 132 0
35.640000 25.520000 16.060000 197 161 130 0
35.860000 25.520000 16.060000 194 158 129 0
36.080000 25.520000 16.060000 192 156 127 0
36.300000 25.520000 16.060000 190 152 124 0
36.520000 25.520000 16.060000 188 150 122 0
36.740000 25.520000 17.600000 190 153 122 0
36.960000 25.520000 17.600000 194 157 126 0
37.180000 25.520000 17.600000 200 169 136 0
0.000000 25.740000 5.720000 191 202 191 0
0.220000 25.740000 7.040000 194 206 197 0
0.440000 25.740000 7.040000 197 209 200 0
0.660000 25.740000 7.040000 199 211 202 0
0.880000 25.740000 7.040000 200 212 203 0
1.100000 25.740000 8.580000 199 214 204 0
1.320000 25.740000 8.580000 200 215 205 0
1.540000 25.740000 8.580000 202 214 205 0
1.760000 25.740000 8.580000 202 214 205 0
1.980000 25.740000 8.800000 203 215 206 0
2.200000 25.740000 8.800000 203 215 206 0
2.420000 25.740000 8.800000 203 215 206 0
2.640000 25.740000 8.800000 203 215 206 0
2.860000 25.740000 9.020000 201 216 206 0
3.080000 25.740000 9.020000 200 215 205 0
3.300000 25.740000 9.020000 202 214 205 0
3.520000 25.740000 9.020000 203 215 206 0
3.740000 25.740000 10.560000 202 214 205 0
3.960000 25.740000 10.560000 201 213 204 0
4.180000 25.740000 10.780000 201 213 204 0
4.400000 25.740000 10.780000 201 213 204 0
4.620000 25.740000 10.780000 200 212 203 0
4.840000 25.740000 10.780000 200 212 203 0
5.060000 25.740000 11.000000 200 212 203 0
5.280000 25.740000 11.000000 200 212 203 0
5.500000 25.740000 10.780000 198 210 201 0
5.720000 25.740000 12.760000 197 209 200 0
5.940000 25.740000 13.860000 191 206 194 0
6.160000 25.740000 13.860000 185 200 188 0
6.380000 25.740000 13.860000 180 188 170 0
6.600000 25.740000 12.540000 166 174 156 0
6.820000 25.740000 12.540000 162 166 146 0
7.040000 25.740000 12.540000 158 162 142 0
7.260000 25.740000 12.540000 153 160 139 0
7.480000 25.740000 11.000000 151 158 137 0
7.700000 25.740000 11.000000 150 157 136 0
