ply
format ascii 1.0
element vertex 1143
property float x
property float y
property float z
property uchar red
property uchar green
property uchar blue
property uchar alpha
end_header
30.360000 6.380000 5.060000 239 240 239 0
30.580000 6.380000 5.280000 240 241 240 0
30.800000 6.380000 5.280000 240 241 240 0
31.020000 6.380000 5.280000 240 241 240 0
31.240000 6.380000 6.380000 238 242 240 0
31.460000 6.380000 6.380000 238 242 240 0
31.680000 6.380000 5.280000 240 241 240 0
31.900000 6.380000 5.280000 240 241 240 0
32.120000 6.380000 5.280000 240 241 240 0
32.340000 6.380000 5.280000 240 241 240 0
32.560000 6.380000 5.060000 240 241 240 0
32.780000 6.380000 6.380000 240 241 240 0
33.000000 6.380000 5.060000 238 242 240 0
33.220000 6.380000 5.280000 237 241 239 0
33.440000 6.380000 4.840000 223 244 242 0
33.660000 6.380000 5.940000 220 241 239 0
33.880000 6.380000 7.040000 212 241 240 0
34.100000 6.380000 7.040000 210 239 238 0
34.320000 6.380000 7.040000 200 241 238 0
34.540000 6.380000 5.720000 199 240 237 0
34.760000 6.380000 5.940000 201 241 238 0
34.980000 6.380000 5.720000 201 241 238 0
35.200000 6.380000 7.040000 210 238 237 0
35.420000 6.380000 7.040000 212 240 239 0
35.640000 6.380000 7.040000 218 239 239 0
35.860000 6.380000 7.040000 220 241 241 0
36.080000 6.380000 7.260000 237 238 237 0
36.300000 6.380000 6.380000 239 240 239 0
36.520000 6.380000 5.280000 239 240 239 0
36.740000 6.380000 5.280000 240 241 240 0
36.960000 6.380000 6.160000 240 241 240 0
37.180000 6.380000 7.260000 240 241 240 0
0.000000 6.600000 38.500000 199 218 228 0
0.220000 6.600000 39.600000 198 217 227 0
0.440000 6.600000 40.480000 196 218 229 0
0.660000 6.600000 41.580000 198 220 231 0
0.880000 6.600000 40.260000 195 220 237 0
1.100000 6.600000 29.040000 194 219 236 0
1.320000 6.600000 13.860000 198 216 233 0
1.540000 6.600000 2.860000 193 211 228 0
1.760000 6.600000 1.540000 203 197 218 0
1.980000 6.600000 1.540000 196 190 211 0
2.200000 6.600000 0.440000 206 170 191 0
2.420000 6.600000 0.660000 194 158 179 0
3.080000 6.600000 0.880000 177 177 196 0
3.300000 6.600000 0.880000 186 186 205 0
3.520000 6.600000 1.100000 181 199 216 0
3.740000 6.600000 2.200000 184 202 219 0
3.960000 6.600000 3.080000 175 210 233 0
4.180000 6.600000 4.180000 180 215 238 0
4.400000 6.600000 4.180000 171 229 236 0
4.620000 6.600000 4.180000 175 233 240 0
4.840000 6.600000 4.400000 173 234 237 0
5.060000 6.600000 4.400000 175 236 239 0
5.280000 6.600000 4.400000 180 238 237 0
5.500000 6.600000 5.720000 182 240 239 0
5.720000 6.600000 5.720000 178 241 241 0
5.940000 6.600000 5.720000 179 242 242 0
6.160000 6.600000 4.180000 182 244 244 0
6.380000 6.600000 4.180000 183 245 245 0
6.600000 6.600000 4.180000 194 243 242 0
6.820000 6.600000 4.180000 194 243 242 0
7.040000 6.600000 4.400000 202 242 239 0
7.260000 6.600000 4.400000 203 243 240 0
7.480000 6.600000 4.400000 212 242 239 0
7.700000 6.600000 5.720000 212 242 239 0
7.920000 6.600000 5.720000 216 241 240 0
8.140000 6.600000 5.720000 218 243 242 0
8.360000 6.600000 5.720000 226 244 243 0
8.580000 6.600000 4.620000 226 244 243 0
8.800000 6.600000 4.840000 228 243 241 0
9.020000 6.600000 5.060000 227 242 240 0
9.240000 6.600000 3.740000 219 244 243 0
9.460000 6.600000 5.060000 218 243 242 0
9.680000 6.600000 5.060000 218 243 242 0
9.900000 6.600000 3.960000 217 242 241 0
10.120000 6.600000 3.960000 225 240 238 0
10.340000 6.600000 3.960000 226 241 239 0
10.560000 6.600000 3.960000 235 240 239 0
10.780000 6.600000 5.280000 236 241 240 0
11.000000 6.600000 5.280000 234 242 240 0
11.220000 6.600000 5.060000 234 242 240 0
11.440000 6.600000 6.160000 224 245 245 0
11.660000 6.600000 6.160000 223 244 244 0
11.880000 6.600000 6.160000 217 245 244 0
12.100000 6.600000 7.480000 216 244 243 0
12.320000 6.600000 7.480000 195 249 247 0
12.540000 6.600000 8.580000 192 246 244 0
12.760000 6.600000 8.360000 194 235 250 0
12.980000 6.600000 8.360000 190 231 246 0
13.200000 6.600000 8.580000 216 205 234 0
13.420000 6.600000 8.580000 203 192 221 0
13.640000 6.600000 9.900000 200 180 212 0
13.860000 6.600000 9.900000 198 178 210 0
14.080000 6.600000 9.900000 167 192 210 0
14.300000 6.600000 8.580000 180 205 223 0
14.520000 6.600000 8.580000 192 233 248 0
14.740000 6.600000 8.580000 184 225 240 0
14.960000 6.600000 8.580000 204 215 238 0
15.180000 6.600000 8.580000 201 212 235 0
15.400000 6.600000 9.900000 193 190 214 0
15.620000 6.600000 9.900000 201 198 222 0
15.840000 6.600000 8.580000 193 213 232 0
16.060000 6.600000 8.580000 202 222 241 0
16.280000 6.600000 8.580000 204 235 235 0
16.500000 6.600000 8.580000 209 240 240 0
16.720000 6.600000 8.580000 233 236 236 0
16.940000 6.600000 8.580000 237 240 240 0
17.160000 6.600000 7.480000 240 241 240 0
17.380000 6.600000 6.600000 240 241 240 0
17.600000 6.600000 6.820000 240 241 240 0
17.820000 6.600000 6.820000 240 241 240 0
18.040000 6.600000 6.820000 238 242 240 0
18.260000 6.600000 5.500000 238 242 240 0
18.480000 6.600000 5.500000 238 242 240 0
18.700000 6.600000 5.500000 238 242 240 0
18.920000 6.600000 5.500000 240 241 240 0
19.140000 6.600000 5.280000 240 241 240 0
19.360000 6.600000 5.280000 240 241 240 0
19.580000 6.600000 6.600000 240 241 240 0
19.800000 6.600000 6.600000 240 241 240 0
20.020000 6.600000 6.380000 240 241 240 0
20.240000 6.600000 7.480000 240 241 240 0
20.460000 6.600000 7.700000 240 241 240 0
20.680000 6.600000 6.600000 240 241 240 0
20.900000 6.600000 5.500000 240 241 240 0
21.120000 6.600000 5.500000 240 241 240 0
21.340000 6.600000 5.500000 240 241 240 0
21.560000 6.600000 6.820000 240 241 240 0
21.780000 6.600000 5.500000 240 241 240 0
22.000000 6.600000 5.280000 240 241 240 0
22.220000 6.600000 6.380000 240 241 240 0
22.440000 6.600000 7.480000 240 241 240 0
22.660000 6.600000 7.260000 240 241 240 0
22.880000 6.600000 7.260000 240 241 240 0
23.100000 6.600000 6.380000 240 241 240 0
23.320000 6.600000 5.280000 240 241 240 0
23.540000 6.600000 5.500000 240 241 240 0
23.760000 6.600000 5.500000 240 241 240 0
23.980000 6.600000 5.280000 240 241 240 0
24.200000 6.600000 6.600000 240 241 240 0
24.420000 6.600000 6.600000 240 241 240 0
24.640000 6.600000 6.600000 240 241 240 0
24.860000 6.600000 6.600000 240 241 240 0
25.080000 6.600000 6.600000 240 241 240 0
25.300000 6.600000 6.160000 240 241 240 0
25.520000 6.600000 7.040000 240 241 240 0
25.740000 6.600000 8.360000 240 241 240 0
25.960000 6.600000 7.260000 240 241 240 0
26.180000 6.600000 7.260000 240 241 240 0
26.400000 6.600000 7.040000 240 241 240 0
26.620000 6.600000 7.040000 240 241 240 0
26.840000 6.600000 8.360000 240 241 240 0
27.060000 6.600000 7.260000 240 241 240 0
27.280000 6.600000 6.380000 240 241 240 0
27.500000 6.600000 6.600000 240 241 240 0
27.720000 6.600000 6.380000 240 241 240 0
27.940000 6.600000 6.160000 240 241 240 0
28.160000 6.600000 6.160000 240 241 240 0
28.380000 6.600000 6.600000 240 241 240 0
28.600000 6.600000 6.380000 237 242 241 0
28.820000 6.600000 6.160000 237 242 241 0
29.040000 6.600000 6.160000 219 247 245 0
29.260000 6.600000 6.160000 216 244 242 0
29.480000 6.600000 7.260000 218 242 241 0
29.700000 6.600000 5.940000 217 241 240 0
29.920000 6.600000 6.380000 235 239 237 0
30.140000 6.600000 6.380000 237 241 239 0
30.360000 6.600000 6.380000 238 242 240 0
30.580000 6.600000 5.280000 238 242 240 0
30.800000 6.600000 5.500000 240 241 240 0
31.020000 6.600000 5.500000 240 241 240 0
31.240000 6.600000 5.500000 240 241 240 0
31.460000 6.600000 5.280000 240 241 240 0
31.680000 6.600000 5.280000 238 242 240 0
31.900000 6.600000 5.280000 238 242 240 0
32.120000 6.600000 5.060000 238 242 240 0
32.340000 6.600000 5.280000 238 242 240 0
32.560000 6.600000 5.280000 238 242 240 0
32.780000 6.600000 6.380000 238 242 240 0
33.000000 6.600000 5.280000 238 242 240 0
33.220000 6.600000 5.280000 237 241 239 0
33.440000 6.600000 6.160000 236 240 238 0
33.660000 6.600000 5.940000 234 238 236 0
33.880000 6.600000 7.040000 214 243 242 0
34.100000 6.600000 7.040000 211 240 239 0
34.320000 6.600000 7.040000 201 242 241 0
34.540000 6.600000 5.720000 199 240 239 0
34.760000 6.600000 5.720000 199 240 239 0
34.980000 6.600000 5.720000 199 240 239 0
35.200000 6.600000 5.720000 199 240 239 0
35.420000 6.600000 5.720000 200 241 240 0
35.640000 6.600000 5.720000 211 240 239 0
35.860000 6.600000 7.260000 213 242 241 0
36.080000 6.600000 5.940000 231 236 235 0
36.300000 6.600000 6.380000 234 239 238 0
36.520000 6.600000 5.280000 239 240 239 0
36.740000 6.600000 5.280000 240 241 240 0
36.960000 6.600000 5.060000 240 241 240 0
37.180000 6.600000 6.160000 240 241 240 0
0.000000 6.820000 38.280000 192 211 221 0
0.220000 6.820000 39.160000 194 213 223 0
0.440000 6.820000 40.260000 192 214 225 0
0.660000 6.820000 41.580000 193 215 226 0
0.880000 6.820000 41.580000 189 214 231 0
1.100000 6.820000 40.260000 188 213 230 0
1.320000 6.820000 26.400000 189 207 224 0
1.540000 6.820000 8.360000 186 204 221 0
1.760000 6.820000 0.220000 193 187 208 0
1.980000 6.820000 0.440000 185 179 200 0
2.200000 6.820000 0.660000 194 158 179 0
3.300000 6.820000 0.880000 181 181 200 0
3.520000 6.820000 0.880000 178 196 213 0
3.740000 6.820000 0.880000 182 200 217 0
3.960000 6.820000 3.080000 174 209 232 0
4.180000 6.820000 2.860000 177 212 235 0
4.400000 6.820000 4.180000 168 226 233 0
4.620000 6.820000 4.180000 172 230 237 0
4.840000 6.820000 4.180000 173 234 237 0
5.060000 6.820000 4.400000 175 236 239 0
5.280000 6.820000 4.400000 180 238 237 0
5.500000 6.820000 4.180000 182 240 239 0
5.720000 6.820000 4.180000 178 241 241 0
5.940000 6.820000 4.180000 178 241 241 0
6.160000 6.820000 4.180000 179 241 241 0
6.380000 6.820000 4.180000 179 241 241 0
6.600000 6.820000 4.180000 190 239 238 0
6.820000 6.820000 4.400000 191 240 239 0
7.040000 6.820000 4.400000 200 240 237 0
7.260000 6.820000 4.400000 201 241 238 0
7.480000 6.820000 4.400000 209 239 236 0
7.700000 6.820000 4.400000 210 240 237 0
7.920000 6.820000 4.400000 215 240 239 0
8.140000 6.820000 4.400000 215 240 239 0
8.360000 6.820000 4.400000 222 240 239 0
8.580000 6.820000 4.620000 222 240 239 0
8.800000 6.820000 4.840000 224 239 237 0
9.020000 6.820000 4.840000 224 239 237 0
9.240000 6.820000 4.840000 216 241 240 0
9.460000 6.820000 4.840000 216 241 240 0
9.680000 6.820000 5.060000 215 240 239 0
9.900000 6.820000 3.740000 215 240 239 0
10.120000 6.820000 3.960000 222 237 235 0
10.340000 6.820000 3.960000 225 240 238 0
10.560000 6.820000 3.960000 234 239 238 0
10.780000 6.820000 3.960000 235 240 239 0
11.000000 6.820000 5.500000 233 241 239 0
11.220000 6.820000 5.280000 232 240 238 0
11.440000 6.820000 5.280000 221 242 242 0
11.660000 6.820000 5.280000 220 241 241 0
11.880000 6.820000 5.060000 214 242 241 0
12.100000 6.820000 7.480000 213 241 240 0
12.320000 6.820000 7.260000 191 245 243 0
12.540000 6.820000 8.360000 188 242 240 0
12.760000 6.820000 8.360000 190 231 246 0
12.980000 6.820000 8.360000 182 223 238 0
13.200000 6.820000 8.580000 207 196 225 0
13.420000 6.820000 9.900000 194 183 212 0
13.640000 6.820000 9.900000 196 176 208 0
13.860000 6.820000 9.900000 195 175 207 0
14.080000 6.820000 8.580000 164 189 207 0
14.300000 6.820000 8.800000 190 215 233 0
14.520000 6.820000 8.580000 194 235 250 0
14.740000 6.820000 8.580000 185 226 241 0
14.960000 6.820000 8.580000 211 222 245 0
15.180000 6.820000 8.580000 198 209 232 0
15.400000 6.820000 9.900000 192 189 213 0
15.620000 6.820000 9.900000 197 194 218 0
15.840000 6.820000 8.580000 191 211 230 0
16.060000 6.820000 8.580000 198 218 237 0
16.280000 6.820000 8.580000 203 234 234 0
16.500000 6.820000 8.580000 209 240 240 0
16.720000 6.820000 8.580000 231 234 234 0
16.940000 6.820000 8.580000 236 239 239 0
17.160000 6.820000 7.480000 240 241 240 0
17.380000 6.820000 6.600000 240 241 240 0
17.600000 6.820000 6.820000 240 241 240 0
17.820000 6.820000 6.820000 240 241 240 0
18.040000 6.820000 6.820000 238 242 240 0
18.260000 6.820000 6.820000 238 242 240 0
18.480000 6.820000 5.280000 238 242 240 0
18.700000 6.820000 5.280000 238 242 240 0
18.920000 6.820000 5.280000 240 241 240 0
19.140000 6.820000 5.280000 240 241 240 0
19.360000 6.820000 5.280000 240 241 240 0
19.580000 6.820000 5.500000 240 241 240 0
19.800000 6.820000 5.500000 240 241 240 0
20.020000 6.820000 6.820000 240 241 240 0
20.240000 6.820000 6.600000 240 241 240 0
20.460000 6.820000 6.380000 240 241 240 0
20.680000 6.820000 6.600000 240 241 240 0
20.900000 6.820000 5.500000 240 241 240 0
21.120000 6.820000 5.500000 240 241 240 0
21.340000 6.820000 5.500000 240 241 240 0
21.560000 6.820000 6.820000 240 241 240 0
21.780000 6.820000 5.500000 240 241 240 0
22.000000 6.820000 6.600000 240 241 240 0
22.220000 6.820000 6.380000 240 241 240 0
22.440000 6.820000 6.380000 240 241 240 0
22.660000 6.820000 6.600000 240 241 240 0
22.880000 6.820000 6.380000 240 241 240 0
23.100000 6.820000 6.380000 240 241 240 0
23.320000 6.820000 5.280000 240 241 240 0
23.540000 6.820000 5.500000 240 241 240 0
23.760000 6.820000 5.500000 240 241 240 0
23.980000 6.820000 5.500000 240 241 240 0
24.200000 6.820000 5.500000 240 241 240 0
24.420000 6.820000 5.500000 240 241 240 0
24.640000 6.820000 5.500000 240 241 240 0
24.860000 6.820000 5.280000 240 241 240 0
25.080000 6.820000 6.600000 240 241 240 0
25.300000 6.820000 6.160000 240 241 240 0
25.520000 6.820000 7.260000 240 241 240 0
25.740000 6.820000 7.260000 240 241 240 0
25.960000 6.820000 7.480000 240 241 240 0
26.180000 6.820000 7.260000 240 241 240 0
26.400000 6.820000 8.360000 240 241 240 0
26.620000 6.820000 8.360000 240 241 240 0
26.840000 6.820000 8.360000 240 241 240 0
27.060000 6.820000 7.260000 240 241 240 0
27.280000 6.820000 6.380000 240 241 240 0
27.500000 6.820000 6.380000 240 241 240 0
27.720000 6.820000 6.380000 240 241 240 0
27.940000 6.820000 5.060000 240 241 240 0
28.160000 6.820000 5.280000 240 241 240 0
28.380000 6.820000 5.060000 240 241 240 0
28.600000 6.820000 7.480000 236 241 240 0
28.820000 6.820000 7.040000 233 238 237 0
29.040000 6.820000 7.260000 214 242 240 0
29.260000 6.820000 7.040000 212 240 238 0
29.480000 6.820000 7.260000 214 238 237 0
29.700000 6.820000 6.160000 216 240 239 0
29.920000 6.820000 5.060000 235 239 237 0
30.140000 6.820000 6.380000 237 241 239 0
30.360000 6.820000 6.160000 238 242 240 0
30.580000 6.820000 5.280000 238 242 240 0
30.800000 6.820000 5.500000 240 241 240 0
31.020000 6.820000 5.500000 240 241 240 0
31.240000 6.820000 5.500000 240 241 240 0
31.460000 6.820000 4.180000 240 241 240 0
31.680000 6.820000 3.960000 238 242 240 0
31.900000 6.820000 3.960000 238 242 240 0
32.120000 6.820000 5.280000 238 242 240 0
32.340000 6.820000 3.960000 238 242 240 0
32.560000 6.820000 5.280000 238 242 240 0
32.780000 6.820000 6.380000 238 242 240 0
33.000000 6.820000 5.060000 238 242 240 0
33.220000 6.820000 5.060000 238 242 240 0
33.440000 6.820000 6.160000 237 241 239 0
33.660000 6.820000 5.940000 236 240 238 0
33.880000 6.820000 7.040000 216 245 244 0
34.100000 6.820000 7.040000 212 241 240 0
34.320000 6.820000 5.720000 201 242 241 0
34.540000 6.820000 5.940000 199 240 239 0
34.760000 6.820000 5.720000 199 240 239 0
34.980000 6.820000 5.720000 199 240 239 0
35.200000 6.820000 5.720000 199 240 239 0
35.420000 6.820000 5.720000 199 240 239 0
35.640000 6.820000 5.940000 209 238 237 0
35.860000 6.820000 5.940000 212 241 240 0
36.080000 6.820000 5.940000 231 236 235 0
36.300000 6.820000 6.160000 234 239 238 0
36.520000 6.820000 5.060000 239 240 239 0
36.740000 6.820000 5.500000 240 241 240 0
36.960000 6.820000 5.280000 240 241 240 0
37.180000 6.820000 5.280000 240 241 240 0
0.000000 7.040000 37.840000 200 207 210 0
0.220000 7.040000 38.940000 200 207 210 0
0.440000 7.040000 40.040000 202 207 208 0
0.660000 7.040000 40.260000 203 208 209 0
0.880000 7.040000 41.580000 206 204 212 0
1.100000 7.040000 41.580000 203 201 209 0
1.320000 7.040000 31.900000 211 190 204 0
1.540000 7.040000 9.900000 206 185 199 0
1.760000 7.040000 0.440000 211 169 176 0
3.520000 7.040000 0.880000 185 186 201 0
3.740000 7.040000 0.880000 191 192 207 0
3.960000 7.040000 1.980000 185 203 218 0
4.180000 7.040000 2.860000 190 208 223 0
4.400000 7.040000 2.860000 184 214 233 0
4.620000 7.040000 4.180000 188 218 237 0
4.840000 7.040000 4.180000 187 224 238 0
5.060000 7.040000 4.180000 189 226 240 0
5.280000 7.040000 4.180000 185 233 240 0
5.500000 7.040000 4.180000 186 234 241 0
5.720000 7.040000 4.180000 184 237 238 0
5.940000 7.040000 4.180000 183 236 237 0
6.160000 7.040000 4.180000 188 236 235 0
6.380000 7.040000 4.180000 188 236 235 0
6.600000 7.040000 4.400000 187 241 239 0
6.820000 7.040000 4.400000 188 242 240 0
7.040000 7.040000 4.400000 195 238 239 0
7.260000 7.040000 4.400000 196 239 240 0
7.480000 7.040000 4.400000 198 241 242 0
7.700000 7.040000 4.400000 199 242 243 0
7.920000 7.040000 4.620000 203 242 242 0
8.140000 7.040000 4.620000 205 244 244 0
8.360000 7.040000 4.620000 204 245 244 0
8.580000 7.040000 4.620000 203 244 243 0
8.800000 7.040000 4.620000 203 244 243 0
9.020000 7.040000 4.840000 203 244 243 0
9.240000 7.040000 4.840000 202 243 242 0
9.460000 7.040000 4.840000 202 243 242 0
9.680000 7.040000 5.060000 203 243 240 0
9.900000 7.040000 3.740000 203 243 240 0
10.120000 7.040000 3.960000 207 243 239 0
10.340000 7.040000 3.960000 209 245 241 0
10.560000 7.040000 3.960000 220 241 239 0
10.780000 7.040000 3.960000 222 243 241 0
11.000000 7.040000 5.500000 213 246 246 0
11.220000 7.040000 5.500000 211 244 244 0
11.440000 7.040000 5.500000 205 246 245 0
11.660000 7.040000 5.280000 204 245 244 0
11.880000 7.040000 5.280000 194 245 243 0
12.100000 7.040000 6.160000 193 244 242 0
12.320000 7.040000 8.580000 196 235 248 0
12.540000 7.040000 8.360000 192 231 244 0
12.760000 7.040000 8.360000 218 208 240 0
12.980000 7.040000 9.900000 207 197 229 0
13.200000 7.040000 9.900000 208 178 209 0
13.420000 7.040000 9.900000 200 170 201 0
13.640000 7.040000 9.900000 198 170 203 0
13.860000 7.040000 9.900000 197 169 202 0
14.080000 7.040000 9.900000 168 188 210 0
14.300000 7.040000 8.580000 200 220 242 0
14.520000 7.040000 8.580000 198 225 249 0
14.740000 7.040000 8.580000 199 226 250 0
14.960000 7.040000 8.580000 226 212 243 0
15.180000 7.040000 9.900000 203 189 220 0
15.400000 7.040000 9.900000 189 183 208 0
15.620000 7.040000 9.900000 194 188 213 0
15.840000 7.040000 9.900000 192 209 232 0
16.060000 7.040000 8.580000 199 216 239 0
16.280000 7.040000 8.580000 199 232 234 0
16.500000 7.040000 8.580000 206 239 241 0
16.720000 7.040000 8.580000 225 236 235 0
16.940000 7.040000 8.580000 230 241 240 0
17.160000 7.040000 8.800000 238 242 240 0
17.380000 7.040000 7.920000 238 242 240 0
17.600000 7.040000 6.820000 238 242 240 0
17.820000 7.040000 6.820000 238 242 240 0
18.040000 7.040000 6.820000 240 241 240 0
18.260000 7.040000 6.820000 240 241 240 0
18.480000 7.040000 6.820000 238 242 240 0
18.700000 7.040000 5.280000 238 242 240 0
18.920000 7.040000 5.280000 238 242 240 0
19.140000 7.040000 5.280000 238 242 240 0
19.360000 7.040000 5.280000 238 242 240 0
19.580000 7.040000 6.820000 238 242 240 0
19.800000 7.040000 6.820000 240 241 240 0
20.020000 7.040000 6.820000 240 241 240 0
20.240000 7.040000 6.820000 238 242 240 0
20.460000 7.040000 6.600000 238 242 240 0
20.680000 7.040000 6.600000 240 241 240 0
20.900000 7.040000 5.500000 240 241 240 0
21.120000 7.040000 6.820000 238 242 240 0
21.340000 7.040000 6.820000 238 242 240 0
21.560000 7.040000 6.820000 240 241 240 0
21.780000 7.040000 6.820000 240 241 240 0
22.000000 7.040000 6.820000 240 241 240 0
22.220000 7.040000 6.600000 240 241 240 0
22.440000 7.040000 5.280000 240 241 240 0
22.660000 7.040000 5.500000 240 241 240 0
22.880000 7.040000 5.280000 238 242 240 0
23.100000 7.040000 6.600000 238 242 240 0
23.320000 7.040000 5.280000 240 241 240 0
23.540000 7.040000 5.500000 240 241 240 0
23.760000 7.040000 5.500000 240 241 240 0
23.980000 7.040000 5.500000 240 241 240 0
24.200000 7.040000 5.500000 240 241 240 0
24.420000 7.040000 5.500000 240 241 240 0
24.640000 7.040000 5.500000 238 242 240 0
24.860000 7.040000 6.600000 238 242 240 0
25.080000 7.040000 6.600000 240 241 240 0
25.300000 7.040000 6.380000 240 241 240 0
25.520000 7.040000 7.480000 240 241 240 0
25.740000 7.040000 7.480000 240 241 240 0
25.960000 7.040000 6.600000 240 241 240 0
26.180000 7.040000 6.380000 240 241 240 0
26.400000 7.040000 7.480000 238 242 240 0
26.620000 7.040000 7.260000 238 242 240 0
26.840000 7.040000 7.040000 240 241 240 0
27.060000 7.040000 7.480000 240 241 240 0
27.280000 7.040000 6.380000 240 241 240 0
27.500000 7.040000 5.060000 240 241 240 0
27.720000 7.040000 5.280000 240 241 240 0
27.940000 7.040000 5.500000 240 241 240 0
28.160000 7.040000 5.500000 228 246 245 0
28.380000 7.040000 6.380000 227 245 244 0
28.600000 7.040000 7.260000 209 247 247 0
28.820000 7.040000 7.040000 205 243 243 0
29.040000 7.040000 7.040000 201 240 240 0
29.260000 7.040000 5.940000 200 239 239 0
29.480000 7.040000 6.380000 210 238 237 0
29.700000 7.040000 5.280000 214 242 241 0
29.920000 7.040000 5.280000 238 239 238 0
30.140000 7.040000 5.280000 240 241 240 0
30.360000 7.040000 5.280000 240 241 240 0
30.580000 7.040000 5.280000 240 241 240 0
30.800000 7.040000 5.500000 238 242 240 0
31.020000 7.040000 5.500000 238 242 240 0
31.240000 7.040000 5.500000 240 241 240 0
31.460000 7.040000 5.500000 240 241 240 0
31.680000 7.040000 3.960000 240 241 240 0
31.900000 7.040000 3.960000 240 241 240 0
32.120000 7.040000 3.960000 240 241 240 0
32.340000 7.040000 4.180000 240 241 240 0
32.560000 7.040000 3.960000 238 242 240 0
32.780000 7.040000 5.280000 238 242 240 0
33.000000 7.040000 5.060000 238 242 240 0
33.220000 7.040000 6.160000 238 242 240 0
33.440000 7.040000 5.940000 238 242 240 0
33.660000 7.040000 7.260000 237 241 239 0
33.880000 7.040000 7.040000 236 241 240 0
34.100000 7.040000 7.260000 232 237 236 0
34.320000 7.040000 5.940000 211 240 239 0
34.540000 7.040000 5.940000 209 238 237 0
34.760000 7.040000 5.720000 198 242 240 0
34.980000 7.040000 5.720000 197 241 239 0
35.200000 7.040000 5.720000 199 240 239 0
35.420000 7.040000 5.720000 199 240 239 0
35.640000 7.040000 5.720000 201 241 238 0
35.860000 7.040000 5.720000 202 242 239 0
36.080000 7.040000 5.940000 227 238 237 0
36.300000 7.040000 6.160000 228 239 238 0
36.520000 7.040000 5.280000 236 240 238 0
36.740000 7.040000 5.500000 237 241 239 0
36.960000 7.040000 5.500000 238 242 240 0
37.180000 7.040000 5.500000 238 242 240 0
0.000000 7.260000 38.940000 198 205 208 0
0.220000 7.260000 38.720000 199 206 209 0
0.440000 7.260000 40.260000 202 207 208 0
0.660000 7.260000 40.260000 199 204 205 0
0.880000 7.260000 41.580000 200 198 206 0
1.100000 7.260000 41.580000 195 193 201 0
1.320000 7.260000 31.900000 202 181 195 0
1.540000 7.260000 9.900000 196 175 189 0
3.960000 7.260000 1.980000 182 200 215 0
4.180000 7.260000 2.860000 185 203 218 0
4.400000 7.260000 2.860000 181 211 230 0
4.620000 7.260000 4.180000 185 215 234 0
4.840000 7.260000 4.180000 184 221 235 0
5.060000 7.260000 4.180000 187 224 238 0
5.280000 7.260000 4.180000 183 231 238 0
5.500000 7.260000 4.180000 183 231 238 0
5.720000 7.260000 4.180000 183 236 237 0
5.940000 7.260000 4.180000 185 238 239 0
6.160000 7.260000 4.180000 188 236 235 0
6.380000 7.260000 2.860000 190 238 237 0
6.600000 7.260000 2.860000 186 240 238 0
6.820000 7.260000 2.860000 186 240 238 0
7.040000 7.260000 3.080000 195 238 239 0
7.260000 7.260000 3.080000 196 239 240 0
7.480000 7.260000 3.080000 196 239 240 0
7.700000 7.260000 3.080000 197 240 241 0
7.920000 7.260000 3.080000 199 238 238 0
8.140000 7.260000 3.300000 201 240 240 0
8.360000 7.260000 4.620000 200 241 240 0
8.580000 7.260000 4.620000 200 241 240 0
8.800000 7.260000 3.300000 200 241 240 0
9.020000 7.260000 3.520000 200 241 240 0
9.240000 7.260000 3.520000 200 241 240 0
9.460000 7.260000 3.520000 199 240 239 0
9.680000 7.260000 3.740000 201 241 238 0
9.900000 7.260000 3.740000 202 242 239 0
10.120000 7.260000 3.960000 205 241 237 0
10.340000 7.260000 3.960000 206 242 238 0
10.560000 7.260000 3.960000 218 239 237 0
10.780000 7.260000 3.960000 219 240 238 0
11.000000 7.260000 3.960000 210 243 243 0
11.220000 7.260000 5.500000 208 241 241 0
11.440000 7.260000 5.280000 201 242 241 0
11.660000 7.260000 5.060000 201 242 241 0
11.880000 7.260000 6.380000 192 243 241 0
12.100000 7.260000 7.480000 189 240 238 0
12.320000 7.260000 8.360000 192 231 244 0
12.540000 7.260000 8.360000 187 226 239 0
12.760000 7.260000 9.680000 209 199 231 0
12.980000 7.260000 9.900000 194 184 216 0
13.200000 7.260000 9.900000 200 170 201 0
13.420000 7.260000 9.900000 195 165 196 0
13.640000 7.260000 9.900000 194 166 199 0
13.860000 7.260000 9.900000 195 167 200 0
14.080000 7.260000 9.900000 170 190 212 0
14.300000 7.260000 9.900000 195 215 237 0
14.520000 7.260000 9.900000 187 214 238 0
14.740000 7.260000 9.900000 188 215 239 0
14.960000 7.260000 9.900000 216 202 233 0
15.180000 7.260000 9.900000 194 180 211 0
15.400000 7.260000 9.900000 189 183 208 0
15.620000 7.260000 9.900000 194 188 213 0
15.840000 7.260000 9.900000 189 206 229 0
16.060000 7.260000 9.900000 197 214 237 0
16.280000 7.260000 9.900000 197 230 232 0
16.500000 7.260000 9.900000 205 238 240 0
16.720000 7.260000 9.900000 224 235 234 0
16.940000 7.260000 9.900000 229 240 239 0
17.160000 7.260000 8.580000 237 241 239 0
17.380000 7.260000 7.700000 238 242 240 0
17.600000 7.260000 7.920000 238 242 240 0
17.820000 7.260000 6.820000 238 242 240 0
18.040000 7.260000 8.140000 240 241 240 0
18.260000 7.260000 8.140000 240 241 240 0
18.480000 7.260000 6.820000 238 242 240 0
18.700000 7.260000 6.600000 238 242 240 0
18.920000 7.260000 6.600000 238 242 240 0
19.140000 7.260000 6.820000 238 242 240 0
19.360000 7.260000 6.820000 238 242 240 0
19.580000 7.260000 6.820000 238 242 240 0
19.800000 7.260000 6.820000 240 241 240 0
20.020000 7.260000 6.820000 240 241 240 0
20.240000 7.260000 6.820000 238 242 240 0
20.460000 7.260000 6.820000 238 242 240 0
20.680000 7.260000 6.820000 240 241 240 0
20.900000 7.260000 6.820000 240 241 240 0
21.120000 7.260000 6.820000 238 242 240 0
21.340000 7.260000 6.820000 238 242 240 0
21.560000 7.260000 6.820000 240 241 240 0
21.780000 7.260000 6.820000 240 241 240 0
22.000000 7.260000 6.820000 240 241 240 0
22.220000 7.260000 6.820000 240 241 240 0
22.440000 7.260000 5.500000 240 241 240 0
22.660000 7.260000 5.500000 240 241 240 0
22.880000 7.260000 5.500000 238 242 240 0
23.100000 7.260000 5.500000 238 242 240 0
23.320000 7.260000 5.500000 240 241 240 0
23.540000 7.260000 5.500000 240 241 240 0
23.760000 7.260000 5.500000 240 241 240 0
23.980000 7.260000 5.500000 240 241 240 0
24.200000 7.260000 6.820000 240 241 240 0
24.420000 7.260000 6.820000 240 241 240 0
24.640000 7.260000 6.820000 238 242 240 0
24.860000 7.260000 6.820000 238 242 240 0
25.080000 7.260000 6.600000 240 241 240 0
25.300000 7.260000 6.600000 240 241 240 0
25.520000 7.260000 6.600000 240 241 240 0
25.740000 7.260000 6.600000 240 241 240 0
25.960000 7.260000 5.280000 240 241 240 0
26.180000 7.260000 5.500000 240 241 240 0
26.400000 7.260000 6.600000 238 242 240 0
26.620000 7.260000 6.380000 238 242 240 0
26.840000 7.260000 6.160000 240 241 240 0
27.060000 7.260000 6.380000 240 241 240 0
27.280000 7.260000 5.280000 240 241 240 0
27.500000 7.260000 6.600000 240 241 240 0
27.720000 7.260000 5.280000 240 241 240 0
27.940000 7.260000 5.280000 240 241 240 0
28.160000 7.260000 5.060000 226 244 243 0
28.380000 7.260000 6.160000 222 240 239 0
28.600000 7.260000 7.260000 203 241 241 0
28.820000 7.260000 7.260000 199 237 237 0
29.040000 7.260000 7.260000 196 235 235 0
29.260000 7.260000 6.160000 198 237 237 0
29.480000 7.260000 5.060000 209 237 236 0
29.700000 7.260000 5.280000 214 242 241 0
29.920000 7.260000 5.500000 238 239 238 0
30.140000 7.260000 5.500000 240 241 240 0
30.360000 7.260000 5.500000 240 241 240 0
30.580000 7.260000 5.500000 240 241 240 0
30.800000 7.260000 5.500000 238 242 240 0
31.020000 7.260000 5.500000 238 242 240 0
31.240000 7.260000 5.500000 240 241 240 0
31.460000 7.260000 5.500000 240 241 240 0
31.680000 7.260000 5.500000 240 241 240 0
31.900000 7.260000 3.960000 240 241 240 0
32.120000 7.260000 3.960000 240 241 240 0
32.340000 7.260000 3.960000 240 241 240 0
32.560000 7.260000 3.960000 238 242 240 0
32.780000 7.260000 4.180000 238 242 240 0
33.000000 7.260000 5.280000 238 242 240 0
33.220000 7.260000 6.160000 238 242 240 0
33.440000 7.260000 7.260000 238 242 240 0
33.660000 7.260000 7.260000 238 242 240 0
33.880000 7.260000 7.260000 236 241 240 0
34.100000 7.260000 7.260000 234 239 238 0
34.320000 7.260000 5.940000 214 243 242 0
34.540000 7.260000 7.260000 211 240 239 0
34.760000 7.260000 7.040000 199 243 241 0
34.980000 7.260000 7.040000 197 241 239 0
35.200000 7.260000 5.720000 199 240 239 0
35.420000 7.260000 5.720000 200 241 240 0
35.640000 7.260000 5.720000 201 241 238 0
35.860000 7.260000 5.720000 202 242 239 0
36.080000 7.260000 5.940000 225 236 235 0
36.300000 7.260000 5.060000 228 239 238 0
36.520000 7.260000 5.280000 236 240 238 0
36.740000 7.260000 5.500000 237 241 239 0
36.960000 7.260000 5.500000 238 242 240 0
37.180000 7.260000 5.500000 238 242 240 0
0.000000 7.480000 38.720000 205 203 201 0
0.220000 7.480000 38.720000 204 202 200 0
0.440000 7.480000 40.260000 204 199 200 0
0.660000 7.480000 40.260000 202 197 198 0
0.880000 7.480000 41.580000 209 186 193 0
1.100000 7.480000 41.580000 202 179 186 0
1.320000 7.480000 32.120000 211 163 172 0
1.540000 7.480000 10.120000 204 156 165 0
3.960000 7.480000 1.980000 193 192 195 0
4.180000 7.480000 2.860000 198 197 200 0
4.400000 7.480000 2.860000 195 203 213 0
4.620000 7.480000 2.860000 198 206 216 0
4.840000 7.480000 2.860000 196 211 225 0
5.060000 7.480000 2.860000 200 215 229 0
5.280000 7.480000 2.860000 198 221 236 0
5.500000 7.480000 2.860000 198 221 236 0
5.720000 7.480000 2.860000 196 225 238 0
5.940000 7.480000 2.860000 199 228 241 0
6.160000 7.480000 2.860000 199 228 239 0
6.380000 7.480000 2.860000 199 228 239 0
6.600000 7.480000 2.860000 196 233 237 0
6.820000 7.480000 2.860000 198 235 239 0
7.040000 7.480000 3.080000 197 238 239 0
7.260000 7.480000 3.080000 197 238 239 0
7.480000 7.480000 3.080000 199 240 241 0
7.700000 7.480000 3.080000 199 240 241 0
7.920000 7.480000 3.080000 196 239 240 0
8.140000 7.480000 3.300000 196 239 240 0
8.360000 7.480000 3.300000 199 238 240 0
8.580000 7.480000 3.300000 200 239 241 0
8.800000 7.480000 3.300000 196 239 240 0
9.020000 7.480000 3.520000 197 240 241 0
9.240000 7.480000 3.520000 199 240 239 0
9.460000 7.480000 3.520000 199 240 239 0
9.680000 7.480000 3.740000 194 242 241 0
9.900000 7.480000 3.740000 194 242 241 0
10.120000 7.480000 3.740000 200 241 242 0
10.340000 7.480000 3.960000 201 242 243 0
10.560000 7.480000 3.960000 201 242 241 0
10.780000 7.480000 3.960000 202 243 242 0
11.000000 7.480000 3.960000 200 243 244 0
11.220000 7.480000 3.960000 199 242 243 0
11.440000 7.480000 5.280000 189 244 244 0
11.660000 7.480000 5.280000 187 242 242 0
11.880000 7.480000 6.380000 196 235 248 0
12.100000 7.480000 8.580000 193 232 245 0
12.320000 7.480000 8.360000 213 211 243 0
12.540000 7.480000 9.680000 203 201 233 0
12.760000 7.480000 9.900000 216 181 209 0
12.980000 7.480000 9.900000 199 164 192 0
13.200000 7.480000 9.900000 199 162 190 0
13.420000 7.480000 9.900000 198 161 189 0
13.640000 7.480000 9.900000 189 163 193 0
13.860000 7.480000 9.900000 190 164 194 0
14.080000 7.480000 9.900000 185 184 221 0
14.300000 7.480000 9.900000 202 201 238 0
14.520000 7.480000 9.900000 205 200 236 0
14.740000 7.480000 9.900000 207 202 238 0
14.960000 7.480000 9.900000 216 186 217 0
15.180000 7.480000 9.900000 200 170 201 0
15.400000 7.480000 9.900000 195 176 203 0
15.620000 7.480000 9.900000 201 182 209 0
15.840000 7.480000 9.900000 189 200 225 0
16.060000 7.480000 9.900000 199 210 235 0
16.280000 7.480000 9.900000 194 228 232 0
16.500000 7.480000 9.900000 203 237 241 0
16.720000 7.480000 9.900000 211 239 238 0
16.940000 7.480000 9.680000 215 243 242 0
17.160000 7.480000 9.900000 237 241 239 0
17.380000 7.480000 8.800000 238 242 240 0
17.600000 7.480000 7.700000 240 241 240 0
17.820000 7.480000 8.140000 240 241 240 0
18.040000 7.480000 8.140000 240 241 240 0
18.260000 7.480000 8.140000 240 241 240 0
18.480000 7.480000 6.820000 240 241 240 0
18.700000 7.480000 6.820000 240 241 240 0
18.920000 7.480000 6.820000 240 241 240 0
19.140000 7.480000 8.140000 240 241 240 0
19.360000 7.480000 8.140000 240 241 240 0
19.580000 7.480000 8.140000 240 241 240 0
19.800000 7.480000 8.140000 240 241 240 0
20.020000 7.480000 8.140000 240 241 240 0
20.240000 7.480000 8.140000 240 241 240 0
20.460000 7.480000 8.140000 240 241 240 0
20.680000 7.480000 8.140000 240 241 240 0
20.900000 7.480000 8.140000 240 241 240 0
21.120000 7.480000 8.140000 240 241 240 0
21.340000 7.480000 8.140000 240 241 240 0
21.560000 7.480000 8.140000 240 241 240 0
21.780000 7.480000 8.140000 240 241 240 0
22.000000 7.480000 6.820000 240 241 240 0
22.220000 7.480000 6.820000 240 241 240 0
22.440000 7.480000 6.820000 240 241 240 0
22.660000 7.480000 6.820000 240 241 240 0
22.880000 7.480000 6.820000 240 241 240 0
23.100000 7.480000 6.820000 240 241 240 0
23.320000 7.480000 6.820000 240 241 240 0
23.540000 7.480000 6.820000 240 241 240 0
23.760000 7.480000 6.820000 240 241 240 0
23.980000 7.480000 6.820000 240 241 240 0
24.200000 7.480000 6.820000 240 241 240 0
24.420000 7.480000 6.820000 240 241 240 0
24.640000 7.480000 6.820000 240 241 240 0
24.860000 7.480000 6.820000 240 241 240 0
25.080000 7.480000 5.500000 240 241 240 0
25.300000 7.480000 5.500000 240 241 240 0
25.520000 7.480000 5.500000 240 241 240 0
25.740000 7.480000 5.500000 240 241 240 0
25.960000 7.480000 5.500000 240 241 240 0
26.180000 7.480000 5.500000 240 241 240 0
26.400000 7.480000 5.500000 240 241 240 0
26.620000 7.480000 5.500000 240 241 240 0
26.840000 7.480000 6.600000 240 241 240 0
27.060000 7.480000 6.600000 240 241 240 0
27.280000 7.480000 5.280000 240 241 240 0
27.500000 7.480000 5.280000 240 241 240 0
27.720000 7.480000 5.280000 221 249 248 0
27.940000 7.480000 5.060000 219 247 246 0
28.160000 7.480000 6.380000 213 240 252 0
28.380000 7.480000 7.260000 208 235 247 0
28.600000 7.480000 7.040000 201 225 246 0
28.820000 7.480000 7.260000 197 221 242 0
29.040000 7.480000 7.260000 193 227 231 0
29.260000 7.480000 7.260000 202 236 240 0
29.480000 7.480000 6.160000 212 236 235 0
29.700000 7.480000 5.280000 217 241 240 0
29.920000 7.480000 5.500000 239 240 239 0
30.140000 7.480000 5.500000 240 241 240 0
30.360000 7.480000 5.500000 240 241 240 0
30.580000 7.480000 5.500000 240 241 240 0
30.800000 7.480000 5.500000 238 242 240 0
31.020000 7.480000 5.500000 238 242 240 0
31.240000 7.480000 5.500000 240 241 240 0
31.460000 7.480000 5.500000 240 241 240 0
31.680000 7.480000 3.960000 240 241 240 0
31.900000 7.480000 3.960000 240 241 240 0
32.120000 7.480000 3.960000 238 242 240 0
32.340000 7.480000 3.960000 238 242 240 0
32.560000 7.480000 5.500000 240 241 240 0
32.780000 7.480000 5.500000 240 241 240 0
33.000000 7.480000 5.280000 240 241 240 0
33.220000 7.480000 6.380000 240 241 240 0
33.440000 7.480000 6.160000 240 241 240 0
33.660000 7.480000 6.380000 240 241 240 0
33.880000 7.480000 6.160000 238 242 240 0
34.100000 7.480000 5.940000 237 241 239 0
34.320000 7.480000 5.940000 231 239 237 0
34.540000 7.480000 5.940000 229 237 235 0
34.760000 7.480000 7.040000 211 240 239 0
34.980000 7.480000 7.040000 210 239 238 0
35.200000 7.480000 7.040000 204 239 238 0
35.420000 7.480000 5.720000 204 239 238 0
35.640000 7.480000 5.720000 205 238 238 0
35.860000 7.480000 5.720000 206 239 239 0
36.080000 7.480000 5.940000 221 236 234 0
36.300000 7.480000 5.060000 225 240 238 0
36.520000 7.480000 5.280000 238 239 238 0
36.740000 7.480000 5.500000 240 241 240 0
36.960000 7.480000 5.280000 240 241 240 0
37.180000 7.480000 5.280000 240 241 240 0
0.000000 7.700000 38.720000 203 201 199 0
0.220000 7.700000 38.720000 203 201 199 0
0.440000 7.700000 40.260000 202 197 198 0
0.660000 7.700000 40.260000 198 193 194 0
0.880000 7.700000 41.580000 202 179 186 0
1.100000 7.700000 38.940000 193 170 177 0
1.320000 7.700000 26.620000 202 154 163 0
1.540000 7.700000 7.480000 194 146 155 0
3.960000 7.700000 1.760000 190 189 192 0
4.180000 7.700000 2.860000 196 195 198 0
4.400000 7.700000 2.860000 192 200 210 0
4.620000 7.700000 2.860000 196 204 214 0
4.840000 7.700000 2.860000 194 209 223 0
5.060000 7.700000 2.860000 196 211 225 0
5.280000 7.700000 2.860000 194 217 232 0
5.500000 7.700000 2.860000 196 219 234 0
5.720000 7.700000 2.860000 193 222 235 0
5.940000 7.700000 2.860000 195 224 237 0
6.160000 7.700000 2.860000 197 226 237 0
6.380000 7.700000 2.860000 197 226 237 0
6.600000 7.700000 2.860000 195 232 236 0
6.820000 7.700000 2.860000 196 233 237 0
7.040000 7.700000 3.080000 195 236 237 0
7.260000 7.700000 3.080000 196 237 238 0
7.480000 7.700000 3.080000 197 238 239 0
7.700000 7.700000 3.080000 198 239 240 0
7.920000 7.700000 3.080000 196 239 240 0
8.140000 7.700000 3.300000 197 240 241 0
8.360000 7.700000 3.300000 200 239 241 0
8.580000 7.700000 3.300000 199 238 240 0
8.800000 7.700000 3.300000 195 238 239 0
9.020000 7.700000 3.520000 196 239 240 0
9.240000 7.700000 3.520000 198 239 238 0
9.460000 7.700000 3.740000 198 239 238 0
9.680000 7.700000 3.740000 193 241 240 0
9.900000 7.700000 3.740000 193 241 240 0
10.120000 7.700000 3.740000 199 240 241 0
10.340000 7.700000 3.960000 200 241 242 0
10.560000 7.700000 3.960000 200 241 240 0
10.780000 7.700000 3.960000 200 241 240 0
11.000000 7.700000 3.960000 198 241 242 0
11.220000 7.700000 4.180000 196 239 240 0
11.440000 7.700000 5.500000 186 241 241 0
11.660000 7.700000 6.380000 184 239 239 0
11.880000 7.700000 7.260000 192 231 244 0
12.100000 7.700000 8.360000 187 226 239 0
12.320000 7.700000 9.680000 205 203 235 0
12.540000 7.700000 9.900000 192 190 222 0
12.760000 7.700000 9.900000 201 166 194 0
12.980000 7.700000 9.900000 194 159 187 0
13.200000 7.700000 9.900000 195 158 186 0
13.420000 7.700000 11.220000 195 158 186 0
13.640000 7.700000 11.220000 189 163 193 0
13.860000 7.700000 11.220000 191 165 195 0
14.080000 7.700000 11.220000 185 184 221 0
14.300000 7.700000 9.900000 196 195 232 0
14.520000 7.700000 9.900000 200 195 231 0
14.740000 7.700000 9.900000 199 194 230 0
14.960000 7.700000 9.900000 203 173 204 0
15.180000 7.700000 9.900000 195 165 196 0
15.400000 7.700000 9.900000 192 173 200 0
15.620000 7.700000 9.900000 197 178 205 0
15.840000 7.700000 9.900000 186 197 222 0
16.060000 7.700000 9.900000 197 208 233 0
16.280000 7.700000 10.120000 191 225 229 0
16.500000 7.700000 10.120000 200 234 238 0
16.720000 7.700000 9.900000 210 238 237 0
16.940000 7.700000 9.680000 213 241 240 0
17.160000 7.700000 9.900000 234 238 236 0
17.380000 7.700000 8.800000 236 240 238 0
17.600000 7.700000 9.020000 240 241 240 0
17.820000 7.700000 7.920000 240 241 240 0
18.040000 7.700000 8.140000 240 241 240 0
18.260000 7.700000 8.140000 240 241 240 0
18.480000 7.700000 8.140000 240 241 240 0
18.700000 7.700000 8.140000 240 241 240 0
18.920000 7.700000 8.140000 240 241 240 0
19.140000 7.700000 8.140000 240 241 240 0
19.360000 7.700000 8.140000 240 241 240 0
19.580000 7.700000 9.460000 240 241 240 0
19.800000 7.700000 9.460000 240 241 240 0
20.020000 7.700000 9.460000 240 241 240 0
20.240000 7.700000 9.460000 240 241 240 0
20.460000 7.700000 9.460000 240 241 240 0
20.680000 7.700000 9.460000 240 241 240 0
20.900000 7.700000 8.140000 240 241 240 0
21.120000 7.700000 8.140000 240 241 240 0
21.340000 7.700000 9.460000 240 241 240 0
21.560000 7.700000 9.460000 240 241 240 0
21.780000 7.700000 8.140000 240 241 240 0
22.000000 7.700000 8.140000 240 241 240 0
22.220000 7.700000 8.140000 240 241 240 0
22.440000 7.700000 8.140000 240 241 240 0
22.660000 7.700000 8.140000 240 241 240 0
22.880000 7.700000 6.820000 240 241 240 0
23.100000 7.700000 6.820000 240 241 240 0
23.320000 7.700000 6.820000 240 241 240 0
23.540000 7.700000 6.820000 240 241 240 0
23.760000 7.700000 6.820000 240 241 240 0
23.980000 7.700000 8.140000 240 241 240 0
24.200000 7.700000 8.140000 240 241 240 0
24.420000 7.700000 8.140000 240 241 240 0
24.640000 7.700000 6.820000 240 241 240 0
24.860000 7.700000 6.820000 240 241 240 0
25.080000 7.700000 6.820000 240 241 240 0
25.300000 7.700000 6.820000 240 241 240 0
25.520000 7.700000 6.820000 240 241 240 0
25.740000 7.700000 6.820000 240 241 240 0
25.960000 7.700000 6.820000 240 241 240 0
26.180000 7.700000 5.500000 240 241 240 0
26.400000 7.700000 5.500000 240 241 240 0
26.620000 7.700000 5.500000 240 241 240 0
26.840000 7.700000 6.600000 240 241 240 0
27.060000 7.700000 6.380000 240 241 240 0
27.280000 7.700000 6.600000 240 241 240 0
27.500000 7.700000 5.280000 239 240 239 0
27.720000 7.700000 5.060000 217 245 244 0
27.940000 7.700000 6.380000 213 241 240 0
28.160000 7.700000 6.160000 206 233 245 0
28.380000 7.700000 7.260000 198 225 237 0
28.600000 7.700000 7.040000 188 212 233 0
28.820000 7.700000 7.040000 187 211 232 0
29.040000 7.700000 7.040000 193 227 231 0
29.260000 7.700000 7.260000 202 236 240 0
29.480000 7.700000 6.380000 212 236 235 0
29.700000 7.700000 5.280000 218 242 241 0
29.920000 7.700000 5.500000 239 240 239 0
30.140000 7.700000 5.500000 240 241 240 0
30.360000 7.700000 5.500000 240 241 240 0
30.580000 7.700000 5.500000 240 241 240 0
30.800000 7.700000 5.280000 238 242 240 0
31.020000 7.700000 5.280000 238 242 240 0
31.240000 7.700000 5.280000 240 241 240 0
31.460000 7.700000 3.960000 240 241 240 0
31.680000 7.700000 3.960000 240 241 240 0
31.900000 7.700000 3.960000 240 241 240 0
32.120000 7.700000 3.960000 238 242 240 0
32.340000 7.700000 3.960000 238 242 240 0
32.560000 7.700000 5.280000 240 241 240 0
32.780000 7.700000 5.500000 240 241 240 0
33.000000 7.700000 5.500000 240 241 240 0
33.220000 7.700000 5.280000 240 241 240 0
33.440000 7.700000 5.280000 240 241 240 0
33.660000 7.700000 5.280000 240 241 240 0
33.880000 7.700000 5.060000 238 242 240 0
34.100000 7.700000 5.940000 238 242 240 0
34.320000 7.700000 5.940000 234 242 240 0
34.540000 7.700000 5.940000 231 239 237 0
34.760000 7.700000 5.940000 214 243 242 0
34.980000 7.700000 7.260000 211 240 239 0
35.200000 7.700000 7.040000 206 241 240 0
35.420000 7.700000 7.040000 205 240 239 0
35.640000 7.700000 5.720000 206 239 239 0
35.860000 7.700000 5.720000 207 240 240 0
36.080000 7.700000 5.720000 220 235 233 0
36.300000 7.700000 6.160000 224 239 237 0
36.520000 7.700000 5.060000 239 240 239 0
36.740000 7.700000 5.280000 240 241 240 0
36.960000 7.700000 5.280000 240 241 240 0
37.180000 7.700000 5.280000 240 241 240 0
0.000000 7.920000 38.720000 205 201 197 0
0.220000 7.920000 38.720000 203 199 195 0
0.440000 7.920000 40.260000 211 188 191 0
0.660000 7.920000 40.260000 203 180 183 0
0.880000 7.920000 41.580000 215 164 166 0
1.100000 7.920000 33.440000 204 153 155 0
1.320000 7.920000 15.620000 202 139 145 0
1.540000 7.920000 2.200000 199 136 142 0
3.960000 7.920000 1.760000 194 185 187 0
4.180000 7.920000 2.860000 199 190 192 0
4.400000 7.920000 2.860000 196 197 197 0
4.620000 7.920000 2.860000 199 200 200 0
4.840000 7.920000 2.860000 200 203 205 0
5.060000 7.920000 2.860000 204 207 209 0
5.280000 7.920000 2.860000 201 209 215 0
5.500000 7.920000 2.860000 205 213 219 0
5.720000 7.920000 2.860000 201 215 223 0
5.940000 7.920000 2.860000 203 217 225 0
6.160000 7.920000 2.860000 201 219 226 0
6.380000 7.920000 1.540000 203 221 228 0
6.600000 7.920000 1.540000 202 225 230 0
6.820000 7.920000 1.540000 203 226 231 0
7.040000 7.920000 1.540000 203 227 235 0
7.260000 7.920000 1.760000 204 228 236 0
7.480000 7.920000 1.760000 202 232 238 0
7.700000 7.920000 3.080000 202 232 238 0
7.920000 7.920000 3.080000 203 231 240 0
8.140000 7.920000 3.300000 204 232 241 0
8.360000 7.920000 3.300000 203 233 238 0
8.580000 7.920000 3.300000 202 232 237 0
8.800000 7.920000 3.520000 203 233 239 0
9.020000 7.920000 3.520000 204 234 240 0
9.240000 7.920000 3.520000 199 236 240 0
9.460000 7.920000 3.740000 199 236 240 0
9.680000 7.920000 3.740000 201 235 240 0
9.900000 7.920000 3.740000 202 236 241 0
10.120000 7.920000 3.740000 202 236 240 0
10.340000 7.920000 3.960000 202 236 240 0
10.560000 7.920000 3.960000 203 235 241 0
10.780000 7.920000 3.960000 202 234 240 0
11.000000 7.920000 3.960000 199 236 240 0
11.220000 7.920000 4.180000 199 236 240 0
11.440000 7.920000 5.280000 201 229 248 0
11.660000 7.920000 7.480000 199 227 246 0
11.880000 7.920000 8.360000 215 210 235 0
12.100000 7.920000 9.680000 208 203 228 0
12.320000 7.920000 9.680000 223 183 205 0
12.540000 7.920000 9.900000 205 165 187 0
12.760000 7.920000 9.900000 200 158 177 0
12.980000 7.920000 9.900000 199 157 176 0
13.200000 7.920000 11.220000 195 155 177 0
13.420000 7.920000 11.220000 197 157 179 0
13.640000 7.920000 11.220000 192 161 188 0
13.860000 7.920000 11.220000 194 163 190 0
14.080000 7.920000 11.220000 199 182 213 0
14.300000 7.920000 9.900000 200 183 214 0
14.520000 7.920000 10.120000 200 185 211 0
14.740000 7.920000 9.900000 200 185 211 0
14.960000 7.920000 11.220000 207 168 192 0
15.180000 7.920000 11.220000 200 161 185 0
15.400000 7.920000 11.220000 196 166 195 0
15.620000 7.920000 11.220000 200 170 199 0
15.840000 7.920000 9.900000 192 189 211 0
16.060000 7.920000 10.120000 203 200 222 0
16.280000 7.920000 10.340000 195 217 235 0
16.500000 7.920000 10.120000 204 226 244 0
16.720000 7.920000 9.900000 204 237 239 0
16.940000 7.920000 9.900000 207 240 242 0
17.160000 7.920000 9.900000 212 241 240 0
17.380000 7.920000 10.120000 216 245 244 0
17.600000 7.920000 9.020000 236 240 238 0
17.820000 7.920000 7.920000 237 241 239 0
18.040000 7.920000 8.140000 240 241 240 0
18.260000 7.920000 8.140000 240 241 240 0
18.480000 7.920000 8.140000 240 241 240 0
18.700000 7.920000 8.140000 240 241 240 0
18.920000 7.920000 8.140000 240 241 240 0
19.140000 7.920000 8.140000 240 241 240 0
19.360000 7.920000 9.460000 240 241 240 0
19.580000 7.920000 9.460000 240 241 240 0
19.800000 7.920000 9.460000 240 241 240 0
20.020000 7.920000 9.460000 240 241 240 0
20.240000 7.920000 9.460000 240 241 240 0
20.460000 7.920000 9.460000 240 241 240 0
20.680000 7.920000 9.460000 240 241 240 0
20.900000 7.920000 9.460000 240 241 240 0
21.120000 7.920000 9.460000 240 241 240 0
21.340000 7.920000 9.460000 240 241 240 0
21.560000 7.920000 9.460000 240 241 240 0
21.780000 7.920000 9.460000 240 241 240 0
22.000000 7.920000 9.460000 240 241 240 0
22.220000 7.920000 9.460000 240 241 240 0
22.440000 7.920000 9.460000 240 241 240 0
22.660000 7.920000 9.460000 240 241 240 0
22.880000 7.920000 8.140000 240 241 240 0
23.100000 7.920000 8.140000 240 241 240 0
23.320000 7.920000 8.140000 240 241 240 0
23.540000 7.920000 8.140000 240 241 240 0
23.760000 7.920000 8.140000 240 241 240 0
23.980000 7.920000 8.140000 240 241 240 0
24.200000 7.920000 9.460000 240 241 240 0
24.420000 7.920000 8.140000 240 241 240 0
24.640000 7.920000 8.140000 240 241 240 0
24.860000 7.920000 8.140000 240 241 240 0
25.080000 7.920000 8.140000 240 241 240 0
25.300000 7.920000 8.140000 240 241 240 0
25.520000 7.920000 6.820000 240 241 240 0
25.740000 7.920000 6.820000 240 241 240 0
25.960000 7.920000 6.820000 240 241 240 0
26.180000 7.920000 6.820000 240 241 240 0
26.400000 7.920000 6.820000 240 241 240 0
26.620000 7.920000 5.500000 240 241 240 0
26.840000 7.920000 6.600000 234 243 243 0
27.060000 7.920000 6.380000 234 243 243 0
27.280000 7.920000 5.280000 211 247 255 0
27.500000 7.920000 5.280000 206 242 251 0
27.720000 7.920000 6.160000 216 227 254 0
27.940000 7.920000 7.260000 211 222 249 0
28.160000 7.920000 7.260000 207 214 228 0
28.380000 7.920000 7.040000 198 205 219 0
28.600000 7.920000 7.040000 179 199 219 0
28.820000 7.920000 7.260000 192 212 232 0
29.040000 7.920000 7.480000 192 229 235 0
29.260000 7.920000 6.380000 199 236 242 0
29.480000 7.920000 5.280000 218 233 233 0
29.700000 7.920000 5.500000 224 239 239 0
29.920000 7.920000 5.500000 237 241 239 0
30.140000 7.920000 5.500000 238 242 240 0
30.360000 7.920000 5.500000 240 241 240 0
30.580000 7.920000 5.500000 240 241 240 0
30.800000 7.920000 5.280000 238 242 240 0
31.020000 7.920000 5.280000 238 242 240 0
31.240000 7.920000 3.960000 238 242 240 0
31.460000 7.920000 3.960000 238 242 240 0
