ply
format ascii 1.0
element vertex 1159
property float x
property float y
property float z
property uchar red
property uchar green
property uchar blue
property uchar alpha
end_header
29.260000 27.720000 2.420000 131 81 69 0
29.480000 27.720000 2.530000 134 84 72 0
29.700000 27.720000 2.420000 119 96 75 0
29.920000 27.720000 2.420000 125 102 81 0
30.140000 27.720000 2.530000 123 108 84 0
30.360000 27.720000 3.080000 127 112 88 0
30.580000 27.720000 2.970000 127 114 90 0
30.800000 27.720000 2.970000 128 115 91 0
31.020000 27.720000 3.630000 129 117 90 0
31.240000 27.720000 3.520000 130 118 91 0
31.460000 27.720000 3.520000 129 116 92 0
31.680000 27.720000 2.970000 127 114 90 0
31.900000 27.720000 2.530000 129 116 92 0
32.120000 27.720000 1.980000 126 113 89 0
32.340000 27.720000 1.320000 126 113 89 0
32.560000 27.720000 0.660000 126 113 89 0
32.780000 27.720000 0.660000 125 112 88 0
33.000000 27.720000 0.660000 125 112 88 0
33.220000 27.720000 0.550000 125 112 88 0
34.100000 27.720000 3.300000 128 115 91 0
34.320000 27.720000 12.320000 129 116 92 0
34.540000 27.720000 18.480000 130 118 91 0
34.760000 27.720000 19.910000 131 119 92 0
34.980000 27.720000 19.910000 135 120 94 0
35.200000 27.720000 19.140000 135 120 94 0
35.420000 27.720000 19.140000 136 124 97 0
35.640000 27.720000 18.480000 137 125 98 0
35.860000 27.720000 18.480000 139 129 99 0
36.080000 27.720000 18.480000 141 131 101 0
36.300000 27.720000 17.820000 146 136 104 0
36.520000 27.720000 17.820000 149 139 107 0
36.740000 27.720000 17.820000 147 146 113 0
36.960000 27.720000 17.820000 152 151 118 0
37.180000 27.720000 17.820000 155 157 128 0
0.000000 27.940000 5.610000 129 71 64 0
0.220000 27.940000 5.610000 128 70 63 0
0.440000 27.940000 5.610000 129 71 64 0
0.660000 27.940000 6.270000 129 71 64 0
0.880000 27.940000 6.270000 130 72 65 0
1.100000 27.940000 6.270000 129 71 64 0
1.320000 27.940000 6.270000 129 71 64 0
1.540000 27.940000 6.270000 130 72 65 0
1.760000 27.940000 6.270000 129 71 64 0
1.980000 27.940000 6.270000 129 71 64 0
2.200000 27.940000 6.930000 130 72 65 0
2.420000 27.940000 6.930000 129 71 64 0
2.640000 27.940000 6.930000 130 72 65 0
2.860000 27.940000 6.930000 131 73 66 0
3.080000 27.940000 7.700000 131 73 66 0
3.300000 27.940000 7.700000 131 73 66 0
3.520000 27.940000 7.700000 133 75 68 0
3.740000 27.940000 8.360000 133 75 68 0
3.960000 27.940000 8.360000 133 75 68 0
4.180000 27.940000 9.020000 133 75 68 0
4.400000 27.940000 9.020000 135 77 70 0
4.620000 27.940000 9.130000 134 76 69 0
4.840000 27.940000 9.130000 134 76 69 0
5.060000 27.940000 9.790000 135 77 71 0
5.280000 27.940000 9.790000 135 77 71 0
5.500000 27.940000 9.790000 137 79 73 0
5.720000 27.940000 9.790000 138 80 74 0
5.940000 27.940000 10.450000 136 81 74 0
6.160000 27.940000 10.450000 137 82 75 0
6.380000 27.940000 10.450000 139 84 77 0
6.600000 27.940000 11.220000 139 84 77 0
6.820000 27.940000 11.220000 139 83 79 0
7.040000 27.940000 11.220000 140 84 80 0
7.260000 27.940000 11.220000 141 85 81 0
7.480000 27.940000 11.220000 143 87 83 0
7.700000 27.940000 11.220000 143 89 84 0
7.920000 27.940000 11.990000 142 88 83 0
8.140000 27.940000 12.650000 143 87 83 0
8.360000 27.940000 13.310000 141 85 81 0
8.580000 27.940000 14.080000 141 85 81 0
8.800000 27.940000 14.080000 139 83 79 0
9.020000 27.940000 14.740000 140 84 80 0
9.240000 27.940000 14.740000 141 85 81 0
9.460000 27.940000 14.740000 140 86 81 0
9.680000 27.940000 15.510000 141 87 82 0
9.900000 27.940000 15.510000 142 86 82 0
10.120000 27.940000 15.510000 142 86 82 0
10.340000 27.940000 15.510000 141 83 77 0
10.560000 27.940000 15.510000 139 81 75 0
10.780000 27.940000 16.280000 139 74 65 0
11.000000 27.940000 12.760000 135 70 61 0
11.220000 27.940000 5.170000 138 64 58 0
11.440000 27.940000 1.650000 135 61 55 0
11.660000 27.940000 1.650000 135 59 54 0
11.880000 27.940000 1.650000 133 57 52 0
12.100000 27.940000 1.650000 135 57 50 0
12.320000 27.940000 2.310000 133 55 48 0
12.540000 27.940000 2.310000 135 56 47 0
12.760000 27.940000 2.310000 133 54 45 0
12.980000 27.940000 2.310000 132 56 51 0
13.200000 27.940000 2.310000 132 56 51 0
13.420000 27.940000 2.310000 130 54 49 0
13.640000 27.940000 2.310000 130 54 49 0
13.860000 27.940000 2.310000 133 55 48 0
14.080000 27.940000 2.310000 131 53 46 0
14.300000 27.940000 2.310000 130 51 42 0
14.520000 27.940000 2.310000 131 52 43 0
14.740000 27.940000 2.310000 130 50 44 0
14.960000 27.940000 2.310000 131 51 45 0
15.180000 27.940000 2.970000 130 52 45 0
15.400000 27.940000 2.970000 129 51 44 0
15.620000 27.940000 2.200000 131 50 44 0
15.840000 27.940000 2.200000 131 50 44 0
16.060000 27.940000 2.970000 130 49 43 0
16.280000 27.940000 2.970000 129 48 42 0
16.500000 27.940000 2.200000 129 45 40 0
16.720000 27.940000 2.860000 128 44 39 0
16.940000 27.940000 2.860000 127 43 36 0
17.160000 27.940000 2.200000 127 43 36 0
17.380000 27.940000 2.200000 127 43 38 0
17.600000 27.940000 2.200000 126 42 37 0
17.820000 27.940000 2.200000 125 41 36 0
18.040000 27.940000 2.860000 126 42 37 0
18.260000 27.940000 2.860000 125 41 36 0
18.480000 27.940000 2.860000 125 41 36 0
18.700000 27.940000 2.310000 126 42 35 0
18.920000 27.940000 2.310000 125 41 34 0
19.140000 27.940000 2.310000 125 41 36 0
19.360000 27.940000 2.200000 126 42 37 0
19.580000 27.940000 2.200000 125 44 38 0
19.800000 27.940000 2.200000 124 43 37 0
20.020000 27.940000 2.860000 126 45 39 0
20.240000 27.940000 2.200000 125 44 38 0
20.460000 27.940000 2.310000 126 47 37 0
20.680000 27.940000 2.200000 126 47 37 0
20.900000 27.940000 2.200000 126 47 38 0
21.120000 27.940000 2.200000 127 48 39 0
21.340000 27.940000 2.860000 128 49 40 0
21.560000 27.940000 2.860000 127 48 39 0
21.780000 27.940000 2.750000 126 47 38 0
22.000000 27.940000 2.860000 127 48 39 0
22.220000 27.940000 2.200000 128 49 39 0
22.440000 27.940000 2.200000 128 49 39 0
22.660000 27.940000 2.860000 126 48 39 0
22.880000 27.940000 2.200000 126 48 39 0
23.100000 27.940000 2.310000 126 48 41 0
23.320000 27.940000 1.760000 127 49 42 0
23.540000 27.940000 1.870000 128 50 41 0
23.760000 27.940000 1.870000 130 52 43 0
23.980000 27.940000 2.310000 125 55 42 0
24.200000 27.940000 2.310000 127 57 44 0
24.420000 27.940000 2.420000 126 59 46 0
24.640000 27.940000 2.530000 129 62 49 0
24.860000 27.940000 2.640000 125 65 52 0
25.080000 27.940000 2.530000 127 67 54 0
25.300000 27.940000 2.530000 128 68 55 0
25.520000 27.940000 2.640000 129 69 56 0
25.740000 27.940000 2.530000 128 70 54 0
25.960000 27.940000 3.080000 129 71 55 0
26.180000 27.940000 2.970000 130 70 55 0
26.400000 27.940000 2.970000 128 68 53 0
26.620000 27.940000 2.310000 127 67 52 0
26.840000 27.940000 2.420000 127 67 52 0
27.060000 27.940000 1.870000 126 66 51 0
27.280000 27.940000 1.320000 127 67 52 0
27.500000 27.940000 1.320000 128 68 53 0
27.720000 27.940000 1.870000 127 67 52 0
27.940000 27.940000 1.870000 128 68 53 0
28.160000 27.940000 1.870000 129 69 54 0
28.380000 27.940000 1.320000 129 71 55 0
28.600000 27.940000 1.980000 131 73 57 0
28.820000 27.940000 1.760000 126 78 61 0
29.040000 27.940000 2.420000 129 81 64 0
29.260000 27.940000 2.530000 120 88 70 0
29.480000 27.940000 2.530000 124 92 74 0
29.700000 27.940000 2.530000 117 102 78 0
29.920000 27.940000 2.640000 121 106 82 0
30.140000 27.940000 2.640000 123 110 86 0
30.360000 27.940000 2.640000 126 113 89 0
30.580000 27.940000 3.190000 128 115 91 0
30.800000 27.940000 2.970000 129 116 92 0
31.020000 27.940000 3.520000 129 116 92 0
31.240000 27.940000 3.520000 129 116 92 0
31.460000 27.940000 2.860000 128 115 91 0
31.680000 27.940000 2.310000 128 115 91 0
31.900000 27.940000 1.870000 127 114 90 0
32.120000 27.940000 1.320000 126 113 89 0
32.340000 27.940000 1.320000 127 112 88 0
32.560000 27.940000 0.660000 127 112 88 0
32.780000 27.940000 0.660000 124 111 87 0
33.000000 27.940000 0.550000 125 112 88 0
33.220000 27.940000 0.550000 124 111 87 0
33.880000 27.940000 0.550000 127 114 90 0
34.100000 27.940000 6.710000 129 114 88 0
34.320000 27.940000 16.390000 131 116 90 0
34.540000 27.940000 19.910000 130 117 93 0
34.760000 27.940000 19.800000 131 118 94 0
34.980000 27.940000 19.140000 132 120 93 0
35.200000 27.940000 19.140000 133 121 94 0
35.420000 27.940000 19.140000 135 122 98 0
35.640000 27.940000 18.480000 138 125 101 0
35.860000 27.940000 18.480000 139 127 100 0
36.080000 27.940000 18.480000 141 129 102 0
36.300000 27.940000 17.820000 144 134 106 0
36.520000 27.940000 17.820000 147 137 109 0
36.740000 27.940000 17.820000 147 146 113 0
36.960000 27.940000 17.820000 152 151 118 0
37.180000 27.940000 17.820000 154 156 127 0
0.000000 28.160000 6.270000 129 71 64 0
0.220000 28.160000 6.270000 129 71 64 0
0.440000 28.160000 6.270000 130 72 65 0
0.660000 28.160000 6.270000 129 71 64 0
0.880000 28.160000 6.270000 128 70 63 0
1.100000 28.160000 6.270000 128 70 63 0
1.320000 28.160000 6.270000 129 71 64 0
1.540000 28.160000 6.270000 127 69 62 0
1.760000 28.160000 6.270000 129 71 64 0
1.980000 28.160000 6.270000 130 72 65 0
2.200000 28.160000 6.930000 130 72 65 0
2.420000 28.160000 6.930000 130 72 65 0
2.640000 28.160000 6.930000 130 72 65 0
2.860000 28.160000 7.700000 132 74 67 0
3.080000 28.160000 7.700000 131 73 66 0
3.300000 28.160000 7.700000 132 74 67 0
3.520000 28.160000 7.700000 131 73 66 0
3.740000 28.160000 8.360000 133 75 68 0
3.960000 28.160000 8.360000 133 75 68 0
4.180000 28.160000 9.020000 134 76 69 0
4.400000 28.160000 9.130000 134 76 69 0
4.620000 28.160000 9.130000 134 76 69 0
4.840000 28.160000 9.130000 135 77 70 0
5.060000 28.160000 9.790000 135 77 71 0
5.280000 28.160000 9.790000 136 78 72 0
5.500000 28.160000 9.790000 137 79 73 0
5.720000 28.160000 9.790000 138 80 74 0
5.940000 28.160000 10.450000 136 81 74 0
6.160000 28.160000 10.450000 137 82 75 0
6.380000 28.160000 10.450000 139 84 77 0
6.600000 28.160000 11.220000 139 84 77 0
6.820000 28.160000 11.220000 139 83 79 0
7.040000 28.160000 11.220000 140 84 80 0
7.260000 28.160000 11.220000 142 86 82 0
7.480000 28.160000 11.220000 143 87 83 0
7.700000 28.160000 11.220000 142 88 83 0
7.920000 28.160000 11.990000 142 88 83 0
8.140000 28.160000 12.650000 142 86 82 0
8.360000 28.160000 13.310000 142 86 82 0
8.580000 28.160000 14.080000 140 84 80 0
8.800000 28.160000 14.080000 141 85 81 0
9.020000 28.160000 14.740000 141 85 81 0
9.240000 28.160000 14.740000 142 86 82 0
9.460000 28.160000 14.740000 142 88 83 0
9.680000 28.160000 15.510000 142 88 83 0
9.900000 28.160000 15.510000 143 87 83 0
10.120000 28.160000 15.510000 142 86 82 0
10.340000 28.160000 15.510000 141 83 77 0
10.560000 28.160000 16.280000 137 79 73 0
10.780000 28.160000 16.280000 138 73 64 0
11.000000 28.160000 12.760000 134 69 60 0
11.220000 28.160000 5.170000 137 63 57 0
11.440000 28.160000 1.650000 135 61 55 0
11.660000 28.160000 1.650000 134 58 53 0
11.880000 28.160000 1.650000 134 58 53 0
12.100000 28.160000 1.650000 134 56 49 0
12.320000 28.160000 2.310000 134 56 49 0
12.540000 28.160000 2.310000 134 55 46 0
12.760000 28.160000 2.310000 133 54 45 0
12.980000 28.160000 2.310000 129 53 48 0
13.200000 28.160000 2.310000 130 54 49 0
13.420000 28.160000 2.310000 130 54 49 0
13.640000 28.160000 2.310000 130 54 49 0
13.860000 28.160000 2.310000 132 54 47 0
14.080000 28.160000 2.310000 132 54 47 0
14.300000 28.160000 2.310000 129 50 41 0
14.520000 28.160000 2.310000 131 52 43 0
14.740000 28.160000 2.310000 131 51 45 0
14.960000 28.160000 2.310000 130 50 44 0
15.180000 28.160000 2.310000 129 51 44 0
15.400000 28.160000 2.310000 130 52 45 0
15.620000 28.160000 2.310000 132 51 45 0
15.840000 28.160000 2.310000 130 49 43 0
16.060000 28.160000 2.970000 127 46 40 0
16.280000 28.160000 2.200000 128 47 41 0
16.500000 28.160000 2.200000 128 44 39 0
16.720000 28.160000 2.200000 127 43 38 0
16.940000 28.160000 2.200000 127 43 36 0
17.160000 28.160000 2.200000 126 42 35 0
17.380000 28.160000 2.200000 127 43 38 0
17.600000 28.160000 2.200000 126 42 37 0
17.820000 28.160000 2.200000 124 40 35 0
18.040000 28.160000 2.200000 124 40 35 0
18.260000 28.160000 2.860000 123 39 34 0
18.480000 28.160000 2.200000 125 41 36 0
18.700000 28.160000 2.310000 125 41 34 0
18.920000 28.160000 2.310000 125 41 34 0
19.140000 28.160000 2.310000 125 41 36 0
19.360000 28.160000 2.200000 125 41 36 0
19.580000 28.160000 2.200000 125 44 38 0
19.800000 28.160000 2.200000 126 45 39 0
20.020000 28.160000 2.200000 126 45 39 0
20.240000 28.160000 2.310000 126 45 39 0
20.460000 28.160000 2.200000 125 46 36 0
20.680000 28.160000 2.860000 127 48 38 0
20.900000 28.160000 2.860000 128 49 40 0
21.120000 28.160000 2.200000 127 48 39 0
21.340000 28.160000 2.200000 128 49 40 0
21.560000 28.160000 2.860000 128 49 40 0
21.780000 28.160000 2.860000 128 49 40 0
22.000000 28.160000 2.860000 128 49 40 0
22.220000 28.160000 2.860000 127 48 38 0
22.440000 28.160000 2.860000 127 48 38 0
22.660000 28.160000 2.310000 127 49 40 0
22.880000 28.160000 2.310000 127 49 40 0
23.100000 28.160000 2.310000 127 49 42 0
23.320000 28.160000 1.760000 127 49 42 0
23.540000 28.160000 1.870000 128 50 41 0
23.760000 28.160000 1.870000 130 52 43 0
23.980000 28.160000 2.310000 125 55 42 0
24.200000 28.160000 2.970000 128 58 45 0
24.420000 28.160000 2.420000 126 59 46 0
24.640000 28.160000 2.640000 129 62 49 0
24.860000 28.160000 2.640000 126 66 53 0
25.080000 28.160000 2.530000 128 68 55 0
25.300000 28.160000 3.190000 128 68 55 0
25.520000 28.160000 3.190000 129 69 56 0
25.740000 28.160000 2.970000 129 71 55 0
25.960000 28.160000 2.860000 128 70 54 0
26.180000 28.160000 2.970000 129 69 54 0
26.400000 28.160000 2.970000 128 68 53 0
26.620000 28.160000 2.420000 127 67 52 0
26.840000 28.160000 1.870000 126 66 51 0
27.060000 28.160000 1.980000 125 65 50 0
27.280000 28.160000 1.320000 128 68 53 0
27.500000 28.160000 1.320000 125 65 50 0
27.720000 28.160000 1.870000 127 67 52 0
27.940000 28.160000 1.760000 128 68 53 0
28.160000 28.160000 1.870000 129 69 54 0
28.380000 28.160000 1.320000 128 70 54 0
28.600000 28.160000 1.980000 132 74 58 0
28.820000 28.160000 2.420000 126 78 61 0
29.040000 28.160000 2.420000 130 82 65 0
29.260000 28.160000 2.530000 122 90 72 0
29.480000 28.160000 2.530000 127 95 77 0
29.700000 28.160000 2.640000 120 105 81 0
29.920000 28.160000 2.750000 124 109 85 0
30.140000 28.160000 2.750000 125 112 88 0
30.360000 28.160000 2.750000 126 113 89 0
30.580000 28.160000 2.640000 128 115 91 0
30.800000 28.160000 3.080000 130 117 93 0
31.020000 28.160000 2.970000 130 117 93 0
31.240000 28.160000 2.970000 128 115 91 0
31.460000 28.160000 2.970000 127 114 90 0
31.680000 28.160000 2.420000 127 114 90 0
31.900000 28.160000 1.210000 126 113 89 0
32.120000 28.160000 1.320000 125 112 88 0
32.340000 28.160000 0.660000 128 113 89 0
32.560000 28.160000 0.660000 126 111 87 0
32.780000 28.160000 0.550000 124 111 87 0
33.000000 28.160000 0.550000 123 110 86 0
33.880000 28.160000 3.300000 126 113 89 0
34.100000 28.160000 12.320000 129 114 88 0
34.320000 28.160000 18.480000 130 115 89 0
34.540000 28.160000 19.800000 129 116 92 0
34.760000 28.160000 19.140000 130 117 93 0
34.980000 28.160000 19.140000 132 120 93 0
35.200000 28.160000 19.140000 133 121 94 0
35.420000 28.160000 18.480000 135 122 98 0
35.640000 28.160000 18.480000 137 124 100 0
35.860000 28.160000 18.480000 139 127 100 0
36.080000 28.160000 18.480000 143 131 104 0
36.300000 28.160000 17.820000 144 134 106 0
36.520000 28.160000 17.820000 148 138 110 0
36.740000 28.160000 17.820000 147 146 113 0
36.960000 28.160000 17.820000 152 151 118 0
37.180000 28.160000 17.820000 155 157 128 0
0.000000 28.380000 6.270000 127 72 64 0
0.220000 28.380000 6.270000 130 72 65 0
0.440000 28.380000 6.270000 129 71 64 0
0.660000 28.380000 6.270000 129 71 64 0
0.880000 28.380000 6.270000 129 71 64 0
1.100000 28.380000 6.270000 130 72 65 0
1.320000 28.380000 6.270000 129 71 64 0
1.540000 28.380000 6.270000 127 72 64 0
1.760000 28.380000 6.270000 128 73 65 0
1.980000 28.380000 6.270000 130 72 65 0
2.200000 28.380000 6.930000 129 71 64 0
2.420000 28.380000 6.930000 131 73 66 0
2.640000 28.380000 6.930000 131 73 66 0
2.860000 28.380000 7.700000 132 74 67 0
3.080000 28.380000 7.700000 131 73 66 0
3.300000 28.380000 7.700000 132 74 65 0
3.520000 28.380000 8.360000 132 74 65 0
3.740000 28.380000 8.360000 133 75 68 0
3.960000 28.380000 8.360000 134 76 69 0
4.180000 28.380000 9.020000 134 76 69 0
4.400000 28.380000 9.130000 134 76 69 0
4.620000 28.380000 9.130000 134 76 69 0
4.840000 28.380000 9.130000 135 77 70 0
5.060000 28.380000 9.790000 137 79 72 0
5.280000 28.380000 9.790000 136 78 71 0
5.500000 28.380000 9.790000 135 80 72 0
5.720000 28.380000 9.790000 136 81 73 0
5.940000 28.380000 9.790000 136 81 74 0
6.160000 28.380000 10.450000 138 83 76 0
6.380000 28.380000 10.450000 139 84 77 0
6.600000 28.380000 11.220000 140 85 78 0
6.820000 28.380000 11.220000 140 85 78 0
7.040000 28.380000 11.220000 141 86 79 0
7.260000 28.380000 11.220000 142 89 80 0
7.480000 28.380000 11.220000 142 89 80 0
7.700000 28.380000 11.990000 142 88 83 0
7.920000 28.380000 11.990000 142 88 83 0
8.140000 28.380000 12.650000 142 88 81 0
8.360000 28.380000 14.080000 140 86 79 0
8.580000 28.380000 14.080000 141 87 82 0
8.800000 28.380000 14.740000 141 87 82 0
9.020000 28.380000 14.740000 139 89 85 0
9.240000 28.380000 14.740000 141 91 87 0
9.460000 28.380000 15.510000 142 91 83 0
9.680000 28.380000 15.510000 141 90 82 0
9.900000 28.380000 15.510000 142 88 81 0
10.120000 28.380000 15.510000 140 86 79 0
10.340000 28.380000 15.510000 143 82 76 0
10.560000 28.380000 16.280000 139 78 72 0
10.780000 28.380000 16.940000 141 71 66 0
11.000000 28.380000 13.420000 137 67 62 0
11.220000 28.380000 5.830000 135 63 59 0
11.440000 28.380000 1.650000 132 60 56 0
11.660000 28.380000 1.650000 135 59 54 0
11.880000 28.380000 1.650000 134 58 53 0
12.100000 28.380000 1.650000 133 57 52 0
12.320000 28.380000 1.650000 133 57 52 0
12.540000 28.380000 2.310000 132 57 47 0
12.760000 28.380000 2.310000 130 55 45 0
12.980000 28.380000 2.310000 133 56 45 0
13.200000 28.380000 2.310000 133 56 45 0
13.420000 28.380000 2.310000 132 54 47 0
13.640000 28.380000 2.310000 133 55 48 0
13.860000 28.380000 2.310000 132 52 48 0
14.080000 28.380000 2.310000 132 52 48 0
14.300000 28.380000 2.310000 128 53 43 0
14.520000 28.380000 2.310000 128 53 43 0
14.740000 28.380000 2.310000 131 52 43 0
14.960000 28.380000 2.310000 130 51 42 0
15.180000 28.380000 2.310000 130 50 44 0
15.400000 28.380000 2.310000 129 49 43 0
15.620000 28.380000 2.310000 130 50 44 0
15.840000 28.380000 2.310000 129 49 43 0
16.060000 28.380000 2.200000 128 47 39 0
16.280000 28.380000 2.200000 126 45 37 0
16.500000 28.380000 2.200000 129 45 38 0
16.720000 28.380000 2.310000 127 43 36 0
16.940000 28.380000 2.310000 125 44 36 0
17.160000 28.380000 2.310000 125 44 36 0
17.380000 28.380000 2.200000 127 43 36 0
17.600000 28.380000 2.200000 127 43 36 0
17.820000 28.380000 2.200000 123 42 34 0
18.040000 28.380000 2.200000 122 41 33 0
18.260000 28.380000 2.200000 125 41 36 0
18.480000 28.380000 2.200000 124 40 35 0
18.700000 28.380000 2.310000 124 43 37 0
18.920000 28.380000 2.310000 123 42 36 0
19.140000 28.380000 2.200000 124 43 37 0
19.360000 28.380000 2.200000 125 44 38 0
19.580000 28.380000 2.310000 127 46 38 0
19.800000 28.380000 2.310000 126 45 37 0
20.020000 28.380000 2.310000 126 45 39 0
20.240000 28.380000 2.310000 128 47 41 0
20.460000 28.380000 2.200000 127 50 39 0
20.680000 28.380000 2.860000 125 48 37 0
20.900000 28.380000 2.860000 126 48 41 0
21.120000 28.380000 2.200000 126 48 41 0
21.340000 28.380000 2.310000 128 49 40 0
21.560000 28.380000 2.310000 129 50 41 0
21.780000 28.380000 2.860000 130 50 44 0
22.000000 28.380000 2.860000 128 48 42 0
22.220000 28.380000 2.860000 127 50 39 0
22.440000 28.380000 2.860000 126 49 38 0
22.660000 28.380000 2.310000 127 49 42 0
22.880000 28.380000 2.310000 127 49 42 0
23.100000 28.380000 2.970000 126 51 40 0
23.320000 28.380000 2.310000 126 51 40 0
23.540000 28.380000 2.420000 127 49 42 0
23.760000 28.380000 2.420000 130 52 45 0
23.980000 28.380000 2.310000 126 57 45 0
24.200000 28.380000 2.970000 128 59 47 0
24.420000 28.380000 2.970000 123 63 47 0
24.640000 28.380000 3.080000 125 65 49 0
24.860000 28.380000 3.190000 127 68 55 0
25.080000 28.380000 3.190000 128 69 56 0
25.300000 28.380000 3.080000 128 69 56 0
25.520000 28.380000 3.080000 129 70 57 0
25.740000 28.380000 2.970000 130 71 58 0
25.960000 28.380000 2.860000 129 70 57 0
26.180000 28.380000 2.860000 128 68 52 0
26.400000 28.380000 2.310000 128 68 52 0
26.620000 28.380000 1.870000 128 68 55 0
26.840000 28.380000 1.980000 126 66 53 0
27.060000 28.380000 1.980000 126 66 53 0
27.280000 28.380000 1.320000 127 67 54 0
27.500000 28.380000 1.320000 128 68 55 0
27.720000 28.380000 1.870000 127 67 54 0
27.940000 28.380000 1.760000 127 67 51 0
28.160000 28.380000 1.870000 129 69 53 0
28.380000 28.380000 1.320000 129 72 58 0
28.600000 28.380000 1.980000 131 74 60 0
28.820000 28.380000 2.420000 124 81 67 0
29.040000 28.380000 2.970000 128 85 71 0
29.260000 28.380000 3.190000 116 99 76 0
29.480000 28.380000 3.190000 120 103 80 0
29.700000 28.380000 2.530000 122 109 85 0
29.920000 28.380000 2.640000 124 111 87 0
30.140000 28.380000 2.530000 125 115 87 0
30.360000 28.380000 2.530000 126 116 88 0
30.580000 28.380000 2.530000 129 116 94 0
30.800000 28.380000 2.530000 129 116 94 0
31.020000 28.380000 2.420000 128 117 94 0
31.240000 28.380000 2.310000 127 116 93 0
31.460000 28.380000 2.310000 127 114 92 0
31.680000 28.380000 1.760000 126 113 91 0
31.900000 28.380000 1.210000 125 114 89 0
32.120000 28.380000 0.660000 124 113 88 0
32.340000 28.380000 0.660000 126 110 89 0
32.560000 28.380000 0.660000 125 109 88 0
32.780000 28.380000 0.550000 122 109 85 0
33.000000 28.380000 0.550000 123 110 86 0
33.660000 28.380000 0.550000 124 114 86 0
33.880000 28.380000 6.710000 125 115 87 0
34.100000 28.380000 16.390000 126 113 89 0
34.320000 28.380000 19.910000 128 115 91 0
34.540000 28.380000 19.800000 128 117 92 0
34.760000 28.380000 19.140000 129 118 93 0
34.980000 28.380000 19.140000 134 119 93 0
35.200000 28.380000 19.140000 136 121 95 0
35.420000 28.380000 18.480000 136 124 95 0
35.640000 28.380000 18.480000 138 126 97 0
35.860000 28.380000 18.480000 139 129 97 0
36.080000 28.380000 17.820000 142 132 100 0
36.300000 28.380000 17.820000 145 134 109 0
36.520000 28.380000 17.820000 150 139 114 0
36.740000 28.380000 17.820000 148 146 116 0
36.960000 28.380000 17.820000 153 151 121 0
37.180000 28.380000 17.820000 156 160 130 0
0.000000 28.600000 6.270000 128 73 65 0
0.220000 28.600000 6.270000 129 71 64 0
0.440000 28.600000 6.270000 130 72 65 0
0.660000 28.600000 6.270000 128 70 63 0
0.880000 28.600000 6.270000 129 71 64 0
1.100000 28.600000 6.930000 128 70 63 0
1.320000 28.600000 6.270000 129 71 64 0
1.540000 28.600000 6.270000 128 73 65 0
1.760000 28.600000 6.930000 128 73 65 0
1.980000 28.600000 6.930000 129 71 64 0
2.200000 28.600000 6.930000 130 72 65 0
2.420000 28.600000 6.930000 130 72 65 0
2.640000 28.600000 6.930000 132 74 67 0
2.860000 28.600000 7.700000 131 73 66 0
3.080000 28.600000 7.700000 132 74 67 0
3.300000 28.600000 7.700000 132 74 65 0
3.520000 28.600000 8.360000 132 74 65 0
3.740000 28.600000 8.360000 132 74 67 0
3.960000 28.600000 8.360000 133 75 68 0
4.180000 28.600000 9.020000 134 76 69 0
4.400000 28.600000 9.020000 134 76 69 0
4.620000 28.600000 9.020000 135 77 70 0
4.840000 28.600000 9.130000 136 78 71 0
5.060000 28.600000 9.130000 136 78 71 0
5.280000 28.600000 9.790000 137 79 72 0
5.500000 28.600000 9.790000 136 81 73 0
5.720000 28.600000 9.790000 137 82 74 0
5.940000 28.600000 9.790000 137 82 75 0
6.160000 28.600000 10.450000 137 82 75 0
6.380000 28.600000 10.450000 139 84 77 0
6.600000 28.600000 11.220000 140 85 78 0
6.820000 28.600000 11.220000 142 87 80 0
7.040000 28.600000 11.220000 142 87 80 0
7.260000 28.600000 11.220000 141 88 79 0
7.480000 28.600000 11.880000 143 90 81 0
7.700000 28.600000 11.990000 142 88 83 0
7.920000 28.600000 12.650000 142 88 83 0
8.140000 28.600000 13.310000 141 87 80 0
8.360000 28.600000 14.080000 142 88 81 0
8.580000 28.600000 14.740000 142 88 83 0
8.800000 28.600000 14.740000 146 92 87 0
9.020000 28.600000 14.740000 144 94 90 0
9.240000 28.600000 14.740000 147 97 93 0
9.460000 28.600000 15.510000 146 95 87 0
9.680000 28.600000 15.510000 144 93 85 0
9.900000 28.600000 15.510000 144 90 83 0
10.120000 28.600000 15.510000 139 85 78 0
10.340000 28.600000 15.510000 142 81 75 0
10.560000 28.600000 16.170000 138 77 71 0
10.780000 28.600000 16.940000 138 68 63 0
11.000000 28.600000 14.080000 135 65 60 0
11.220000 28.600000 5.060000 133 61 57 0
11.440000 28.600000 0.990000 132 60 56 0
11.660000 28.600000 1.650000 134 58 53 0
11.880000 28.600000 1.650000 134 58 53 0
12.100000 28.600000 1.650000 132 56 51 0
12.320000 28.600000 1.650000 132 56 51 0
12.540000 28.600000 1.650000 131 56 46 0
12.760000 28.600000 2.310000 130 55 45 0
12.980000 28.600000 2.310000 131 54 43 0
13.200000 28.600000 2.310000 133 56 45 0
13.420000 28.600000 2.310000 133 55 48 0
13.640000 28.600000 2.310000 132 54 47 0
13.860000 28.600000 2.310000 131 51 47 0
14.080000 28.600000 2.310000 130 50 46 0
14.300000 28.600000 2.310000 128 53 43 0
14.520000 28.600000 2.310000 129 54 44 0
14.740000 28.600000 2.310000 130 51 42 0
14.960000 28.600000 2.310000 130 51 42 0
15.180000 28.600000 2.310000 130 50 44 0
15.400000 28.600000 2.310000 130 50 44 0
15.620000 28.600000 2.310000 128 48 42 0
15.840000 28.600000 2.310000 126 46 40 0
16.060000 28.600000 2.200000 128 47 39 0
16.280000 28.600000 2.200000 128 47 39 0
16.500000 28.600000 2.310000 127 43 36 0
16.720000 28.600000 2.310000 127 43 36 0
16.940000 28.600000 2.310000 124 43 35 0
17.160000 28.600000 2.310000 125 44 36 0
17.380000 28.600000 2.970000 127 43 36 0
17.600000 28.600000 2.200000 125 41 34 0
17.820000 28.600000 2.200000 124 43 35 0
18.040000 28.600000 2.200000 124 43 35 0
18.260000 28.600000 2.200000 125 41 36 0
18.480000 28.600000 2.310000 124 40 35 0
18.700000 28.600000 2.310000 122 41 35 0
18.920000 28.600000 2.200000 124 43 37 0
19.140000 28.600000 2.200000 124 43 37 0
19.360000 28.600000 2.200000 124 43 37 0
19.580000 28.600000 2.200000 125 44 36 0
19.800000 28.600000 2.200000 126 45 37 0
20.020000 28.600000 2.200000 125 44 38 0
20.240000 28.600000 2.200000 126 45 39 0
20.460000 28.600000 2.200000 126 49 38 0
20.680000 28.600000 2.860000 127 50 39 0
20.900000 28.600000 2.860000 127 49 42 0
21.120000 28.600000 2.200000 127 49 42 0
21.340000 28.600000 2.200000 126 47 38 0
21.560000 28.600000 2.200000 128 49 40 0
21.780000 28.600000 2.860000 127 47 41 0
22.000000 28.600000 2.860000 128 48 42 0
22.220000 28.600000 2.860000 126 49 38 0
22.440000 28.600000 2.750000 127 50 39 0
22.660000 28.600000 2.860000 128 50 43 0
22.880000 28.600000 2.860000 127 49 42 0
23.100000 28.600000 2.860000 126 51 40 0
23.320000 28.600000 2.860000 127 52 41 0
23.540000 28.600000 2.860000 130 52 45 0
23.760000 28.600000 2.970000 129 51 44 0
23.980000 28.600000 2.310000 126 57 45 0
24.200000 28.600000 2.860000 128 59 47 0
24.420000 28.600000 3.520000 124 64 48 0
24.640000 28.600000 3.080000 126 66 50 0
24.860000 28.600000 3.190000 127 68 55 0
25.080000 28.600000 2.530000 129 70 57 0
25.300000 28.600000 3.190000 128 69 56 0
25.520000 28.600000 3.080000 129 70 57 0
25.740000 28.600000 2.970000 128 69 56 0
25.960000 28.600000 2.860000 128 69 56 0
26.180000 28.600000 2.750000 127 67 51 0
26.400000 28.600000 2.860000 128 68 52 0
26.620000 28.600000 2.420000 127 67 54 0
26.840000 28.600000 1.870000 127 67 54 0
27.060000 28.600000 1.870000 125 65 52 0
27.280000 28.600000 1.980000 127 67 54 0
27.500000 28.600000 1.320000 127 67 54 0
27.720000 28.600000 1.320000 127 67 54 0
27.940000 28.600000 1.870000 127 67 51 0
28.160000 28.600000 1.870000 129 69 53 0
28.380000 28.600000 1.980000 129 72 58 0
28.600000 28.600000 1.870000 131 74 60 0
28.820000 28.600000 2.310000 127 84 70 0
29.040000 28.600000 2.970000 130 87 73 0
29.260000 28.600000 3.080000 117 100 77 0
29.480000 28.600000 3.080000 121 104 81 0
29.700000 28.600000 3.190000 123 110 86 0
29.920000 28.600000 3.080000 126 113 89 0
30.140000 28.600000 3.740000 126 116 88 0
30.360000 28.600000 3.630000 127 117 89 0
30.580000 28.600000 3.080000 129 116 94 0
30.800000 28.600000 2.530000 129 116 94 0
31.020000 28.600000 2.420000 127 116 93 0
31.240000 28.600000 2.420000 126 115 92 0
31.460000 28.600000 1.760000 127 114 92 0
31.680000 28.600000 1.210000 126 113 91 0
31.900000 28.600000 1.320000 124 113 88 0
32.120000 28.600000 0.660000 123 112 87 0
32.340000 28.600000 0.660000 125 109 88 0
32.560000 28.600000 0.660000 124 108 87 0
32.780000 28.600000 0.550000 122 109 85 0
33.000000 28.600000 0.550000 122 109 85 0
33.440000 28.600000 1.210000 124 111 87 0
33.660000 28.600000 6.050000 124 114 86 0
33.880000 28.600000 13.640000 125 115 87 0
34.100000 28.600000 18.480000 126 113 89 0
34.320000 28.600000 19.910000 128 115 91 0
34.540000 28.600000 19.140000 128 117 92 0
34.760000 28.600000 19.140000 129 118 93 0
34.980000 28.600000 19.140000 134 119 93 0
35.200000 28.600000 18.480000 137 122 96 0
35.420000 28.600000 18.480000 135 123 94 0
35.640000 28.600000 18.480000 138 126 97 0
35.860000 28.600000 18.480000 139 129 97 0
36.080000 28.600000 17.820000 143 133 101 0
36.300000 28.600000 17.820000 146 135 110 0
36.520000 28.600000 17.820000 149 138 113 0
36.740000 28.600000 17.820000 147 145 115 0
36.960000 28.600000 17.820000 153 151 121 0
37.180000 28.600000 17.820000 154 158 128 0
0.000000 28.820000 6.270000 129 71 64 0
0.220000 28.820000 6.270000 128 70 64 0
0.440000 28.820000 6.270000 129 71 65 0
0.660000 28.820000 6.270000 129 71 64 0
0.880000 28.820000 6.270000 129 71 64 0
1.100000 28.820000 6.930000 129 71 64 0
1.320000 28.820000 6.930000 129 71 64 0
1.540000 28.820000 6.930000 129 71 64 0
1.760000 28.820000 6.930000 131 73 66 0
1.980000 28.820000 6.930000 129 71 65 0
2.200000 28.820000 6.930000 130 72 66 0
2.420000 28.820000 6.930000 130 72 65 0
2.640000 28.820000 6.930000 131 73 66 0
2.860000 28.820000 7.700000 132 72 66 0
3.080000 28.820000 7.700000 134 74 68 0
3.300000 28.820000 7.700000 132 74 67 0
3.520000 28.820000 8.360000 132 74 67 0
3.740000 28.820000 8.360000 132 74 68 0
3.960000 28.820000 8.360000 133 75 69 0
4.180000 28.820000 9.020000 133 75 68 0
4.400000 28.820000 9.020000 134 76 69 0
4.620000 28.820000 9.020000 136 76 70 0
4.840000 28.820000 9.020000 137 77 71 0
5.060000 28.820000 9.020000 137 79 73 0
5.280000 28.820000 9.790000 137 79 73 0
5.500000 28.820000 9.790000 138 80 74 0
5.720000 28.820000 9.790000 138 80 74 0
5.940000 28.820000 9.790000 139 80 77 0
6.160000 28.820000 10.450000 139 80 77 0
6.380000 28.820000 10.450000 140 84 80 0
6.600000 28.820000 11.220000 140 84 80 0
6.820000 28.820000 11.220000 140 85 78 0
7.040000 28.820000 11.220000 141 86 79 0
7.260000 28.820000 11.220000 143 87 83 0
7.480000 28.820000 11.880000 144 88 84 0
7.700000 28.820000 12.650000 143 87 85 0
7.920000 28.820000 13.310000 143 87 85 0
8.140000 28.820000 14.080000 144 88 86 0
8.360000 28.820000 14.080000 144 88 86 0
8.580000 28.820000 14.740000 141 91 89 0
8.800000 28.820000 14.740000 145 95 93 0
9.020000 28.820000 15.400000 148 109 107 0
9.240000 28.820000 15.510000 154 115 113 0
9.460000 28.820000 15.510000 152 113 111 0
9.680000 28.820000 15.510000 146 107 105 0
9.900000 28.820000 15.510000 148 92 88 0
10.120000 28.820000 15.510000 140 84 80 0
10.340000 28.820000 16.170000 144 80 75 0
10.560000 28.820000 16.170000 139 75 70 0
10.780000 28.820000 16.940000 137 69 61 0
11.000000 28.820000 14.080000 134 66 58 0
11.220000 28.820000 5.060000 137 62 54 0
11.440000 28.820000 0.990000 135 60 52 0
11.660000 28.820000 1.650000 136 58 51 0
11.880000 28.820000 1.650000 134 56 49 0
12.100000 28.820000 1.650000 133 58 50 0
12.320000 28.820000 1.650000 132 57 49 0
12.540000 28.820000 1.540000 131 56 48 0
12.760000 28.820000 2.310000 129 54 46 0
12.980000 28.820000 2.310000 132 54 47 0
13.200000 28.820000 2.310000 133 55 48 0
13.420000 28.820000 2.310000 132 52 48 0
13.640000 28.820000 2.310000 132 52 48 0
13.860000 28.820000 2.310000 130 52 43 0
14.080000 28.820000 2.310000 131 53 44 0
14.300000 28.820000 2.310000 130 52 45 0
14.520000 28.820000 2.200000 130 52 45 0
14.740000 28.820000 2.200000 130 50 44 0
14.960000 28.820000 2.200000 132 52 46 0
15.180000 28.820000 2.200000 130 50 44 0
15.400000 28.820000 2.310000 129 49 43 0
15.620000 28.820000 2.310000 128 49 40 0
15.840000 28.820000 2.310000 128 49 40 0
16.060000 28.820000 2.200000 127 46 40 0
16.280000 28.820000 2.200000 127 46 40 0
16.500000 28.820000 2.310000 126 45 39 0
16.720000 28.820000 2.310000 126 45 39 0
16.940000 28.820000 2.200000 125 44 38 0
17.160000 28.820000 2.200000 124 43 37 0
17.380000 28.820000 2.860000 125 44 36 0
17.600000 28.820000 2.860000 124 43 35 0
17.820000 28.820000 2.200000 126 42 39 0
18.040000 28.820000 2.200000 125 41 38 0
18.260000 28.820000 2.200000 123 39 34 0
18.480000 28.820000 2.200000 125 41 36 0
18.700000 28.820000 2.200000 122 41 33 0
18.920000 28.820000 2.860000 123 42 34 0
19.140000 28.820000 2.860000 124 43 35 0
19.360000 28.820000 2.200000 124 43 35 0
19.580000 28.820000 2.200000 126 45 39 0
19.800000 28.820000 2.200000 125 44 38 0
20.020000 28.820000 2.200000 127 46 40 0
20.240000 28.820000 2.200000 127 46 40 0
20.460000 28.820000 2.200000 126 47 38 0
20.680000 28.820000 2.200000 129 50 41 0
20.900000 28.820000 2.200000 127 48 39 0
21.120000 28.820000 2.200000 128 49 40 0
21.340000 28.820000 2.860000 125 47 38 0
21.560000 28.820000 2.750000 127 49 40 0
21.780000 28.820000 2.200000 127 47 41 0
22.000000 28.820000 2.310000 128 48 42 0
22.220000 28.820000 2.200000 127 49 40 0
22.440000 28.820000 2.860000 129 51 42 0
22.660000 28.820000 2.860000 125 50 40 0
22.880000 28.820000 2.860000 127 52 42 0
23.100000 28.820000 2.860000 125 52 41 0
23.320000 28.820000 2.860000 126 53 42 0
23.540000 28.820000 2.860000 126 55 46 0
23.760000 28.820000 2.860000 126 55 46 0
23.980000 28.820000 2.860000 125 62 50 0
24.200000 28.820000 3.520000 126 63 51 0
24.420000 28.820000 3.520000 125 65 52 0
24.640000 28.820000 3.080000 127 67 54 0
24.860000 28.820000 3.190000 128 70 54 0
25.080000 28.820000 3.190000 129 71 55 0
25.300000 28.820000 3.080000 129 70 57 0
25.520000 28.820000 3.630000 129 70 57 0
25.740000 28.820000 2.860000 129 71 55 0
25.960000 28.820000 2.860000 127 69 53 0
26.180000 28.820000 2.860000 128 68 55 0
26.400000 28.820000 2.200000 127 67 54 0
26.620000 28.820000 2.310000 127 67 52 0
26.840000 28.820000 1.760000 126 66 51 0
27.060000 28.820000 1.870000 126 66 53 0
27.280000 28.820000 1.760000 126 66 53 0
27.500000 28.820000 1.760000 126 68 52 0
27.720000 28.820000 1.870000 125 67 51 0
27.940000 28.820000 1.870000 125 68 54 0
28.160000 28.820000 1.870000 128 71 57 0
28.380000 28.820000 1.870000 126 74 58 0
28.600000 28.820000 2.420000 129 77 61 0
28.820000 28.820000 2.860000 119 90 71 0
29.040000 28.820000 2.970000 122 93 74 0
29.260000 28.820000 3.080000 116 103 81 0
29.480000 28.820000 3.740000 121 108 86 0
29.700000 28.820000 3.740000 125 112 90 0
29.920000 28.820000 3.630000 127 114 92 0
30.140000 28.820000 3.630000 128 115 91 0
30.360000 28.820000 3.520000 128 115 91 0
30.580000 28.820000 2.970000 128 115 91 0
30.800000 28.820000 2.530000 128 115 91 0
31.020000 28.820000 1.870000 127 114 92 0
31.240000 28.820000 1.870000 127 114 92 0
31.460000 28.820000 1.210000 126 113 91 0
31.680000 28.820000 1.320000 124 111 89 0
31.900000 28.820000 0.660000 124 111 87 0
32.120000 28.820000 0.660000 124 111 87 0
32.340000 28.820000 0.660000 123 110 86 0
32.560000 28.820000 0.660000 122 109 85 0
32.780000 28.820000 0.550000 122 109 85 0
33.440000 28.820000 3.300000 124 111 87 0
33.660000 28.820000 12.210000 125 112 88 0
33.880000 28.820000 18.480000 125 112 88 0
34.100000 28.820000 19.910000 126 113 89 0
34.320000 28.820000 19.140000 128 115 91 0
34.540000 28.820000 19.140000 131 115 94 0
34.760000 28.820000 19.140000 133 117 96 0
34.980000 28.820000 18.480000 133 120 96 0
35.200000 28.820000 18.480000 134 121 97 0
35.420000 28.820000 18.480000 138 123 97 0
35.640000 28.820000 18.480000 140 125 99 0
35.860000 28.820000 18.480000 140 130 100 0
36.080000 28.820000 17.820000 144 134 104 0
36.300000 28.820000 17.820000 145 137 109 0
36.520000 28.820000 17.820000 148 140 112 0
36.740000 28.820000 17.820000 148 148 117 0
36.960000 28.820000 17.820000 152 152 121 0
37.180000 28.820000 17.820000 156 160 130 0
0.000000 29.040000 5.610000 129 71 64 0
0.220000 29.040000 5.610000 129 71 65 0
0.440000 29.040000 6.270000 129 71 65 0
0.660000 29.040000 6.270000 129 71 64 0
0.880000 29.040000 6.270000 128 70 63 0
1.100000 29.040000 6.270000 129 71 64 0
1.320000 29.040000 6.930000 128 70 63 0
1.540000 29.040000 6.930000 129 71 64 0
1.760000 29.040000 6.930000 130 72 65 0
1.980000 29.040000 6.930000 130 72 66 0
2.200000 29.040000 6.930000 130 72 66 0
2.420000 29.040000 6.930000 130 72 65 0
2.640000 29.040000 7.700000 130 72 65 0
2.860000 29.040000 7.700000 131 71 65 0
3.080000 29.040000 7.700000 133 73 67 0
3.300000 29.040000 7.700000 131 73 66 0
3.520000 29.040000 8.360000 132 74 67 0
3.740000 29.040000 8.360000 133 75 69 0
3.960000 29.040000 8.360000 134 76 70 0
4.180000 29.040000 9.020000 134 76 69 0
4.400000 29.040000 9.020000 135 77 70 0
4.620000 29.040000 9.020000 136 76 70 0
4.840000 29.040000 9.020000 136 76 70 0
5.060000 29.040000 9.020000 137 79 73 0
5.280000 29.040000 9.020000 137 79 73 0
5.500000 29.040000 9.790000 138 80 74 0
5.720000 29.040000 9.790000 139 81 75 0
5.940000 29.040000 9.790000 140 81 78 0
6.160000 29.040000 10.450000 141 82 79 0
6.380000 29.040000 10.450000 139 83 79 0
6.600000 29.040000 11.220000 140 84 80 0
6.820000 29.040000 11.220000 141 86 79 0
7.040000 29.040000 11.220000 142 87 80 0
7.260000 29.040000 11.220000 143 87 83 0
7.480000 29.040000 11.880000 144 88 84 0
7.700000 29.040000 12.650000 144 88 86 0
7.920000 29.040000 13.310000 145 89 87 0
8.140000 29.040000 13.970000 145 89 87 0
8.360000 29.040000 14.740000 147 91 89 0
8.580000 29.040000 14.740000 146 96 94 0
8.800000 29.040000 14.740000 156 106 104 0
9.020000 29.040000 15.400000 158 119 117 0
9.240000 29.040000 15.510000 158 119 117 0
9.460000 29.040000 15.510000 155 116 114 0
9.680000 29.040000 15.510000 158 119 117 0
9.900000 29.040000 15.510000 159 103 99 0
10.120000 29.040000 15.510000 142 86 82 0
10.340000 29.040000 16.170000 142 78 73 0
10.560000 29.040000 16.170000 138 74 69 0
10.780000 29.040000 16.940000 136 68 60 0
11.000000 29.040000 13.420000 134 66 58 0
11.220000 29.040000 4.400000 137 62 54 0
11.440000 29.040000 0.220000 135 60 52 0
11.660000 29.040000 0.880000 136 58 51 0
11.880000 29.040000 1.650000 136 58 51 0
12.100000 29.040000 1.650000 134 59 51 0
12.320000 29.040000 1.540000 133 58 50 0
12.540000 29.040000 1.540000 132 57 49 0
12.760000 29.040000 2.310000 131 56 48 0
12.980000 29.040000 2.310000 131 53 46 0
13.200000 29.040000 2.310000 131 53 46 0
13.420000 29.040000 2.310000 133 53 49 0
13.640000 29.040000 2.310000 132 52 48 0
13.860000 29.040000 2.310000 130 52 43 0
14.080000 29.040000 2.310000 130 52 43 0
14.300000 29.040000 2.310000 130 52 45 0
14.520000 29.040000 2.200000 130 52 45 0
14.740000 29.040000 2.200000 131 51 45 0
14.960000 29.040000 2.200000 130 50 44 0
15.180000 29.040000 2.310000 130 50 44 0
15.400000 29.040000 2.310000 129 49 43 0
15.620000 29.040000 2.310000 127 48 39 0
15.840000 29.040000 2.200000 127 48 39 0
16.060000 29.040000 2.200000 127 46 40 0
16.280000 29.040000 2.200000 127 46 40 0
16.500000 29.040000 2.310000 124 43 37 0
16.720000 29.040000 2.200000 126 45 39 0
16.940000 29.040000 2.200000 124 43 37 0
17.160000 29.040000 2.200000 125 44 38 0
17.380000 29.040000 2.200000 123 42 34 0
17.600000 29.040000 2.200000 124 43 35 0
17.820000 29.040000 2.200000 124 40 37 0
18.040000 29.040000 2.200000 124 40 37 0
18.260000 29.040000 2.200000 124 40 35 0
18.480000 29.040000 2.200000 126 42 37 0
18.700000 29.040000 2.200000 123 42 34 0
18.920000 29.040000 2.860000 124 43 35 0
19.140000 29.040000 2.200000 125 44 36 0
19.360000 29.040000 2.310000 125 44 36 0
19.580000 29.040000 2.200000 126 45 39 0
19.800000 29.040000 2.200000 126 45 39 0
20.020000 29.040000 2.200000 126 45 39 0
20.240000 29.040000 2.200000 127 46 40 0
20.460000 29.040000 2.200000 126 47 38 0
20.680000 29.040000 2.200000 126 47 38 0
20.900000 29.040000 2.200000 127 48 39 0
21.120000 29.040000 2.200000 127 48 39 0
21.340000 29.040000 2.200000 127 49 40 0
21.560000 29.040000 2.090000 126 48 39 0
21.780000 29.040000 2.200000 127 47 41 0
22.000000 29.040000 2.200000 128 48 42 0
22.220000 29.040000 2.200000 128 50 41 0
22.440000 29.040000 2.860000 128 50 41 0
22.660000 29.040000 2.860000 126 51 41 0
22.880000 29.040000 2.860000 127 52 42 0
23.100000 29.040000 2.860000 126 53 42 0
23.320000 29.040000 2.860000 127 54 43 0
23.540000 29.040000 2.750000 126 55 46 0
23.760000 29.040000 3.520000 128 57 48 0
23.980000 29.040000 3.520000 126 63 51 0
24.200000 29.040000 3.520000 127 64 52 0
24.420000 29.040000 3.630000 127 67 54 0
24.640000 29.040000 3.740000 128 68 55 0
24.860000 29.040000 3.740000 128 70 54 0
25.080000 29.040000 3.630000 129 71 55 0
25.300000 29.040000 3.520000 129 70 57 0
25.520000 29.040000 3.520000 128 69 56 0
25.740000 29.040000 2.860000 128 70 54 0
25.960000 29.040000 2.860000 127 69 53 0
26.180000 29.040000 2.860000 128 68 55 0
26.400000 29.040000 2.420000 128 68 55 0
26.620000 29.040000 1.760000 128 68 53 0
26.840000 29.040000 1.760000 127 67 52 0
27.060000 29.040000 2.420000 127 67 54 0
27.280000 29.040000 2.310000 126 66 53 0
27.500000 29.040000 2.310000 126 68 52 0
27.720000 29.040000 2.420000 125 67 51 0
27.940000 29.040000 1.760000 126 69 55 0
28.160000 29.040000 1.870000 128 71 57 0
28.380000 29.040000 1.870000 127 75 59 0
28.600000 29.040000 2.970000 131 79 63 0
28.820000 29.040000 3.520000 121 92 73 0
29.040000 29.040000 3.630000 125 96 77 0
29.260000 29.040000 3.740000 119 106 84 0
29.480000 29.040000 3.630000 122 109 87 0
29.700000 29.040000 4.290000 125 112 90 0
29.920000 29.040000 4.290000 128 115 93 0
30.140000 29.040000 3.520000 127 114 90 0
30.360000 29.040000 3.520000 127 114 90 0
30.580000 29.040000 2.970000 127 114 90 0
30.800000 29.040000 2.420000 125 112 88 0
31.020000 29.040000 1.760000 126 113 91 0
31.240000 29.040000 1.760000 126 113 91 0
31.460000 29.040000 1.870000 124 111 89 0
31.680000 29.040000 1.320000 124 111 89 0
31.900000 29.040000 0.660000 123 110 86 0
32.120000 29.040000 0.660000 123 110 86 0
32.340000 29.040000 0.660000 122 109 85 0
32.560000 29.040000 0.550000 121 108 84 0
33.440000 29.040000 4.620000 123 110 86 0
33.660000 29.040000 15.070000 125 112 88 0
33.880000 29.040000 19.910000 125 112 88 0
34.100000 29.040000 19.800000 127 114 90 0
34.320000 29.040000 19.140000 128 115 91 0
34.540000 29.040000 19.140000 132 116 95 0
34.760000 29.040000 19.140000 133 117 96 0
34.980000 29.040000 18.480000 132 119 95 0
35.200000 29.040000 18.480000 134 121 97 0
35.420000 29.040000 18.480000 139 124 98 0
35.640000 29.040000 18.480000 141 126 100 0
35.860000 29.040000 18.480000 141 131 101 0
36.080000 29.040000 17.820000 144 134 104 0
36.300000 29.040000 17.820000 145 137 109 0
36.520000 29.040000 17.820000 148 140 112 0
36.740000 29.040000 17.820000 148 148 117 0
36.960000 29.040000 17.820000 153 153 122 0
37.180000 29.040000 17.820000 155 159 129 0
0.000000 29.260000 5.720000 129 69 64 0
0.220000 29.260000 5.610000 128 70 63 0
0.440000 29.260000 6.270000 128 70 63 0
0.660000 29.260000 6.270000 128 68 63 0
0.880000 29.260000 6.270000 129 69 64 0
1.100000 29.260000 6.270000 128 70 63 0
1.320000 29.260000 6.930000 128 70 63 0
1.540000 29.260000 6.930000 130 70 64 0
1.760000 29.260000 6.930000 130 70 64 0
1.980000 29.260000 6.930000 130 72 65 0
2.200000 29.260000 6.930000 130 72 65 0
2.420000 29.260000 6.930000 132 72 67 0
2.640000 29.260000 7.700000 133 73 68 0
2.860000 29.260000 7.700000 131 73 66 0
3.080000 29.260000 7.700000 130 72 65 0
3.300000 29.260000 7.700000 134 74 68 0
3.520000 29.260000 8.360000 134 74 68 0
3.740000 29.260000 8.360000 133 73 67 0
3.960000 29.260000 9.020000 134 74 68 0
4.180000 29.260000 9.020000 135 75 70 0
4.400000 29.260000 9.020000 135 75 70 0
4.620000 29.260000 9.020000 136 78 72 0
4.840000 29.260000 9.020000 136 78 72 0
5.060000 29.260000 9.020000 136 78 71 0
5.280000 29.260000 9.790000 137 79 72 0
5.500000 29.260000 9.790000 138 80 74 0
5.720000 29.260000 9.790000 139 81 75 0
5.940000 29.260000 9.790000 140 82 76 0
6.160000 29.260000 10.450000 140 82 76 0
6.380000 29.260000 10.450000 139 83 79 0
6.600000 29.260000 11.220000 140 84 80 0
6.820000 29.260000 11.220000 140 86 81 0
7.040000 29.260000 11.220000 141 87 82 0
7.260000 29.260000 11.880000 143 89 84 0
7.480000 29.260000 11.880000 143 89 84 0
7.700000 29.260000 12.650000 145 89 85 0
7.920000 29.260000 13.310000 147 91 87 0
8.140000 29.260000 13.970000 146 95 95 0
8.360000 29.260000 14.740000 150 99 99 0
8.580000 29.260000 14.740000 144 114 119 0
8.800000 29.260000 15.400000 164 134 139 0
9.020000 29.260000 15.400000 152 152 149 0
9.240000 29.260000 15.400000 150 150 147 0
9.460000 29.260000 15.510000 161 134 136 0
9.680000 29.260000 15.510000 146 119 121 0
9.900000 29.260000 15.510000 164 110 105 0
10.120000 29.260000 15.510000 144 90 85 0
10.340000 29.260000 15.510000 141 77 72 0
10.560000 29.260000 16.170000 137 73 68 0
10.780000 29.260000 16.170000 136 68 62 0
11.000000 29.260000 13.420000 135 67 61 0
11.220000 29.260000 6.490000 136 61 53 0
11.440000 29.260000 0.990000 134 59 51 0
11.660000 29.260000 0.880000 135 60 52 0
11.880000 29.260000 1.650000 133 58 50 0
12.100000 29.260000 1.650000 132 58 50 0
12.320000 29.260000 1.540000 133 59 51 0
12.540000 29.260000 1.540000 131 57 51 0
12.760000 29.260000 1.540000 131 57 51 0
12.980000 29.260000 2.310000 132 54 47 0
13.200000 29.260000 2.310000 131 53 46 0
13.420000 29.260000 2.310000 132 54 47 0
13.640000 29.260000 2.310000 130 52 45 0
13.860000 29.260000 2.310000 131 50 44 0
14.080000 29.260000 2.310000 131 50 44 0
14.300000 29.260000 2.200000 131 50 44 0
14.520000 29.260000 2.200000 131 50 44 0
14.740000 29.260000 1.540000 130 50 44 0
14.960000 29.260000 1.540000 130 50 44 0
15.180000 29.260000 1.540000 130 50 44 0
15.400000 29.260000 1.540000 128 48 42 0
15.620000 29.260000 2.310000 130 49 43 0
15.840000 29.260000 2.200000 127 46 40 0
16.060000 29.260000 2.200000 128 44 39 0
16.280000 29.260000 2.310000 128 44 39 0
16.500000 29.260000 2.310000 124 43 37 0
16.720000 29.260000 2.310000 125 44 38 0
16.940000 29.260000 2.200000 125 44 38 0
17.160000 29.260000 2.200000 124 43 37 0
17.380000 29.260000 2.200000 125 41 36 0
17.600000 29.260000 2.200000 125 41 36 0
17.820000 29.260000 2.200000 126 40 38 0
18.040000 29.260000 2.200000 124 38 36 0
18.260000 29.260000 2.200000 123 42 36 0
18.480000 29.260000 2.200000 124 43 37 0
18.700000 29.260000 2.200000 124 43 37 0
18.920000 29.260000 2.200000 124 43 37 0
19.140000 29.260000 2.200000 125 44 36 0
19.360000 29.260000 2.200000 126 45 37 0
19.580000 29.260000 2.200000 125 44 38 0
19.800000 29.260000 2.200000 127 46 40 0
20.020000 29.260000 2.200000 127 46 40 0
20.240000 29.260000 2.200000 126 45 39 0
20.460000 29.260000 2.200000 126 46 40 0
20.680000 29.260000 2.200000 125 45 39 0
20.900000 29.260000 2.200000 127 48 39 0
21.120000 29.260000 2.200000 128 49 40 0
21.340000 29.260000 2.200000 128 48 42 0
21.560000 29.260000 2.090000 127 47 41 0
21.780000 29.260000 2.200000 124 49 39 0
22.000000 29.260000 2.200000 125 50 40 0
22.220000 29.260000 2.200000 126 48 41 0
22.440000 29.260000 2.860000 127 49 42 0
22.660000 29.260000 2.860000 128 50 41 0
22.880000 29.260000 2.860000 128 50 41 0
23.100000 29.260000 2.860000 124 53 44 0
23.320000 29.260000 2.860000 125 54 45 0
23.540000 29.260000 2.860000 124 57 44 0
23.760000 29.260000 3.520000 127 60 47 0
23.980000 29.260000 3.520000 124 65 52 0
24.200000 29.260000 3.520000 126 67 54 0
24.420000 29.260000 3.630000 127 69 53 0
24.640000 29.260000 3.630000 127 69 53 0
24.860000 29.260000 4.290000 128 71 57 0
25.080000 29.260000 3.520000 129 72 58 0
25.300000 29.260000 3.520000 129 69 56 0
25.520000 29.260000 2.860000 129 69 56 0
25.740000 29.260000 2.310000 126 67 54 0
