ply
format ascii 1.0
element vertex 1151
property float x
property float y
property float z
property uchar red
property uchar green
property uchar blue
property uchar alpha
end_header
4.400000 34.320000 25.520000 200 118 125 0
4.620000 34.320000 22.880000 203 121 128 0
4.840000 34.320000 6.380000 203 113 120 0
5.280000 34.320000 6.380000 197 94 100 0
5.500000 34.320000 16.060000 189 86 92 0
5.720000 34.320000 21.560000 158 94 103 0
5.940000 34.320000 22.880000 199 135 144 0
6.160000 34.320000 22.880000 190 188 194 0
6.380000 34.320000 22.880000 230 228 234 0
6.600000 34.320000 21.560000 244 239 241 0
6.820000 34.320000 21.780000 243 238 240 0
7.040000 34.320000 23.100000 253 211 220 0
7.260000 34.320000 24.640000 227 185 194 0
7.480000 34.320000 24.640000 230 130 138 0
7.700000 34.320000 25.960000 186 86 94 0
7.920000 34.320000 26.180000 182 78 87 0
8.140000 34.320000 26.180000 183 79 88 0
8.360000 34.320000 26.180000 182 78 87 0
8.580000 34.320000 27.280000 182 78 87 0
8.800000 34.320000 29.480000 185 74 85 0
9.020000 34.320000 30.360000 181 70 81 0
9.240000 34.320000 30.580000 180 70 78 0
9.460000 34.320000 31.900000 180 70 78 0
9.680000 34.320000 32.120000 179 69 77 0
9.900000 34.320000 32.120000 179 69 77 0
10.120000 34.320000 32.120000 177 67 75 0
10.340000 34.320000 32.120000 175 65 73 0
10.560000 34.320000 32.340000 176 64 73 0
10.780000 34.320000 33.660000 175 63 72 0
11.000000 34.320000 33.660000 174 62 71 0
11.220000 34.320000 33.660000 175 63 72 0
11.440000 34.320000 33.880000 175 63 72 0
11.660000 34.320000 33.880000 174 62 71 0
11.880000 34.320000 33.880000 173 61 70 0
12.100000 34.320000 33.880000 173 61 70 0
12.320000 34.320000 35.420000 172 60 69 0
12.540000 34.320000 35.420000 174 62 71 0
12.760000 34.320000 35.420000 172 60 69 0
12.980000 34.320000 35.420000 171 59 68 0
13.200000 34.320000 35.640000 173 59 69 0
13.420000 34.320000 35.640000 173 59 69 0
13.640000 34.320000 35.640000 174 60 70 0
13.860000 34.320000 35.640000 173 59 69 0
14.080000 34.320000 35.640000 173 59 69 0
14.300000 34.320000 35.640000 173 59 69 0
14.520000 34.320000 35.860000 174 60 70 0
14.740000 34.320000 37.180000 173 59 69 0
14.960000 34.320000 37.180000 174 60 70 0
15.180000 34.320000 38.500000 174 60 70 0
15.400000 34.320000 39.160000 176 59 70 0
15.620000 34.320000 40.260000 176 59 70 0
15.840000 34.320000 41.580000 173 59 69 0
16.060000 34.320000 41.580000 174 60 70 0
16.280000 34.320000 40.040000 175 61 71 0
16.500000 34.320000 40.040000 175 61 71 0
16.720000 34.320000 40.260000 176 62 74 0
16.940000 34.320000 40.260000 177 63 75 0
17.160000 34.320000 38.940000 178 64 74 0
17.380000 34.320000 37.840000 181 67 77 0
17.600000 34.320000 38.060000 183 71 80 0
17.820000 34.320000 38.060000 182 70 79 0
18.040000 34.320000 37.840000 179 65 75 0
18.260000 34.320000 39.160000 179 65 75 0
18.480000 34.320000 39.160000 180 63 74 0
18.700000 34.320000 40.480000 179 62 73 0
18.920000 34.320000 40.480000 178 60 71 0
19.140000 34.320000 40.480000 177 59 70 0
19.360000 34.320000 40.480000 177 60 71 0
19.580000 34.320000 40.700000 178 61 72 0
19.800000 34.320000 40.700000 178 61 72 0
20.020000 34.320000 40.700000 179 62 73 0
20.240000 34.320000 40.700000 180 62 73 0
20.460000 34.320000 40.700000 179 61 72 0
20.680000 34.320000 40.700000 180 62 73 0
20.900000 34.320000 40.920000 180 62 73 0
21.120000 34.320000 40.920000 180 63 74 0
21.340000 34.320000 39.600000 183 66 77 0
21.560000 34.320000 39.600000 185 68 79 0
21.780000 34.320000 38.280000 182 65 76 0
22.000000 34.320000 24.420000 179 61 70 0
22.220000 34.320000 6.380000 176 58 67 0
27.280000 34.320000 1.100000 182 68 78 0
27.500000 34.320000 3.080000 182 68 78 0
27.720000 34.320000 5.720000 188 82 89 0
27.940000 34.320000 5.720000 190 84 91 0
28.160000 34.320000 5.720000 192 80 89 0
28.380000 34.320000 4.180000 184 72 81 0
28.600000 34.320000 4.180000 181 69 76 0
28.820000 34.320000 4.180000 184 72 79 0
29.040000 34.320000 4.180000 187 77 85 0
29.260000 34.320000 4.180000 187 77 85 0
29.480000 34.320000 4.180000 188 81 86 0
29.700000 34.320000 4.400000 185 78 83 0
29.920000 34.320000 4.400000 187 77 85 0
30.140000 34.320000 4.400000 186 76 84 0
30.360000 34.320000 4.400000 184 74 80 0
30.580000 34.320000 4.400000 184 74 80 0
30.800000 34.320000 2.860000 184 72 79 0
31.020000 34.320000 2.860000 182 70 77 0
31.240000 34.320000 2.860000 180 70 76 0
31.460000 34.320000 2.860000 180 70 76 0
31.680000 34.320000 2.860000 180 70 78 0
31.900000 34.320000 4.400000 182 72 80 0
32.120000 34.320000 4.400000 184 74 80 0
32.340000 34.320000 4.400000 185 75 81 0
32.560000 34.320000 2.860000 185 73 80 0
32.780000 34.320000 3.080000 184 72 79 0
33.000000 34.320000 3.080000 182 72 78 0
33.220000 34.320000 3.080000 183 73 79 0
33.440000 34.320000 3.080000 183 73 81 0
33.660000 34.320000 3.080000 183 73 81 0
33.880000 34.320000 3.080000 182 72 78 0
34.100000 34.320000 3.080000 183 73 79 0
34.320000 34.320000 3.080000 182 75 80 0
34.540000 34.320000 3.080000 182 75 80 0
34.760000 34.320000 3.080000 181 74 79 0
34.980000 34.320000 3.080000 181 74 79 0
35.200000 34.320000 4.620000 183 75 83 0
35.420000 34.320000 4.620000 182 74 82 0
35.640000 34.320000 4.620000 183 76 81 0
35.860000 34.320000 4.620000 183 76 81 0
36.080000 34.320000 4.620000 183 76 81 0
36.300000 34.320000 4.620000 184 77 82 0
36.520000 34.320000 4.620000 183 77 82 0
36.740000 34.320000 4.840000 184 78 83 0
36.960000 34.320000 4.840000 184 78 83 0
37.180000 34.320000 4.840000 185 79 84 0
0.000000 34.540000 12.760000 188 81 86 0
0.220000 34.540000 11.440000 188 81 86 0
0.440000 34.540000 11.440000 188 81 84 0
0.660000 34.540000 11.440000 190 83 86 0
0.880000 34.540000 11.440000 191 86 88 0
1.100000 34.540000 11.440000 192 87 89 0
1.320000 34.540000 10.120000 192 87 89 0
1.540000 34.540000 10.340000 193 88 90 0
1.760000 34.540000 10.560000 192 85 90 0
1.980000 34.540000 10.780000 191 84 89 0
2.200000 34.540000 10.560000 190 83 86 0
2.420000 34.540000 11.660000 190 83 86 0
2.640000 34.540000 12.540000 191 84 87 0
2.860000 34.540000 12.540000 190 83 86 0
3.080000 34.540000 11.220000 189 83 88 0
3.300000 34.540000 9.900000 190 84 89 0
3.520000 34.540000 8.580000 174 94 100 0
3.740000 34.540000 11.440000 178 98 104 0
3.960000 34.540000 16.940000 162 121 124 0
4.180000 34.540000 28.160000 179 138 141 0
4.400000 34.540000 38.060000 207 148 149 0
4.620000 34.540000 29.920000 207 148 149 0
4.840000 34.540000 9.240000 212 126 132 0
5.280000 34.540000 3.740000 198 96 102 0
5.500000 34.540000 14.740000 188 86 92 0
5.720000 34.540000 21.560000 173 87 109 0
5.940000 34.540000 22.880000 199 113 135 0
6.160000 34.540000 22.880000 208 209 208 0
6.380000 34.540000 21.560000 240 241 240 0
6.600000 34.540000 20.240000 240 241 240 0
6.820000 34.540000 20.240000 240 241 240 0
7.040000 34.540000 21.780000 255 229 234 0
7.260000 34.540000 23.100000 223 186 191 0
7.480000 34.540000 24.640000 229 132 144 0
7.700000 34.540000 24.640000 187 90 102 0
7.920000 34.540000 26.180000 184 84 91 0
8.140000 34.540000 26.180000 183 83 90 0
8.360000 34.540000 26.180000 185 83 89 0
8.580000 34.540000 27.280000 183 81 87 0
8.800000 34.540000 29.480000 185 75 83 0
9.020000 34.540000 30.360000 182 72 80 0
9.240000 34.540000 30.580000 181 71 79 0
9.460000 34.540000 31.900000 181 71 79 0
9.680000 34.540000 32.120000 180 70 78 0
9.900000 34.540000 32.120000 179 69 77 0
10.120000 34.540000 32.120000 178 68 76 0
10.340000 34.540000 32.120000 179 69 77 0
10.560000 34.540000 32.340000 177 65 74 0
10.780000 34.540000 32.340000 176 64 73 0
11.000000 34.540000 33.660000 176 64 73 0
11.220000 34.540000 33.660000 175 63 72 0
11.440000 34.540000 33.880000 174 62 71 0
11.660000 34.540000 33.880000 173 61 70 0
11.880000 34.540000 33.880000 174 62 71 0
12.100000 34.540000 33.880000 173 61 70 0
12.320000 34.540000 34.100000 174 62 71 0
12.540000 34.540000 35.420000 173 61 70 0
12.760000 34.540000 35.420000 173 61 70 0
12.980000 34.540000 35.420000 174 62 71 0
13.200000 34.540000 35.640000 173 61 70 0
13.420000 34.540000 35.640000 172 60 69 0
13.640000 34.540000 35.640000 173 61 70 0
13.860000 34.540000 35.640000 173 61 70 0
14.080000 34.540000 35.640000 173 59 69 0
14.300000 34.540000 35.640000 174 60 70 0
14.520000 34.540000 35.860000 174 62 71 0
14.740000 34.540000 37.180000 173 61 70 0
14.960000 34.540000 37.180000 175 61 71 0
15.180000 34.540000 38.280000 174 60 70 0
15.400000 34.540000 40.480000 174 60 70 0
15.620000 34.540000 40.040000 174 60 70 0
15.840000 34.540000 41.580000 174 60 70 0
16.060000 34.540000 41.580000 175 61 71 0
16.280000 34.540000 40.040000 175 61 71 0
16.500000 34.540000 40.260000 176 62 72 0
16.720000 34.540000 40.260000 176 62 72 0
16.940000 34.540000 40.260000 179 65 75 0
17.160000 34.540000 38.940000 181 69 78 0
17.380000 34.540000 37.840000 182 70 79 0
17.600000 34.540000 36.740000 183 71 80 0
17.820000 34.540000 36.740000 184 72 81 0
18.040000 34.540000 37.840000 181 67 77 0
18.260000 34.540000 39.160000 180 66 76 0
18.480000 34.540000 39.160000 180 63 74 0
18.700000 34.540000 40.480000 179 62 73 0
18.920000 34.540000 40.480000 178 61 72 0
19.140000 34.540000 40.480000 178 61 72 0
19.360000 34.540000 40.700000 178 61 72 0
19.580000 34.540000 40.700000 177 60 71 0
19.800000 34.540000 40.700000 177 60 71 0
20.020000 34.540000 40.700000 177 60 71 0
20.240000 34.540000 40.700000 179 61 72 0
20.460000 34.540000 40.700000 180 62 73 0
20.680000 34.540000 40.700000 180 62 73 0
20.900000 34.540000 40.700000 179 61 72 0
21.120000 34.540000 40.920000 180 62 73 0
21.340000 34.540000 39.600000 182 64 75 0
21.560000 34.540000 39.600000 182 65 76 0
21.780000 34.540000 39.820000 181 64 75 0
22.000000 34.540000 29.920000 181 63 74 0
22.220000 34.540000 9.240000 178 60 71 0
27.280000 34.540000 0.880000 180 70 78 0
27.500000 34.540000 3.080000 186 76 84 0
27.720000 34.540000 5.720000 190 84 93 0
27.940000 34.540000 5.720000 191 85 94 0
28.160000 34.540000 5.720000 189 77 84 0
28.380000 34.540000 4.180000 185 73 80 0
28.600000 34.540000 4.180000 184 72 81 0
28.820000 34.540000 4.180000 187 75 84 0
29.040000 34.540000 4.180000 186 76 84 0
29.260000 34.540000 4.180000 188 78 86 0
29.480000 34.540000 4.180000 187 77 83 0
29.700000 34.540000 4.180000 187 77 83 0
29.920000 34.540000 4.400000 188 76 83 0
30.140000 34.540000 4.400000 188 76 83 0
30.360000 34.540000 4.400000 185 73 82 0
30.580000 34.540000 4.400000 185 73 82 0
30.800000 34.540000 2.860000 183 71 78 0
31.020000 34.540000 2.860000 182 70 77 0
31.240000 34.540000 2.860000 181 71 77 0
31.460000 34.540000 2.860000 181 71 77 0
31.680000 34.540000 2.860000 182 72 78 0
31.900000 34.540000 2.860000 183 73 79 0
32.120000 34.540000 4.400000 183 73 81 0
32.340000 34.540000 4.400000 183 73 81 0
32.560000 34.540000 2.860000 185 75 81 0
32.780000 34.540000 3.080000 183 73 79 0
33.000000 34.540000 3.080000 183 73 79 0
33.220000 34.540000 3.080000 182 72 78 0
33.440000 34.540000 3.080000 182 72 78 0
33.660000 34.540000 3.080000 183 73 79 0
33.880000 34.540000 3.080000 183 73 79 0
34.100000 34.540000 3.080000 184 74 80 0
34.320000 34.540000 4.400000 181 74 79 0
34.540000 34.540000 4.400000 181 74 79 0
34.760000 34.540000 4.620000 183 73 79 0
34.980000 34.540000 4.620000 184 74 80 0
35.200000 34.540000 4.620000 183 76 81 0
35.420000 34.540000 4.620000 183 76 81 0
35.640000 34.540000 4.620000 183 76 81 0
35.860000 34.540000 4.620000 182 75 80 0
36.080000 34.540000 4.620000 184 77 82 0
36.300000 34.540000 4.620000 185 78 83 0
36.520000 34.540000 4.620000 185 78 83 0
36.740000 34.540000 4.840000 185 78 83 0
36.960000 34.540000 4.840000 184 78 83 0
37.180000 34.540000 4.840000 185 79 84 0
0.000000 34.760000 12.760000 190 83 88 0
0.220000 34.760000 11.440000 189 82 87 0
0.440000 34.760000 11.440000 189 82 85 0
0.660000 34.760000 11.440000 191 84 87 0
0.880000 34.760000 11.440000 191 86 88 0
1.100000 34.760000 11.440000 193 88 90 0
1.320000 34.760000 10.120000 193 88 90 0
1.540000 34.760000 10.120000 193 88 90 0
1.760000 34.760000 10.340000 192 85 90 0
1.980000 34.760000 10.560000 191 84 89 0
2.200000 34.760000 10.560000 191 84 87 0
2.420000 34.760000 11.440000 191 84 87 0
2.640000 34.760000 12.540000 191 84 87 0
2.860000 34.760000 12.540000 191 84 87 0
3.080000 34.760000 11.220000 191 85 90 0
3.300000 34.760000 8.580000 193 87 92 0
3.520000 34.760000 11.440000 181 101 107 0
3.740000 34.760000 23.980000 199 119 125 0
3.960000 34.760000 33.660000 195 154 157 0
4.180000 34.760000 37.840000 223 182 185 0
4.400000 34.760000 40.700000 233 174 175 0
4.620000 34.760000 29.920000 212 153 154 0
4.840000 34.760000 9.240000 216 130 136 0
5.280000 34.760000 3.740000 196 94 100 0
5.500000 34.760000 14.740000 188 86 92 0
5.720000 34.760000 21.560000 174 88 110 0
5.940000 34.760000 22.880000 182 96 118 0
6.160000 34.760000 22.880000 193 194 193 0
6.380000 34.760000 21.560000 240 241 240 0
6.600000 34.760000 20.240000 240 241 240 0
6.820000 34.760000 20.460000 240 241 240 0
7.040000 34.760000 21.780000 255 229 234 0
7.260000 34.760000 23.100000 227 190 195 0
7.480000 34.760000 24.640000 227 130 142 0
7.700000 34.760000 24.640000 191 94 106 0
7.920000 34.760000 26.180000 188 88 95 0
8.140000 34.760000 26.180000 188 88 95 0
8.360000 34.760000 26.180000 187 85 91 0
8.580000 34.760000 27.280000 185 83 89 0
8.800000 34.760000 29.480000 186 76 84 0
9.020000 34.760000 30.580000 184 74 82 0
9.240000 34.760000 30.580000 182 72 80 0
9.460000 34.760000 31.900000 182 72 80 0
9.680000 34.760000 32.120000 180 70 78 0
9.900000 34.760000 32.120000 182 72 80 0
10.120000 34.760000 32.120000 179 69 77 0
10.340000 34.760000 32.120000 178 68 76 0
10.560000 34.760000 32.340000 177 65 74 0
10.780000 34.760000 32.340000 177 65 74 0
11.000000 34.760000 33.660000 175 63 72 0
11.220000 34.760000 33.660000 177 65 74 0
11.440000 34.760000 33.880000 175 63 72 0
11.660000 34.760000 33.880000 174 62 71 0
11.880000 34.760000 33.880000 173 61 70 0
12.100000 34.760000 33.880000 174 62 71 0
12.320000 34.760000 34.100000 175 63 72 0
12.540000 34.760000 35.420000 174 62 71 0
12.760000 34.760000 35.420000 173 61 70 0
12.980000 34.760000 35.420000 174 62 71 0
13.200000 34.760000 35.640000 173 61 70 0
13.420000 34.760000 35.640000 173 61 70 0
13.640000 34.760000 35.640000 175 63 72 0
13.860000 34.760000 35.640000 173 61 70 0
14.080000 34.760000 35.640000 174 60 70 0
14.300000 34.760000 35.860000 174 60 70 0
14.520000 34.760000 37.180000 173 61 70 0
14.740000 34.760000 37.180000 174 62 71 0
14.960000 34.760000 37.180000 175 61 71 0
15.180000 34.760000 38.280000 175 61 71 0
15.400000 34.760000 39.160000 175 61 71 0
15.620000 34.760000 40.040000 175 61 71 0
15.840000 34.760000 40.040000 174 60 70 0
16.060000 34.760000 40.040000 175 61 71 0
16.280000 34.760000 40.040000 176 62 72 0
16.500000 34.760000 40.260000 177 63 73 0
16.720000 34.760000 40.260000 177 63 73 0
16.940000 34.760000 40.260000 179 65 75 0
17.160000 34.760000 39.160000 181 69 78 0
17.380000 34.760000 38.060000 183 71 80 0
17.600000 34.760000 36.740000 185 73 82 0
17.820000 34.760000 36.740000 183 71 80 0
18.040000 34.760000 37.840000 182 68 78 0
18.260000 34.760000 39.160000 178 64 74 0
18.480000 34.760000 40.480000 179 62 73 0
18.700000 34.760000 40.480000 178 61 72 0
18.920000 34.760000 40.480000 178 61 72 0
19.140000 34.760000 40.480000 177 60 71 0
19.360000 34.760000 40.700000 177 60 71 0
19.580000 34.760000 40.700000 177 60 71 0
19.800000 34.760000 40.700000 177 60 71 0
20.020000 34.760000 40.700000 177 60 71 0
20.240000 34.760000 40.700000 179 61 72 0
20.460000 34.760000 40.700000 178 60 71 0
20.680000 34.760000 40.700000 179 61 72 0
20.900000 34.760000 40.700000 178 60 71 0
21.120000 34.760000 40.700000 180 62 73 0
21.340000 34.760000 40.920000 181 63 74 0
21.560000 34.760000 39.600000 180 63 74 0
21.780000 34.760000 38.280000 180 63 74 0
22.000000 34.760000 24.420000 179 61 72 0
22.220000 34.760000 6.380000 179 61 72 0
27.060000 34.760000 0.880000 182 66 74 0
27.280000 34.760000 1.760000 183 73 81 0
27.500000 34.760000 2.860000 187 77 85 0
27.720000 34.760000 5.720000 190 84 93 0
27.940000 34.760000 5.720000 191 85 94 0
28.160000 34.760000 5.720000 190 78 85 0
28.380000 34.760000 4.180000 186 74 81 0
28.600000 34.760000 4.180000 185 73 82 0
28.820000 34.760000 4.180000 187 75 84 0
29.040000 34.760000 4.180000 187 77 85 0
29.260000 34.760000 4.180000 188 78 86 0
29.480000 34.760000 4.180000 185 75 81 0
29.700000 34.760000 4.180000 185 75 81 0
29.920000 34.760000 4.400000 188 76 83 0
30.140000 34.760000 4.400000 187 75 82 0
30.360000 34.760000 4.400000 187 75 84 0
30.580000 34.760000 2.860000 183 71 80 0
30.800000 34.760000 2.860000 181 69 76 0
31.020000 34.760000 2.860000 182 70 77 0
31.240000 34.760000 2.860000 182 72 78 0
31.460000 34.760000 2.860000 181 71 77 0
31.680000 34.760000 2.860000 183 73 79 0
31.900000 34.760000 2.860000 183 73 79 0
32.120000 34.760000 4.400000 182 72 80 0
32.340000 34.760000 4.400000 184 74 82 0
32.560000 34.760000 4.400000 185 75 81 0
32.780000 34.760000 2.860000 184 74 80 0
33.000000 34.760000 3.080000 185 75 81 0
33.220000 34.760000 3.080000 183 73 79 0
33.440000 34.760000 3.080000 182 72 78 0
33.660000 34.760000 3.080000 184 74 80 0
33.880000 34.760000 3.080000 183 73 79 0
34.100000 34.760000 3.080000 185 75 81 0
34.320000 34.760000 4.400000 183 76 81 0
34.540000 34.760000 4.400000 182 75 80 0
34.760000 34.760000 4.620000 184 74 80 0
34.980000 34.760000 4.620000 185 75 81 0
35.200000 34.760000 4.620000 182 75 80 0
35.420000 34.760000 4.620000 183 76 81 0
35.640000 34.760000 4.620000 184 77 82 0
35.860000 34.760000 4.620000 184 77 82 0
36.080000 34.760000 4.620000 185 78 83 0
36.300000 34.760000 4.620000 184 77 82 0
36.520000 34.760000 4.620000 185 78 83 0
36.740000 34.760000 4.620000 184 77 82 0
36.960000 34.760000 4.840000 184 78 83 0
37.180000 34.760000 4.840000 184 78 83 0
0.000000 34.980000 12.760000 189 83 88 0
0.220000 34.980000 11.440000 189 83 88 0
0.440000 34.980000 11.440000 189 84 86 0
0.660000 34.980000 11.440000 190 85 87 0
0.880000 34.980000 11.440000 190 85 87 0
1.100000 34.980000 10.120000 193 88 90 0
1.320000 34.980000 10.120000 192 89 91 0
1.540000 34.980000 11.440000 192 89 91 0
1.760000 34.980000 11.440000 192 86 91 0
1.980000 34.980000 10.560000 191 85 90 0
2.200000 34.980000 10.560000 190 84 89 0
2.420000 34.980000 11.440000 190 84 89 0
2.640000 34.980000 12.540000 190 84 89 0
2.860000 34.980000 11.220000 191 85 90 0
3.080000 34.980000 9.900000 189 88 91 0
3.300000 34.980000 7.260000 192 91 94 0
3.520000 34.980000 12.760000 179 116 122 0
3.740000 34.980000 30.800000 206 143 149 0
3.960000 34.980000 40.480000 226 194 194 0
4.180000 34.980000 40.700000 231 199 199 0
4.400000 34.980000 40.700000 242 181 181 0
4.620000 34.980000 29.920000 216 155 155 0
4.840000 34.980000 7.920000 219 123 130 0
5.280000 34.980000 3.740000 194 91 97 0
5.500000 34.980000 16.060000 189 86 92 0
5.720000 34.980000 21.560000 185 85 92 0
5.940000 34.980000 22.880000 190 90 97 0
6.160000 34.980000 23.100000 188 141 168 0
6.380000 34.980000 21.560000 255 218 245 0
6.600000 34.980000 21.780000 255 229 236 0
6.820000 34.980000 21.780000 255 229 236 0
7.040000 34.980000 23.100000 255 213 219 0
7.260000 34.980000 24.640000 229 166 172 0
7.480000 34.980000 24.640000 210 116 125 0
7.700000 34.980000 24.640000 192 98 107 0
7.920000 34.980000 26.180000 187 90 102 0
8.140000 34.980000 26.180000 189 92 104 0
8.360000 34.980000 26.180000 189 89 97 0
8.580000 34.980000 27.280000 186 86 94 0
8.800000 34.980000 29.480000 186 78 88 0
9.020000 34.980000 30.360000 182 74 84 0
9.240000 34.980000 30.580000 181 73 83 0
9.460000 34.980000 31.900000 180 72 82 0
9.680000 34.980000 32.120000 181 71 79 0
9.900000 34.980000 32.120000 181 71 79 0
10.120000 34.980000 32.120000 180 68 79 0
10.340000 34.980000 32.120000 177 65 76 0
10.560000 34.980000 32.340000 177 65 74 0
10.780000 34.980000 32.340000 176 64 73 0
11.000000 34.980000 33.660000 176 64 75 0
11.220000 34.980000 33.660000 176 64 75 0
11.440000 34.980000 33.880000 175 63 72 0
11.660000 34.980000 33.880000 175 63 72 0
11.880000 34.980000 33.880000 175 63 74 0
12.100000 34.980000 33.880000 175 63 74 0
12.320000 34.980000 34.100000 174 62 71 0
12.540000 34.980000 34.100000 175 63 72 0
12.760000 34.980000 35.420000 175 63 72 0
12.980000 34.980000 35.640000 175 63 72 0
13.200000 34.980000 35.640000 175 63 72 0
13.420000 34.980000 35.640000 175 63 72 0
13.640000 34.980000 35.640000 174 62 73 0
13.860000 34.980000 35.640000 174 62 73 0
14.080000 34.980000 35.640000 174 62 71 0
14.300000 34.980000 35.860000 173 61 70 0
14.520000 34.980000 37.180000 175 61 71 0
14.740000 34.980000 37.180000 175 61 71 0
14.960000 34.980000 37.180000 174 62 71 0
15.180000 34.980000 38.060000 175 63 72 0
15.400000 34.980000 40.260000 175 61 71 0
15.620000 34.980000 40.040000 175 61 71 0
15.840000 34.980000 40.040000 175 61 71 0
16.060000 34.980000 40.040000 175 61 71 0
16.280000 34.980000 40.260000 176 62 72 0
16.500000 34.980000 40.260000 176 62 72 0
16.720000 34.980000 40.260000 177 63 73 0
16.940000 34.980000 38.940000 179 65 75 0
17.160000 34.980000 37.840000 181 69 80 0
17.380000 34.980000 36.740000 184 72 83 0
17.600000 34.980000 36.740000 183 71 80 0
17.820000 34.980000 38.060000 182 70 79 0
18.040000 34.980000 37.840000 181 64 75 0
18.260000 34.980000 39.160000 181 64 75 0
18.480000 34.980000 40.480000 175 61 71 0
18.700000 34.980000 40.480000 175 61 71 0
18.920000 34.980000 40.480000 178 61 72 0
19.140000 34.980000 40.480000 176 59 70 0
19.360000 34.980000 40.700000 176 59 70 0
19.580000 34.980000 40.700000 177 60 71 0
19.800000 34.980000 40.700000 178 60 71 0
20.020000 34.980000 40.700000 178 60 71 0
20.240000 34.980000 40.700000 177 59 70 0
20.460000 34.980000 42.020000 177 59 70 0
20.680000 34.980000 42.020000 177 59 70 0
20.900000 34.980000 42.020000 177 59 70 0
21.120000 34.980000 42.240000 177 59 70 0
21.340000 34.980000 40.920000 178 60 71 0
21.560000 34.980000 38.280000 179 61 72 0
21.780000 34.980000 27.060000 180 62 73 0
22.000000 34.980000 11.880000 178 60 71 0
22.220000 34.980000 0.880000 178 60 71 0
27.060000 34.980000 1.980000 182 66 74 0
27.280000 34.980000 2.860000 182 70 79 0
27.500000 34.980000 4.180000 189 77 86 0
27.720000 34.980000 5.720000 187 84 90 0
27.940000 34.980000 5.720000 186 83 89 0
28.160000 34.980000 5.720000 189 77 86 0
28.380000 34.980000 4.180000 184 72 81 0
28.600000 34.980000 4.180000 185 75 83 0
28.820000 34.980000 4.180000 187 77 85 0
29.040000 34.980000 4.180000 187 77 83 0
29.260000 34.980000 4.180000 186 76 82 0
29.480000 34.980000 4.180000 185 75 83 0
29.700000 34.980000 4.180000 187 77 85 0
29.920000 34.980000 4.180000 188 78 84 0
30.140000 34.980000 4.400000 188 78 84 0
30.360000 34.980000 4.400000 186 74 81 0
30.580000 34.980000 2.860000 182 70 77 0
30.800000 34.980000 2.860000 183 71 78 0
31.020000 34.980000 2.860000 181 69 76 0
31.240000 34.980000 2.860000 182 70 77 0
31.460000 34.980000 2.860000 182 70 77 0
31.680000 34.980000 2.860000 183 71 78 0
31.900000 34.980000 2.860000 183 71 78 0
32.120000 34.980000 2.860000 184 74 80 0
32.340000 34.980000 4.400000 184 74 80 0
32.560000 34.980000 4.400000 184 74 80 0
32.780000 34.980000 2.860000 185 75 81 0
33.000000 34.980000 3.080000 184 74 80 0
33.220000 34.980000 3.080000 184 74 80 0
33.440000 34.980000 3.080000 181 74 79 0
33.660000 34.980000 3.080000 182 75 80 0
33.880000 34.980000 4.400000 185 75 81 0
34.100000 34.980000 4.400000 184 74 80 0
34.320000 34.980000 4.400000 183 73 79 0
34.540000 34.980000 4.400000 183 73 79 0
34.760000 34.980000 4.620000 182 75 80 0
34.980000 34.980000 4.620000 181 74 79 0
35.200000 34.980000 4.620000 182 75 80 0
35.420000 34.980000 4.620000 182 75 80 0
35.640000 34.980000 4.620000 184 77 82 0
35.860000 34.980000 4.620000 184 77 82 0
36.080000 34.980000 4.620000 184 77 82 0
36.300000 34.980000 4.620000 184 77 82 0
36.520000 34.980000 4.620000 185 79 84 0
36.740000 34.980000 4.620000 184 78 83 0
36.960000 34.980000 4.840000 183 80 84 0
37.180000 34.980000 4.840000 184 81 85 0
0.000000 35.200000 11.440000 189 83 88 0
0.220000 35.200000 11.440000 189 83 88 0
0.440000 35.200000 11.440000 189 84 86 0
0.660000 35.200000 11.440000 191 86 88 0
0.880000 35.200000 11.440000 192 87 89 0
1.100000 35.200000 10.120000 193 88 90 0
1.320000 35.200000 10.120000 191 88 90 0
1.540000 35.200000 11.440000 190 87 89 0
1.760000 35.200000 11.220000 193 87 92 0
1.980000 35.200000 11.440000 191 85 90 0
2.200000 35.200000 11.660000 190 84 89 0
2.420000 35.200000 11.440000 191 85 90 0
2.640000 35.200000 11.220000 192 86 91 0
2.860000 35.200000 11.220000 192 86 91 0
3.080000 35.200000 8.580000 191 90 93 0
3.300000 35.200000 5.720000 195 94 97 0
3.520000 35.200000 11.440000 178 115 121 0
3.740000 35.200000 30.800000 207 144 150 0
3.960000 35.200000 40.480000 218 186 186 0
4.180000 35.200000 40.480000 215 183 183 0
4.400000 35.200000 37.840000 251 190 190 0
4.620000 35.200000 24.420000 215 154 154 0
4.840000 35.200000 5.280000 216 120 127 0
5.280000 35.200000 6.380000 189 86 92 0
5.500000 35.200000 16.060000 187 84 90 0
5.720000 35.200000 21.560000 184 84 91 0
5.940000 35.200000 22.880000 188 88 95 0
6.160000 35.200000 23.100000 159 112 139 0
6.380000 35.200000 23.100000 213 166 193 0
6.600000 35.200000 23.100000 244 208 215 0
6.820000 35.200000 23.100000 234 198 205 0
7.040000 35.200000 24.420000 228 165 171 0
7.260000 35.200000 24.420000 209 146 152 0
7.480000 35.200000 24.640000 209 115 124 0
7.700000 35.200000 25.960000 194 100 109 0
7.920000 35.200000 26.180000 189 92 104 0
8.140000 35.200000 26.180000 190 93 105 0
8.360000 35.200000 26.180000 192 92 100 0
8.580000 35.200000 27.280000 187 87 95 0
8.800000 35.200000 29.480000 186 78 88 0
9.020000 35.200000 30.360000 182 74 84 0
9.240000 35.200000 30.580000 181 73 83 0
9.460000 35.200000 30.580000 179 71 81 0
9.680000 35.200000 30.580000 181 71 79 0
9.900000 35.200000 30.800000 180 70 78 0
10.120000 35.200000 32.120000 180 68 79 0
10.340000 35.200000 32.120000 178 66 77 0
10.560000 35.200000 32.340000 177 65 74 0
10.780000 35.200000 32.340000 176 64 73 0
11.000000 35.200000 33.660000 177 65 76 0
11.220000 35.200000 33.660000 176 64 75 0
11.440000 35.200000 33.660000 175 63 72 0
11.660000 35.200000 33.880000 176 64 73 0
11.880000 35.200000 33.880000 176 64 75 0
12.100000 35.200000 34.100000 176 64 75 0
12.320000 35.200000 34.100000 175 63 72 0
12.540000 35.200000 35.420000 176 64 73 0
12.760000 35.200000 35.420000 175 63 72 0
12.980000 35.200000 35.640000 175 63 72 0
13.200000 35.200000 35.640000 175 63 72 0
13.420000 35.200000 35.640000 175 63 72 0
13.640000 35.200000 35.640000 174 62 73 0
13.860000 35.200000 35.640000 174 62 73 0
14.080000 35.200000 35.640000 173 61 70 0
14.300000 35.200000 35.860000 173 61 70 0
14.520000 35.200000 37.180000 174 60 70 0
14.740000 35.200000 37.180000 174 60 70 0
14.960000 35.200000 36.960000 175 63 72 0
15.180000 35.200000 39.160000 174 62 71 0
15.400000 35.200000 40.260000 174 60 70 0
15.620000 35.200000 40.040000 175 61 71 0
15.840000 35.200000 40.040000 175 61 71 0
16.060000 35.200000 40.260000 175 61 71 0
16.280000 35.200000 40.260000 175 61 71 0
16.500000 35.200000 40.260000 175 61 71 0
16.720000 35.200000 40.260000 177 63 73 0
16.940000 35.200000 39.160000 180 66 76 0
17.160000 35.200000 38.060000 183 71 82 0
17.380000 35.200000 36.740000 184 72 83 0
17.600000 35.200000 36.740000 183 71 80 0
17.820000 35.200000 38.060000 181 69 78 0
18.040000 35.200000 39.380000 180 63 74 0
18.260000 35.200000 39.160000 179 62 73 0
18.480000 35.200000 40.480000 175 61 71 0
18.700000 35.200000 40.480000 175 61 71 0
18.920000 35.200000 40.480000 177 60 71 0
19.140000 35.200000 40.480000 176 59 70 0
19.360000 35.200000 40.480000 176 59 70 0
19.580000 35.200000 40.700000 174 57 68 0
19.800000 35.200000 40.700000 176 58 69 0
20.020000 35.200000 42.020000 176 58 69 0
20.240000 35.200000 42.020000 177 59 70 0
20.460000 35.200000 42.020000 176 58 69 0
20.680000 35.200000 42.020000 176 58 69 0
20.900000 35.200000 42.020000 177 59 70 0
21.120000 35.200000 42.240000 176 58 69 0
21.340000 35.200000 39.380000 177 59 70 0
21.560000 35.200000 28.380000 177 59 70 0
21.780000 35.200000 11.880000 176 58 69 0
22.000000 35.200000 0.880000 178 60 71 0
27.060000 35.200000 1.760000 182 66 74 0
27.280000 35.200000 2.860000 180 68 77 0
27.500000 35.200000 4.180000 184 72 81 0
27.720000 35.200000 5.720000 187 84 90 0
27.940000 35.200000 5.720000 189 86 92 0
28.160000 35.200000 5.720000 193 81 90 0
28.380000 35.200000 4.180000 185 73 82 0
28.600000 35.200000 4.180000 185 75 83 0
28.820000 35.200000 4.180000 186 76 84 0
29.040000 35.200000 4.180000 187 77 83 0
29.260000 35.200000 4.180000 186 76 82 0
29.480000 35.200000 4.180000 185 75 83 0
29.700000 35.200000 4.180000 187 77 85 0
29.920000 35.200000 4.180000 188 78 84 0
30.140000 35.200000 4.180000 188 78 84 0
30.360000 35.200000 4.400000 186 74 81 0
30.580000 35.200000 2.860000 183 71 78 0
30.800000 35.200000 2.860000 182 70 77 0
31.020000 35.200000 2.860000 182 70 77 0
31.240000 35.200000 2.860000 182 70 77 0
31.460000 35.200000 2.860000 182 70 77 0
31.680000 35.200000 2.860000 183 71 78 0
31.900000 35.200000 2.860000 183 71 78 0
32.120000 35.200000 4.400000 184 74 80 0
32.340000 35.200000 4.400000 183 73 79 0
32.560000 35.200000 4.400000 185 75 81 0
32.780000 35.200000 3.080000 184 74 80 0
33.000000 35.200000 3.080000 184 74 80 0
33.220000 35.200000 3.080000 183 73 79 0
33.440000 35.200000 3.080000 182 75 80 0
33.660000 35.200000 4.400000 183 76 81 0
33.880000 35.200000 4.400000 186 76 82 0
34.100000 35.200000 4.400000 185 75 81 0
34.320000 35.200000 4.400000 184 74 80 0
34.540000 35.200000 4.400000 183 73 79 0
34.760000 35.200000 4.620000 181 74 79 0
34.980000 35.200000 4.620000 182 75 80 0
35.200000 35.200000 4.620000 184 77 82 0
35.420000 35.200000 4.620000 183 76 81 0
35.640000 35.200000 4.620000 183 76 81 0
35.860000 35.200000 4.620000 184 77 82 0
36.080000 35.200000 4.620000 186 79 84 0
36.300000 35.200000 4.620000 185 78 83 0
36.520000 35.200000 4.620000 185 79 84 0
36.740000 35.200000 4.620000 185 79 84 0
36.960000 35.200000 4.620000 185 82 86 0
37.180000 35.200000 4.840000 185 82 86 0
0.000000 35.420000 11.440000 190 83 88 0
0.220000 35.420000 11.440000 191 84 89 0
0.440000 35.420000 11.440000 189 84 86 0
0.660000 35.420000 11.440000 190 85 87 0
0.880000 35.420000 11.440000 189 86 90 0
1.100000 35.420000 9.900000 192 89 93 0
1.320000 35.420000 9.900000 192 89 93 0
1.540000 35.420000 9.900000 192 89 93 0
1.760000 35.420000 11.220000 193 87 92 0
1.980000 35.420000 11.220000 191 85 90 0
2.200000 35.420000 11.220000 190 84 89 0
2.420000 35.420000 11.220000 191 85 90 0
2.640000 35.420000 11.220000 191 88 92 0
2.860000 35.420000 9.900000 192 89 93 0
3.080000 35.420000 8.580000 191 91 98 0
3.300000 35.420000 4.400000 195 95 102 0
3.520000 35.420000 8.580000 183 111 118 0
3.740000 35.420000 25.300000 204 132 139 0
3.960000 35.420000 37.840000 218 168 174 0
4.180000 35.420000 40.700000 228 178 184 0
4.400000 35.420000 32.560000 242 173 175 0
4.620000 35.420000 13.420000 216 147 149 0
4.840000 35.420000 1.100000 219 113 120 0
5.060000 35.420000 1.100000 195 89 96 0
5.280000 35.420000 10.560000 189 83 92 0
5.500000 35.420000 18.920000 185 79 88 0
5.720000 35.420000 21.560000 184 82 88 0
5.940000 35.420000 21.560000 187 85 91 0
6.160000 35.420000 23.100000 184 92 100 0
6.380000 35.420000 24.420000 200 108 116 0
6.600000 35.420000 24.420000 200 134 141 0
6.820000 35.420000 24.420000 213 147 154 0
7.040000 35.420000 24.420000 214 150 161 0
7.260000 35.420000 24.420000 215 151 162 0
7.480000 35.420000 24.640000 214 124 131 0
7.700000 35.420000 24.640000 193 103 110 0
7.920000 35.420000 26.180000 188 96 106 0
8.140000 35.420000 26.180000 187 95 105 0
8.360000 35.420000 26.180000 194 92 101 0
8.580000 35.420000 27.280000 190 88 97 0
8.800000 35.420000 29.480000 188 80 90 0
9.020000 35.420000 30.360000 183 75 85 0
9.240000 35.420000 30.580000 181 73 83 0
9.460000 35.420000 30.580000 181 73 83 0
9.680000 35.420000 30.580000 180 70 78 0
9.900000 35.420000 32.120000 180 70 78 0
10.120000 35.420000 32.120000 178 68 76 0
10.340000 35.420000 32.120000 178 68 76 0
10.560000 35.420000 32.340000 178 66 75 0
10.780000 35.420000 33.660000 177 65 74 0
11.000000 35.420000 33.660000 176 64 73 0
11.220000 35.420000 33.660000 176 64 73 0
11.440000 35.420000 33.660000 176 64 73 0
11.660000 35.420000 33.880000 177 65 74 0
11.880000 35.420000 33.880000 177 63 73 0
12.100000 35.420000 34.100000 177 63 73 0
12.320000 35.420000 34.100000 175 63 72 0
12.540000 35.420000 35.420000 176 64 73 0
12.760000 35.420000 35.420000 175 63 72 0
12.980000 35.420000 35.640000 175 63 72 0
13.200000 35.420000 35.640000 175 61 73 0
13.420000 35.420000 35.640000 175 61 73 0
13.640000 35.420000 35.640000 174 60 70 0
13.860000 35.420000 35.640000 175 61 71 0
14.080000 35.420000 35.860000 173 61 70 0
14.300000 35.420000 35.860000 174 62 71 0
14.520000 35.420000 37.180000 173 61 70 0
14.740000 35.420000 37.180000 174 62 71 0
14.960000 35.420000 36.960000 174 60 70 0
15.180000 35.420000 39.160000 175 61 71 0
15.400000 35.420000 40.260000 174 60 70 0
15.620000 35.420000 40.040000 174 60 70 0
15.840000 35.420000 40.040000 173 59 69 0
16.060000 35.420000 40.260000 174 60 70 0
16.280000 35.420000 40.260000 176 62 72 0
16.500000 35.420000 40.260000 177 63 73 0
16.720000 35.420000 38.940000 177 65 74 0
16.940000 35.420000 37.840000 181 69 78 0
17.160000 35.420000 36.740000 182 70 79 0
17.380000 35.420000 36.740000 183 71 80 0
17.600000 35.420000 38.060000 182 68 78 0
17.820000 35.420000 38.060000 182 68 78 0
18.040000 35.420000 39.380000 179 65 75 0
18.260000 35.420000 39.160000 177 63 73 0
18.480000 35.420000 40.480000 178 61 72 0
18.700000 35.420000 40.480000 177 60 71 0
18.920000 35.420000 40.480000 177 61 69 0
19.140000 35.420000 40.480000 176 60 68 0
19.360000 35.420000 40.480000 178 60 71 0
19.580000 35.420000 42.020000 177 59 70 0
19.800000 35.420000 42.020000 177 59 70 0
20.020000 35.420000 42.020000 177 59 70 0
20.240000 35.420000 42.020000 175 57 68 0
20.460000 35.420000 39.380000 176 58 69 0
20.680000 35.420000 33.880000 177 56 66 0
20.900000 35.420000 33.880000 178 57 67 0
21.120000 35.420000 36.520000 176 58 69 0
21.340000 35.420000 28.380000 176 58 69 0
21.560000 35.420000 11.880000 176 58 69 0
21.780000 35.420000 0.880000 174 56 67 0
27.060000 35.420000 1.760000 183 65 76 0
27.280000 35.420000 2.860000 180 68 75 0
27.500000 35.420000 2.860000 185 73 80 0
27.720000 35.420000 5.720000 190 84 91 0
27.940000 35.420000 5.720000 191 85 92 0
28.160000 35.420000 5.720000 192 80 87 0
28.380000 35.420000 4.180000 187 75 82 0
28.600000 35.420000 4.180000 186 74 81 0
28.820000 35.420000 4.180000 187 75 82 0
29.040000 35.420000 4.180000 187 75 82 0
29.260000 35.420000 4.180000 185 73 80 0
29.480000 35.420000 4.180000 185 75 81 0
29.700000 35.420000 4.180000 187 77 83 0
29.920000 35.420000 4.180000 189 79 85 0
30.140000 35.420000 4.180000 187 77 83 0
30.360000 35.420000 4.400000 185 73 80 0
30.580000 35.420000 2.860000 183 71 78 0
30.800000 35.420000 2.860000 182 70 77 0
31.020000 35.420000 2.860000 181 69 76 0
31.240000 35.420000 2.860000 183 71 78 0
31.460000 35.420000 2.860000 183 71 78 0
31.680000 35.420000 2.860000 181 71 77 0
31.900000 35.420000 2.860000 182 72 78 0
32.120000 35.420000 4.400000 182 72 78 0
32.340000 35.420000 4.400000 183 73 79 0
32.560000 35.420000 4.400000 184 72 79 0
32.780000 35.420000 4.400000 185 73 80 0
33.000000 35.420000 3.080000 183 73 79 0
33.220000 35.420000 4.400000 185 75 81 0
33.440000 35.420000 4.400000 181 74 79 0
33.660000 35.420000 4.400000 182 75 80 0
33.880000 35.420000 4.400000 185 75 81 0
34.100000 35.420000 4.400000 184 74 80 0
34.320000 35.420000 4.400000 184 74 80 0
34.540000 35.420000 4.400000 183 73 79 0
34.760000 35.420000 4.620000 184 74 80 0
34.980000 35.420000 4.620000 186 76 82 0
35.200000 35.420000 4.620000 185 78 81 0
35.420000 35.420000 4.620000 185 78 81 0
35.640000 35.420000 4.620000 185 78 83 0
35.860000 35.420000 4.620000 186 79 84 0
36.080000 35.420000 4.620000 185 78 83 0
36.300000 35.420000 4.620000 185 78 83 0
36.520000 35.420000 4.620000 187 81 86 0
36.740000 35.420000 4.620000 188 82 87 0
36.960000 35.420000 4.620000 186 83 87 0
37.180000 35.420000 4.840000 186 83 87 0
0.000000 35.640000 11.220000 191 84 89 0
0.220000 35.640000 11.440000 190 83 88 0
0.440000 35.640000 11.440000 190 85 87 0
0.660000 35.640000 11.220000 190 85 87 0
0.880000 35.640000 9.900000 190 87 91 0
1.100000 35.640000 9.900000 191 88 92 0
1.320000 35.640000 9.900000 192 89 93 0
1.540000 35.640000 9.900000 192 89 93 0
1.760000 35.640000 11.220000 194 88 93 0
1.980000 35.640000 11.220000 192 86 91 0
2.200000 35.640000 11.220000 191 85 90 0
2.420000 35.640000 11.220000 192 86 91 0
2.640000 35.640000 9.900000 191 88 92 0
2.860000 35.640000 9.900000 192 89 93 0
3.080000 35.640000 8.580000 193 93 100 0
3.300000 35.640000 4.400000 195 95 102 0
3.520000 35.640000 4.620000 182 110 117 0
3.740000 35.640000 12.980000 200 128 135 0
3.960000 35.640000 25.520000 207 157 163 0
4.180000 35.640000 29.920000 226 176 182 0
4.400000 35.640000 21.780000 224 155 157 0
4.620000 35.640000 6.600000 208 139 141 0
5.060000 35.640000 3.960000 192 86 93 0
5.280000 35.640000 13.420000 187 81 90 0
5.500000 35.640000 18.920000 185 79 88 0
5.720000 35.640000 20.240000 183 81 87 0
5.940000 35.640000 21.560000 184 82 88 0
6.160000 35.640000 23.100000 182 90 98 0
6.380000 35.640000 23.100000 189 97 105 0
6.600000 35.640000 24.420000 185 119 126 0
6.820000 35.640000 24.420000 201 135 142 0
7.040000 35.640000 24.420000 209 145 156 0
7.260000 35.640000 24.640000 200 136 147 0
7.480000 35.640000 24.640000 212 122 129 0
7.700000 35.640000 24.640000 193 103 110 0
7.920000 35.640000 26.180000 190 98 108 0
8.140000 35.640000 26.180000 188 96 106 0
8.360000 35.640000 26.180000 193 91 100 0
8.580000 35.640000 27.280000 190 88 97 0
8.800000 35.640000 29.480000 187 79 89 0
9.020000 35.640000 30.360000 181 73 83 0
9.240000 35.640000 30.580000 181 73 83 0
9.460000 35.640000 30.580000 181 73 83 0
9.680000 35.640000 31.900000 181 71 79 0
9.900000 35.640000 32.120000 181 71 79 0
10.120000 35.640000 32.120000 179 69 77 0
10.340000 35.640000 32.120000 179 69 77 0
10.560000 35.640000 33.660000 179 67 76 0
10.780000 35.640000 33.660000 177 65 74 0
11.000000 35.640000 33.660000 177 65 74 0
11.220000 35.640000 33.660000 176 64 73 0
11.440000 35.640000 33.660000 177 65 74 0
11.660000 35.640000 35.200000 176 64 73 0
11.880000 35.640000 35.200000 177 63 73 0
12.100000 35.640000 34.100000 177 63 73 0
12.320000 35.640000 35.420000 176 64 73 0
12.540000 35.640000 35.420000 175 63 72 0
12.760000 35.640000 35.640000 176 64 73 0
12.980000 35.640000 35.640000 174 62 71 0
13.200000 35.640000 35.640000 175 61 73 0
13.420000 35.640000 35.640000 174 60 72 0
13.640000 35.640000 35.640000 175 61 71 0
13.860000 35.640000 35.640000 175 61 71 0
14.080000 35.640000 35.860000 173 61 70 0
14.300000 35.640000 35.860000 174 62 71 0
14.520000 35.640000 35.860000 174 62 71 0
14.740000 35.640000 37.180000 173 61 70 0
14.960000 35.640000 37.180000 174 60 70 0
15.180000 35.640000 38.060000 175 61 71 0
15.400000 35.640000 39.160000 174 60 70 0
15.620000 35.640000 40.260000 174 60 70 0
15.840000 35.640000 40.040000 173 59 69 0
16.060000 35.640000 40.260000 175 61 71 0
16.280000 35.640000 40.260000 177 63 73 0
16.500000 35.640000 39.160000 179 65 75 0
16.720000 35.640000 38.060000 181 69 78 0
16.940000 35.640000 36.740000 183 71 80 0
17.160000 35.640000 36.740000 184 72 81 0
17.380000 35.640000 38.060000 182 70 79 0
17.600000 35.640000 38.060000 182 68 78 0
17.820000 35.640000 39.380000 181 67 77 0
18.040000 35.640000 39.380000 180 66 76 0
18.260000 35.640000 39.380000 179 65 75 0
18.480000 35.640000 40.700000 179 62 73 0
18.700000 35.640000 40.480000 179 62 73 0
18.920000 35.640000 40.480000 178 62 70 0
19.140000 35.640000 40.480000 177 61 69 0
19.360000 35.640000 42.020000 178 60 71 0
19.580000 35.640000 42.020000 177 59 70 0
19.800000 35.640000 42.020000 177 59 70 0
20.020000 35.640000 42.020000 177 59 70 0
20.240000 35.640000 42.020000 176 58 69 0
20.460000 35.640000 36.520000 176 58 69 0
20.680000 35.640000 22.660000 178 57 67 0
20.900000 35.640000 17.160000 177 56 66 0
21.120000 35.640000 20.020000 177 59 70 0
21.340000 35.640000 11.880000 176 58 69 0
21.560000 35.640000 0.660000 176 58 69 0
27.060000 35.640000 1.760000 182 64 75 0
27.280000 35.640000 2.860000 181 69 76 0
27.500000 35.640000 2.860000 184 72 79 0
27.720000 35.640000 4.400000 190 84 91 0
27.940000 35.640000 5.720000 191 85 92 0
28.160000 35.640000 5.720000 190 78 85 0
28.380000 35.640000 4.180000 187 75 82 0
28.600000 35.640000 5.500000 186 74 81 0
28.820000 35.640000 5.500000 187 75 82 0
29.040000 35.640000 4.180000 188 76 83 0
29.260000 35.640000 4.180000 187 75 82 0
29.480000 35.640000 4.180000 186 76 82 0
29.700000 35.640000 4.180000 187 77 83 0
29.920000 35.640000 4.180000 188 78 84 0
30.140000 35.640000 4.180000 186 76 82 0
30.360000 35.640000 4.400000 185 73 80 0
30.580000 35.640000 2.860000 182 70 77 0
30.800000 35.640000 2.860000 182 70 77 0
31.020000 35.640000 2.860000 182 70 77 0
31.240000 35.640000 2.860000 183 71 78 0
31.460000 35.640000 2.860000 183 71 78 0
31.680000 35.640000 2.860000 182 72 78 0
31.900000 35.640000 2.860000 182 72 78 0
32.120000 35.640000 4.400000 182 72 78 0
32.340000 35.640000 4.400000 184 74 80 0
32.560000 35.640000 4.400000 183 71 78 0
32.780000 35.640000 4.400000 183 71 78 0
33.000000 35.640000 4.400000 183 73 79 0
33.220000 35.640000 4.400000 184 74 80 0
33.440000 35.640000 4.400000 181 74 79 0
33.660000 35.640000 4.400000 182 75 80 0
33.880000 35.640000 4.400000 184 74 80 0
34.100000 35.640000 4.400000 184 74 80 0
34.320000 35.640000 4.400000 185 75 81 0
34.540000 35.640000 4.400000 185 75 81 0
34.760000 35.640000 4.620000 185 75 81 0
34.980000 35.640000 4.620000 186 76 82 0
35.200000 35.640000 4.620000 186 79 82 0
35.420000 35.640000 4.620000 187 80 83 0
35.640000 35.640000 4.620000 186 79 84 0
35.860000 35.640000 4.620000 186 79 84 0
36.080000 35.640000 4.620000 186 79 84 0
36.300000 35.640000 4.620000 187 80 85 0
36.520000 35.640000 4.620000 187 81 86 0
36.740000 35.640000 4.620000 188 82 87 0
36.960000 35.640000 4.620000 186 83 87 0
37.180000 35.640000 4.840000 188 85 89 0
0.000000 35.860000 11.220000 190 83 88 0
0.220000 35.860000 11.220000 190 83 88 0
0.440000 35.860000 11.220000 190 84 89 0
0.660000 35.860000 9.900000 191 85 90 0
0.880000 35.860000 9.900000 192 87 89 0
1.100000 35.860000 9.900000 194 89 91 0
1.320000 35.860000 9.900000 194 88 93 0
1.540000 35.860000 9.900000 195 89 94 0
1.760000 35.860000 9.900000 193 87 92 0
1.980000 35.860000 11.220000 192 86 91 0
2.200000 35.860000 11.220000 192 86 91 0
2.420000 35.860000 11.220000 192 86 91 0
2.640000 35.860000 9.900000 190 89 92 0
2.860000 35.860000 9.900000 191 90 93 0
3.080000 35.860000 7.040000 187 96 106 0
3.300000 35.860000 4.400000 189 98 108 0
3.520000 35.860000 1.760000 179 115 124 0
3.740000 35.860000 1.980000 198 134 143 0
3.960000 35.860000 6.380000 212 154 161 0
4.180000 35.860000 8.140000 219 161 168 0
4.400000 35.860000 5.280000 228 138 143 0
4.620000 35.860000 1.320000 209 119 124 0
4.840000 35.860000 1.320000 198 92 97 0
5.060000 35.860000 8.140000 189 83 88 0
5.280000 35.860000 14.740000 187 81 88 0
5.500000 35.860000 18.920000 184 78 85 0
5.720000 35.860000 20.240000 185 79 86 0
5.940000 35.860000 21.780000 186 80 87 0
6.160000 35.860000 21.780000 185 85 92 0
6.380000 35.860000 23.100000 189 89 96 0
6.600000 35.860000 24.420000 189 103 111 0
6.820000 35.860000 24.420000 204 118 126 0
7.040000 35.860000 24.420000 210 128 138 0
7.260000 35.860000 24.640000 206 124 134 0
7.480000 35.860000 24.640000 201 109 119 0
7.700000 35.860000 24.640000 192 100 110 0
7.920000 35.860000 24.860000 187 96 106 0
8.140000 35.860000 26.180000 188 97 107 0
8.360000 35.860000 26.180000 192 92 100 0
8.580000 35.860000 27.280000 187 87 95 0
8.800000 35.860000 28.160000 186 80 89 0
9.020000 35.860000 30.580000 183 77 86 0
9.240000 35.860000 30.580000 181 73 81 0
9.460000 35.860000 31.900000 180 72 80 0
9.680000 35.860000 31.900000 181 71 79 0
9.900000 35.860000 32.120000 181 71 79 0
10.120000 35.860000 32.120000 180 70 78 0
10.340000 35.860000 32.120000 179 69 77 0
10.560000 35.860000 33.660000 179 67 76 0
10.780000 35.860000 33.660000 178 66 75 0
11.000000 35.860000 33.660000 177 65 74 0
11.220000 35.860000 34.980000 176 64 73 0
11.440000 35.860000 35.200000 177 65 74 0
11.660000 35.860000 35.200000 177 65 74 0
11.880000 35.860000 34.100000 176 64 73 0
12.100000 35.860000 35.420000 175 63 72 0
12.320000 35.860000 35.640000 175 63 72 0
12.540000 35.860000 35.640000 175 63 72 0
12.760000 35.860000 35.640000 175 63 72 0
12.980000 35.860000 35.640000 174 62 71 0
13.200000 35.860000 35.640000 173 61 70 0
13.420000 35.860000 35.640000 173 61 70 0
13.640000 35.860000 35.640000 174 62 71 0
13.860000 35.860000 35.640000 175 63 72 0
14.080000 35.860000 35.860000 174 60 70 0
14.300000 35.860000 35.860000 174 60 70 0
14.520000 35.860000 37.180000 174 60 70 0
14.740000 35.860000 37.180000 173 59 69 0
14.960000 35.860000 36.960000 174 60 70 0
15.180000 35.860000 38.060000 174 60 70 0
15.400000 35.860000 39.380000 173 59 69 0
15.620000 35.860000 40.480000 173 59 69 0
15.840000 35.860000 40.040000 173 59 69 0
16.060000 35.860000 40.260000 174 60 70 0
16.280000 35.860000 40.260000 177 63 73 0
16.500000 35.860000 39.380000 180 66 76 0
16.720000 35.860000 38.060000 182 68 78 0
16.940000 35.860000 38.060000 182 68 78 0
17.160000 35.860000 38.060000 182 68 78 0
17.380000 35.860000 38.060000 180 66 76 0
17.600000 35.860000 39.380000 180 67 74 0
17.820000 35.860000 39.380000 180 67 74 0
18.040000 35.860000 39.380000 180 66 76 0
18.260000 35.860000 39.380000 179 65 75 0
18.480000 35.860000 40.700000 180 63 74 0
18.700000 35.860000 40.700000 179 62 73 0
18.920000 35.860000 40.480000 178 60 71 0
19.140000 35.860000 40.480000 178 60 71 0
19.360000 35.860000 42.020000 176 59 70 0
19.580000 35.860000 42.020000 175 58 69 0
19.800000 35.860000 42.020000 175 58 69 0
20.020000 35.860000 42.020000 175 58 69 0
20.240000 35.860000 42.020000 175 57 66 0
20.460000 35.860000 39.380000 176 58 67 0
20.680000 35.860000 28.160000 176 58 67 0
20.900000 35.860000 14.520000 176 58 67 0
21.120000 35.860000 6.160000 177 59 70 0
21.340000 35.860000 0.660000 176 58 69 0
27.060000 35.860000 1.760000 181 65 73 0
27.280000 35.860000 2.860000 182 70 79 0
27.500000 35.860000 2.860000 186 74 83 0
27.720000 35.860000 4.400000 189 82 87 0
27.940000 35.860000 5.720000 192 85 90 0
28.160000 35.860000 5.720000 190 78 87 0
28.380000 35.860000 5.500000 188 76 85 0
28.600000 35.860000 5.500000 188 76 85 0
28.820000 35.860000 5.500000 188 76 85 0
29.040000 35.860000 4.180000 188 76 85 0
29.260000 35.860000 4.180000 188 76 85 0
29.480000 35.860000 4.180000 185 75 81 0
29.700000 35.860000 4.180000 186 76 82 0
29.920000 35.860000 4.180000 190 78 87 0
30.140000 35.860000 4.180000 188 76 85 0
30.360000 35.860000 4.180000 186 73 80 0
30.580000 35.860000 4.400000 183 70 77 0
30.800000 35.860000 2.860000 183 71 78 0
31.020000 35.860000 2.860000 183 71 78 0
31.240000 35.860000 2.860000 183 71 78 0
31.460000 35.860000 2.860000 182 70 77 0
31.680000 35.860000 2.860000 184 72 81 0
31.900000 35.860000 2.860000 182 70 79 0
32.120000 35.860000 4.400000 182 70 77 0
32.340000 35.860000 4.400000 184 72 79 0
32.560000 35.860000 4.400000 183 71 78 0
32.780000 35.860000 4.400000 183 71 78 0
33.000000 35.860000 4.400000 180 70 76 0
33.220000 35.860000 4.400000 183 73 79 0
33.440000 35.860000 4.400000 182 72 78 0
33.660000 35.860000 4.400000 183 73 79 0
33.880000 35.860000 4.400000 184 74 80 0
34.100000 35.860000 4.400000 184 74 80 0
34.320000 35.860000 4.400000 185 75 81 0
34.540000 35.860000 4.400000 186 76 82 0
34.760000 35.860000 4.620000 184 77 82 0
34.980000 35.860000 4.620000 183 76 81 0
35.200000 35.860000 4.620000 184 77 82 0
35.420000 35.860000 4.620000 186 79 84 0
35.640000 35.860000 4.620000 187 80 85 0
35.860000 35.860000 4.620000 187 80 85 0
36.080000 35.860000 4.620000 186 81 83 0
36.300000 35.860000 4.620000 187 82 84 0
36.520000 35.860000 4.620000 189 83 88 0
