ply
format ascii 1.0
element vertex 1126
property float x
property float y
property float z
property uchar red
property uchar green
property uchar blue
property uchar alpha
end_header
26.620000 16.280000 7.480000 129 109 105 0
26.840000 16.280000 7.480000 129 109 105 0
27.060000 16.280000 7.480000 129 109 103 0
27.280000 16.280000 7.480000 129 109 103 0
27.500000 16.280000 7.480000 131 107 102 0
27.720000 16.280000 7.480000 131 107 102 0
27.940000 16.280000 7.480000 131 105 99 0
28.160000 16.280000 7.480000 131 105 99 0
28.380000 16.280000 7.480000 128 104 99 0
28.600000 16.280000 7.480000 127 103 98 0
28.820000 16.280000 7.480000 130 102 96 0
29.040000 16.280000 6.160000 130 102 96 0
29.260000 16.280000 7.700000 129 101 95 0
29.480000 16.280000 7.480000 129 101 95 0
29.700000 16.280000 7.480000 135 97 92 0
29.920000 16.280000 7.480000 133 95 90 0
30.140000 16.280000 7.480000 136 91 89 0
30.360000 16.280000 7.480000 136 91 89 0
30.580000 16.280000 7.480000 134 92 89 0
30.800000 16.280000 7.480000 134 92 89 0
31.020000 16.280000 7.700000 137 92 90 0
31.240000 16.280000 7.480000 137 92 90 0
31.460000 16.280000 7.480000 139 93 90 0
31.680000 16.280000 7.480000 140 94 91 0
31.900000 16.280000 7.480000 140 94 91 0
32.120000 16.280000 7.480000 140 94 91 0
32.340000 16.280000 7.480000 140 95 93 0
32.560000 16.280000 7.480000 141 96 94 0
32.780000 16.280000 7.480000 146 97 95 0
33.000000 16.280000 7.480000 147 98 96 0
33.220000 16.280000 7.480000 149 100 98 0
33.440000 16.280000 7.480000 148 99 97 0
33.660000 16.280000 7.480000 150 98 95 0
33.880000 16.280000 7.480000 149 97 94 0
34.100000 16.280000 7.480000 151 95 91 0
34.320000 16.280000 7.480000 150 94 90 0
34.540000 16.280000 7.480000 151 92 89 0
34.760000 16.280000 7.480000 151 92 89 0
34.980000 16.280000 7.480000 152 92 87 0
35.200000 16.280000 7.480000 151 91 86 0
35.420000 16.280000 7.480000 152 92 87 0
35.640000 16.280000 7.480000 153 93 88 0
35.860000 16.280000 7.480000 155 91 87 0
36.080000 16.280000 7.480000 155 91 87 0
36.300000 16.280000 7.480000 155 89 85 0
36.520000 16.280000 7.480000 155 89 85 0
36.740000 16.280000 7.700000 155 89 85 0
36.960000 16.280000 6.160000 155 89 85 0
37.180000 16.280000 6.160000 153 89 85 0
0.000000 16.500000 2.420000 174 197 200 0
0.220000 16.500000 2.420000 174 197 200 0
0.440000 16.500000 2.420000 176 199 202 0
0.660000 16.500000 2.420000 174 198 203 0
0.880000 16.500000 2.420000 176 200 205 0
1.100000 16.500000 2.200000 177 200 203 0
1.320000 16.500000 2.200000 177 200 203 0
1.540000 16.500000 2.200000 178 198 202 0
1.760000 16.500000 2.200000 179 199 203 0
1.980000 16.500000 2.200000 176 199 202 0
2.200000 16.500000 2.200000 176 199 202 0
2.420000 16.500000 2.200000 174 198 203 0
2.640000 16.500000 3.520000 173 197 202 0
2.860000 16.500000 3.300000 177 198 199 0
3.080000 16.500000 4.620000 178 199 200 0
3.300000 16.500000 4.620000 179 198 200 0
3.520000 16.500000 4.400000 179 198 200 0
3.740000 16.500000 5.720000 179 200 201 0
3.960000 16.500000 5.720000 180 201 202 0
4.180000 16.500000 5.720000 187 202 204 0
4.400000 16.500000 7.040000 190 205 207 0
4.620000 16.500000 7.040000 196 207 206 0
4.840000 16.500000 7.040000 197 208 207 0
5.060000 16.500000 7.040000 197 208 207 0
5.280000 16.500000 7.040000 198 209 208 0
5.500000 16.500000 7.040000 200 210 207 0
5.720000 16.500000 7.260000 201 211 208 0
5.940000 16.500000 7.260000 200 211 210 0
6.160000 16.500000 7.260000 201 212 211 0
6.380000 16.500000 7.260000 201 212 211 0
6.600000 16.500000 7.480000 201 212 211 0
6.820000 16.500000 7.480000 202 212 209 0
7.040000 16.500000 7.480000 201 211 208 0
7.260000 16.500000 7.480000 202 212 209 0
7.480000 16.500000 7.700000 201 211 208 0
7.700000 16.500000 7.700000 201 212 211 0
7.920000 16.500000 7.700000 201 212 211 0
8.140000 16.500000 7.920000 201 212 209 0
8.360000 16.500000 7.920000 201 212 209 0
8.580000 16.500000 7.920000 203 213 210 0
8.800000 16.500000 9.460000 202 212 209 0
9.020000 16.500000 9.460000 202 212 209 0
9.240000 16.500000 9.460000 202 212 209 0
9.460000 16.500000 9.680000 201 212 211 0
9.680000 16.500000 10.780000 202 213 212 0
9.900000 16.500000 11.440000 202 212 209 0
10.120000 16.500000 12.540000 201 211 208 0
10.340000 16.500000 12.540000 201 211 208 0
10.560000 16.500000 12.760000 200 210 207 0
10.780000 16.500000 14.080000 201 211 208 0
11.000000 16.500000 14.080000 200 210 207 0
11.220000 16.500000 14.300000 200 210 207 0
11.440000 16.500000 14.300000 199 209 206 0
11.660000 16.500000 14.300000 198 208 205 0
11.880000 16.500000 14.300000 198 208 205 0
12.100000 16.500000 14.520000 196 206 203 0
12.320000 16.500000 14.520000 195 205 202 0
12.540000 16.500000 14.520000 189 200 201 0
12.760000 16.500000 14.520000 185 196 197 0
12.980000 16.500000 14.520000 181 186 187 0
13.200000 16.500000 13.200000 166 171 172 0
13.420000 16.500000 13.200000 162 157 156 0
13.640000 16.500000 13.200000 155 150 149 0
13.860000 16.500000 11.880000 149 145 141 0
14.080000 16.500000 11.880000 146 142 138 0
14.300000 16.500000 11.880000 147 139 134 0
14.520000 16.500000 11.880000 144 136 131 0
14.740000 16.500000 10.340000 143 132 131 0
14.960000 16.500000 10.340000 140 129 128 0
15.180000 16.500000 10.340000 138 129 127 0
15.400000 16.500000 10.340000 138 129 127 0
15.620000 16.500000 10.340000 137 126 125 0
15.840000 16.500000 10.340000 137 126 125 0
16.060000 16.500000 10.340000 136 126 122 0
16.280000 16.500000 10.340000 135 125 121 0
16.500000 16.500000 9.020000 135 124 123 0
16.720000 16.500000 9.020000 134 123 122 0
16.940000 16.500000 9.020000 133 121 118 0
17.160000 16.500000 8.800000 134 122 119 0
17.380000 16.500000 9.020000 133 122 121 0
17.600000 16.500000 8.800000 132 121 120 0
17.820000 16.500000 8.800000 131 120 119 0
18.040000 16.500000 8.800000 131 120 119 0
18.260000 16.500000 9.020000 129 118 117 0
18.480000 16.500000 9.020000 129 118 117 0
18.700000 16.500000 8.800000 128 117 116 0
18.920000 16.500000 8.800000 129 118 117 0
19.140000 16.500000 8.800000 129 118 117 0
19.360000 16.500000 8.800000 128 117 116 0
19.580000 16.500000 8.800000 127 116 115 0
19.800000 16.500000 8.800000 127 116 115 0
20.020000 16.500000 8.800000 126 115 114 0
20.240000 16.500000 8.800000 126 115 114 0
20.460000 16.500000 8.800000 126 115 114 0
20.680000 16.500000 8.800000 126 115 114 0
20.900000 16.500000 7.480000 126 115 114 0
21.120000 16.500000 7.480000 126 115 114 0
21.340000 16.500000 7.480000 127 115 114 0
21.560000 16.500000 7.480000 126 114 113 0
21.780000 16.500000 7.480000 125 113 112 0
22.000000 16.500000 7.480000 125 113 112 0
22.220000 16.500000 7.480000 125 113 110 0
22.440000 16.500000 7.480000 126 114 111 0
22.660000 16.500000 7.480000 125 113 110 0
22.880000 16.500000 7.480000 124 112 109 0
23.100000 16.500000 7.480000 124 112 111 0
23.320000 16.500000 7.480000 124 112 111 0
23.540000 16.500000 7.480000 126 111 109 0
23.760000 16.500000 7.480000 126 111 109 0
23.980000 16.500000 7.480000 123 111 108 0
24.200000 16.500000 7.480000 123 111 108 0
24.420000 16.500000 7.480000 126 111 109 0
24.640000 16.500000 7.480000 127 112 110 0
24.860000 16.500000 7.480000 127 112 110 0
25.080000 16.500000 7.480000 127 112 110 0
25.300000 16.500000 7.480000 128 112 108 0
25.520000 16.500000 7.480000 127 111 107 0
25.740000 16.500000 7.480000 129 110 107 0
25.960000 16.500000 7.480000 128 109 106 0
26.180000 16.500000 6.160000 129 111 106 0
26.400000 16.500000 7.480000 129 111 106 0
26.620000 16.500000 7.480000 129 109 105 0
26.840000 16.500000 7.480000 129 109 105 0
27.060000 16.500000 7.480000 129 109 103 0
27.280000 16.500000 7.480000 128 108 102 0
27.500000 16.500000 7.480000 130 106 101 0
27.720000 16.500000 7.480000 130 106 101 0
27.940000 16.500000 7.480000 131 105 99 0
28.160000 16.500000 7.480000 131 105 99 0
28.380000 16.500000 7.480000 129 105 100 0
28.600000 16.500000 7.480000 128 104 99 0
28.820000 16.500000 7.480000 132 104 98 0
29.040000 16.500000 6.160000 132 104 98 0
29.260000 16.500000 7.700000 132 104 98 0
29.480000 16.500000 7.700000 133 105 99 0
29.700000 16.500000 7.700000 135 97 92 0
29.920000 16.500000 7.480000 133 95 90 0
30.140000 16.500000 7.480000 135 90 88 0
30.360000 16.500000 7.480000 135 90 88 0
30.580000 16.500000 7.480000 135 93 90 0
30.800000 16.500000 7.700000 135 93 90 0
31.020000 16.500000 7.700000 137 92 90 0
31.240000 16.500000 7.480000 137 92 90 0
31.460000 16.500000 7.480000 139 93 90 0
31.680000 16.500000 7.480000 140 94 91 0
31.900000 16.500000 7.480000 141 95 92 0
32.120000 16.500000 7.480000 141 95 92 0
32.340000 16.500000 7.480000 141 96 94 0
32.560000 16.500000 7.480000 142 97 95 0
32.780000 16.500000 7.480000 146 97 95 0
33.000000 16.500000 7.480000 148 99 97 0
33.220000 16.500000 7.480000 149 100 98 0
33.440000 16.500000 7.480000 149 100 98 0
33.660000 16.500000 7.480000 150 98 95 0
33.880000 16.500000 7.480000 147 95 92 0
34.100000 16.500000 7.480000 149 93 89 0
34.320000 16.500000 7.480000 148 92 88 0
34.540000 16.500000 7.480000 151 92 89 0
34.760000 16.500000 7.480000 151 92 89 0
34.980000 16.500000 7.480000 152 92 87 0
35.200000 16.500000 7.480000 152 92 87 0
35.420000 16.500000 7.480000 152 92 87 0
35.640000 16.500000 7.480000 153 93 88 0
35.860000 16.500000 7.480000 156 92 88 0
36.080000 16.500000 7.480000 156 92 88 0
36.300000 16.500000 7.480000 157 91 87 0
36.520000 16.500000 6.160000 156 90 86 0
36.740000 16.500000 6.160000 156 90 86 0
36.960000 16.500000 6.160000 155 89 85 0
37.180000 16.500000 6.160000 154 90 86 0
0.000000 16.720000 2.420000 175 196 196 0
0.220000 16.720000 2.420000 174 197 198 0
0.440000 16.720000 2.420000 174 197 198 0
0.660000 16.720000 2.420000 176 199 202 0
0.880000 16.720000 2.420000 176 199 202 0
1.100000 16.720000 2.200000 175 199 204 0
1.320000 16.720000 2.200000 176 200 205 0
1.540000 16.720000 2.200000 176 199 202 0
1.760000 16.720000 2.200000 176 199 202 0
1.980000 16.720000 2.200000 175 198 199 0
2.200000 16.720000 2.200000 175 198 199 0
2.420000 16.720000 2.200000 175 198 201 0
2.640000 16.720000 3.520000 174 197 200 0
2.860000 16.720000 3.300000 175 198 199 0
3.080000 16.720000 3.300000 175 198 199 0
3.300000 16.720000 4.620000 177 198 198 0
3.520000 16.720000 4.400000 178 199 199 0
3.740000 16.720000 5.720000 177 198 198 0
3.960000 16.720000 5.720000 180 201 201 0
4.180000 16.720000 5.720000 188 201 202 0
4.400000 16.720000 7.040000 193 206 207 0
4.620000 16.720000 7.040000 196 207 206 0
4.840000 16.720000 7.040000 196 207 206 0
5.060000 16.720000 7.040000 197 208 205 0
5.280000 16.720000 7.040000 198 209 206 0
5.500000 16.720000 7.040000 200 210 207 0
5.720000 16.720000 7.260000 200 210 207 0
5.940000 16.720000 7.260000 199 210 209 0
6.160000 16.720000 7.260000 200 211 210 0
6.380000 16.720000 7.260000 200 211 208 0
6.600000 16.720000 7.480000 201 212 209 0
6.820000 16.720000 7.480000 202 212 209 0
7.040000 16.720000 7.480000 201 211 208 0
7.260000 16.720000 7.480000 201 211 208 0
7.480000 16.720000 7.700000 202 212 209 0
7.700000 16.720000 7.700000 201 211 208 0
7.920000 16.720000 7.700000 200 210 207 0
8.140000 16.720000 7.920000 201 212 209 0
8.360000 16.720000 7.920000 201 212 209 0
8.580000 16.720000 7.920000 200 211 208 0
8.800000 16.720000 7.920000 201 212 209 0
9.020000 16.720000 9.460000 203 213 210 0
9.240000 16.720000 9.460000 202 212 209 0
9.460000 16.720000 9.680000 202 212 209 0
9.680000 16.720000 10.780000 202 212 209 0
9.900000 16.720000 11.440000 202 212 209 0
10.120000 16.720000 12.540000 201 211 208 0
10.340000 16.720000 12.540000 201 211 208 0
10.560000 16.720000 12.760000 200 210 207 0
10.780000 16.720000 14.080000 200 210 207 0
11.000000 16.720000 14.080000 200 210 207 0
11.220000 16.720000 14.300000 199 209 206 0
11.440000 16.720000 14.300000 198 208 205 0
11.660000 16.720000 14.300000 197 207 204 0
11.880000 16.720000 14.300000 196 206 203 0
12.100000 16.720000 14.520000 194 204 201 0
12.320000 16.720000 14.520000 193 203 200 0
12.540000 16.720000 14.520000 190 199 199 0
12.760000 16.720000 14.520000 185 194 194 0
12.980000 16.720000 14.520000 182 180 176 0
13.200000 16.720000 13.200000 171 169 165 0
13.420000 16.720000 13.200000 165 157 149 0
13.640000 16.720000 13.200000 156 148 140 0
13.860000 16.720000 11.880000 154 144 138 0
14.080000 16.720000 11.880000 149 139 133 0
14.300000 16.720000 11.880000 145 136 134 0
14.520000 16.720000 11.880000 143 134 132 0
14.740000 16.720000 10.340000 142 131 130 0
14.960000 16.720000 10.340000 140 129 128 0
15.180000 16.720000 10.340000 139 128 127 0
15.400000 16.720000 10.340000 137 126 125 0
15.620000 16.720000 10.340000 137 126 125 0
15.840000 16.720000 10.340000 135 124 123 0
16.060000 16.720000 10.340000 134 123 122 0
16.280000 16.720000 10.340000 134 123 122 0
16.500000 16.720000 9.020000 133 122 121 0
16.720000 16.720000 9.020000 132 121 120 0
16.940000 16.720000 9.020000 132 122 118 0
17.160000 16.720000 9.020000 131 121 117 0
17.380000 16.720000 9.020000 131 121 117 0
17.600000 16.720000 8.800000 131 121 117 0
17.820000 16.720000 8.800000 130 119 118 0
18.040000 16.720000 9.020000 129 118 117 0
18.260000 16.720000 9.020000 129 117 114 0
18.480000 16.720000 9.020000 129 117 114 0
18.700000 16.720000 7.480000 128 118 114 0
18.920000 16.720000 7.480000 128 118 114 0
19.140000 16.720000 7.480000 128 119 119 0
19.360000 16.720000 7.480000 127 118 118 0
19.580000 16.720000 7.480000 127 118 116 0
19.800000 16.720000 7.480000 126 117 115 0
20.020000 16.720000 7.480000 126 115 114 0
20.240000 16.720000 7.480000 127 116 115 0
20.460000 16.720000 8.800000 127 115 112 0
20.680000 16.720000 8.800000 127 115 112 0
20.900000 16.720000 7.480000 126 115 114 0
21.120000 16.720000 7.480000 125 114 113 0
21.340000 16.720000 7.480000 126 115 114 0
21.560000 16.720000 7.480000 126 115 114 0
21.780000 16.720000 7.480000 124 113 112 0
22.000000 16.720000 7.480000 124 113 112 0
22.220000 16.720000 7.480000 125 113 112 0
22.440000 16.720000 7.480000 125 113 112 0
22.660000 16.720000 7.480000 124 113 112 0
22.880000 16.720000 7.480000 124 113 112 0
23.100000 16.720000 7.480000 124 112 109 0
23.320000 16.720000 7.480000 124 112 109 0
23.540000 16.720000 7.480000 122 111 110 0
23.760000 16.720000 7.480000 123 112 111 0
23.980000 16.720000 7.480000 125 113 110 0
24.200000 16.720000 7.480000 125 113 110 0
24.420000 16.720000 7.700000 127 112 110 0
24.640000 16.720000 7.480000 126 111 109 0
24.860000 16.720000 7.480000 126 111 109 0
25.080000 16.720000 7.480000 127 112 110 0
25.300000 16.720000 7.480000 126 111 109 0
25.520000 16.720000 7.480000 127 112 110 0
25.740000 16.720000 7.480000 127 111 107 0
25.960000 16.720000 7.480000 127 111 107 0
26.180000 16.720000 6.160000 130 110 106 0
26.400000 16.720000 6.160000 130 110 106 0
26.620000 16.720000 6.160000 128 110 105 0
26.840000 16.720000 6.160000 128 110 105 0
27.060000 16.720000 6.160000 129 109 105 0
27.280000 16.720000 6.160000 129 109 105 0
27.500000 16.720000 6.160000 128 108 104 0
27.720000 16.720000 7.480000 128 108 104 0
27.940000 16.720000 7.480000 124 108 103 0
28.160000 16.720000 7.480000 125 109 104 0
28.380000 16.720000 7.480000 124 108 104 0
28.600000 16.720000 7.480000 129 113 109 0
28.820000 16.720000 7.480000 139 115 110 0
29.040000 16.720000 7.480000 140 116 111 0
29.260000 16.720000 7.480000 147 107 103 0
29.480000 16.720000 7.480000 141 101 97 0
29.700000 16.720000 7.480000 138 94 90 0
29.920000 16.720000 7.480000 137 93 89 0
30.140000 16.720000 7.480000 139 91 86 0
30.360000 16.720000 7.480000 138 90 85 0
30.580000 16.720000 7.480000 140 91 89 0
30.800000 16.720000 7.700000 140 91 89 0
31.020000 16.720000 7.700000 138 94 90 0
31.240000 16.720000 7.700000 139 95 91 0
31.460000 16.720000 7.480000 141 93 88 0
31.680000 16.720000 7.480000 142 94 89 0
31.900000 16.720000 7.480000 141 95 92 0
32.120000 16.720000 7.480000 141 95 92 0
32.340000 16.720000 7.700000 143 98 96 0
32.560000 16.720000 6.160000 144 99 97 0
32.780000 16.720000 6.160000 148 99 98 0
33.000000 16.720000 6.160000 149 100 99 0
33.220000 16.720000 7.480000 151 100 94 0
33.440000 16.720000 7.480000 150 99 93 0
33.660000 16.720000 7.480000 150 94 90 0
33.880000 16.720000 7.480000 149 93 89 0
34.100000 16.720000 7.480000 150 92 86 0
34.320000 16.720000 7.480000 150 92 86 0
34.540000 16.720000 7.480000 151 92 89 0
34.760000 16.720000 7.480000 152 93 90 0
34.980000 16.720000 7.480000 152 94 88 0
35.200000 16.720000 7.480000 151 93 87 0
35.420000 16.720000 7.480000 154 92 88 0
35.640000 16.720000 7.480000 154 92 88 0
35.860000 16.720000 7.480000 156 95 89 0
36.080000 16.720000 7.480000 155 94 88 0
36.300000 16.720000 7.480000 156 92 87 0
36.520000 16.720000 7.480000 156 92 87 0
36.740000 16.720000 6.160000 159 92 79 0
36.960000 16.720000 6.160000 160 93 80 0
37.180000 16.720000 6.160000 164 94 81 0
0.000000 16.940000 2.420000 175 196 196 0
0.220000 16.940000 2.420000 173 196 197 0
0.440000 16.940000 2.420000 175 198 199 0
0.660000 16.940000 2.420000 175 198 201 0
0.880000 16.940000 2.420000 176 199 202 0
1.100000 16.940000 2.200000 175 199 204 0
1.320000 16.940000 2.200000 174 198 203 0
1.540000 16.940000 2.200000 176 199 202 0
1.760000 16.940000 2.200000 176 199 202 0
1.980000 16.940000 2.200000 175 198 199 0
2.200000 16.940000 2.200000 175 198 199 0
2.420000 16.940000 3.520000 174 197 200 0
2.640000 16.940000 3.300000 174 197 200 0
2.860000 16.940000 3.300000 174 197 198 0
3.080000 16.940000 3.300000 174 197 198 0
3.300000 16.940000 4.620000 177 198 198 0
3.520000 16.940000 4.400000 178 199 199 0
3.740000 16.940000 5.720000 177 198 198 0
3.960000 16.940000 5.720000 180 201 201 0
4.180000 16.940000 5.720000 187 200 201 0
4.400000 16.940000 7.040000 192 205 206 0
4.620000 16.940000 7.040000 196 207 206 0
4.840000 16.940000 7.040000 196 207 206 0
5.060000 16.940000 7.040000 197 208 205 0
5.280000 16.940000 7.040000 199 210 207 0
5.500000 16.940000 7.040000 200 210 207 0
5.720000 16.940000 7.260000 200 210 207 0
5.940000 16.940000 7.260000 199 210 209 0
6.160000 16.940000 7.260000 200 211 210 0
6.380000 16.940000 7.260000 201 212 209 0
6.600000 16.940000 7.480000 201 212 209 0
6.820000 16.940000 7.480000 201 211 208 0
7.040000 16.940000 7.480000 201 211 208 0
7.260000 16.940000 7.480000 202 212 209 0
7.480000 16.940000 7.700000 202 212 209 0
7.700000 16.940000 7.700000 201 211 208 0
7.920000 16.940000 7.700000 201 211 208 0
8.140000 16.940000 7.700000 201 212 209 0
8.360000 16.940000 7.920000 200 211 208 0
8.580000 16.940000 7.920000 201 212 209 0
8.800000 16.940000 7.920000 201 212 209 0
9.020000 16.940000 9.460000 201 211 208 0
9.240000 16.940000 9.460000 202 212 209 0
9.460000 16.940000 9.680000 202 212 209 0
9.680000 16.940000 10.780000 202 212 209 0
9.900000 16.940000 11.440000 202 212 209 0
10.120000 16.940000 12.540000 200 210 207 0
10.340000 16.940000 12.540000 200 210 207 0
10.560000 16.940000 12.760000 199 209 206 0
10.780000 16.940000 14.080000 200 210 207 0
11.000000 16.940000 14.080000 199 209 206 0
11.220000 16.940000 14.300000 198 208 205 0
11.440000 16.940000 14.300000 198 208 205 0
11.660000 16.940000 14.300000 198 208 205 0
11.880000 16.940000 14.300000 196 206 203 0
12.100000 16.940000 14.520000 195 205 202 0
12.320000 16.940000 14.520000 192 202 199 0
12.540000 16.940000 14.520000 189 198 198 0
12.760000 16.940000 14.520000 184 193 193 0
12.980000 16.940000 14.520000 182 180 176 0
13.200000 16.940000 13.200000 170 168 164 0
13.420000 16.940000 13.200000 163 155 147 0
13.640000 16.940000 13.200000 155 147 139 0
13.860000 16.940000 11.880000 152 142 136 0
14.080000 16.940000 11.880000 149 139 133 0
14.300000 16.940000 11.880000 143 134 132 0
14.520000 16.940000 11.880000 142 133 131 0
14.740000 16.940000 10.340000 141 130 129 0
14.960000 16.940000 10.340000 139 128 127 0
15.180000 16.940000 10.340000 137 126 125 0
15.400000 16.940000 10.340000 137 126 125 0
15.620000 16.940000 10.340000 135 124 123 0
15.840000 16.940000 10.340000 133 122 121 0
16.060000 16.940000 10.340000 132 121 120 0
16.280000 16.940000 9.020000 132 121 120 0
16.500000 16.940000 9.020000 133 122 121 0
16.720000 16.940000 9.020000 131 120 119 0
16.940000 16.940000 9.020000 130 120 116 0
17.160000 16.940000 8.800000 130 120 116 0
17.380000 16.940000 8.800000 130 120 116 0
17.600000 16.940000 8.800000 130 120 116 0
17.820000 16.940000 9.020000 129 118 117 0
18.040000 16.940000 9.020000 128 117 116 0
18.260000 16.940000 9.020000 128 116 113 0
18.480000 16.940000 9.020000 128 116 113 0
18.700000 16.940000 7.480000 127 117 113 0
18.920000 16.940000 7.480000 128 118 114 0
19.140000 16.940000 7.480000 128 119 119 0
19.360000 16.940000 7.480000 127 118 118 0
19.580000 16.940000 7.480000 127 118 116 0
19.800000 16.940000 7.480000 126 117 115 0
20.020000 16.940000 7.480000 127 116 115 0
20.240000 16.940000 7.480000 127 116 115 0
20.460000 16.940000 7.480000 127 115 112 0
20.680000 16.940000 7.480000 128 116 113 0
20.900000 16.940000 7.480000 126 115 114 0
21.120000 16.940000 7.480000 127 116 115 0
21.340000 16.940000 7.480000 126 115 114 0
21.560000 16.940000 7.480000 125 114 113 0
21.780000 16.940000 7.480000 125 114 113 0
22.000000 16.940000 7.480000 124 113 112 0
22.220000 16.940000 7.480000 125 113 112 0
22.440000 16.940000 7.480000 125 113 112 0
22.660000 16.940000 7.480000 124 113 112 0
22.880000 16.940000 7.480000 123 112 111 0
23.100000 16.940000 7.480000 124 112 109 0
23.320000 16.940000 7.480000 125 113 110 0
23.540000 16.940000 7.480000 124 113 112 0
23.760000 16.940000 7.480000 124 113 112 0
23.980000 16.940000 7.480000 125 113 110 0
24.200000 16.940000 7.480000 125 113 110 0
24.420000 16.940000 7.700000 127 112 110 0
24.640000 16.940000 7.480000 127 112 110 0
24.860000 16.940000 7.480000 127 112 110 0
25.080000 16.940000 7.480000 127 112 110 0
25.300000 16.940000 7.480000 127 112 110 0
25.520000 16.940000 7.480000 126 111 109 0
25.740000 16.940000 7.480000 128 112 108 0
25.960000 16.940000 7.480000 128 112 108 0
26.180000 16.940000 6.160000 131 111 107 0
26.400000 16.940000 6.160000 130 110 106 0
26.620000 16.940000 6.160000 129 111 106 0
26.840000 16.940000 6.160000 129 111 106 0
27.060000 16.940000 6.160000 129 109 105 0
27.280000 16.940000 6.160000 128 108 104 0
27.500000 16.940000 6.160000 130 110 106 0
27.720000 16.940000 7.480000 129 109 105 0
27.940000 16.940000 7.480000 130 114 109 0
28.160000 16.940000 7.480000 136 120 115 0
28.380000 16.940000 7.480000 139 123 119 0
28.600000 16.940000 7.480000 141 125 121 0
28.820000 16.940000 7.480000 145 121 116 0
29.040000 16.940000 7.480000 136 112 107 0
29.260000 16.940000 7.480000 138 98 94 0
29.480000 16.940000 7.480000 134 94 90 0
29.700000 16.940000 7.480000 136 92 88 0
29.920000 16.940000 7.480000 136 92 88 0
30.140000 16.940000 7.480000 139 91 86 0
30.360000 16.940000 7.700000 139 91 86 0
30.580000 16.940000 7.700000 140 91 89 0
30.800000 16.940000 7.480000 142 93 91 0
31.020000 16.940000 7.480000 138 94 90 0
31.240000 16.940000 7.700000 139 95 91 0
31.460000 16.940000 7.700000 142 94 89 0
31.680000 16.940000 7.700000 144 96 91 0
31.900000 16.940000 7.480000 141 95 92 0
32.120000 16.940000 6.160000 143 97 94 0
32.340000 16.940000 6.380000 143 98 96 0
32.560000 16.940000 6.380000 145 100 98 0
32.780000 16.940000 6.160000 148 99 98 0
33.000000 16.940000 6.160000 150 101 100 0
33.220000 16.940000 6.160000 150 99 93 0
33.440000 16.940000 7.480000 149 98 92 0
33.660000 16.940000 7.480000 149 93 89 0
33.880000 16.940000 7.480000 149 93 89 0
34.100000 16.940000 7.480000 150 92 86 0
34.320000 16.940000 7.480000 151 93 87 0
34.540000 16.940000 7.480000 152 93 90 0
34.760000 16.940000 7.480000 152 93 90 0
34.980000 16.940000 7.480000 152 94 88 0
35.200000 16.940000 7.480000 152 94 88 0
35.420000 16.940000 7.480000 156 94 90 0
35.640000 16.940000 7.480000 155 93 89 0
35.860000 16.940000 6.160000 157 96 90 0
36.080000 16.940000 7.480000 157 96 90 0
36.300000 16.940000 7.480000 159 95 90 0
36.520000 16.940000 7.480000 162 98 93 0
36.740000 16.940000 7.480000 170 103 90 0
36.960000 16.940000 6.160000 177 110 97 0
37.180000 16.940000 6.160000 180 110 97 0
0.000000 17.160000 2.420000 175 196 196 0
0.220000 17.160000 2.420000 175 196 197 0
0.440000 17.160000 2.420000 176 197 198 0
0.660000 17.160000 2.420000 175 198 199 0
0.880000 17.160000 2.420000 176 199 200 0
1.100000 17.160000 2.200000 176 199 200 0
1.320000 17.160000 2.200000 175 198 199 0
1.540000 17.160000 2.200000 178 199 200 0
1.760000 17.160000 2.200000 178 199 200 0
1.980000 17.160000 2.200000 178 199 199 0
2.200000 17.160000 2.200000 177 198 198 0
2.420000 17.160000 3.520000 173 198 198 0
2.640000 17.160000 3.300000 172 197 197 0
2.860000 17.160000 3.300000 177 198 198 0
3.080000 17.160000 3.300000 176 197 197 0
3.300000 17.160000 4.620000 177 198 198 0
3.520000 17.160000 4.400000 178 199 199 0
3.740000 17.160000 5.720000 178 197 198 0
3.960000 17.160000 5.720000 181 200 201 0
4.180000 17.160000 5.720000 190 201 200 0
4.400000 17.160000 7.040000 194 205 204 0
4.620000 17.160000 7.040000 197 207 204 0
4.840000 17.160000 7.040000 198 208 205 0
5.060000 17.160000 7.040000 199 209 206 0
5.280000 17.160000 7.040000 199 209 206 0
5.500000 17.160000 7.040000 200 210 207 0
5.720000 17.160000 7.260000 200 210 207 0
5.940000 17.160000 7.260000 201 211 208 0
6.160000 17.160000 7.260000 201 211 208 0
6.380000 17.160000 7.260000 201 211 208 0
6.600000 17.160000 7.480000 201 211 208 0
6.820000 17.160000 7.480000 201 211 208 0
7.040000 17.160000 7.480000 201 211 208 0
7.260000 17.160000 7.480000 201 211 208 0
7.480000 17.160000 7.700000 202 212 209 0
7.700000 17.160000 7.700000 201 211 208 0
7.920000 17.160000 7.700000 202 212 209 0
8.140000 17.160000 7.700000 202 212 209 0
8.360000 17.160000 7.920000 202 212 209 0
8.580000 17.160000 7.920000 202 212 209 0
8.800000 17.160000 7.920000 202 212 209 0
9.020000 17.160000 9.460000 201 211 208 0
9.240000 17.160000 9.460000 201 211 208 0
9.460000 17.160000 9.460000 202 212 209 0
9.680000 17.160000 10.780000 201 211 208 0
9.900000 17.160000 11.440000 200 210 207 0
10.120000 17.160000 12.540000 200 210 207 0
10.340000 17.160000 12.540000 200 210 206 0
10.560000 17.160000 12.760000 200 210 206 0
10.780000 17.160000 14.080000 199 209 206 0
11.000000 17.160000 14.080000 200 210 207 0
11.220000 17.160000 14.300000 200 208 205 0
11.440000 17.160000 14.300000 199 207 204 0
11.660000 17.160000 14.300000 198 206 203 0
11.880000 17.160000 14.300000 197 205 202 0
12.100000 17.160000 14.520000 195 203 200 0
12.320000 17.160000 14.520000 194 202 199 0
12.540000 17.160000 14.520000 191 199 197 0
12.760000 17.160000 14.520000 182 190 188 0
12.980000 17.160000 14.520000 185 176 176 0
13.200000 17.160000 13.200000 173 164 164 0
13.420000 17.160000 13.200000 164 153 144 0
13.640000 17.160000 13.200000 157 146 137 0
13.860000 17.160000 11.880000 151 141 137 0
14.080000 17.160000 11.880000 147 137 133 0
14.300000 17.160000 11.880000 146 134 129 0
14.520000 17.160000 11.880000 142 130 125 0
14.740000 17.160000 10.340000 141 129 126 0
14.960000 17.160000 10.340000 140 128 125 0
15.180000 17.160000 10.340000 138 126 123 0
15.400000 17.160000 10.340000 136 124 121 0
15.620000 17.160000 10.340000 136 124 119 0
15.840000 17.160000 10.340000 135 123 118 0
16.060000 17.160000 10.340000 133 121 118 0
16.280000 17.160000 9.020000 133 121 118 0
16.500000 17.160000 9.020000 134 119 117 0
16.720000 17.160000 9.020000 134 119 117 0
16.940000 17.160000 9.020000 131 119 114 0
17.160000 17.160000 8.800000 130 118 113 0
17.380000 17.160000 8.800000 129 119 115 0
17.600000 17.160000 9.020000 129 119 115 0
17.820000 17.160000 8.800000 129 118 117 0
18.040000 17.160000 9.020000 128 117 116 0
18.260000 17.160000 9.020000 128 116 113 0
18.480000 17.160000 7.480000 128 116 113 0
18.700000 17.160000 7.480000 126 116 112 0
18.920000 17.160000 7.480000 127 117 113 0
19.140000 17.160000 7.480000 128 117 116 0
19.360000 17.160000 7.480000 128 117 116 0
19.580000 17.160000 7.480000 128 117 116 0
19.800000 17.160000 7.480000 128 117 116 0
20.020000 17.160000 7.480000 128 117 116 0
20.240000 17.160000 7.480000 127 116 115 0
20.460000 17.160000 7.480000 126 115 114 0
20.680000 17.160000 7.480000 127 116 115 0
20.900000 17.160000 7.480000 127 116 115 0
21.120000 17.160000 7.480000 127 116 115 0
21.340000 17.160000 7.480000 126 115 114 0
21.560000 17.160000 7.480000 125 114 113 0
21.780000 17.160000 7.480000 126 115 114 0
22.000000 17.160000 7.480000 125 114 113 0
22.220000 17.160000 7.480000 124 113 112 0
22.440000 17.160000 7.480000 124 113 112 0
22.660000 17.160000 7.480000 124 113 112 0
22.880000 17.160000 7.480000 123 112 111 0
23.100000 17.160000 7.480000 125 113 112 0
23.320000 17.160000 7.480000 126 114 113 0
23.540000 17.160000 7.480000 124 113 112 0
23.760000 17.160000 7.480000 125 114 113 0
23.980000 17.160000 7.480000 124 113 112 0
24.200000 17.160000 7.480000 125 114 113 0
24.420000 17.160000 7.480000 128 113 111 0
24.640000 17.160000 7.480000 127 112 110 0
24.860000 17.160000 7.480000 125 113 110 0
25.080000 17.160000 7.480000 125 113 110 0
25.300000 17.160000 7.480000 127 111 109 0
25.520000 17.160000 7.480000 128 112 110 0
25.740000 17.160000 7.480000 127 111 107 0
25.960000 17.160000 7.480000 127 111 107 0
26.180000 17.160000 6.160000 127 111 107 0
26.400000 17.160000 6.160000 127 111 107 0
26.620000 17.160000 7.480000 123 112 111 0
26.840000 17.160000 7.480000 122 111 110 0
27.060000 17.160000 7.480000 118 116 116 0
27.280000 17.160000 7.480000 121 119 119 0
27.500000 17.160000 7.480000 124 121 123 0
27.720000 17.160000 7.480000 130 127 129 0
27.940000 17.160000 7.480000 140 128 127 0
28.160000 17.160000 7.480000 140 128 127 0
28.380000 17.160000 7.480000 150 121 118 0
28.600000 17.160000 7.480000 145 116 113 0
28.820000 17.160000 7.700000 146 104 100 0
29.040000 17.160000 7.700000 137 95 91 0
29.260000 17.160000 7.480000 137 91 88 0
29.480000 17.160000 7.480000 137 91 88 0
29.700000 17.160000 7.480000 139 90 88 0
29.920000 17.160000 7.700000 139 90 88 0
30.140000 17.160000 7.700000 138 92 89 0
30.360000 17.160000 7.700000 137 91 88 0
30.580000 17.160000 7.700000 139 93 90 0
30.800000 17.160000 7.480000 139 93 90 0
31.020000 17.160000 7.480000 140 94 91 0
31.240000 17.160000 7.480000 141 95 92 0
31.460000 17.160000 7.480000 141 95 92 0
31.680000 17.160000 6.160000 142 96 93 0
31.900000 17.160000 6.160000 143 97 95 0
32.120000 17.160000 6.160000 144 98 96 0
32.340000 17.160000 6.380000 148 98 96 0
32.560000 17.160000 6.380000 149 99 97 0
32.780000 17.160000 6.160000 150 98 95 0
33.000000 17.160000 6.160000 151 99 96 0
33.220000 17.160000 6.160000 151 97 94 0
33.440000 17.160000 7.480000 149 95 92 0
33.660000 17.160000 7.480000 149 93 89 0
33.880000 17.160000 7.480000 149 93 89 0
34.100000 17.160000 7.480000 152 92 87 0
34.320000 17.160000 7.480000 153 93 88 0
34.540000 17.160000 6.160000 154 94 91 0
34.760000 17.160000 6.160000 154 94 91 0
34.980000 17.160000 7.480000 157 93 88 0
35.200000 17.160000 7.480000 158 94 89 0
35.420000 17.160000 7.480000 160 97 87 0
35.640000 17.160000 6.160000 161 98 88 0
35.860000 17.160000 6.160000 165 98 85 0
36.080000 17.160000 6.160000 164 97 84 0
36.300000 17.160000 6.160000 165 98 84 0
36.520000 17.160000 6.160000 177 110 96 0
36.740000 17.160000 7.260000 178 125 102 0
36.960000 17.160000 7.480000 191 138 115 0
37.180000 17.160000 7.480000 198 144 115 0
0.000000 17.380000 2.420000 174 195 195 0
0.220000 17.380000 2.420000 175 196 197 0
0.440000 17.380000 2.420000 175 196 197 0
0.660000 17.380000 2.420000 175 198 199 0
0.880000 17.380000 2.420000 175 198 199 0
1.100000 17.380000 2.200000 175 198 199 0
1.320000 17.380000 2.200000 176 199 200 0
1.540000 17.380000 2.200000 177 198 199 0
1.760000 17.380000 2.200000 178 199 200 0
1.980000 17.380000 2.200000 178 199 199 0
2.200000 17.380000 2.200000 177 198 198 0
2.420000 17.380000 3.520000 173 198 198 0
2.640000 17.380000 3.300000 172 197 197 0
2.860000 17.380000 3.300000 176 197 197 0
3.080000 17.380000 3.300000 176 197 197 0
3.300000 17.380000 4.400000 177 198 198 0
3.520000 17.380000 4.400000 177 198 198 0
3.740000 17.380000 5.720000 179 198 199 0
3.960000 17.380000 5.720000 182 201 202 0
4.180000 17.380000 5.720000 190 201 200 0
4.400000 17.380000 7.040000 194 205 204 0
4.620000 17.380000 7.040000 197 207 204 0
4.840000 17.380000 7.040000 198 208 205 0
5.060000 17.380000 7.040000 199 209 206 0
5.280000 17.380000 7.040000 200 210 207 0
5.500000 17.380000 7.040000 200 210 207 0
5.720000 17.380000 7.260000 200 210 207 0
5.940000 17.380000 7.260000 200 210 207 0
6.160000 17.380000 7.260000 201 211 208 0
6.380000 17.380000 7.260000 201 211 208 0
6.600000 17.380000 7.480000 201 211 208 0
6.820000 17.380000 7.480000 201 211 208 0
7.040000 17.380000 7.480000 201 211 208 0
7.260000 17.380000 7.480000 201 211 208 0
7.480000 17.380000 7.700000 201 211 208 0
7.700000 17.380000 7.700000 201 211 208 0
7.920000 17.380000 7.700000 201 211 208 0
8.140000 17.380000 7.700000 202 212 209 0
8.360000 17.380000 7.920000 202 212 209 0
8.580000 17.380000 7.920000 203 213 210 0
8.800000 17.380000 7.920000 202 212 209 0
9.020000 17.380000 9.460000 201 211 208 0
9.240000 17.380000 9.460000 201 211 208 0
9.460000 17.380000 9.460000 202 212 209 0
9.680000 17.380000 10.780000 202 212 209 0
9.900000 17.380000 11.440000 201 211 208 0
10.120000 17.380000 12.540000 200 210 207 0
10.340000 17.380000 12.540000 200 210 206 0
10.560000 17.380000 12.760000 200 210 206 0
10.780000 17.380000 14.080000 200 210 207 0
11.000000 17.380000 14.080000 199 209 206 0
11.220000 17.380000 14.300000 199 207 204 0
11.440000 17.380000 14.300000 198 206 203 0
11.660000 17.380000 14.300000 198 206 203 0
11.880000 17.380000 14.300000 197 205 202 0
12.100000 17.380000 14.520000 195 203 200 0
12.320000 17.380000 14.520000 194 202 199 0
12.540000 17.380000 14.520000 189 197 195 0
12.760000 17.380000 14.520000 181 189 187 0
12.980000 17.380000 13.200000 184 175 175 0
13.200000 17.380000 13.200000 171 162 162 0
13.420000 17.380000 13.200000 163 152 143 0
13.640000 17.380000 11.880000 155 144 135 0
13.860000 17.380000 11.880000 152 142 138 0
14.080000 17.380000 11.880000 145 135 131 0
14.300000 17.380000 11.880000 144 132 127 0
14.520000 17.380000 10.340000 142 130 125 0
14.740000 17.380000 10.340000 141 129 126 0
14.960000 17.380000 10.340000 139 127 124 0
15.180000 17.380000 10.340000 137 125 122 0
15.400000 17.380000 10.340000 136 124 121 0
15.620000 17.380000 10.340000 135 123 118 0
15.840000 17.380000 10.340000 134 122 117 0
16.060000 17.380000 10.340000 133 121 118 0
16.280000 17.380000 9.020000 132 120 117 0
16.500000 17.380000 9.020000 133 118 116 0
16.720000 17.380000 9.020000 133 118 116 0
16.940000 17.380000 9.020000 130 118 113 0
17.160000 17.380000 9.020000 130 118 113 0
17.380000 17.380000 8.800000 129 119 115 0
17.600000 17.380000 8.800000 129 119 115 0
17.820000 17.380000 8.800000 128 117 116 0
18.040000 17.380000 8.800000 128 117 116 0
18.260000 17.380000 9.020000 129 117 114 0
18.480000 17.380000 7.480000 128 116 113 0
18.700000 17.380000 7.480000 127 117 113 0
18.920000 17.380000 7.480000 127 117 113 0
19.140000 17.380000 7.480000 128 117 116 0
19.360000 17.380000 7.480000 129 118 117 0
19.580000 17.380000 7.480000 128 117 116 0
19.800000 17.380000 7.480000 127 116 115 0
20.020000 17.380000 7.480000 128 117 116 0
20.240000 17.380000 7.480000 128 117 116 0
20.460000 17.380000 7.480000 127 116 115 0
20.680000 17.380000 7.480000 127 116 115 0
20.900000 17.380000 7.480000 127 116 115 0
21.120000 17.380000 7.480000 127 116 115 0
21.340000 17.380000 7.480000 127 116 115 0
21.560000 17.380000 7.480000 126 115 114 0
21.780000 17.380000 7.480000 126 115 114 0
22.000000 17.380000 7.480000 125 114 113 0
22.220000 17.380000 7.480000 126 115 114 0
22.440000 17.380000 7.480000 126 115 114 0
22.660000 17.380000 7.480000 124 113 112 0
22.880000 17.380000 7.480000 125 114 113 0
23.100000 17.380000 7.480000 126 114 113 0
23.320000 17.380000 7.480000 126 114 113 0
23.540000 17.380000 7.480000 125 114 113 0
23.760000 17.380000 7.480000 125 114 113 0
23.980000 17.380000 7.480000 125 114 113 0
24.200000 17.380000 7.480000 124 113 112 0
24.420000 17.380000 7.480000 128 113 111 0
24.640000 17.380000 7.480000 127 112 110 0
24.860000 17.380000 7.480000 125 113 110 0
25.080000 17.380000 7.480000 125 113 110 0
25.300000 17.380000 7.480000 127 111 109 0
25.520000 17.380000 7.480000 127 111 109 0
25.740000 17.380000 7.480000 128 112 108 0
25.960000 17.380000 7.480000 129 113 109 0
26.180000 17.380000 7.480000 129 113 109 0
26.400000 17.380000 7.480000 129 113 109 0
26.620000 17.380000 7.480000 127 116 115 0
26.840000 17.380000 7.480000 132 121 120 0
27.060000 17.380000 7.480000 131 129 129 0
27.280000 17.380000 7.480000 133 131 131 0
27.500000 17.380000 7.480000 134 131 133 0
27.720000 17.380000 7.480000 135 132 134 0
27.940000 17.380000 7.480000 141 129 128 0
28.160000 17.380000 7.480000 139 127 126 0
28.380000 17.380000 7.480000 144 115 112 0
28.600000 17.380000 7.700000 134 105 102 0
28.820000 17.380000 7.700000 137 95 91 0
29.040000 17.380000 7.700000 134 92 88 0
29.260000 17.380000 7.480000 137 91 88 0
29.480000 17.380000 7.480000 137 91 88 0
29.700000 17.380000 7.480000 139 90 88 0
29.920000 17.380000 7.480000 140 91 89 0
30.140000 17.380000 7.700000 138 92 89 0
30.360000 17.380000 7.700000 139 93 90 0
30.580000 17.380000 7.700000 140 94 91 0
30.800000 17.380000 7.480000 140 94 91 0
31.020000 17.380000 7.480000 140 94 91 0
31.240000 17.380000 7.480000 140 94 91 0
31.460000 17.380000 7.480000 142 96 93 0
31.680000 17.380000 6.160000 143 97 94 0
31.900000 17.380000 6.160000 144 98 96 0
32.120000 17.380000 6.160000 145 99 97 0
32.340000 17.380000 6.160000 149 99 97 0
32.560000 17.380000 6.160000 150 100 98 0
32.780000 17.380000 6.160000 149 97 94 0
33.000000 17.380000 7.480000 148 96 93 0
33.220000 17.380000 7.480000 149 95 92 0
33.440000 17.380000 7.480000 148 94 91 0
33.660000 17.380000 7.480000 149 93 89 0
33.880000 17.380000 7.480000 149 93 89 0
34.100000 17.380000 7.480000 153 93 88 0
34.320000 17.380000 7.480000 154 94 89 0
34.540000 17.380000 6.160000 154 94 91 0
34.760000 17.380000 6.160000 155 95 92 0
34.980000 17.380000 6.160000 159 95 90 0
35.200000 17.380000 7.480000 161 97 92 0
35.420000 17.380000 7.480000 165 102 92 0
35.640000 17.380000 6.160000 169 106 96 0
35.860000 17.380000 6.160000 172 105 92 0
36.080000 17.380000 6.160000 171 104 91 0
36.300000 17.380000 6.160000 172 105 91 0
36.520000 17.380000 6.160000 186 119 105 0
36.740000 17.380000 5.940000 192 139 116 0
36.960000 17.380000 5.940000 203 150 127 0
37.180000 17.380000 6.160000 212 158 129 0
0.000000 17.600000 2.420000 175 194 193 0
0.220000 17.600000 2.420000 175 196 196 0
0.440000 17.600000 2.420000 175 196 196 0
0.660000 17.600000 2.420000 176 197 197 0
0.880000 17.600000 2.420000 177 198 198 0
1.100000 17.600000 2.420000 177 198 199 0
1.320000 17.600000 2.200000 177 198 199 0
1.540000 17.600000 2.200000 178 199 200 0
1.760000 17.600000 2.200000 177 198 199 0
1.980000 17.600000 2.200000 176 197 198 0
2.200000 17.600000 2.200000 176 197 198 0
2.420000 17.600000 3.520000 176 197 197 0
2.640000 17.600000 3.520000 175 196 196 0
2.860000 17.600000 3.300000 176 195 196 0
3.080000 17.600000 4.620000 177 196 197 0
3.300000 17.600000 4.400000 178 197 198 0
3.520000 17.600000 4.400000 178 197 198 0
3.740000 17.600000 5.720000 178 197 198 0
3.960000 17.600000 5.720000 181 200 201 0
4.180000 17.600000 5.720000 188 201 202 0
4.400000 17.600000 7.040000 191 204 205 0
4.620000 17.600000 7.040000 195 206 203 0
4.840000 17.600000 7.040000 197 208 205 0
5.060000 17.600000 7.040000 199 209 206 0
5.280000 17.600000 7.040000 200 210 207 0
5.500000 17.600000 7.040000 200 210 207 0
5.720000 17.600000 7.260000 200 210 207 0
5.940000 17.600000 7.260000 200 210 207 0
6.160000 17.600000 7.260000 200 210 207 0
6.380000 17.600000 7.260000 201 211 208 0
6.600000 17.600000 7.480000 201 211 208 0
6.820000 17.600000 7.480000 201 211 208 0
7.040000 17.600000 7.480000 201 211 208 0
7.260000 17.600000 7.480000 201 211 208 0
7.480000 17.600000 7.700000 201 211 208 0
7.700000 17.600000 7.700000 201 211 208 0
7.920000 17.600000 7.700000 202 212 209 0
8.140000 17.600000 7.700000 201 211 208 0
8.360000 17.600000 7.920000 201 211 208 0
8.580000 17.600000 7.920000 202 212 209 0
8.800000 17.600000 7.920000 201 211 208 0
9.020000 17.600000 9.460000 201 211 207 0
9.240000 17.600000 9.460000 202 212 208 0
9.460000 17.600000 9.460000 201 211 208 0
9.680000 17.600000 10.780000 202 212 209 0
9.900000 17.600000 11.440000 201 211 208 0
10.120000 17.600000 12.540000 200 210 207 0
10.340000 17.600000 12.540000 200 210 207 0
10.560000 17.600000 12.760000 200 210 207 0
10.780000 17.600000 12.760000 201 209 206 0
11.000000 17.600000 14.080000 200 208 205 0
11.220000 17.600000 14.300000 200 208 205 0
11.440000 17.600000 14.300000 198 206 203 0
11.660000 17.600000 14.300000 198 206 203 0
11.880000 17.600000 14.300000 196 204 201 0
12.100000 17.600000 14.520000 196 204 201 0
12.320000 17.600000 14.520000 193 201 198 0
12.540000 17.600000 14.520000 191 197 192 0
12.760000 17.600000 14.520000 185 191 186 0
12.980000 17.600000 13.200000 178 172 167 0
13.200000 17.600000 13.200000 167 161 156 0
13.420000 17.600000 13.200000 161 150 141 0
13.640000 17.600000 11.880000 155 144 135 0
13.860000 17.600000 11.880000 153 139 133 0
14.080000 17.600000 11.880000 146 132 126 0
14.300000 17.600000 11.880000 144 132 127 0
14.520000 17.600000 10.340000 142 130 125 0
14.740000 17.600000 10.340000 142 128 122 0
14.960000 17.600000 10.340000 141 127 121 0
15.180000 17.600000 10.340000 138 124 119 0
15.400000 17.600000 10.340000 136 122 117 0
15.620000 17.600000 10.340000 136 122 117 0
15.840000 17.600000 10.340000 136 122 117 0
16.060000 17.600000 10.340000 132 120 117 0
16.280000 17.600000 9.020000 132 120 117 0
16.500000 17.600000 9.020000 133 118 116 0
16.720000 17.600000 9.020000 132 117 115 0
16.940000 17.600000 9.020000 130 118 115 0
17.160000 17.600000 9.020000 129 117 114 0
17.380000 17.600000 8.800000 129 117 112 0
17.600000 17.600000 8.800000 129 117 112 0
17.820000 17.600000 8.800000 128 116 111 0
18.040000 17.600000 8.800000 128 116 111 0
18.260000 17.600000 8.800000 130 115 113 0
18.480000 17.600000 8.800000 129 114 112 0
18.700000 17.600000 7.480000 128 116 115 0
18.920000 17.600000 7.480000 128 116 115 0
19.140000 17.600000 7.480000 128 118 114 0
19.360000 17.600000 7.480000 129 119 115 0
19.580000 17.600000 7.480000 128 117 116 0
19.800000 17.600000 7.480000 128 117 116 0
20.020000 17.600000 7.480000 128 117 116 0
20.240000 17.600000 7.480000 128 117 116 0
20.460000 17.600000 7.480000 128 117 116 0
20.680000 17.600000 7.480000 127 116 115 0
20.900000 17.600000 7.480000 127 117 113 0
21.120000 17.600000 7.480000 127 117 113 0
21.340000 17.600000 7.480000 127 116 115 0
21.560000 17.600000 7.480000 127 116 115 0
21.780000 17.600000 7.480000 126 115 114 0
22.000000 17.600000 7.480000 126 115 114 0
22.220000 17.600000 7.700000 127 115 114 0
22.440000 17.600000 7.700000 127 115 114 0
22.660000 17.600000 7.480000 125 115 111 0
22.880000 17.600000 7.480000 126 116 112 0
23.100000 17.600000 7.480000 125 114 113 0
23.320000 17.600000 7.480000 125 114 113 0
23.540000 17.600000 7.480000 125 114 113 0
23.760000 17.600000 7.480000 125 114 113 0
23.980000 17.600000 7.480000 126 114 113 0
24.200000 17.600000 7.480000 126 114 113 0
24.420000 17.600000 7.480000 126 114 111 0
24.640000 17.600000 7.480000 126 114 111 0
24.860000 17.600000 7.480000 126 114 111 0
25.080000 17.600000 7.480000 126 114 111 0
25.300000 17.600000 7.480000 124 113 112 0
25.520000 17.600000 7.480000 122 111 110 0
25.740000 17.600000 7.480000 123 114 112 0
25.960000 17.600000 7.480000 126 117 115 0
26.180000 17.600000 7.480000 123 122 125 0
26.400000 17.600000 7.480000 128 127 130 0
26.620000 17.600000 7.480000 130 131 130 0
26.840000 17.600000 7.480000 132 133 132 0
27.060000 17.600000 7.480000 136 133 135 0
27.280000 17.600000 7.480000 136 133 135 0
27.500000 17.600000 7.480000 143 131 128 0
27.720000 17.600000 7.480000 141 129 126 0
27.940000 17.600000 7.480000 154 118 115 0
28.160000 17.600000 7.480000 147 111 108 0
28.380000 17.600000 7.480000 140 100 96 0
28.600000 17.600000 7.700000 134 94 90 0
28.820000 17.600000 7.480000 134 92 89 0
29.040000 17.600000 7.480000 134 92 89 0
29.260000 17.600000 7.480000 137 91 88 0
29.480000 17.600000 7.480000 138 92 89 0
29.700000 17.600000 7.480000 137 92 90 0
29.920000 17.600000 7.480000 138 93 91 0
30.140000 17.600000 7.700000 138 92 89 0
30.360000 17.600000 7.700000 139 93 90 0
30.580000 17.600000 7.700000 138 94 90 0
30.800000 17.600000 7.480000 139 95 91 0
31.020000 17.600000 7.480000 140 95 93 0
31.240000 17.600000 7.480000 140 95 93 0
31.460000 17.600000 6.160000 143 97 95 0
31.680000 17.600000 6.160000 144 98 96 0
31.900000 17.600000 6.160000 145 99 97 0
32.120000 17.600000 6.160000 145 99 97 0
32.340000 17.600000 6.160000 151 99 96 0
32.560000 17.600000 6.160000 150 98 95 0
32.780000 17.600000 7.480000 152 93 90 0
33.000000 17.600000 7.480000 151 92 89 0
33.220000 17.600000 7.480000 147 93 90 0
33.440000 17.600000 7.480000 147 93 90 0
33.660000 17.600000 7.480000 151 92 89 0
33.880000 17.600000 7.480000 151 92 89 0
34.100000 17.600000 7.480000 154 94 89 0
34.320000 17.600000 7.480000 154 94 89 0
34.540000 17.600000 6.160000 156 95 89 0
34.760000 17.600000 6.160000 159 98 92 0
34.980000 17.600000 6.160000 166 107 86 0
35.200000 17.600000 7.480000 179 120 99 0
35.420000 17.600000 7.480000 181 130 98 0
35.640000 17.600000 7.480000 184 133 101 0
35.860000 17.600000 6.160000 187 119 101 0
36.080000 17.600000 6.160000 177 109 91 0
36.300000 17.600000 6.160000 179 117 97 0
36.520000 17.600000 6.160000 190 128 108 0
36.740000 17.600000 6.160000 201 144 122 0
36.960000 17.600000 6.160000 210 153 131 0
37.180000 17.600000 6.160000 211 154 130 0
0.000000 17.820000 2.420000 175 194 193 0
0.220000 17.820000 2.420000 173 194 194 0
0.440000 17.820000 2.420000 175 196 196 0
0.660000 17.820000 2.420000 177 198 198 0
0.880000 17.820000 2.420000 177 198 198 0
1.100000 17.820000 2.420000 177 198 199 0
1.320000 17.820000 2.200000 177 198 199 0
1.540000 17.820000 2.200000 177 198 199 0
1.760000 17.820000 2.200000 177 198 199 0
1.980000 17.820000 2.200000 176 197 198 0
2.200000 17.820000 2.200000 176 197 198 0
2.420000 17.820000 3.520000 176 197 197 0
2.640000 17.820000 3.520000 176 197 197 0
2.860000 17.820000 3.300000 175 194 195 0
3.080000 17.820000 4.620000 176 195 196 0
3.300000 17.820000 4.620000 178 197 198 0
3.520000 17.820000 4.400000 178 197 198 0
3.740000 17.820000 5.720000 178 197 198 0
3.960000 17.820000 5.720000 179 198 199 0
4.180000 17.820000 5.720000 188 201 202 0
4.400000 17.820000 7.040000 191 204 205 0
4.620000 17.820000 7.040000 196 207 204 0
4.840000 17.820000 7.040000 196 207 204 0
5.060000 17.820000 7.040000 199 209 206 0
5.280000 17.820000 7.040000 199 209 206 0
5.500000 17.820000 7.040000 201 211 208 0
5.720000 17.820000 7.260000 200 210 207 0
5.940000 17.820000 7.260000 200 210 207 0
6.160000 17.820000 7.260000 201 211 208 0
6.380000 17.820000 7.260000 201 211 208 0
6.600000 17.820000 7.480000 201 211 208 0
6.820000 17.820000 7.480000 201 211 208 0
7.040000 17.820000 7.480000 202 212 209 0
7.260000 17.820000 7.480000 201 211 208 0
7.480000 17.820000 7.700000 200 210 207 0
7.700000 17.820000 7.700000 201 211 208 0
7.920000 17.820000 7.700000 201 211 208 0
8.140000 17.820000 7.700000 201 211 208 0
8.360000 17.820000 7.920000 202 212 209 0
8.580000 17.820000 7.920000 201 211 208 0
8.800000 17.820000 7.920000 202 212 209 0
9.020000 17.820000 9.460000 202 212 208 0
9.240000 17.820000 9.460000 202 212 208 0
9.460000 17.820000 9.460000 201 211 208 0
9.680000 17.820000 10.780000 201 211 208 0
9.900000 17.820000 11.440000 201 211 208 0
10.120000 17.820000 12.540000 201 211 208 0
10.340000 17.820000 12.540000 200 210 207 0
10.560000 17.820000 12.760000 200 210 207 0
10.780000 17.820000 12.760000 200 208 205 0
11.000000 17.820000 14.080000 200 208 205 0
11.220000 17.820000 14.300000 200 208 205 0
11.440000 17.820000 14.300000 199 207 204 0
11.660000 17.820000 14.300000 198 206 203 0
11.880000 17.820000 14.300000 197 205 202 0
12.100000 17.820000 14.520000 195 203 200 0
12.320000 17.820000 14.520000 192 200 197 0
