ply
format ascii 1.0
element vertex 1147
property float x
property float y
property float z
property uchar red
property uchar green
property uchar blue
property uchar alpha
end_header
3.740000 33.880000 39.160000 138 82 65 0
3.960000 33.880000 37.840000 138 82 65 0
4.180000 33.880000 37.840000 140 82 66 0
4.400000 33.880000 37.840000 140 82 66 0
4.620000 33.880000 37.840000 141 82 69 0
4.840000 33.880000 37.840000 140 81 68 0
5.060000 33.880000 37.840000 141 82 69 0
5.280000 33.880000 37.840000 141 82 69 0
5.500000 33.880000 37.840000 141 82 69 0
5.720000 33.880000 37.840000 140 81 68 0
5.940000 33.880000 37.840000 142 82 67 0
6.160000 33.880000 37.840000 142 82 67 0
6.380000 33.880000 37.840000 146 83 73 0
6.600000 33.880000 37.840000 146 83 73 0
6.820000 33.880000 37.840000 146 83 71 0
7.040000 33.880000 37.840000 146 83 71 0
7.260000 33.880000 37.840000 144 84 71 0
7.480000 33.880000 37.840000 145 85 72 0
7.700000 33.880000 37.840000 147 84 72 0
7.920000 33.880000 37.840000 147 84 72 0
8.140000 33.880000 37.840000 148 85 73 0
8.360000 33.880000 37.840000 148 85 73 0
8.580000 33.880000 37.840000 149 86 76 0
8.800000 33.880000 37.840000 150 87 77 0
9.020000 33.880000 37.840000 150 87 75 0
9.240000 33.880000 37.840000 151 88 76 0
9.460000 33.880000 37.840000 153 90 80 0
9.680000 33.880000 37.840000 152 89 79 0
9.900000 33.880000 38.060000 154 89 80 0
10.120000 33.880000 38.060000 154 89 80 0
10.340000 33.880000 38.060000 156 91 82 0
10.560000 33.880000 38.060000 157 92 83 0
10.780000 33.880000 38.060000 158 93 84 0
11.000000 33.880000 38.060000 158 93 84 0
11.220000 33.880000 38.060000 158 95 85 0
11.440000 33.880000 38.060000 158 95 85 0
11.660000 33.880000 38.060000 161 98 88 0
11.880000 33.880000 38.060000 162 99 89 0
12.100000 33.880000 38.280000 163 99 92 0
12.320000 33.880000 39.600000 164 100 93 0
12.540000 33.880000 39.600000 157 106 110 0
12.760000 33.880000 39.600000 178 127 131 0
12.980000 33.880000 38.060000 222 223 222 0
13.200000 33.880000 36.740000 240 241 240 0
13.420000 33.880000 35.200000 240 241 240 0
13.640000 33.880000 35.420000 240 241 240 0
13.860000 33.880000 36.740000 249 237 234 0
14.080000 33.880000 38.280000 239 227 224 0
14.300000 33.880000 39.600000 197 132 123 0
14.520000 33.880000 41.140000 161 96 87 0
14.740000 33.880000 38.280000 158 89 81 0
14.960000 33.880000 32.780000 154 85 77 0
15.180000 33.880000 21.780000 155 81 73 0
15.400000 33.880000 7.920000 154 80 72 0
15.620000 33.880000 3.740000 154 77 66 0
15.840000 33.880000 9.240000 152 75 64 0
16.060000 33.880000 16.060000 151 72 63 0
16.280000 33.880000 11.880000 151 72 63 0
16.500000 33.880000 0.880000 152 71 62 0
19.580000 33.880000 0.880000 140 56 49 0
19.800000 33.880000 0.880000 140 56 49 0
20.020000 33.880000 0.880000 141 57 50 0
20.240000 33.880000 0.880000 141 57 50 0
20.460000 33.880000 2.200000 139 58 50 0
20.680000 33.880000 2.200000 141 60 52 0
20.900000 33.880000 2.200000 140 60 54 0
21.120000 33.880000 0.660000 142 62 56 0
21.340000 33.880000 0.660000 143 62 56 0
22.220000 33.880000 0.880000 142 62 56 0
22.440000 33.880000 0.660000 143 63 57 0
22.660000 33.880000 0.660000 143 65 58 0
22.880000 33.880000 1.980000 143 65 58 0
23.100000 33.880000 1.980000 143 65 58 0
23.320000 33.880000 1.980000 143 65 58 0
23.540000 33.880000 3.520000 144 66 59 0
23.760000 33.880000 3.520000 144 66 59 0
23.980000 33.880000 5.060000 144 66 59 0
24.200000 33.880000 6.380000 145 67 60 0
24.420000 33.880000 6.380000 144 66 59 0
24.640000 33.880000 6.380000 142 64 57 0
24.860000 33.880000 4.840000 140 62 55 0
25.080000 33.880000 4.840000 140 62 55 0
25.300000 33.880000 3.520000 139 59 53 0
25.520000 33.880000 3.520000 140 60 54 0
25.740000 33.880000 3.520000 138 60 53 0
25.960000 33.880000 3.520000 139 61 54 0
26.180000 33.880000 3.520000 139 61 54 0
26.400000 33.880000 3.520000 141 63 56 0
26.620000 33.880000 3.520000 137 68 58 0
26.840000 33.880000 4.620000 139 70 60 0
27.060000 33.880000 10.120000 140 77 63 0
27.280000 33.880000 14.520000 142 79 65 0
27.500000 33.880000 16.060000 143 84 71 0
27.720000 33.880000 14.740000 145 86 73 0
27.940000 33.880000 13.420000 145 86 75 0
28.160000 33.880000 10.560000 145 86 75 0
28.380000 33.880000 9.020000 144 85 72 0
28.600000 33.880000 7.480000 143 84 71 0
28.820000 33.880000 6.160000 142 82 67 0
29.040000 33.880000 4.840000 142 82 67 0
29.260000 33.880000 4.840000 139 79 66 0
29.480000 33.880000 4.840000 140 80 67 0
29.700000 33.880000 6.160000 140 79 69 0
29.920000 33.880000 6.160000 141 80 70 0
30.140000 33.880000 4.840000 141 81 68 0
30.360000 33.880000 4.840000 141 81 68 0
30.580000 33.880000 4.840000 140 80 65 0
30.800000 33.880000 6.160000 141 81 66 0
31.020000 33.880000 5.940000 141 81 68 0
31.240000 33.880000 5.940000 142 82 69 0
31.460000 33.880000 5.940000 139 86 73 0
31.680000 33.880000 6.160000 144 91 78 0
31.900000 33.880000 6.160000 129 107 89 0
32.120000 33.880000 6.160000 136 114 96 0
32.340000 33.880000 7.480000 137 121 103 0
32.560000 33.880000 8.800000 139 123 105 0
32.780000 33.880000 8.800000 139 125 107 0
33.000000 33.880000 8.800000 140 126 108 0
33.220000 33.880000 7.480000 141 125 107 0
33.440000 33.880000 5.940000 140 124 106 0
33.660000 33.880000 4.620000 139 123 105 0
33.880000 33.880000 4.840000 139 123 105 0
34.100000 33.880000 3.300000 138 122 102 0
34.320000 33.880000 3.300000 138 122 102 0
34.540000 33.880000 3.300000 136 122 104 0
34.760000 33.880000 3.300000 136 122 104 0
34.980000 33.880000 3.300000 137 121 101 0
35.200000 33.880000 3.300000 138 122 102 0
35.420000 33.880000 1.980000 138 122 104 0
35.640000 33.880000 1.980000 139 123 105 0
35.860000 33.880000 1.980000 139 123 103 0
36.080000 33.880000 1.760000 139 123 103 0
36.300000 33.880000 1.760000 139 123 105 0
36.520000 33.880000 3.080000 140 124 106 0
36.740000 33.880000 3.080000 141 125 105 0
36.960000 33.880000 2.860000 143 127 107 0
37.180000 33.880000 2.860000 145 128 107 0
0.000000 34.100000 14.300000 135 107 90 0
0.220000 34.100000 10.120000 136 104 88 0
0.440000 34.100000 11.660000 136 104 88 0
0.660000 34.100000 28.160000 135 103 87 0
0.880000 34.100000 33.660000 134 102 86 0
1.100000 34.100000 31.020000 133 101 85 0
1.320000 34.100000 31.020000 133 101 85 0
1.540000 34.100000 19.800000 134 100 85 0
1.760000 34.100000 10.120000 134 100 85 0
1.980000 34.100000 10.120000 133 99 84 0
2.200000 34.100000 4.620000 132 98 83 0
2.640000 34.100000 1.980000 131 97 82 0
2.860000 34.100000 14.300000 137 94 80 0
3.080000 34.100000 33.660000 136 93 79 0
3.300000 34.100000 40.700000 142 88 73 0
3.520000 34.100000 40.480000 139 85 70 0
3.740000 34.100000 39.160000 138 80 64 0
3.960000 34.100000 37.840000 138 80 64 0
4.180000 34.100000 37.840000 139 80 67 0
4.400000 34.100000 37.840000 140 81 68 0
4.620000 34.100000 37.840000 141 81 68 0
4.840000 34.100000 37.840000 141 81 68 0
5.060000 34.100000 37.840000 141 81 68 0
5.280000 34.100000 37.840000 142 82 69 0
5.500000 34.100000 37.840000 141 81 68 0
5.720000 34.100000 37.840000 142 82 69 0
5.940000 34.100000 37.840000 143 83 70 0
6.160000 34.100000 37.840000 142 82 69 0
6.380000 34.100000 37.840000 143 83 70 0
6.600000 34.100000 37.840000 144 84 71 0
6.820000 34.100000 37.840000 146 83 71 0
7.040000 34.100000 37.840000 146 83 71 0
7.260000 34.100000 37.840000 147 84 72 0
7.480000 34.100000 37.840000 146 83 71 0
7.700000 34.100000 37.840000 147 84 74 0
7.920000 34.100000 37.840000 148 85 75 0
8.140000 34.100000 37.840000 148 85 75 0
8.360000 34.100000 37.840000 149 86 76 0
8.580000 34.100000 37.840000 149 86 76 0
8.800000 34.100000 37.840000 150 87 77 0
9.020000 34.100000 37.840000 152 87 78 0
9.240000 34.100000 37.840000 152 87 78 0
9.460000 34.100000 37.840000 152 89 79 0
9.680000 34.100000 38.060000 152 89 79 0
9.900000 34.100000 38.060000 152 89 79 0
10.120000 34.100000 38.060000 153 90 80 0
10.340000 34.100000 38.060000 156 91 82 0
10.560000 34.100000 38.060000 157 92 83 0
10.780000 34.100000 38.060000 157 92 83 0
11.000000 34.100000 38.060000 158 93 84 0
11.220000 34.100000 38.060000 158 95 85 0
11.440000 34.100000 38.060000 159 96 86 0
11.660000 34.100000 38.060000 160 97 87 0
11.880000 34.100000 38.060000 162 99 89 0
12.100000 34.100000 38.280000 163 99 92 0
12.320000 34.100000 39.600000 165 101 94 0
12.540000 34.100000 39.600000 156 105 105 0
12.760000 34.100000 39.600000 177 126 126 0
12.980000 34.100000 38.060000 222 218 212 0
13.200000 34.100000 36.740000 243 239 233 0
13.420000 34.100000 36.740000 252 236 232 0
13.640000 34.100000 36.740000 252 236 232 0
13.860000 34.100000 38.280000 255 214 213 0
14.080000 34.100000 39.600000 225 160 159 0
14.300000 34.100000 40.920000 171 106 97 0
14.520000 34.100000 41.140000 157 92 83 0
14.740000 34.100000 32.780000 156 87 79 0
14.960000 34.100000 16.280000 154 85 77 0
15.180000 34.100000 6.600000 154 83 74 0
15.400000 34.100000 6.600000 151 80 71 0
15.620000 34.100000 7.920000 152 77 66 0
15.840000 34.100000 13.420000 150 75 64 0
16.060000 34.100000 27.280000 154 73 64 0
16.280000 34.100000 24.420000 152 71 62 0
16.500000 34.100000 6.380000 151 70 61 0
19.580000 34.100000 0.880000 141 57 50 0
19.800000 34.100000 0.880000 141 57 50 0
20.020000 34.100000 0.880000 138 57 51 0
20.240000 34.100000 0.880000 138 57 51 0
20.460000 34.100000 2.200000 140 59 53 0
20.680000 34.100000 2.200000 142 61 55 0
20.900000 34.100000 0.880000 141 60 54 0
21.120000 34.100000 0.880000 143 62 56 0
22.000000 34.100000 0.880000 142 62 56 0
22.220000 34.100000 0.880000 143 63 57 0
22.440000 34.100000 0.880000 143 63 57 0
22.660000 34.100000 0.880000 143 63 57 0
22.880000 34.100000 0.660000 144 64 58 0
23.100000 34.100000 1.980000 144 66 59 0
23.320000 34.100000 1.980000 143 65 58 0
23.540000 34.100000 3.520000 144 66 59 0
23.760000 34.100000 3.520000 145 67 60 0
23.980000 34.100000 5.060000 144 69 61 0
24.200000 34.100000 6.380000 144 69 61 0
24.420000 34.100000 6.380000 145 67 60 0
24.640000 34.100000 6.380000 143 65 58 0
24.860000 34.100000 5.060000 142 62 56 0
25.080000 34.100000 4.840000 141 61 55 0
25.300000 34.100000 3.520000 138 60 53 0
25.520000 34.100000 3.520000 139 61 54 0
25.740000 34.100000 3.520000 138 60 53 0
25.960000 34.100000 3.520000 139 61 54 0
26.180000 34.100000 3.520000 138 63 55 0
26.400000 34.100000 3.520000 141 66 58 0
26.620000 34.100000 3.300000 134 71 59 0
26.840000 34.100000 5.940000 138 75 63 0
27.060000 34.100000 11.440000 138 79 66 0
27.280000 34.100000 14.520000 141 82 69 0
27.500000 34.100000 14.740000 145 85 72 0
27.720000 34.100000 13.420000 146 86 73 0
27.940000 34.100000 11.880000 146 87 74 0
28.160000 34.100000 10.560000 146 87 74 0
28.380000 34.100000 9.020000 146 86 73 0
28.600000 34.100000 7.700000 145 85 72 0
28.820000 34.100000 6.160000 142 82 69 0
29.040000 34.100000 4.840000 141 81 68 0
29.260000 34.100000 4.840000 139 79 66 0
29.480000 34.100000 4.840000 140 80 67 0
29.700000 34.100000 4.840000 140 80 67 0
29.920000 34.100000 4.840000 141 81 68 0
30.140000 34.100000 4.840000 141 82 69 0
30.360000 34.100000 4.840000 141 82 69 0
30.580000 34.100000 4.840000 141 82 69 0
30.800000 34.100000 4.840000 139 80 67 0
31.020000 34.100000 6.160000 142 82 69 0
31.240000 34.100000 5.940000 142 82 69 0
31.460000 34.100000 5.940000 140 87 74 0
31.680000 34.100000 5.940000 144 91 78 0
31.900000 34.100000 6.160000 130 108 89 0
32.120000 34.100000 6.160000 135 113 94 0
32.340000 34.100000 7.480000 137 121 103 0
32.560000 34.100000 8.800000 139 123 105 0
32.780000 34.100000 8.800000 139 126 105 0
33.000000 34.100000 7.480000 140 127 106 0
33.220000 34.100000 7.480000 141 125 107 0
33.440000 34.100000 5.940000 140 124 106 0
33.660000 34.100000 4.620000 139 123 105 0
33.880000 34.100000 3.300000 137 121 103 0
34.100000 34.100000 3.300000 137 121 103 0
34.320000 34.100000 3.080000 137 121 103 0
34.540000 34.100000 3.300000 136 120 100 0
34.760000 34.100000 3.300000 137 121 101 0
34.980000 34.100000 3.300000 138 122 104 0
35.200000 34.100000 1.980000 137 121 103 0
35.420000 34.100000 1.980000 138 122 104 0
35.640000 34.100000 1.980000 138 122 104 0
35.860000 34.100000 1.980000 138 122 104 0
36.080000 34.100000 1.760000 139 123 105 0
36.300000 34.100000 3.080000 140 124 104 0
36.520000 34.100000 3.080000 141 125 105 0
36.740000 34.100000 3.080000 141 125 105 0
36.960000 34.100000 2.860000 143 127 107 0
37.180000 34.100000 2.860000 146 129 108 0
0.000000 34.320000 15.620000 134 106 89 0
0.220000 34.320000 7.480000 137 105 89 0
0.440000 34.320000 1.980000 135 103 87 0
0.660000 34.320000 12.980000 135 103 87 0
0.880000 34.320000 19.800000 134 102 86 0
1.100000 34.320000 19.800000 133 101 85 0
1.320000 34.320000 22.660000 133 101 85 0
1.540000 34.320000 17.160000 134 100 85 0
1.760000 34.320000 7.480000 134 100 85 0
1.980000 34.320000 7.480000 133 99 84 0
2.200000 34.320000 10.120000 133 99 84 0
2.420000 34.320000 10.340000 133 99 84 0
2.640000 34.320000 15.840000 131 97 82 0
2.860000 34.320000 25.520000 137 94 80 0
3.080000 34.320000 33.660000 135 92 78 0
3.300000 34.320000 37.840000 142 88 73 0
3.520000 34.320000 40.700000 137 83 68 0
3.740000 34.320000 39.160000 140 82 66 0
3.960000 34.320000 39.160000 139 81 65 0
4.180000 34.320000 37.840000 139 80 67 0
4.400000 34.320000 39.160000 140 81 68 0
4.620000 34.320000 39.160000 141 81 68 0
4.840000 34.320000 37.840000 141 81 68 0
5.060000 34.320000 37.840000 142 82 69 0
5.280000 34.320000 37.840000 142 82 69 0
5.500000 34.320000 37.840000 141 81 68 0
5.720000 34.320000 37.840000 142 82 69 0
5.940000 34.320000 37.840000 143 83 70 0
6.160000 34.320000 37.840000 143 83 70 0
6.380000 34.320000 37.840000 144 84 71 0
6.600000 34.320000 37.840000 143 83 70 0
6.820000 34.320000 37.840000 146 83 71 0
7.040000 34.320000 37.840000 145 82 70 0
7.260000 34.320000 37.840000 147 84 72 0
7.480000 34.320000 37.840000 147 84 72 0
7.700000 34.320000 37.840000 148 85 75 0
7.920000 34.320000 37.840000 148 85 75 0
8.140000 34.320000 37.840000 148 85 75 0
8.360000 34.320000 37.840000 150 87 77 0
8.580000 34.320000 37.840000 151 88 78 0
8.800000 34.320000 37.840000 150 87 77 0
9.020000 34.320000 37.840000 151 86 77 0
9.240000 34.320000 37.840000 152 87 78 0
9.460000 34.320000 37.840000 152 89 79 0
9.680000 34.320000 38.060000 152 89 79 0
9.900000 34.320000 38.060000 153 90 80 0
10.120000 34.320000 38.060000 154 91 81 0
10.340000 34.320000 38.060000 155 90 81 0
10.560000 34.320000 38.060000 156 91 82 0
10.780000 34.320000 38.060000 156 91 82 0
11.000000 34.320000 38.060000 158 93 84 0
11.220000 34.320000 38.060000 158 95 85 0
11.440000 34.320000 38.060000 159 96 86 0
11.660000 34.320000 38.060000 160 97 87 0
11.880000 34.320000 38.060000 161 98 88 0
12.100000 34.320000 38.280000 164 100 93 0
12.320000 34.320000 39.600000 164 100 93 0
12.540000 34.320000 39.600000 156 105 105 0
12.760000 34.320000 39.600000 179 128 128 0
12.980000 34.320000 38.060000 205 201 195 0
13.200000 34.320000 38.060000 241 237 231 0
13.420000 34.320000 36.740000 249 233 229 0
13.640000 34.320000 38.060000 229 213 209 0
13.860000 34.320000 39.600000 229 164 163 0
14.080000 34.320000 39.600000 178 113 112 0
14.300000 34.320000 41.140000 161 96 87 0
14.520000 34.320000 41.140000 156 91 82 0
14.740000 34.320000 32.780000 157 88 80 0
14.960000 34.320000 13.420000 154 85 77 0
15.180000 34.320000 1.100000 153 82 73 0
15.400000 34.320000 1.100000 152 81 72 0
15.620000 34.320000 3.740000 153 78 67 0
15.840000 34.320000 9.240000 151 76 65 0
16.060000 34.320000 23.100000 153 72 63 0
16.280000 34.320000 23.100000 152 71 62 0
16.500000 34.320000 6.380000 151 70 61 0
19.580000 34.320000 0.880000 140 56 49 0
19.800000 34.320000 0.880000 140 56 49 0
20.020000 34.320000 0.880000 138 57 51 0
20.240000 34.320000 0.880000 139 58 52 0
20.460000 34.320000 2.200000 141 60 54 0
20.680000 34.320000 2.200000 142 61 55 0
20.900000 34.320000 0.880000 142 61 55 0
21.120000 34.320000 0.880000 143 62 56 0
22.000000 34.320000 0.880000 142 62 56 0
22.220000 34.320000 0.880000 143 63 57 0
22.660000 34.320000 0.880000 143 63 57 0
22.880000 34.320000 0.880000 144 64 58 0
23.100000 34.320000 0.660000 144 66 59 0
23.320000 34.320000 2.200000 144 66 59 0
23.540000 34.320000 2.200000 144 66 59 0
23.760000 34.320000 3.520000 146 68 61 0
23.980000 34.320000 5.060000 144 69 61 0
24.200000 34.320000 6.380000 144 69 61 0
24.420000 34.320000 6.380000 145 67 60 0
24.640000 34.320000 6.380000 143 65 58 0
24.860000 34.320000 6.380000 142 62 56 0
25.080000 34.320000 5.060000 141 61 55 0
25.300000 34.320000 3.520000 140 62 55 0
25.520000 34.320000 3.520000 139 61 54 0
25.740000 34.320000 3.520000 139 61 54 0
25.960000 34.320000 3.520000 140 62 55 0
26.180000 34.320000 3.520000 139 64 56 0
26.400000 34.320000 3.520000 140 65 57 0
26.620000 34.320000 4.620000 135 72 60 0
26.840000 34.320000 7.260000 139 76 64 0
27.060000 34.320000 12.980000 140 81 68 0
27.280000 34.320000 14.520000 141 82 69 0
27.500000 34.320000 14.740000 144 84 71 0
27.720000 34.320000 13.200000 146 86 73 0
27.940000 34.320000 11.880000 146 87 74 0
28.160000 34.320000 9.020000 145 86 73 0
28.380000 34.320000 7.700000 146 86 73 0
28.600000 34.320000 6.160000 143 83 70 0
28.820000 34.320000 4.840000 143 83 70 0
29.040000 34.320000 4.840000 141 81 68 0
29.260000 34.320000 4.840000 140 80 67 0
29.480000 34.320000 4.840000 139 79 66 0
29.700000 34.320000 4.840000 139 79 66 0
29.920000 34.320000 4.840000 142 82 69 0
30.140000 34.320000 4.840000 141 82 69 0
30.360000 34.320000 4.840000 142 83 70 0
30.580000 34.320000 4.840000 141 82 69 0
30.800000 34.320000 4.840000 140 81 68 0
31.020000 34.320000 4.840000 142 82 69 0
31.240000 34.320000 5.940000 143 83 70 0
31.460000 34.320000 5.940000 141 88 75 0
31.680000 34.320000 5.940000 144 91 78 0
31.900000 34.320000 6.160000 129 107 88 0
32.120000 34.320000 6.160000 134 112 93 0
32.340000 34.320000 7.480000 135 119 101 0
32.560000 34.320000 8.800000 138 122 104 0
32.780000 34.320000 8.800000 139 126 105 0
33.000000 34.320000 8.800000 139 126 105 0
33.220000 34.320000 7.480000 141 125 107 0
33.440000 34.320000 5.940000 139 123 105 0
33.660000 34.320000 4.620000 138 122 104 0
33.880000 34.320000 3.300000 137 121 103 0
34.100000 34.320000 3.300000 136 120 102 0
34.320000 34.320000 3.300000 136 120 102 0
34.540000 34.320000 1.980000 136 120 100 0
34.760000 34.320000 3.300000 137 121 101 0
34.980000 34.320000 3.300000 136 120 102 0
35.200000 34.320000 3.300000 136 120 102 0
35.420000 34.320000 1.980000 136 120 102 0
35.640000 34.320000 1.980000 137 121 103 0
35.860000 34.320000 1.980000 138 122 104 0
36.080000 34.320000 3.300000 138 122 104 0
36.300000 34.320000 3.080000 140 124 104 0
36.520000 34.320000 3.080000 140 124 104 0
36.740000 34.320000 3.080000 142 126 106 0
36.960000 34.320000 2.860000 145 129 109 0
37.180000 34.320000 2.860000 146 129 108 0
0.000000 34.540000 4.620000 134 106 89 0
0.220000 34.540000 1.980000 134 104 88 0
0.660000 34.540000 4.620000 132 102 86 0
0.880000 34.540000 10.120000 131 101 85 0
1.100000 34.540000 7.480000 133 101 85 0
1.320000 34.540000 7.480000 133 101 85 0
1.540000 34.540000 7.480000 133 99 84 0
1.760000 34.540000 1.980000 133 99 84 0
1.980000 34.540000 4.620000 132 100 84 0
2.200000 34.540000 17.160000 131 99 83 0
2.420000 34.540000 28.160000 133 99 84 0
2.640000 34.540000 33.660000 131 97 82 0
2.860000 34.540000 33.660000 135 95 80 0
3.080000 34.540000 31.020000 134 94 79 0
3.300000 34.540000 34.980000 143 87 70 0
3.520000 34.540000 40.700000 139 83 66 0
3.740000 34.540000 39.380000 138 81 67 0
3.960000 34.540000 39.160000 139 82 68 0
4.180000 34.540000 39.160000 140 81 68 0
4.400000 34.540000 39.160000 140 81 68 0
4.620000 34.540000 39.160000 141 81 66 0
4.840000 34.540000 39.160000 142 82 67 0
5.060000 34.540000 37.840000 143 83 70 0
5.280000 34.540000 37.840000 141 81 68 0
5.500000 34.540000 37.840000 140 80 67 0
5.720000 34.540000 37.840000 141 81 68 0
5.940000 34.540000 37.840000 142 82 69 0
6.160000 34.540000 37.840000 143 83 70 0
6.380000 34.540000 37.840000 144 81 69 0
6.600000 34.540000 37.840000 145 82 70 0
6.820000 34.540000 37.840000 144 84 71 0
7.040000 34.540000 37.840000 144 84 71 0
7.260000 34.540000 37.840000 147 84 72 0
7.480000 34.540000 37.840000 147 84 72 0
7.700000 34.540000 37.840000 147 84 74 0
7.920000 34.540000 37.840000 147 84 74 0
8.140000 34.540000 37.840000 149 86 76 0
8.360000 34.540000 37.840000 150 87 77 0
8.580000 34.540000 37.840000 149 86 76 0
8.800000 34.540000 37.840000 150 87 77 0
9.020000 34.540000 37.840000 152 87 78 0
9.240000 34.540000 37.840000 153 88 79 0
9.460000 34.540000 37.840000 153 88 79 0
9.680000 34.540000 38.060000 154 89 80 0
9.900000 34.540000 38.060000 155 90 81 0
10.120000 34.540000 38.060000 155 90 81 0
10.340000 34.540000 38.060000 155 90 81 0
10.560000 34.540000 38.060000 156 91 82 0
10.780000 34.540000 38.060000 157 92 85 0
11.000000 34.540000 38.060000 158 93 86 0
11.220000 34.540000 38.060000 159 94 85 0
11.440000 34.540000 38.060000 161 96 87 0
11.660000 34.540000 38.060000 160 97 87 0
11.880000 34.540000 38.060000 162 99 89 0
12.100000 34.540000 38.060000 163 99 92 0
12.320000 34.540000 39.600000 163 99 92 0
12.540000 34.540000 39.600000 144 109 111 0
12.760000 34.540000 39.600000 173 138 140 0
12.980000 34.540000 39.600000 191 186 188 0
13.200000 34.540000 38.060000 206 201 203 0
13.420000 34.540000 38.060000 251 208 196 0
13.640000 34.540000 39.600000 226 183 171 0
13.860000 34.540000 39.600000 195 130 123 0
14.080000 34.540000 40.920000 166 101 94 0
14.300000 34.540000 38.280000 160 92 86 0
14.520000 34.540000 32.780000 157 89 83 0
14.740000 34.540000 27.280000 156 87 77 0
14.960000 34.540000 16.280000 154 85 75 0
15.180000 34.540000 3.740000 156 83 72 0
15.840000 34.540000 1.100000 151 76 66 0
16.060000 34.540000 6.600000 151 73 64 0
16.280000 34.540000 6.380000 150 72 63 0
16.500000 34.540000 0.880000 150 69 60 0
19.580000 34.540000 0.880000 140 56 49 0
19.800000 34.540000 0.880000 141 57 50 0
20.020000 34.540000 0.880000 138 57 49 0
20.240000 34.540000 0.880000 140 59 51 0
20.460000 34.540000 2.200000 141 61 55 0
20.680000 34.540000 0.880000 141 61 55 0
20.900000 34.540000 0.880000 142 62 56 0
22.000000 34.540000 0.880000 143 63 57 0
22.220000 34.540000 0.880000 143 65 58 0
23.100000 34.540000 0.880000 143 65 60 0
23.320000 34.540000 0.660000 143 65 60 0
23.540000 34.540000 1.980000 143 68 60 0
23.760000 34.540000 3.520000 143 68 60 0
23.980000 34.540000 4.840000 144 68 63 0
24.200000 34.540000 5.060000 144 68 63 0
24.420000 34.540000 6.380000 143 68 60 0
24.640000 34.540000 6.380000 142 67 59 0
24.860000 34.540000 5.060000 143 63 57 0
25.080000 34.540000 5.060000 141 61 55 0
25.300000 34.540000 3.520000 139 61 54 0
25.520000 34.540000 3.520000 140 62 55 0
25.740000 34.540000 3.520000 140 62 55 0
25.960000 34.540000 3.520000 139 61 54 0
26.180000 34.540000 3.520000 138 64 56 0
26.400000 34.540000 3.520000 141 67 59 0
26.620000 34.540000 4.840000 136 73 61 0
26.840000 34.540000 8.800000 141 78 66 0
27.060000 34.540000 13.200000 140 81 68 0
27.280000 34.540000 14.740000 142 83 70 0
27.500000 34.540000 13.200000 144 85 72 0
27.720000 34.540000 11.880000 146 87 74 0
27.940000 34.540000 10.340000 145 88 74 0
28.160000 34.540000 9.020000 145 88 74 0
28.380000 34.540000 7.700000 145 86 73 0
28.600000 34.540000 6.160000 144 85 72 0
28.820000 34.540000 4.840000 142 83 70 0
29.040000 34.540000 4.840000 141 82 69 0
29.260000 34.540000 4.840000 141 81 68 0
29.480000 34.540000 4.840000 141 81 68 0
29.700000 34.540000 4.840000 140 81 68 0
29.920000 34.540000 4.840000 140 81 68 0
30.140000 34.540000 4.840000 141 81 66 0
30.360000 34.540000 4.840000 142 82 67 0
30.580000 34.540000 4.840000 142 83 70 0
30.800000 34.540000 4.840000 141 82 69 0
31.020000 34.540000 4.840000 140 81 68 0
31.240000 34.540000 4.620000 140 81 68 0
31.460000 34.540000 5.940000 137 87 73 0
31.680000 34.540000 5.940000 141 91 77 0
31.900000 34.540000 6.160000 133 103 87 0
32.120000 34.540000 6.160000 139 109 93 0
32.340000 34.540000 7.480000 135 119 99 0
32.560000 34.540000 8.800000 137 121 101 0
32.780000 34.540000 8.800000 139 123 105 0
33.000000 34.540000 8.800000 140 124 106 0
33.220000 34.540000 7.480000 138 125 104 0
33.440000 34.540000 5.940000 137 124 103 0
33.660000 34.540000 4.620000 136 123 102 0
33.880000 34.540000 3.300000 134 121 100 0
34.100000 34.540000 3.300000 136 120 100 0
34.320000 34.540000 1.980000 135 119 99 0
34.540000 34.540000 1.980000 136 120 102 0
34.760000 34.540000 3.300000 137 121 103 0
34.980000 34.540000 3.300000 135 119 99 0
35.200000 34.540000 3.300000 137 121 101 0
35.420000 34.540000 3.300000 136 120 100 0
35.640000 34.540000 3.300000 137 121 101 0
35.860000 34.540000 3.300000 138 122 102 0
36.080000 34.540000 3.300000 138 122 102 0
36.300000 34.540000 3.080000 140 122 103 0
36.520000 34.540000 3.080000 141 123 104 0
36.740000 34.540000 3.080000 141 125 105 0
36.960000 34.540000 2.860000 143 127 107 0
37.180000 34.540000 2.860000 145 129 108 0
0.000000 34.760000 10.120000 134 106 89 0
0.220000 34.760000 7.480000 134 104 88 0
0.440000 34.760000 1.760000 132 102 86 0
0.660000 34.760000 7.480000 132 102 86 0
0.880000 34.760000 18.480000 131 101 85 0
1.100000 34.760000 12.980000 133 101 85 0
1.320000 34.760000 1.980000 133 101 85 0
1.980000 34.760000 1.980000 132 100 84 0
2.200000 34.760000 11.660000 131 99 83 0
2.420000 34.760000 25.300000 132 98 83 0
2.640000 34.760000 31.020000 131 97 82 0
2.860000 34.760000 31.020000 134 94 79 0
3.080000 34.760000 33.660000 133 93 78 0
3.300000 34.760000 37.840000 141 85 68 0
3.520000 34.760000 40.700000 140 84 67 0
3.740000 34.760000 39.160000 138 81 67 0
3.960000 34.760000 39.160000 138 81 67 0
4.180000 34.760000 39.160000 141 82 69 0
4.400000 34.760000 37.840000 140 81 68 0
4.620000 34.760000 37.840000 141 81 66 0
4.840000 34.760000 37.840000 142 82 67 0
5.060000 34.760000 37.840000 142 82 69 0
5.280000 34.760000 37.840000 142 82 69 0
5.500000 34.760000 37.840000 141 81 68 0
5.720000 34.760000 37.840000 142 82 69 0
5.940000 34.760000 37.840000 143 83 70 0
6.160000 34.760000 37.840000 143 83 70 0
6.380000 34.760000 37.840000 144 81 69 0
6.600000 34.760000 37.840000 145 82 70 0
6.820000 34.760000 37.840000 144 84 71 0
7.040000 34.760000 37.840000 144 84 71 0
7.260000 34.760000 37.840000 147 84 72 0
7.480000 34.760000 37.840000 147 84 72 0
7.700000 34.760000 37.840000 148 85 75 0
7.920000 34.760000 37.840000 148 85 75 0
8.140000 34.760000 37.840000 149 86 76 0
8.360000 34.760000 37.840000 150 87 77 0
8.580000 34.760000 37.840000 151 88 78 0
8.800000 34.760000 37.840000 150 87 77 0
9.020000 34.760000 37.840000 152 87 78 0
9.240000 34.760000 37.840000 152 87 78 0
9.460000 34.760000 37.840000 153 88 79 0
9.680000 34.760000 37.840000 154 89 80 0
9.900000 34.760000 38.060000 154 89 80 0
10.120000 34.760000 38.060000 155 90 81 0
10.340000 34.760000 38.060000 156 91 82 0
10.560000 34.760000 38.060000 156 91 82 0
10.780000 34.760000 38.060000 157 92 85 0
11.000000 34.760000 38.060000 158 93 86 0
11.220000 34.760000 38.060000 158 93 84 0
11.440000 34.760000 38.060000 160 95 86 0
11.660000 34.760000 38.060000 160 97 87 0
11.880000 34.760000 38.060000 162 99 89 0
12.100000 34.760000 38.060000 162 98 91 0
12.320000 34.760000 39.600000 163 99 92 0
12.540000 34.760000 39.600000 144 109 111 0
12.760000 34.760000 39.600000 180 145 147 0
12.980000 34.760000 39.600000 201 196 198 0
13.200000 34.760000 39.600000 204 199 201 0
13.420000 34.760000 39.600000 234 191 179 0
13.640000 34.760000 39.600000 199 156 144 0
13.860000 34.760000 40.920000 174 109 102 0
14.080000 34.760000 40.920000 161 96 89 0
14.300000 34.760000 32.780000 158 90 84 0
14.520000 34.760000 16.060000 156 88 82 0
14.740000 34.760000 9.240000 155 86 76 0
14.960000 34.760000 6.600000 153 84 74 0
15.180000 34.760000 1.100000 156 83 72 0
19.580000 34.760000 0.880000 140 56 49 0
19.800000 34.760000 0.880000 141 57 50 0
20.020000 34.760000 0.880000 140 59 51 0
20.240000 34.760000 0.880000 141 60 52 0
20.460000 34.760000 0.880000 141 61 55 0
20.680000 34.760000 0.880000 142 62 56 0
23.320000 34.760000 0.660000 144 66 61 0
23.540000 34.760000 2.200000 143 68 60 0
23.760000 34.760000 3.520000 144 69 61 0
23.980000 34.760000 4.840000 144 68 63 0
24.200000 34.760000 4.840000 143 67 62 0
24.420000 34.760000 6.380000 142 67 59 0
24.640000 34.760000 4.840000 140 65 57 0
24.860000 34.760000 5.060000 142 62 56 0
25.080000 34.760000 3.520000 141 61 55 0
25.300000 34.760000 3.520000 139 61 54 0
25.520000 34.760000 3.520000 139 61 54 0
25.740000 34.760000 3.520000 140 62 55 0
25.960000 34.760000 3.520000 139 61 54 0
26.180000 34.760000 3.520000 139 65 57 0
26.400000 34.760000 3.300000 141 67 59 0
26.620000 34.760000 4.840000 138 75 63 0
26.840000 34.760000 9.020000 141 78 66 0
27.060000 34.760000 11.880000 141 82 69 0
27.280000 34.760000 13.200000 143 84 71 0
27.500000 34.760000 11.880000 145 86 73 0
27.720000 34.760000 11.880000 145 86 73 0
27.940000 34.760000 10.340000 144 87 73 0
28.160000 34.760000 9.020000 143 86 72 0
28.380000 34.760000 7.480000 144 85 72 0
28.600000 34.760000 6.160000 144 85 72 0
28.820000 34.760000 4.840000 143 84 71 0
29.040000 34.760000 4.840000 141 82 69 0
29.260000 34.760000 4.840000 141 81 68 0
29.480000 34.760000 4.840000 141 81 68 0
29.700000 34.760000 6.160000 140 81 68 0
29.920000 34.760000 6.160000 141 82 69 0
30.140000 34.760000 6.160000 142 82 67 0
30.360000 34.760000 4.620000 140 80 65 0
30.580000 34.760000 4.840000 140 81 68 0
30.800000 34.760000 4.620000 141 82 69 0
31.020000 34.760000 4.620000 140 81 68 0
31.240000 34.760000 4.620000 140 81 68 0
31.460000 34.760000 6.160000 136 86 72 0
31.680000 34.760000 6.160000 140 90 76 0
31.900000 34.760000 6.160000 131 101 85 0
32.120000 34.760000 6.160000 137 107 91 0
32.340000 34.760000 7.480000 133 117 97 0
32.560000 34.760000 8.800000 137 121 101 0
32.780000 34.760000 10.120000 138 122 104 0
33.000000 34.760000 8.800000 139 123 105 0
33.220000 34.760000 7.480000 137 124 103 0
33.440000 34.760000 7.480000 136 123 102 0
33.660000 34.760000 4.620000 135 122 101 0
33.880000 34.760000 3.300000 134 121 100 0
34.100000 34.760000 3.300000 136 120 100 0
34.320000 34.760000 3.300000 136 120 100 0
34.540000 34.760000 3.300000 135 119 101 0
34.760000 34.760000 3.300000 135 119 101 0
34.980000 34.760000 3.300000 135 119 99 0
35.200000 34.760000 3.300000 136 120 100 0
35.420000 34.760000 3.300000 136 120 100 0
35.640000 34.760000 3.300000 138 122 102 0
35.860000 34.760000 3.300000 137 121 101 0
36.080000 34.760000 3.300000 139 123 103 0
36.300000 34.760000 3.080000 140 122 103 0
36.520000 34.760000 4.400000 140 122 103 0
36.740000 34.760000 4.400000 141 125 105 0
36.960000 34.760000 4.400000 143 127 107 0
37.180000 34.760000 4.400000 146 130 109 0
0.000000 34.980000 25.300000 133 105 88 0
0.220000 34.980000 17.160000 134 104 88 0
0.440000 34.980000 7.480000 132 102 86 0
0.660000 34.980000 12.980000 133 103 87 0
0.880000 34.980000 22.660000 132 102 86 0
1.100000 34.980000 17.160000 134 100 85 0
1.320000 34.980000 4.620000 134 100 85 0
1.760000 34.980000 1.980000 131 99 83 0
1.980000 34.980000 7.480000 133 99 84 0
2.200000 34.980000 11.660000 131 97 82 0
2.420000 34.980000 14.300000 133 96 82 0
2.640000 34.980000 12.980000 132 95 81 0
2.860000 34.980000 17.160000 135 92 78 0
3.080000 34.980000 33.660000 134 91 77 0
3.300000 34.980000 40.700000 141 84 70 0
3.520000 34.980000 40.480000 139 82 68 0
3.740000 34.980000 39.160000 140 82 66 0
3.960000 34.980000 39.160000 139 81 65 0
4.180000 34.980000 37.840000 140 82 66 0
4.400000 34.980000 37.840000 140 82 66 0
4.620000 34.980000 39.160000 140 81 68 0
4.840000 34.980000 39.160000 140 81 68 0
5.060000 34.980000 37.840000 142 82 67 0
5.280000 34.980000 37.840000 142 82 67 0
5.500000 34.980000 37.840000 142 82 67 0
5.720000 34.980000 37.840000 142 82 67 0
5.940000 34.980000 37.840000 143 83 70 0
6.160000 34.980000 37.840000 143 83 70 0
6.380000 34.980000 37.840000 143 83 70 0
6.600000 34.980000 37.840000 144 84 71 0
6.820000 34.980000 37.840000 146 83 69 0
7.040000 34.980000 37.840000 146 83 69 0
7.260000 34.980000 37.840000 147 84 72 0
7.480000 34.980000 37.840000 147 84 72 0
7.700000 34.980000 37.840000 147 84 72 0
7.920000 34.980000 37.840000 149 86 74 0
8.140000 34.980000 37.840000 148 85 73 0
8.360000 34.980000 37.840000 150 87 75 0
8.580000 34.980000 37.840000 150 87 75 0
8.800000 34.980000 37.840000 151 88 76 0
9.020000 34.980000 37.840000 152 87 78 0
9.240000 34.980000 37.840000 153 88 79 0
9.460000 34.980000 37.840000 152 89 79 0
9.680000 34.980000 37.840000 152 89 79 0
9.900000 34.980000 38.060000 152 89 79 0
10.120000 34.980000 38.060000 155 92 82 0
10.340000 34.980000 38.060000 156 91 82 0
10.560000 34.980000 38.060000 156 91 82 0
10.780000 34.980000 38.060000 158 93 84 0
11.000000 34.980000 38.060000 158 93 84 0
11.220000 34.980000 38.060000 158 95 85 0
11.440000 34.980000 38.060000 159 96 86 0
11.660000 34.980000 38.060000 158 97 87 0
11.880000 34.980000 38.060000 159 98 88 0
12.100000 34.980000 38.060000 161 100 90 0
12.320000 34.980000 39.600000 161 100 90 0
12.540000 34.980000 39.600000 144 112 108 0
12.760000 34.980000 39.600000 188 156 152 0
12.980000 34.980000 39.600000 199 176 181 0
13.200000 34.980000 39.600000 200 177 182 0
13.420000 34.980000 39.600000 239 181 175 0
13.640000 34.980000 40.920000 192 134 128 0
13.860000 34.980000 40.920000 164 99 90 0
14.080000 34.980000 38.280000 158 93 84 0
14.300000 34.980000 24.420000 157 89 81 0
14.520000 34.980000 6.380000 155 87 79 0
19.580000 34.980000 0.880000 138 57 49 0
19.800000 34.980000 0.880000 138 57 49 0
20.020000 34.980000 0.880000 139 59 53 0
20.240000 34.980000 0.880000 141 61 55 0
20.460000 34.980000 0.880000 142 63 54 0
23.320000 34.980000 0.660000 142 67 59 0
23.540000 34.980000 2.200000 145 67 60 0
23.760000 34.980000 3.520000 145 67 60 0
23.980000 34.980000 4.840000 143 68 60 0
24.200000 34.980000 4.840000 142 67 59 0
24.420000 34.980000 4.840000 141 66 58 0
24.640000 34.980000 5.060000 140 65 57 0
24.860000 34.980000 5.060000 140 62 55 0
25.080000 34.980000 3.520000 140 62 55 0
25.300000 34.980000 3.520000 139 61 54 0
25.520000 34.980000 3.520000 139 61 54 0
25.740000 34.980000 3.520000 138 63 55 0
25.960000 34.980000 3.520000 139 64 56 0
26.180000 34.980000 4.840000 137 68 58 0
26.400000 34.980000 4.620000 140 71 61 0
26.620000 34.980000 7.480000 138 78 65 0
26.840000 34.980000 10.560000 141 81 68 0
27.060000 34.980000 11.880000 141 82 69 0
27.280000 34.980000 11.880000 144 85 72 0
27.500000 34.980000 11.880000 144 85 72 0
27.720000 34.980000 10.340000 144 85 72 0
27.940000 34.980000 10.340000 145 86 73 0
28.160000 34.980000 9.020000 144 85 72 0
28.380000 34.980000 7.480000 144 85 72 0
28.600000 34.980000 5.940000 144 85 72 0
28.820000 34.980000 4.620000 143 84 71 0
29.040000 34.980000 4.840000 142 83 70 0
29.260000 34.980000 4.840000 141 82 69 0
29.480000 34.980000 4.620000 141 82 69 0
29.700000 34.980000 5.940000 141 81 66 0
29.920000 34.980000 5.720000 142 82 67 0
30.140000 34.980000 5.940000 141 81 68 0
30.360000 34.980000 4.620000 141 81 68 0
30.580000 34.980000 4.620000 140 81 68 0
30.800000 34.980000 4.620000 141 82 69 0
31.020000 34.980000 5.940000 139 81 65 0
31.240000 34.980000 5.940000 140 82 66 0
31.460000 34.980000 6.160000 138 86 70 0
31.680000 34.980000 6.160000 142 90 74 0
31.900000 34.980000 6.160000 131 101 85 0
32.120000 34.980000 6.160000 137 107 91 0
32.340000 34.980000 7.480000 132 116 96 0
32.560000 34.980000 10.120000 136 120 100 0
32.780000 34.980000 10.120000 138 122 102 0
33.000000 34.980000 8.800000 139 123 103 0
33.220000 34.980000 8.800000 137 123 105 0
33.440000 34.980000 7.480000 136 122 104 0
33.660000 34.980000 6.160000 137 121 103 0
33.880000 34.980000 4.620000 136 120 102 0
34.100000 34.980000 3.300000 136 120 100 0
34.320000 34.980000 3.300000 136 120 100 0
34.540000 34.980000 3.300000 135 119 99 0
34.760000 34.980000 3.300000 136 120 100 0
34.980000 34.980000 3.300000 136 120 102 0
35.200000 34.980000 4.620000 135 119 101 0
35.420000 34.980000 4.620000 135 119 99 0
35.640000 34.980000 4.620000 137 121 101 0
35.860000 34.980000 4.620000 137 121 101 0
36.080000 34.980000 4.620000 138 122 102 0
36.300000 34.980000 4.400000 139 123 103 0
36.520000 34.980000 4.400000 141 125 105 0
36.740000 34.980000 4.400000 141 125 105 0
36.960000 34.980000 4.400000 143 127 107 0
37.180000 34.980000 4.400000 145 129 108 0
0.000000 35.200000 25.520000 133 105 88 0
0.220000 35.200000 17.160000 134 104 88 0
0.440000 35.200000 12.980000 133 103 87 0
0.660000 35.200000 19.800000 133 103 87 0
0.880000 35.200000 19.800000 132 102 86 0
1.100000 35.200000 10.120000 134 100 85 0
1.320000 35.200000 4.620000 134 100 85 0
1.540000 35.200000 4.620000 133 101 85 0
1.760000 35.200000 10.120000 132 100 84 0
1.980000 35.200000 22.660000 132 98 83 0
2.200000 35.200000 31.020000 132 98 83 0
2.420000 35.200000 25.300000 134 97 83 0
2.640000 35.200000 12.980000 132 95 81 0
2.860000 35.200000 11.660000 135 92 78 0
3.080000 35.200000 31.020000 134 91 77 0
3.300000 35.200000 40.480000 141 84 70 0
3.520000 35.200000 40.480000 139 82 68 0
3.740000 35.200000 39.160000 140 82 66 0
3.960000 35.200000 39.160000 140 82 66 0
4.180000 35.200000 37.840000 140 82 66 0
4.400000 35.200000 37.840000 140 82 66 0
4.620000 35.200000 39.160000 140 81 68 0
4.840000 35.200000 39.160000 140 81 68 0
5.060000 35.200000 37.840000 141 81 66 0
5.280000 35.200000 37.840000 142 82 67 0
5.500000 35.200000 37.840000 141 81 66 0
5.720000 35.200000 37.840000 142 82 67 0
5.940000 35.200000 37.840000 142 82 69 0
6.160000 35.200000 37.840000 142 82 69 0
6.380000 35.200000 37.840000 143 83 70 0
6.600000 35.200000 37.840000 144 84 71 0
6.820000 35.200000 37.840000 146 83 69 0
7.040000 35.200000 37.840000 147 84 70 0
7.260000 35.200000 37.840000 147 84 72 0
7.480000 35.200000 37.840000 147 84 72 0
7.700000 35.200000 37.840000 148 85 73 0
7.920000 35.200000 37.840000 148 85 73 0
8.140000 35.200000 37.840000 149 86 74 0
8.360000 35.200000 37.840000 150 87 75 0
8.580000 35.200000 37.840000 151 88 76 0
8.800000 35.200000 37.840000 150 87 75 0
9.020000 35.200000 37.840000 152 87 78 0
9.240000 35.200000 37.840000 152 87 78 0
9.460000 35.200000 37.840000 153 90 80 0
9.680000 35.200000 37.840000 152 89 79 0
9.900000 35.200000 37.840000 153 90 80 0
10.120000 35.200000 38.060000 155 92 82 0
10.340000 35.200000 38.060000 156 91 82 0
10.560000 35.200000 38.060000 156 91 82 0
10.780000 35.200000 38.060000 157 92 83 0
11.000000 35.200000 38.060000 158 93 84 0
11.220000 35.200000 38.060000 157 94 84 0
11.440000 35.200000 38.060000 159 96 86 0
11.660000 35.200000 38.060000 157 96 86 0
11.880000 35.200000 38.060000 159 98 88 0
12.100000 35.200000 38.280000 160 99 89 0
12.320000 35.200000 39.600000 160 99 89 0
12.540000 35.200000 39.600000 144 112 108 0
12.760000 35.200000 39.600000 187 155 151 0
12.980000 35.200000 40.920000 186 163 168 0
13.200000 35.200000 40.920000 193 170 175 0
13.420000 35.200000 40.920000 220 162 156 0
13.640000 35.200000 40.920000 171 113 107 0
13.860000 35.200000 40.920000 160 95 86 0
14.080000 35.200000 32.780000 154 89 80 0
14.300000 35.200000 14.740000 156 88 80 0
14.520000 35.200000 0.880000 154 86 78 0
19.360000 35.200000 0.880000 139 58 49 0
19.580000 35.200000 0.880000 138 57 49 0
19.800000 35.200000 0.880000 139 58 50 0
20.020000 35.200000 0.880000 139 59 53 0
20.240000 35.200000 0.880000 140 60 54 0
23.100000 35.200000 0.880000 140 65 57 0
23.320000 35.200000 0.660000 142 67 59 0
23.540000 35.200000 2.200000 144 66 59 0
23.760000 35.200000 3.520000 144 66 59 0
23.980000 35.200000 4.840000 141 66 58 0
24.200000 35.200000 4.840000 142 67 59 0
24.420000 35.200000 4.840000 140 65 57 0
24.640000 35.200000 5.060000 139 64 56 0
24.860000 35.200000 3.520000 139 61 54 0
25.080000 35.200000 3.520000 139 61 54 0
25.300000 35.200000 3.520000 139 61 54 0
25.520000 35.200000 3.520000 140 62 55 0
25.740000 35.200000 3.520000 138 63 55 0
25.960000 35.200000 3.520000 140 65 57 0
26.180000 35.200000 3.300000 138 69 59 0
26.400000 35.200000 5.940000 142 73 63 0
26.620000 35.200000 8.800000 138 78 65 0
26.840000 35.200000 11.660000 142 82 69 0
27.060000 35.200000 11.880000 142 83 70 0
27.280000 35.200000 11.880000 144 85 72 0
27.500000 35.200000 10.340000 144 85 72 0
27.720000 35.200000 10.340000 146 87 74 0
27.940000 35.200000 8.800000 144 85 72 0
28.160000 35.200000 7.480000 144 85 72 0
28.380000 35.200000 7.480000 144 85 72 0
28.600000 35.200000 5.940000 144 85 72 0
28.820000 35.200000 4.620000 143 84 71 0
29.040000 35.200000 4.620000 143 84 71 0
29.260000 35.200000 4.620000 142 83 70 0
29.480000 35.200000 4.620000 140 81 68 0
29.700000 35.200000 5.940000 141 81 66 0
29.920000 35.200000 5.720000 141 81 66 0
30.140000 35.200000 5.940000 140 80 67 0
30.360000 35.200000 4.620000 139 79 66 0
30.580000 35.200000 4.620000 139 80 67 0
30.800000 35.200000 4.620000 138 79 66 0
31.020000 35.200000 5.940000 139 81 65 0
31.240000 35.200000 5.940000 139 81 65 0
31.460000 35.200000 5.940000 137 85 69 0
31.680000 35.200000 6.160000 141 89 73 0
31.900000 35.200000 6.160000 129 99 83 0
32.120000 35.200000 7.480000 135 105 89 0
32.340000 35.200000 8.800000 131 115 95 0
32.560000 35.200000 10.120000 135 119 99 0
32.780000 35.200000 10.340000 137 121 101 0
33.000000 35.200000 8.800000 140 124 104 0
33.220000 35.200000 8.800000 138 124 106 0
33.440000 35.200000 7.480000 136 122 104 0
33.660000 35.200000 6.160000 138 122 104 0
33.880000 35.200000 4.620000 137 121 103 0
34.100000 35.200000 3.300000 136 120 100 0
34.320000 35.200000 3.300000 136 120 100 0
34.540000 35.200000 3.300000 136 120 100 0
34.760000 35.200000 3.300000 136 120 100 0
34.980000 35.200000 3.300000 135 119 101 0
35.200000 35.200000 4.620000 135 119 101 0
35.420000 35.200000 4.620000 137 121 101 0
35.640000 35.200000 4.620000 137 121 101 0
35.860000 35.200000 4.620000 138 122 102 0
36.080000 35.200000 4.400000 138 122 102 0
36.300000 35.200000 4.400000 139 123 103 0
36.520000 35.200000 4.400000 141 125 105 0
36.740000 35.200000 4.400000 142 126 106 0
36.960000 35.200000 4.400000 144 128 108 0
37.180000 35.200000 4.400000 147 131 110 0
0.000000 35.420000 25.520000 134 104 88 0
0.220000 35.420000 22.660000 136 104 88 0
0.440000 35.420000 22.660000 136 104 88 0
0.660000 35.420000 30.800000 133 103 87 0
0.880000 35.420000 25.300000 133 103 87 0
1.100000 35.420000 7.480000 134 102 86 0
1.320000 35.420000 4.620000 133 101 85 0
1.540000 35.420000 12.980000 134 100 85 0
1.760000 35.420000 18.480000 132 98 83 0
1.980000 35.420000 25.520000 132 98 83 0
2.200000 35.420000 31.020000 132 98 83 0
2.420000 35.420000 28.160000 134 97 83 0
2.640000 35.420000 17.160000 133 96 82 0
2.860000 35.420000 14.300000 138 91 78 0
3.080000 35.420000 31.020000 137 90 77 0
3.300000 35.420000 40.700000 139 85 70 0
3.520000 35.420000 39.160000 137 83 68 0
3.740000 35.420000 39.160000 138 81 67 0
3.960000 35.420000 39.160000 139 82 68 0
4.180000 35.420000 39.160000 141 81 66 0
4.400000 35.420000 39.160000 141 81 66 0
4.620000 35.420000 39.160000 140 81 68 0
4.840000 35.420000 37.840000 140 81 68 0
5.060000 35.420000 37.840000 142 82 69 0
5.280000 35.420000 37.840000 142 82 69 0
5.500000 35.420000 37.840000 141 81 68 0
5.720000 35.420000 37.840000 143 83 70 0
5.940000 35.420000 37.840000 145 82 70 0
6.160000 35.420000 37.840000 145 82 70 0
6.380000 35.420000 37.840000 145 82 70 0
6.600000 35.420000 37.840000 146 83 71 0
6.820000 35.420000 37.840000 144 84 71 0
7.040000 35.420000 37.840000 144 84 71 0
7.260000 35.420000 37.840000 147 84 72 0
7.480000 35.420000 37.840000 147 84 72 0
7.700000 35.420000 37.840000 148 85 73 0
7.920000 35.420000 37.840000 148 85 73 0
8.140000 35.420000 37.840000 148 85 73 0
8.360000 35.420000 37.840000 150 87 75 0
8.580000 35.420000 37.840000 150 87 75 0
8.800000 35.420000 37.840000 151 88 76 0
9.020000 35.420000 37.840000 151 86 75 0
9.240000 35.420000 37.840000 153 88 77 0
9.460000 35.420000 37.840000 153 88 79 0
9.680000 35.420000 37.840000 153 88 79 0
9.900000 35.420000 37.840000 154 89 80 0
10.120000 35.420000 38.060000 155 90 81 0
10.340000 35.420000 38.060000 156 91 82 0
10.560000 35.420000 38.060000 157 92 83 0
10.780000 35.420000 38.060000 157 92 83 0
11.000000 35.420000 38.060000 157 92 83 0
11.220000 35.420000 38.060000 159 94 85 0
11.440000 35.420000 38.060000 159 94 85 0
11.660000 35.420000 38.060000 160 97 87 0
11.880000 35.420000 38.060000 161 98 88 0
12.100000 35.420000 38.280000 163 98 89 0
12.320000 35.420000 39.600000 163 98 89 0
12.540000 35.420000 39.600000 163 105 99 0
12.760000 35.420000 40.920000 192 134 128 0
12.980000 35.420000 40.920000 194 139 139 0
13.200000 35.420000 40.920000 196 141 141 0
13.420000 35.420000 40.920000 202 137 128 0
13.640000 35.420000 38.280000 169 104 95 0
13.860000 35.420000 32.780000 158 90 82 0
14.080000 35.420000 23.100000 156 88 80 0
14.300000 35.420000 6.380000 155 87 79 0
19.140000 35.420000 0.880000 140 56 49 0
19.360000 35.420000 0.880000 140 56 49 0
19.580000 35.420000 0.880000 139 58 52 0
19.800000 35.420000 0.880000 140 59 53 0
20.020000 35.420000 0.880000 140 59 53 0
20.240000 35.420000 0.880000 142 61 55 0
21.340000 35.420000 0.880000 142 62 56 0
21.560000 35.420000 0.880000 142 62 56 0
21.780000 35.420000 0.880000 142 62 56 0
22.880000 35.420000 0.880000 141 63 56 0
23.100000 35.420000 0.660000 142 67 59 0
23.320000 35.420000 2.200000 141 66 58 0
23.540000 35.420000 2.200000 144 66 59 0
23.760000 35.420000 3.520000 145 67 60 0
23.980000 35.420000 4.840000 143 65 58 0
24.200000 35.420000 4.840000 144 66 59 0
24.420000 35.420000 5.060000 142 64 57 0
24.640000 35.420000 3.520000 140 62 55 0
24.860000 35.420000 3.520000 140 62 55 0
25.080000 35.420000 3.520000 139 61 54 0
25.300000 35.420000 3.520000 140 62 55 0
25.520000 35.420000 3.520000 140 62 55 0
25.740000 35.420000 3.520000 139 64 56 0
25.960000 35.420000 3.520000 140 65 57 0
26.180000 35.420000 4.620000 136 71 60 0
26.400000 35.420000 7.260000 140 75 64 0
26.620000 35.420000 11.440000 140 80 67 0
26.840000 35.420000 12.980000 144 84 71 0
27.060000 35.420000 11.660000 146 86 73 0
27.280000 35.420000 11.660000 144 84 71 0
27.500000 35.420000 10.120000 145 85 72 0
27.720000 35.420000 10.120000 146 86 73 0
27.940000 35.420000 8.580000 144 85 74 0
28.160000 35.420000 7.480000 144 85 74 0
28.380000 35.420000 6.160000 145 85 72 0
28.600000 35.420000 5.940000 144 84 71 0
28.820000 35.420000 4.620000 144 84 71 0
29.040000 35.420000 4.620000 144 84 71 0
29.260000 35.420000 4.620000 142 82 69 0
29.480000 35.420000 4.620000 142 82 69 0
29.700000 35.420000 4.620000 141 81 68 0
29.920000 35.420000 5.940000 140 80 67 0
30.140000 35.420000 5.940000 140 80 67 0
30.360000 35.420000 4.620000 138 78 65 0
30.580000 35.420000 4.620000 140 80 65 0
30.800000 35.420000 4.620000 139 79 64 0
31.020000 35.420000 4.620000 141 78 64 0
31.240000 35.420000 5.940000 141 78 64 0
31.460000 35.420000 5.940000 140 81 70 0
31.680000 35.420000 5.940000 143 84 73 0
31.900000 35.420000 5.940000 127 97 81 0
32.120000 35.420000 6.160000 133 103 87 0
32.340000 35.420000 7.480000 132 112 96 0
32.560000 35.420000 8.800000 135 115 99 0
32.780000 35.420000 10.340000 137 121 103 0
33.000000 35.420000 10.340000 139 123 105 0
33.220000 35.420000 8.800000 138 122 102 0
33.440000 35.420000 7.480000 138 122 102 0
33.660000 35.420000 6.160000 137 121 101 0
33.880000 35.420000 4.620000 136 120 100 0
34.100000 35.420000 4.620000 136 120 102 0
34.320000 35.420000 3.300000 137 121 103 0
34.540000 35.420000 3.300000 137 121 103 0
34.760000 35.420000 3.300000 136 120 102 0
34.980000 35.420000 3.300000 137 121 101 0
35.200000 35.420000 4.620000 136 120 100 0
35.420000 35.420000 4.620000 137 121 101 0
35.640000 35.420000 4.620000 137 121 101 0
35.860000 35.420000 4.620000 138 122 102 0
36.080000 35.420000 4.400000 139 123 103 0
36.300000 35.420000 5.720000 139 123 105 0
36.520000 35.420000 4.400000 141 125 107 0
36.740000 35.420000 4.400000 143 127 107 0
36.960000 35.420000 4.400000 144 128 108 0
37.180000 35.420000 4.400000 150 131 111 0
0.000000 35.640000 36.520000 134 104 88 0
0.220000 35.640000 36.520000 136 104 88 0
0.440000 35.640000 33.660000 136 104 88 0
0.660000 35.640000 33.660000 132 102 86 0
0.880000 35.640000 28.160000 132 102 86 0
1.100000 35.640000 10.120000 134 102 86 0
