ply
format ascii 1.0
element vertex 1137
property float x
property float y
property float z
property uchar red
property uchar green
property uchar blue
property uchar alpha
end_header
0.220000 20.460000 3.520000 141 72 64 0
0.440000 20.460000 1.980000 139 74 63 0
0.660000 20.460000 0.660000 142 77 66 0
0.880000 20.460000 0.660000 144 81 71 0
1.320000 20.460000 2.200000 148 85 73 0
1.540000 20.460000 6.380000 147 84 72 0
1.760000 20.460000 7.700000 148 85 73 0
1.980000 20.460000 7.700000 148 85 73 0
2.200000 20.460000 9.020000 147 84 72 0
2.420000 20.460000 7.700000 148 85 73 0
2.640000 20.460000 7.700000 148 83 72 0
2.860000 20.460000 6.380000 148 83 72 0
3.080000 20.460000 4.840000 148 84 70 0
3.300000 20.460000 4.840000 146 82 68 0
3.520000 20.460000 4.840000 145 81 67 0
3.740000 20.460000 4.840000 143 79 65 0
3.960000 20.460000 5.060000 144 75 63 0
4.180000 20.460000 5.060000 143 74 62 0
4.400000 20.460000 4.840000 142 73 61 0
4.620000 20.460000 4.840000 142 73 61 0
4.840000 20.460000 4.840000 140 72 58 0
5.060000 20.460000 6.380000 140 72 58 0
5.280000 20.460000 6.380000 141 72 60 0
5.500000 20.460000 6.380000 140 71 59 0
5.720000 20.460000 6.380000 142 72 60 0
5.940000 20.460000 6.380000 143 73 61 0
6.160000 20.460000 6.380000 143 75 61 0
6.380000 20.460000 6.380000 143 75 61 0
6.600000 20.460000 6.380000 143 75 61 0
6.820000 20.460000 6.380000 143 75 61 0
7.040000 20.460000 6.380000 143 74 62 0
7.260000 20.460000 6.380000 146 77 65 0
7.480000 20.460000 6.380000 145 81 67 0
7.700000 20.460000 6.380000 148 84 70 0
7.920000 20.460000 6.380000 147 88 75 0
8.140000 20.460000 7.700000 150 91 78 0
8.360000 20.460000 7.700000 138 102 83 0
8.580000 20.460000 7.480000 142 106 87 0
8.800000 20.460000 8.800000 141 108 88 0
9.020000 20.460000 8.800000 143 110 90 0
9.240000 20.460000 7.480000 148 112 93 0
9.460000 20.460000 7.480000 149 113 94 0
9.680000 20.460000 8.800000 143 120 99 0
9.900000 20.460000 9.020000 146 123 102 0
10.120000 20.460000 9.020000 146 127 105 0
10.340000 20.460000 9.020000 148 129 107 0
10.560000 20.460000 9.020000 151 130 106 0
10.780000 20.460000 9.020000 152 131 107 0
11.000000 20.460000 7.700000 151 130 106 0
11.220000 20.460000 6.600000 151 130 106 0
11.440000 20.460000 6.600000 149 130 108 0
11.660000 20.460000 5.060000 150 131 109 0
11.880000 20.460000 5.060000 150 131 109 0
12.100000 20.460000 5.060000 150 131 109 0
12.320000 20.460000 5.060000 153 132 108 0
12.540000 20.460000 5.060000 155 134 110 0
12.760000 20.460000 5.060000 156 135 111 0
12.980000 20.460000 3.740000 159 138 114 0
13.200000 20.460000 3.740000 161 140 116 0
13.420000 20.460000 3.740000 166 145 121 0
13.640000 20.460000 3.740000 166 151 125 0
13.860000 20.460000 3.740000 171 156 130 0
14.080000 20.460000 3.740000 172 164 140 0
14.300000 20.460000 3.740000 179 171 147 0
14.520000 20.460000 3.740000 183 174 152 0
14.740000 20.460000 3.740000 188 179 157 0
14.960000 20.460000 3.960000 190 181 161 0
15.180000 20.460000 3.960000 193 184 164 0
15.400000 20.460000 3.960000 194 187 166 0
15.620000 20.460000 3.960000 195 188 167 0
15.840000 20.460000 5.280000 197 188 168 0
16.060000 20.460000 5.060000 197 188 168 0
16.280000 20.460000 7.260000 200 188 169 0
16.500000 20.460000 7.040000 200 188 169 0
16.720000 20.460000 7.040000 201 189 170 0
16.940000 20.460000 7.260000 202 190 171 0
17.160000 20.460000 7.260000 201 192 172 0
17.380000 20.460000 7.260000 202 193 173 0
17.600000 20.460000 7.480000 202 193 175 0
17.820000 20.460000 7.480000 203 194 176 0
18.040000 20.460000 7.480000 207 195 178 0
18.260000 20.460000 7.700000 206 194 177 0
18.480000 20.460000 7.700000 207 193 175 0
18.700000 20.460000 7.920000 206 192 174 0
18.920000 20.460000 7.920000 203 190 169 0
19.140000 20.460000 7.920000 204 191 170 0
19.360000 20.460000 7.920000 205 189 169 0
19.580000 20.460000 9.460000 204 188 168 0
19.800000 20.460000 9.460000 204 188 170 0
20.020000 20.460000 9.460000 204 188 170 0
20.240000 20.460000 9.460000 204 190 172 0
20.460000 20.460000 9.460000 204 190 172 0
20.680000 20.460000 9.680000 204 192 175 0
20.900000 20.460000 10.780000 205 193 176 0
21.120000 20.460000 11.660000 206 194 177 0
21.340000 20.460000 12.540000 208 196 179 0
21.560000 20.460000 12.540000 210 196 182 0
21.780000 20.460000 12.540000 211 197 183 0
22.000000 20.460000 14.080000 211 198 185 0
22.220000 20.460000 14.080000 212 199 186 0
22.440000 20.460000 14.080000 213 200 186 0
22.660000 20.460000 14.080000 213 200 186 0
22.880000 20.460000 14.080000 214 201 187 0
23.100000 20.460000 15.620000 215 202 188 0
23.320000 20.460000 15.620000 216 202 188 0
23.540000 20.460000 15.620000 216 202 188 0
23.760000 20.460000 15.620000 214 203 192 0
23.980000 20.460000 15.840000 215 204 193 0
24.200000 20.460000 15.840000 216 203 190 0
24.420000 20.460000 17.160000 218 205 192 0
24.640000 20.460000 17.160000 218 209 199 0
24.860000 20.460000 17.380000 228 219 209 0
25.080000 20.460000 18.700000 232 227 219 0
25.300000 20.460000 18.700000 232 227 219 0
25.520000 20.460000 18.700000 236 225 214 0
25.740000 20.460000 18.700000 229 218 207 0
25.960000 20.460000 17.600000 226 203 190 0
26.180000 20.460000 17.600000 213 190 177 0
26.400000 20.460000 16.280000 229 161 155 0
26.620000 20.460000 14.960000 209 141 135 0
26.840000 20.460000 10.780000 212 111 112 0
27.060000 20.460000 5.060000 197 96 97 0
27.280000 20.460000 0.880000 195 90 92 0
27.500000 20.460000 0.880000 194 89 91 0
27.720000 20.460000 2.200000 194 87 90 0
27.940000 20.460000 3.520000 193 86 89 0
28.160000 20.460000 4.840000 191 84 87 0
28.380000 20.460000 6.160000 191 84 87 0
28.600000 20.460000 7.480000 189 82 85 0
28.820000 20.460000 8.580000 188 81 84 0
29.040000 20.460000 8.580000 189 82 87 0
29.260000 20.460000 8.580000 188 81 86 0
29.480000 20.460000 8.800000 191 81 87 0
29.700000 20.460000 8.800000 191 81 87 0
29.920000 20.460000 10.120000 188 81 84 0
30.140000 20.460000 10.340000 189 82 85 0
30.360000 20.460000 10.340000 190 80 86 0
30.580000 20.460000 10.340000 190 80 86 0
30.800000 20.460000 10.560000 191 81 87 0
31.020000 20.460000 10.560000 190 80 86 0
31.240000 20.460000 10.560000 189 79 85 0
31.460000 20.460000 10.780000 188 78 84 0
31.680000 20.460000 10.780000 190 80 86 0
31.900000 20.460000 11.880000 189 79 85 0
32.120000 20.460000 12.980000 189 79 85 0
32.340000 20.460000 14.080000 189 79 85 0
32.560000 20.460000 14.080000 188 78 84 0
32.780000 20.460000 14.080000 189 79 85 0
33.000000 20.460000 14.080000 189 79 85 0
33.220000 20.460000 14.080000 188 78 84 0
33.440000 20.460000 15.620000 188 78 84 0
33.660000 20.460000 15.620000 189 79 85 0
33.880000 20.460000 15.620000 190 80 86 0
34.100000 20.460000 15.620000 189 79 85 0
34.320000 20.460000 15.840000 189 79 85 0
34.540000 20.460000 15.840000 190 80 86 0
34.760000 20.460000 15.840000 191 81 87 0
34.980000 20.460000 15.840000 191 81 87 0
35.200000 20.460000 15.840000 190 80 86 0
35.420000 20.460000 16.060000 191 81 87 0
35.640000 20.460000 16.060000 191 81 87 0
35.860000 20.460000 16.060000 191 81 87 0
36.080000 20.460000 17.380000 192 82 88 0
36.300000 20.460000 17.600000 191 81 87 0
36.520000 20.460000 17.600000 193 83 89 0
36.740000 20.460000 17.600000 193 83 89 0
36.960000 20.460000 17.600000 192 80 87 0
37.180000 20.460000 17.600000 193 81 88 0
0.000000 20.680000 3.520000 141 72 64 0
0.220000 20.680000 3.520000 142 73 65 0
0.440000 20.680000 1.980000 141 76 65 0
0.660000 20.680000 0.660000 144 79 68 0
1.320000 20.680000 0.660000 147 84 72 0
1.540000 20.680000 3.520000 147 84 72 0
1.760000 20.680000 7.700000 147 84 72 0
1.980000 20.680000 9.020000 147 84 72 0
2.200000 20.680000 9.020000 147 84 72 0
2.420000 20.680000 7.700000 148 85 73 0
2.640000 20.680000 6.380000 149 84 73 0
2.860000 20.680000 6.380000 148 83 72 0
3.080000 20.680000 4.840000 148 84 70 0
3.300000 20.680000 4.840000 146 82 68 0
3.520000 20.680000 4.840000 145 81 67 0
3.740000 20.680000 4.840000 143 79 65 0
3.960000 20.680000 4.840000 144 75 63 0
4.180000 20.680000 4.840000 142 73 61 0
4.400000 20.680000 4.840000 142 73 61 0
4.620000 20.680000 4.840000 142 73 61 0
4.840000 20.680000 4.840000 141 73 59 0
5.060000 20.680000 5.060000 141 73 59 0
5.280000 20.680000 6.380000 142 73 61 0
5.500000 20.680000 6.380000 141 72 60 0
5.720000 20.680000 6.380000 144 74 62 0
5.940000 20.680000 6.380000 143 73 61 0
6.160000 20.680000 6.380000 142 74 60 0
6.380000 20.680000 6.380000 143 75 61 0
6.600000 20.680000 6.380000 143 75 61 0
6.820000 20.680000 6.380000 144 76 62 0
7.040000 20.680000 6.380000 144 75 63 0
7.260000 20.680000 6.380000 143 74 62 0
7.480000 20.680000 6.380000 143 79 65 0
7.700000 20.680000 6.380000 147 83 69 0
7.920000 20.680000 6.380000 145 86 73 0
8.140000 20.680000 6.380000 146 87 74 0
8.360000 20.680000 7.700000 134 98 79 0
8.580000 20.680000 7.700000 138 102 83 0
8.800000 20.680000 7.480000 139 106 86 0
9.020000 20.680000 8.800000 140 107 87 0
9.240000 20.680000 7.480000 145 109 90 0
9.460000 20.680000 7.480000 148 112 93 0
9.680000 20.680000 8.800000 143 120 99 0
9.900000 20.680000 8.800000 145 122 101 0
10.120000 20.680000 8.800000 146 127 105 0
10.340000 20.680000 9.020000 146 127 105 0
10.560000 20.680000 9.020000 151 130 106 0
10.780000 20.680000 7.700000 152 131 107 0
11.000000 20.680000 7.700000 151 130 106 0
11.220000 20.680000 6.380000 152 131 107 0
11.440000 20.680000 6.380000 150 131 109 0
11.660000 20.680000 5.060000 150 131 109 0
11.880000 20.680000 5.060000 151 132 110 0
12.100000 20.680000 5.060000 151 132 110 0
12.320000 20.680000 5.060000 153 132 108 0
12.540000 20.680000 5.060000 155 134 110 0
12.760000 20.680000 5.060000 157 136 112 0
12.980000 20.680000 3.740000 161 140 116 0
13.200000 20.680000 3.740000 162 141 117 0
13.420000 20.680000 3.740000 166 145 121 0
13.640000 20.680000 3.740000 167 152 126 0
13.860000 20.680000 3.740000 173 158 132 0
14.080000 20.680000 3.740000 175 167 143 0
14.300000 20.680000 3.740000 181 173 149 0
14.520000 20.680000 3.740000 184 175 153 0
14.740000 20.680000 3.960000 189 180 158 0
14.960000 20.680000 3.960000 191 182 162 0
15.180000 20.680000 3.960000 193 184 164 0
15.400000 20.680000 3.960000 194 187 166 0
15.620000 20.680000 3.960000 197 190 169 0
15.840000 20.680000 5.280000 197 188 168 0
16.060000 20.680000 6.160000 198 189 169 0
16.280000 20.680000 7.040000 201 189 170 0
16.500000 20.680000 7.040000 201 189 170 0
16.720000 20.680000 7.260000 202 190 171 0
16.940000 20.680000 7.260000 202 190 171 0
17.160000 20.680000 7.260000 201 192 172 0
17.380000 20.680000 7.480000 203 194 174 0
17.600000 20.680000 7.480000 204 195 177 0
17.820000 20.680000 7.480000 204 195 177 0
18.040000 20.680000 7.700000 207 195 178 0
18.260000 20.680000 7.700000 206 194 177 0
18.480000 20.680000 7.700000 208 194 176 0
18.700000 20.680000 7.920000 205 191 173 0
18.920000 20.680000 7.920000 205 192 171 0
19.140000 20.680000 7.920000 202 189 168 0
19.360000 20.680000 9.460000 202 186 166 0
19.580000 20.680000 9.460000 203 187 167 0
19.800000 20.680000 9.460000 203 187 169 0
20.020000 20.680000 9.460000 204 188 170 0
20.240000 20.680000 9.460000 203 189 171 0
20.460000 20.680000 9.460000 204 190 172 0
20.680000 20.680000 9.680000 204 192 175 0
20.900000 20.680000 10.780000 206 194 177 0
21.120000 20.680000 11.440000 207 195 178 0
21.340000 20.680000 12.540000 208 196 179 0
21.560000 20.680000 12.540000 210 196 182 0
21.780000 20.680000 12.540000 211 197 183 0
22.000000 20.680000 14.080000 211 198 185 0
22.220000 20.680000 14.080000 211 198 185 0
22.440000 20.680000 14.080000 212 199 185 0
22.660000 20.680000 14.080000 213 200 186 0
22.880000 20.680000 14.080000 213 200 186 0
23.100000 20.680000 14.080000 214 201 187 0
23.320000 20.680000 15.620000 216 202 188 0
23.540000 20.680000 15.620000 216 202 188 0
23.760000 20.680000 15.620000 214 203 192 0
23.980000 20.680000 15.840000 215 204 193 0
24.200000 20.680000 15.840000 218 205 192 0
24.420000 20.680000 17.160000 219 206 193 0
24.640000 20.680000 17.160000 217 208 198 0
24.860000 20.680000 17.380000 221 212 202 0
25.080000 20.680000 18.700000 225 220 212 0
25.300000 20.680000 18.700000 229 224 216 0
25.520000 20.680000 18.700000 229 218 207 0
25.740000 20.680000 18.920000 221 210 199 0
25.960000 20.680000 17.600000 222 199 186 0
26.180000 20.680000 17.600000 211 188 175 0
26.400000 20.680000 16.280000 226 158 152 0
26.620000 20.680000 13.640000 204 136 130 0
26.840000 20.680000 9.460000 209 108 109 0
27.060000 20.680000 3.740000 197 96 97 0
27.280000 20.680000 0.880000 197 92 94 0
27.500000 20.680000 0.880000 195 90 92 0
27.720000 20.680000 2.200000 194 87 90 0
27.940000 20.680000 3.520000 194 87 90 0
28.160000 20.680000 6.380000 191 84 87 0
28.380000 20.680000 6.160000 191 84 87 0
28.600000 20.680000 7.480000 190 83 86 0
28.820000 20.680000 8.580000 189 82 85 0
29.040000 20.680000 8.580000 189 82 87 0
29.260000 20.680000 8.580000 189 82 87 0
29.480000 20.680000 8.800000 191 81 87 0
29.700000 20.680000 8.800000 191 81 87 0
29.920000 20.680000 10.340000 189 82 85 0
30.140000 20.680000 10.340000 189 82 85 0
30.360000 20.680000 10.340000 191 81 87 0
30.580000 20.680000 10.340000 190 80 86 0
30.800000 20.680000 10.560000 190 80 86 0
31.020000 20.680000 10.560000 191 81 87 0
31.240000 20.680000 10.560000 189 79 85 0
31.460000 20.680000 10.780000 190 80 86 0
31.680000 20.680000 11.880000 189 79 85 0
31.900000 20.680000 12.980000 190 80 86 0
32.120000 20.680000 14.080000 190 80 86 0
32.340000 20.680000 13.860000 188 78 84 0
32.560000 20.680000 14.080000 190 80 86 0
32.780000 20.680000 14.080000 189 79 85 0
33.000000 20.680000 14.080000 190 80 86 0
33.220000 20.680000 14.080000 189 79 85 0
33.440000 20.680000 15.620000 190 80 86 0
33.660000 20.680000 15.620000 191 81 87 0
33.880000 20.680000 15.620000 190 80 86 0
34.100000 20.680000 15.620000 191 81 87 0
34.320000 20.680000 15.840000 191 81 87 0
34.540000 20.680000 15.840000 192 82 88 0
34.760000 20.680000 15.840000 191 81 87 0
34.980000 20.680000 15.840000 191 81 87 0
35.200000 20.680000 16.060000 191 81 87 0
35.420000 20.680000 16.060000 192 82 88 0
35.640000 20.680000 16.060000 191 81 87 0
35.860000 20.680000 16.060000 192 82 88 0
36.080000 20.680000 17.600000 192 82 88 0
36.300000 20.680000 17.600000 192 82 88 0
36.520000 20.680000 17.600000 192 82 88 0
36.740000 20.680000 17.600000 193 83 89 0
36.960000 20.680000 18.700000 193 81 88 0
37.180000 20.680000 18.480000 194 82 89 0
0.000000 20.900000 3.300000 141 74 63 0
0.220000 20.900000 3.300000 141 74 63 0
0.440000 20.900000 1.980000 142 77 66 0
0.660000 20.900000 0.660000 144 79 68 0
0.880000 20.900000 0.660000 147 82 73 0
1.100000 20.900000 0.660000 148 83 74 0
1.320000 20.900000 3.520000 147 84 72 0
1.540000 20.900000 7.700000 147 84 72 0
1.760000 20.900000 9.020000 149 85 71 0
1.980000 20.900000 9.020000 148 84 70 0
2.200000 20.900000 9.020000 148 83 72 0
2.420000 20.900000 7.700000 148 83 72 0
2.640000 20.900000 6.380000 150 83 72 0
2.860000 20.900000 6.380000 150 83 72 0
3.080000 20.900000 4.840000 146 81 70 0
3.300000 20.900000 4.840000 144 79 68 0
3.520000 20.900000 4.840000 147 79 65 0
3.740000 20.900000 4.840000 145 77 63 0
3.960000 20.900000 4.840000 144 75 63 0
4.180000 20.900000 4.840000 143 74 62 0
4.400000 20.900000 4.840000 143 74 62 0
4.620000 20.900000 4.840000 142 73 61 0
4.840000 20.900000 4.840000 143 73 61 0
5.060000 20.900000 5.060000 142 72 60 0
5.280000 20.900000 5.060000 142 72 59 0
5.500000 20.900000 5.060000 142 72 59 0
5.720000 20.900000 6.380000 143 73 60 0
5.940000 20.900000 6.380000 143 73 60 0
6.160000 20.900000 6.380000 142 74 60 0
6.380000 20.900000 6.380000 142 74 60 0
6.600000 20.900000 6.380000 142 73 61 0
6.820000 20.900000 6.380000 143 74 62 0
7.040000 20.900000 6.380000 144 74 61 0
7.260000 20.900000 6.380000 145 75 62 0
7.480000 20.900000 6.380000 146 76 63 0
7.700000 20.900000 6.380000 148 78 65 0
7.920000 20.900000 6.380000 147 83 69 0
8.140000 20.900000 6.380000 149 85 71 0
8.360000 20.900000 7.700000 148 88 73 0
8.580000 20.900000 7.700000 149 89 74 0
8.800000 20.900000 7.480000 146 96 80 0
9.020000 20.900000 7.480000 149 99 83 0
9.240000 20.900000 7.480000 143 104 86 0
9.460000 20.900000 7.480000 148 109 91 0
9.680000 20.900000 7.480000 143 115 98 0
9.900000 20.900000 8.800000 146 118 101 0
10.120000 20.900000 8.800000 146 125 103 0
10.340000 20.900000 9.020000 148 127 105 0
10.560000 20.900000 7.700000 150 129 105 0
10.780000 20.900000 7.700000 151 130 106 0
11.000000 20.900000 7.700000 151 130 108 0
11.220000 20.900000 6.380000 151 130 108 0
11.440000 20.900000 6.380000 150 132 107 0
11.660000 20.900000 5.060000 150 132 107 0
11.880000 20.900000 5.060000 154 133 111 0
12.100000 20.900000 5.060000 153 132 110 0
12.320000 20.900000 5.060000 154 133 109 0
12.540000 20.900000 5.060000 156 135 111 0
12.760000 20.900000 5.060000 158 135 112 0
12.980000 20.900000 3.740000 162 139 116 0
13.200000 20.900000 3.740000 165 144 118 0
13.420000 20.900000 3.740000 167 146 120 0
13.640000 20.900000 3.740000 170 155 129 0
13.860000 20.900000 3.740000 174 159 133 0
14.080000 20.900000 3.740000 177 164 140 0
14.300000 20.900000 3.740000 182 169 145 0
14.520000 20.900000 3.740000 187 179 155 0
14.740000 20.900000 3.960000 190 182 158 0
14.960000 20.900000 3.960000 191 182 160 0
15.180000 20.900000 3.960000 193 184 162 0
15.400000 20.900000 3.960000 195 186 168 0
15.620000 20.900000 3.960000 197 188 170 0
15.840000 20.900000 5.060000 197 188 168 0
16.060000 20.900000 5.940000 199 190 170 0
16.280000 20.900000 7.040000 201 189 170 0
16.500000 20.900000 7.040000 202 190 171 0
16.720000 20.900000 7.260000 204 190 172 0
16.940000 20.900000 7.260000 203 189 171 0
17.160000 20.900000 7.260000 204 192 175 0
17.380000 20.900000 7.480000 206 194 177 0
17.600000 20.900000 7.480000 204 195 177 0
17.820000 20.900000 7.700000 204 195 177 0
18.040000 20.900000 7.700000 207 195 178 0
18.260000 20.900000 7.700000 207 195 178 0
18.480000 20.900000 7.700000 207 193 175 0
18.700000 20.900000 7.920000 206 192 174 0
18.920000 20.900000 7.920000 203 187 167 0
19.140000 20.900000 7.920000 202 186 166 0
19.360000 20.900000 9.460000 202 185 164 0
19.580000 20.900000 9.460000 202 185 164 0
19.800000 20.900000 9.460000 203 186 165 0
20.020000 20.900000 9.460000 204 187 166 0
20.240000 20.900000 9.460000 202 188 170 0
20.460000 20.900000 9.680000 202 188 170 0
20.680000 20.900000 9.460000 205 191 173 0
20.900000 20.900000 10.560000 206 192 174 0
21.120000 20.900000 12.760000 207 193 177 0
21.340000 20.900000 12.540000 209 195 179 0
21.560000 20.900000 12.540000 210 196 180 0
21.780000 20.900000 12.540000 211 197 181 0
22.000000 20.900000 14.080000 212 198 184 0
22.220000 20.900000 14.080000 212 198 184 0
22.440000 20.900000 14.080000 214 200 186 0
22.660000 20.900000 14.080000 214 200 186 0
22.880000 20.900000 14.080000 214 200 186 0
23.100000 20.900000 14.080000 215 201 187 0
23.320000 20.900000 15.620000 215 201 187 0
23.540000 20.900000 15.620000 216 202 188 0
23.760000 20.900000 15.620000 215 202 189 0
23.980000 20.900000 15.840000 216 203 190 0
24.200000 20.900000 15.840000 218 203 191 0
24.420000 20.900000 17.160000 219 204 192 0
24.640000 20.900000 17.380000 219 206 195 0
24.860000 20.900000 17.380000 220 207 196 0
25.080000 20.900000 17.380000 221 208 197 0
25.300000 20.900000 17.380000 222 209 198 0
25.520000 20.900000 18.700000 222 207 195 0
25.740000 20.900000 17.380000 219 204 192 0
25.960000 20.900000 17.600000 233 188 186 0
26.180000 20.900000 16.280000 219 174 172 0
26.400000 20.900000 14.960000 227 146 138 0
26.620000 20.900000 12.320000 208 127 119 0
26.840000 20.900000 8.140000 209 104 106 0
27.060000 20.900000 2.420000 198 93 95 0
27.280000 20.900000 0.880000 198 91 94 0
27.500000 20.900000 0.880000 196 89 92 0
27.720000 20.900000 2.200000 194 87 90 0
27.940000 20.900000 5.060000 193 86 89 0
28.160000 20.900000 6.380000 194 84 90 0
28.380000 20.900000 7.700000 192 82 88 0
28.600000 20.900000 8.580000 190 83 88 0
28.820000 20.900000 8.580000 189 82 87 0
29.040000 20.900000 8.580000 188 81 86 0
29.260000 20.900000 8.580000 188 81 86 0
29.480000 20.900000 8.800000 191 81 87 0
29.700000 20.900000 8.800000 190 80 86 0
29.920000 20.900000 10.340000 190 80 86 0
30.140000 20.900000 10.340000 190 80 86 0
30.360000 20.900000 10.340000 190 80 86 0
30.580000 20.900000 10.340000 190 80 86 0
30.800000 20.900000 10.560000 190 80 86 0
31.020000 20.900000 10.560000 190 80 86 0
31.240000 20.900000 10.560000 191 81 87 0
31.460000 20.900000 10.780000 190 80 86 0
31.680000 20.900000 11.880000 190 80 86 0
31.900000 20.900000 12.760000 189 79 85 0
32.120000 20.900000 13.860000 190 80 86 0
32.340000 20.900000 14.080000 190 80 86 0
32.560000 20.900000 14.080000 190 80 86 0
32.780000 20.900000 14.080000 190 80 86 0
33.000000 20.900000 14.080000 190 80 86 0
33.220000 20.900000 15.620000 191 81 87 0
33.440000 20.900000 15.620000 190 80 86 0
33.660000 20.900000 15.620000 190 80 86 0
33.880000 20.900000 15.620000 191 81 87 0
34.100000 20.900000 15.620000 190 80 86 0
34.320000 20.900000 15.840000 191 81 87 0
34.540000 20.900000 15.840000 192 82 88 0
34.760000 20.900000 15.840000 191 81 87 0
34.980000 20.900000 15.840000 191 81 87 0
35.200000 20.900000 16.060000 192 82 88 0
35.420000 20.900000 16.060000 192 82 88 0
35.640000 20.900000 16.060000 191 81 87 0
35.860000 20.900000 17.380000 191 81 87 0
36.080000 20.900000 17.600000 192 80 87 0
36.300000 20.900000 17.600000 194 82 89 0
36.520000 20.900000 17.600000 191 81 87 0
36.740000 20.900000 17.600000 192 82 88 0
36.960000 20.900000 18.480000 193 83 89 0
37.180000 20.900000 19.580000 193 83 89 0
0.000000 21.120000 3.300000 140 73 62 0
0.220000 21.120000 1.980000 143 76 65 0
0.440000 21.120000 1.980000 143 78 67 0
0.660000 21.120000 0.660000 146 81 70 0
0.880000 21.120000 1.980000 148 83 74 0
1.100000 21.120000 3.520000 147 82 73 0
1.320000 21.120000 7.700000 148 85 73 0
1.540000 21.120000 10.340000 148 85 73 0
1.760000 21.120000 10.340000 149 85 71 0
1.980000 21.120000 9.020000 149 85 71 0
2.200000 21.120000 7.700000 148 83 72 0
2.420000 21.120000 7.700000 147 82 71 0
2.640000 21.120000 6.380000 149 82 71 0
2.860000 21.120000 4.840000 148 81 70 0
3.080000 21.120000 4.840000 145 80 69 0
3.300000 21.120000 4.840000 145 80 69 0
3.520000 21.120000 4.840000 145 77 63 0
3.740000 21.120000 4.840000 145 77 63 0
3.960000 21.120000 4.840000 145 76 64 0
4.180000 21.120000 4.840000 144 75 63 0
4.400000 21.120000 4.840000 142 73 61 0
4.620000 21.120000 4.840000 142 73 61 0
4.840000 21.120000 5.060000 144 74 62 0
5.060000 21.120000 5.060000 142 72 60 0
5.280000 21.120000 5.060000 142 72 59 0
5.500000 21.120000 5.060000 143 73 60 0
5.720000 21.120000 5.060000 143 73 60 0
5.940000 21.120000 6.380000 142 72 59 0
6.160000 21.120000 6.380000 142 74 60 0
6.380000 21.120000 6.380000 142 74 60 0
6.600000 21.120000 6.380000 142 73 61 0
6.820000 21.120000 6.380000 142 73 61 0
7.040000 21.120000 6.380000 142 72 59 0
7.260000 21.120000 6.380000 143 73 60 0
7.480000 21.120000 6.380000 144 74 61 0
7.700000 21.120000 6.380000 146 76 63 0
7.920000 21.120000 6.380000 143 79 65 0
8.140000 21.120000 6.380000 146 82 68 0
8.360000 21.120000 6.380000 144 84 69 0
8.580000 21.120000 6.380000 146 86 71 0
8.800000 21.120000 6.380000 142 92 76 0
9.020000 21.120000 7.700000 144 94 78 0
9.240000 21.120000 7.700000 140 101 83 0
9.460000 21.120000 7.700000 145 106 88 0
9.680000 21.120000 7.480000 140 112 95 0
9.900000 21.120000 8.800000 144 116 99 0
10.120000 21.120000 8.800000 143 122 100 0
10.340000 21.120000 9.020000 147 126 104 0
10.560000 21.120000 7.700000 149 128 104 0
10.780000 21.120000 7.700000 150 129 105 0
11.000000 21.120000 7.700000 151 130 108 0
11.220000 21.120000 6.380000 151 130 108 0
11.440000 21.120000 6.380000 149 131 106 0
11.660000 21.120000 6.380000 150 132 107 0
11.880000 21.120000 5.060000 153 132 110 0
12.100000 21.120000 5.060000 153 132 110 0
12.320000 21.120000 5.060000 155 134 110 0
12.540000 21.120000 5.060000 156 135 111 0
12.760000 21.120000 3.740000 158 135 112 0
12.980000 21.120000 3.740000 161 138 115 0
13.200000 21.120000 3.740000 163 142 116 0
13.420000 21.120000 3.740000 167 146 120 0
13.640000 21.120000 3.740000 167 152 126 0
13.860000 21.120000 3.740000 174 159 133 0
14.080000 21.120000 3.740000 176 163 139 0
14.300000 21.120000 3.740000 182 169 145 0
14.520000 21.120000 3.960000 183 175 151 0
14.740000 21.120000 3.960000 187 179 155 0
14.960000 21.120000 3.960000 192 183 161 0
15.180000 21.120000 3.960000 192 183 161 0
15.400000 21.120000 3.960000 195 186 168 0
15.620000 21.120000 3.960000 196 187 169 0
15.840000 21.120000 5.060000 198 189 169 0
16.060000 21.120000 5.940000 198 189 169 0
16.280000 21.120000 7.040000 201 189 170 0
16.500000 21.120000 7.040000 201 189 170 0
16.720000 21.120000 7.260000 203 189 171 0
16.940000 21.120000 7.260000 203 189 171 0
17.160000 21.120000 7.480000 202 190 173 0
17.380000 21.120000 7.480000 204 192 175 0
17.600000 21.120000 7.480000 203 194 176 0
17.820000 21.120000 7.700000 203 194 176 0
18.040000 21.120000 7.700000 206 194 177 0
18.260000 21.120000 7.700000 204 192 175 0
18.480000 21.120000 7.920000 205 191 173 0
18.700000 21.120000 7.920000 204 190 172 0
18.920000 21.120000 7.920000 204 188 168 0
19.140000 21.120000 7.920000 201 185 165 0
19.360000 21.120000 9.460000 201 184 163 0
19.580000 21.120000 9.460000 201 184 163 0
19.800000 21.120000 9.460000 203 186 165 0
20.020000 21.120000 9.460000 202 185 164 0
20.240000 21.120000 9.460000 200 186 168 0
20.460000 21.120000 9.680000 202 188 170 0
20.680000 21.120000 9.460000 202 188 170 0
20.900000 21.120000 11.660000 204 190 172 0
21.120000 21.120000 12.540000 205 191 175 0
21.340000 21.120000 12.540000 205 191 175 0
21.560000 21.120000 12.540000 209 195 179 0
21.780000 21.120000 14.080000 208 194 178 0
22.000000 21.120000 14.080000 210 196 182 0
22.220000 21.120000 14.080000 211 197 183 0
22.440000 21.120000 14.080000 211 197 183 0
22.660000 21.120000 14.080000 212 198 184 0
22.880000 21.120000 14.080000 213 199 185 0
23.100000 21.120000 14.080000 213 199 185 0
23.320000 21.120000 15.620000 213 199 185 0
23.540000 21.120000 15.620000 215 201 187 0
23.760000 21.120000 15.840000 214 201 188 0
23.980000 21.120000 15.840000 214 201 188 0
24.200000 21.120000 15.840000 216 201 189 0
24.420000 21.120000 17.160000 218 203 191 0
24.640000 21.120000 17.380000 217 204 193 0
24.860000 21.120000 17.380000 218 205 194 0
25.080000 21.120000 17.380000 219 206 195 0
25.300000 21.120000 17.380000 220 207 196 0
25.520000 21.120000 17.380000 218 203 191 0
25.740000 21.120000 17.600000 213 198 186 0
25.960000 21.120000 17.600000 228 183 181 0
26.180000 21.120000 16.280000 211 166 164 0
26.400000 21.120000 14.960000 219 138 130 0
26.620000 21.120000 10.780000 203 122 114 0
26.840000 21.120000 6.600000 203 98 100 0
27.060000 21.120000 2.200000 196 91 93 0
27.280000 21.120000 0.880000 195 88 91 0
27.500000 21.120000 0.880000 195 88 91 0
27.720000 21.120000 2.200000 193 86 89 0
27.940000 21.120000 5.060000 191 84 87 0
28.160000 21.120000 6.380000 194 84 90 0
28.380000 21.120000 7.480000 192 82 88 0
28.600000 21.120000 8.580000 188 81 86 0
28.820000 21.120000 8.580000 187 80 85 0
29.040000 21.120000 8.580000 189 82 87 0
29.260000 21.120000 8.800000 188 81 86 0
29.480000 21.120000 8.800000 189 79 85 0
29.700000 21.120000 8.800000 190 80 86 0
29.920000 21.120000 10.340000 191 81 87 0
30.140000 21.120000 10.340000 190 80 86 0
30.360000 21.120000 10.340000 189 79 85 0
30.580000 21.120000 10.560000 189 79 85 0
30.800000 21.120000 10.560000 189 79 85 0
31.020000 21.120000 10.560000 189 79 85 0
31.240000 21.120000 10.560000 190 80 86 0
31.460000 21.120000 10.780000 190 80 86 0
31.680000 21.120000 11.880000 190 80 86 0
31.900000 21.120000 12.760000 190 80 86 0
32.120000 21.120000 13.860000 190 80 86 0
32.340000 21.120000 14.080000 189 79 85 0
32.560000 21.120000 14.080000 189 79 85 0
32.780000 21.120000 14.080000 190 80 86 0
33.000000 21.120000 14.080000 190 80 86 0
33.220000 21.120000 15.620000 189 79 85 0
33.440000 21.120000 15.620000 190 80 86 0
33.660000 21.120000 15.620000 190 80 86 0
33.880000 21.120000 15.620000 189 79 85 0
34.100000 21.120000 15.620000 190 80 86 0
34.320000 21.120000 15.840000 191 81 87 0
34.540000 21.120000 15.840000 191 81 87 0
34.760000 21.120000 15.840000 192 82 88 0
34.980000 21.120000 15.840000 192 82 88 0
35.200000 21.120000 16.060000 191 81 87 0
35.420000 21.120000 16.060000 191 81 87 0
35.640000 21.120000 16.060000 191 81 87 0
35.860000 21.120000 17.380000 191 81 87 0
36.080000 21.120000 17.600000 193 81 88 0
36.300000 21.120000 17.600000 193 81 88 0
36.520000 21.120000 17.600000 191 81 87 0
36.740000 21.120000 17.600000 192 82 88 0
36.960000 21.120000 18.700000 192 82 88 0
37.180000 21.120000 19.800000 192 82 88 0
0.000000 21.340000 3.300000 138 73 64 0
0.220000 21.340000 1.980000 143 78 69 0
0.440000 21.340000 1.980000 143 80 70 0
0.660000 21.340000 1.980000 145 82 72 0
0.880000 21.340000 3.520000 146 83 73 0
1.100000 21.340000 7.700000 148 85 75 0
1.320000 21.340000 9.020000 147 84 74 0
1.540000 21.340000 10.340000 148 85 75 0
1.760000 21.340000 10.560000 149 85 71 0
1.980000 21.340000 9.020000 148 84 70 0
2.200000 21.340000 7.700000 149 82 71 0
2.420000 21.340000 6.380000 149 82 71 0
2.640000 21.340000 6.380000 145 80 69 0
2.860000 21.340000 4.840000 145 80 69 0
3.080000 21.340000 4.840000 148 79 67 0
3.300000 21.340000 4.840000 145 76 64 0
3.520000 21.340000 4.840000 145 76 64 0
3.740000 21.340000 4.840000 144 75 63 0
3.960000 21.340000 4.840000 143 74 62 0
4.180000 21.340000 4.840000 143 74 62 0
4.400000 21.340000 4.840000 142 73 61 0
4.620000 21.340000 5.060000 144 75 63 0
4.840000 21.340000 5.060000 143 74 62 0
5.060000 21.340000 5.060000 142 73 61 0
5.280000 21.340000 5.060000 143 73 60 0
5.500000 21.340000 5.060000 142 72 59 0
5.720000 21.340000 5.060000 142 72 59 0
5.940000 21.340000 6.380000 142 72 59 0
6.160000 21.340000 6.380000 141 73 59 0
6.380000 21.340000 6.380000 142 74 60 0
6.600000 21.340000 6.380000 143 73 61 0
6.820000 21.340000 6.380000 142 72 60 0
7.040000 21.340000 6.380000 142 72 59 0
7.260000 21.340000 6.380000 144 74 61 0
7.480000 21.340000 6.380000 144 74 61 0
7.700000 21.340000 6.380000 145 75 62 0
7.920000 21.340000 6.380000 145 77 63 0
8.140000 21.340000 6.380000 147 79 65 0
8.360000 21.340000 6.380000 148 80 66 0
8.580000 21.340000 6.380000 150 82 68 0
8.800000 21.340000 6.380000 147 83 69 0
9.020000 21.340000 7.700000 150 86 72 0
9.240000 21.340000 7.700000 142 94 79 0
9.460000 21.340000 7.700000 147 99 84 0
9.680000 21.340000 7.700000 144 107 86 0
9.900000 21.340000 7.480000 148 111 90 0
10.120000 21.340000 9.020000 146 118 99 0
10.340000 21.340000 9.020000 149 121 102 0
10.560000 21.340000 7.700000 148 125 102 0
10.780000 21.340000 7.700000 149 126 103 0
11.000000 21.340000 7.700000 150 127 104 0
11.220000 21.340000 6.380000 151 128 105 0
11.440000 21.340000 6.380000 152 129 106 0
11.660000 21.340000 6.380000 152 129 106 0
11.880000 21.340000 5.060000 153 131 105 0
12.100000 21.340000 5.060000 154 132 106 0
12.320000 21.340000 5.060000 154 133 109 0
12.540000 21.340000 5.060000 155 134 110 0
12.760000 21.340000 3.740000 159 136 113 0
12.980000 21.340000 3.740000 160 137 114 0
13.200000 21.340000 3.740000 162 144 119 0
13.420000 21.340000 3.740000 165 147 122 0
13.640000 21.340000 3.740000 170 153 128 0
13.860000 21.340000 3.740000 175 158 133 0
14.080000 21.340000 3.740000 176 163 139 0
14.300000 21.340000 3.960000 183 170 146 0
14.520000 21.340000 3.960000 184 175 153 0
14.740000 21.340000 3.960000 187 178 156 0
14.960000 21.340000 3.960000 189 180 158 0
15.180000 21.340000 3.960000 193 184 162 0
15.400000 21.340000 3.960000 194 185 165 0
15.620000 21.340000 5.280000 196 187 167 0
15.840000 21.340000 5.060000 198 189 171 0
16.060000 21.340000 7.260000 198 189 171 0
16.280000 21.340000 7.040000 201 189 170 0
16.500000 21.340000 7.260000 202 190 171 0
16.720000 21.340000 7.260000 201 189 170 0
16.940000 21.340000 7.260000 202 190 171 0
17.160000 21.340000 7.480000 202 190 173 0
17.380000 21.340000 7.480000 204 192 175 0
17.600000 21.340000 7.480000 205 192 178 0
17.820000 21.340000 7.700000 205 192 178 0
18.040000 21.340000 7.700000 205 193 176 0
18.260000 21.340000 7.700000 206 194 177 0
18.480000 21.340000 7.920000 206 192 176 0
18.700000 21.340000 7.920000 203 189 173 0
18.920000 21.340000 7.920000 203 187 167 0
19.140000 21.340000 7.920000 201 185 165 0
19.360000 21.340000 9.460000 201 185 165 0
19.580000 21.340000 9.460000 200 184 164 0
19.800000 21.340000 9.460000 202 185 164 0
20.020000 21.340000 9.460000 202 185 164 0
20.240000 21.340000 9.460000 203 185 166 0
20.460000 21.340000 9.680000 204 186 167 0
20.680000 21.340000 10.780000 205 187 170 0
20.900000 21.340000 11.440000 206 188 171 0
21.120000 21.340000 12.540000 204 190 174 0
21.340000 21.340000 12.540000 205 191 175 0
21.560000 21.340000 12.540000 206 192 176 0
21.780000 21.340000 14.080000 208 194 178 0
22.000000 21.340000 14.080000 209 195 179 0
22.220000 21.340000 14.080000 209 195 179 0
22.440000 21.340000 14.080000 210 196 182 0
22.660000 21.340000 14.080000 211 197 183 0
22.880000 21.340000 14.080000 211 197 183 0
23.100000 21.340000 15.620000 211 197 183 0
23.320000 21.340000 15.620000 212 198 184 0
23.540000 21.340000 15.620000 213 199 185 0
23.760000 21.340000 15.840000 214 200 186 0
23.980000 21.340000 15.840000 215 201 187 0
24.200000 21.340000 15.840000 216 202 188 0
24.420000 21.340000 17.160000 217 203 189 0
24.640000 21.340000 17.380000 217 202 190 0
24.860000 21.340000 17.380000 218 203 191 0
25.080000 21.340000 17.380000 218 203 191 0
25.300000 21.340000 17.380000 216 201 189 0
25.520000 21.340000 17.380000 222 199 188 0
25.740000 21.340000 17.600000 216 193 182 0
25.960000 21.340000 17.600000 231 171 165 0
26.180000 21.340000 16.280000 215 155 149 0
26.400000 21.340000 13.640000 219 127 127 0
26.620000 21.340000 9.460000 201 109 109 0
26.840000 21.340000 5.060000 201 94 97 0
27.060000 21.340000 0.880000 198 91 94 0
27.280000 21.340000 0.880000 195 88 93 0
27.500000 21.340000 2.200000 195 88 93 0
27.720000 21.340000 3.740000 194 84 90 0
27.940000 21.340000 5.060000 194 84 90 0
28.160000 21.340000 6.380000 191 84 89 0
28.380000 21.340000 7.260000 189 82 87 0
28.600000 21.340000 8.580000 190 80 86 0
28.820000 21.340000 8.580000 190 80 86 0
29.040000 21.340000 8.580000 188 81 86 0
29.260000 21.340000 8.800000 189 82 87 0
29.480000 21.340000 8.800000 190 80 86 0
29.700000 21.340000 10.340000 191 81 87 0
29.920000 21.340000 10.340000 190 80 86 0
30.140000 21.340000 10.340000 190 80 86 0
30.360000 21.340000 10.340000 190 80 86 0
30.580000 21.340000 10.560000 191 81 87 0
30.800000 21.340000 10.560000 190 80 86 0
31.020000 21.340000 10.560000 190 80 86 0
31.240000 21.340000 10.560000 189 79 85 0
31.460000 21.340000 10.780000 188 78 84 0
31.680000 21.340000 11.880000 190 80 86 0
31.900000 21.340000 14.080000 189 79 85 0
32.120000 21.340000 13.860000 189 79 85 0
32.340000 21.340000 14.080000 190 80 86 0
32.560000 21.340000 14.080000 189 79 85 0
32.780000 21.340000 14.080000 189 79 85 0
33.000000 21.340000 14.080000 189 79 85 0
33.220000 21.340000 15.620000 190 80 86 0
33.440000 21.340000 15.620000 190 80 86 0
33.660000 21.340000 15.620000 189 79 85 0
33.880000 21.340000 15.620000 190 80 86 0
34.100000 21.340000 15.840000 190 80 86 0
34.320000 21.340000 15.840000 189 79 85 0
34.540000 21.340000 15.840000 190 80 86 0
34.760000 21.340000 15.840000 190 80 86 0
34.980000 21.340000 15.840000 190 80 86 0
35.200000 21.340000 16.060000 190 80 86 0
35.420000 21.340000 16.060000 191 81 87 0
35.640000 21.340000 16.060000 191 81 87 0
35.860000 21.340000 17.600000 192 82 88 0
36.080000 21.340000 17.600000 191 81 87 0
36.300000 21.340000 17.600000 192 82 88 0
36.520000 21.340000 17.820000 193 83 89 0
36.740000 21.340000 17.600000 193 83 89 0
36.960000 21.340000 18.480000 192 82 88 0
37.180000 21.340000 19.580000 192 82 88 0
0.000000 21.560000 1.980000 141 76 67 0
0.220000 21.560000 1.980000 144 79 70 0
0.440000 21.560000 1.980000 144 81 71 0
0.660000 21.560000 3.520000 147 84 74 0
0.880000 21.560000 6.160000 147 84 74 0
1.100000 21.560000 9.020000 147 84 74 0
1.320000 21.560000 10.340000 148 85 75 0
1.540000 21.560000 10.340000 148 85 75 0
1.760000 21.560000 9.020000 148 84 70 0
1.980000 21.560000 7.700000 148 84 70 0
2.200000 21.560000 7.700000 149 82 71 0
2.420000 21.560000 6.380000 148 81 70 0
2.640000 21.560000 6.380000 145 80 69 0
2.860000 21.560000 4.840000 145 80 69 0
3.080000 21.560000 4.840000 147 78 66 0
3.300000 21.560000 4.840000 145 76 64 0
3.520000 21.560000 4.840000 142 73 61 0
3.740000 21.560000 4.840000 144 75 63 0
3.960000 21.560000 4.840000 143 74 62 0
4.180000 21.560000 4.840000 143 74 62 0
4.400000 21.560000 4.840000 142 73 61 0
4.620000 21.560000 4.840000 144 75 63 0
4.840000 21.560000 5.060000 143 74 62 0
5.060000 21.560000 5.060000 143 74 62 0
5.280000 21.560000 5.060000 143 73 60 0
5.500000 21.560000 5.060000 142 72 59 0
5.720000 21.560000 5.060000 142 72 59 0
5.940000 21.560000 6.380000 143 73 60 0
6.160000 21.560000 6.380000 141 73 59 0
6.380000 21.560000 6.380000 142 74 60 0
6.600000 21.560000 6.380000 144 74 62 0
6.820000 21.560000 6.380000 143 73 61 0
7.040000 21.560000 6.380000 143 73 60 0
7.260000 21.560000 6.380000 144 74 61 0
7.480000 21.560000 6.380000 144 74 61 0
7.700000 21.560000 6.380000 145 75 62 0
7.920000 21.560000 6.380000 144 76 62 0
8.140000 21.560000 6.380000 145 77 63 0
8.360000 21.560000 6.380000 147 79 65 0
8.580000 21.560000 6.380000 147 79 65 0
8.800000 21.560000 6.380000 145 81 67 0
9.020000 21.560000 7.700000 147 83 69 0
9.240000 21.560000 7.700000 139 91 76 0
9.460000 21.560000 7.700000 143 95 80 0
9.680000 21.560000 7.700000 140 103 82 0
9.900000 21.560000 7.700000 143 106 85 0
10.120000 21.560000 7.480000 142 114 95 0
10.340000 21.560000 9.020000 146 118 99 0
10.560000 21.560000 7.480000 145 122 99 0
10.780000 21.560000 7.700000 147 124 101 0
11.000000 21.560000 7.700000 149 126 103 0
11.220000 21.560000 7.700000 150 127 104 0
11.440000 21.560000 6.380000 151 128 105 0
11.660000 21.560000 6.380000 151 128 105 0
11.880000 21.560000 5.060000 152 130 104 0
12.100000 21.560000 5.060000 154 132 106 0
12.320000 21.560000 5.060000 153 132 108 0
12.540000 21.560000 5.060000 155 134 110 0
12.760000 21.560000 3.740000 158 135 112 0
12.980000 21.560000 3.740000 162 139 116 0
13.200000 21.560000 3.740000 162 144 119 0
13.420000 21.560000 3.740000 167 149 124 0
13.640000 21.560000 3.740000 171 154 129 0
13.860000 21.560000 3.740000 175 158 133 0
14.080000 21.560000 3.740000 177 164 140 0
14.300000 21.560000 3.960000 182 169 145 0
14.520000 21.560000 3.960000 186 177 155 0
14.740000 21.560000 3.960000 188 179 157 0
14.960000 21.560000 3.960000 191 182 160 0
15.180000 21.560000 3.960000 193 184 162 0
15.400000 21.560000 3.960000 196 187 167 0
15.620000 21.560000 5.280000 198 189 169 0
15.840000 21.560000 6.160000 199 190 172 0
16.060000 21.560000 7.040000 200 191 173 0
16.280000 21.560000 7.040000 202 190 171 0
16.500000 21.560000 7.260000 203 191 172 0
16.720000 21.560000 7.260000 203 191 172 0
16.940000 21.560000 7.260000 203 191 172 0
17.160000 21.560000 7.480000 204 192 175 0
17.380000 21.560000 7.480000 205 193 176 0
17.600000 21.560000 7.480000 206 193 179 0
17.820000 21.560000 7.700000 206 193 179 0
18.040000 21.560000 7.700000 207 195 178 0
18.260000 21.560000 7.700000 206 194 177 0
18.480000 21.560000 7.920000 206 192 176 0
18.700000 21.560000 7.920000 205 191 175 0
18.920000 21.560000 7.920000 204 188 168 0
19.140000 21.560000 9.460000 202 186 166 0
19.360000 21.560000 9.460000 202 186 166 0
19.580000 21.560000 9.460000 201 185 165 0
19.800000 21.560000 9.460000 201 184 163 0
20.020000 21.560000 9.460000 202 185 164 0
20.240000 21.560000 9.680000 203 185 166 0
20.460000 21.560000 9.460000 203 185 166 0
20.680000 21.560000 10.560000 204 186 169 0
20.900000 21.560000 11.440000 205 187 170 0
21.120000 21.560000 12.540000 204 190 174 0
21.340000 21.560000 12.540000 205 191 175 0
21.560000 21.560000 12.540000 206 192 176 0
21.780000 21.560000 14.080000 207 193 177 0
22.000000 21.560000 14.080000 208 194 178 0
22.220000 21.560000 14.080000 209 195 179 0
22.440000 21.560000 14.080000 209 195 181 0
22.660000 21.560000 14.080000 210 196 182 0
22.880000 21.560000 14.080000 211 197 183 0
23.100000 21.560000 15.620000 211 197 183 0
23.320000 21.560000 15.620000 212 198 184 0
23.540000 21.560000 15.620000 213 199 185 0
23.760000 21.560000 15.840000 213 199 185 0
23.980000 21.560000 15.840000 214 200 186 0
24.200000 21.560000 15.840000 215 201 187 0
24.420000 21.560000 17.160000 216 202 188 0
24.640000 21.560000 17.380000 217 202 190 0
24.860000 21.560000 17.380000 217 202 190 0
25.080000 21.560000 17.380000 217 202 190 0
25.300000 21.560000 17.380000 216 201 189 0
25.520000 21.560000 17.380000 218 195 184 0
25.740000 21.560000 17.600000 211 188 177 0
25.960000 21.560000 16.280000 225 165 159 0
26.180000 21.560000 14.960000 206 146 140 0
26.400000 21.560000 13.640000 213 121 121 0
26.620000 21.560000 7.920000 199 107 107 0
26.840000 21.560000 3.740000 199 92 95 0
27.060000 21.560000 0.880000 197 90 93 0
27.280000 21.560000 0.880000 195 88 93 0
27.500000 21.560000 2.200000 195 88 93 0
27.720000 21.560000 3.740000 194 84 90 0
27.940000 21.560000 5.060000 193 83 89 0
28.160000 21.560000 7.480000 190 83 88 0
28.380000 21.560000 8.580000 190 83 88 0
28.600000 21.560000 8.580000 190 80 86 0
28.820000 21.560000 8.580000 191 81 87 0
29.040000 21.560000 8.800000 188 81 86 0
29.260000 21.560000 8.800000 187 80 85 0
29.480000 21.560000 8.800000 190 80 86 0
29.700000 21.560000 10.340000 190 80 86 0
29.920000 21.560000 10.340000 190 80 86 0
30.140000 21.560000 10.340000 190 80 86 0
30.360000 21.560000 10.340000 190 80 86 0
30.580000 21.560000 10.560000 189 79 85 0
30.800000 21.560000 10.560000 189 79 85 0
31.020000 21.560000 10.560000 189 79 85 0
31.240000 21.560000 10.780000 190 80 86 0
31.460000 21.560000 12.100000 189 79 85 0
31.680000 21.560000 12.980000 189 79 85 0
31.900000 21.560000 14.080000 189 79 85 0
32.120000 21.560000 14.080000 189 79 85 0
32.340000 21.560000 14.080000 190 80 86 0
32.560000 21.560000 14.080000 191 81 87 0
32.780000 21.560000 14.080000 190 80 86 0
33.000000 21.560000 14.300000 188 78 84 0
33.220000 21.560000 15.620000 189 79 85 0
33.440000 21.560000 15.620000 189 79 85 0
33.660000 21.560000 15.620000 190 80 86 0
33.880000 21.560000 15.620000 190 80 86 0
34.100000 21.560000 15.840000 191 81 87 0
34.320000 21.560000 15.840000 190 80 86 0
34.540000 21.560000 15.840000 190 80 86 0
34.760000 21.560000 15.840000 190 80 86 0
34.980000 21.560000 16.060000 190 80 86 0
35.200000 21.560000 16.060000 190 80 86 0
35.420000 21.560000 16.060000 191 81 87 0
35.640000 21.560000 16.060000 191 81 87 0
35.860000 21.560000 17.600000 191 81 87 0
36.080000 21.560000 17.600000 192 82 88 0
36.300000 21.560000 17.600000 193 83 89 0
36.520000 21.560000 17.820000 193 83 89 0
36.740000 21.560000 18.700000 194 84 90 0
36.960000 21.560000 19.580000 192 82 88 0
37.180000 21.560000 20.900000 193 83 89 0
0.000000 21.780000 1.980000 141 76 67 0
0.220000 21.780000 1.980000 145 80 71 0
0.440000 21.780000 3.300000 146 83 73 0
0.660000 21.780000 6.160000 147 84 74 0
0.880000 21.780000 7.480000 148 85 75 0
1.100000 21.780000 9.020000 148 85 75 0
1.320000 21.780000 10.340000 148 85 73 0
1.540000 21.780000 10.340000 148 85 73 0
1.760000 21.780000 9.020000 149 85 71 0
1.980000 21.780000 7.700000 148 84 70 0
2.200000 21.780000 6.380000 147 82 71 0
2.420000 21.780000 6.380000 146 81 70 0
2.640000 21.780000 6.380000 145 80 69 0
2.860000 21.780000 6.160000 145 80 69 0
3.080000 21.780000 6.380000 146 79 66 0
3.300000 21.780000 6.380000 144 77 64 0
3.520000 21.780000 4.840000 144 75 63 0
3.740000 21.780000 4.840000 143 74 62 0
3.960000 21.780000 4.840000 144 75 63 0
4.180000 21.780000 4.840000 143 74 62 0
4.400000 21.780000 4.840000 142 73 61 0
4.620000 21.780000 4.840000 143 74 62 0
4.840000 21.780000 5.060000 143 75 61 0
5.060000 21.780000 5.060000 143 75 61 0
5.280000 21.780000 5.060000 143 75 61 0
5.500000 21.780000 5.060000 142 74 60 0
5.720000 21.780000 5.060000 144 74 61 0
5.940000 21.780000 6.380000 142 72 59 0
6.160000 21.780000 6.380000 143 73 60 0
6.380000 21.780000 6.380000 143 73 60 0
6.600000 21.780000 6.380000 143 73 60 0
6.820000 21.780000 6.380000 144 74 61 0
7.040000 21.780000 6.380000 143 75 61 0
7.260000 21.780000 6.380000 143 75 61 0
7.480000 21.780000 6.380000 145 75 62 0
7.700000 21.780000 6.380000 144 74 61 0
7.920000 21.780000 6.380000 146 76 63 0
8.140000 21.780000 6.380000 145 75 62 0
8.360000 21.780000 6.380000 147 77 64 0
8.580000 21.780000 6.380000 146 76 63 0
8.800000 21.780000 6.380000 147 79 65 0
9.020000 21.780000 6.380000 148 80 66 0
9.240000 21.780000 7.920000 149 81 67 0
9.460000 21.780000 7.920000 154 86 72 0
9.680000 21.780000 7.700000 149 90 77 0
9.900000 21.780000 7.700000 153 94 81 0
10.120000 21.780000 7.700000 143 105 87 0
10.340000 21.780000 7.480000 147 109 91 0
10.560000 21.780000 7.480000 149 117 97 0
10.780000 21.780000 7.700000 150 118 98 0
11.000000 21.780000 7.700000 150 121 98 0
11.220000 21.780000 7.700000 152 123 100 0
11.440000 21.780000 6.380000 149 126 105 0
11.660000 21.780000 6.380000 149 126 105 0
11.880000 21.780000 5.060000 152 129 106 0
12.100000 21.780000 5.060000 153 130 107 0
12.320000 21.780000 5.060000 154 131 108 0
12.540000 21.780000 5.060000 156 133 110 0
12.760000 21.780000 5.060000 158 137 113 0
12.980000 21.780000 3.740000 160 139 115 0
13.200000 21.780000 3.740000 164 143 117 0
13.420000 21.780000 3.740000 169 148 122 0
13.640000 21.780000 3.740000 171 154 129 0
13.860000 21.780000 3.740000 176 159 134 0
14.080000 21.780000 3.960000 174 166 142 0
14.300000 21.780000 3.960000 180 172 148 0
14.520000 21.780000 3.960000 189 178 156 0
14.740000 21.780000 3.960000 191 180 158 0
14.960000 21.780000 3.960000 193 184 164 0
15.180000 21.780000 3.960000 195 186 166 0
15.400000 21.780000 3.960000 197 188 168 0
15.620000 21.780000 5.060000 198 189 169 0
15.840000 21.780000 5.940000 199 190 172 0
16.060000 21.780000 7.040000 200 191 173 0
16.280000 21.780000 7.040000 203 191 174 0
16.500000 21.780000 7.260000 203 191 174 0
16.720000 21.780000 7.260000 204 192 173 0
16.940000 21.780000 7.260000 204 192 173 0
17.160000 21.780000 7.480000 202 193 173 0
17.380000 21.780000 7.480000 203 194 174 0
17.600000 21.780000 7.480000 203 194 176 0
17.820000 21.780000 7.700000 204 195 177 0
18.040000 21.780000 7.700000 206 194 177 0
18.260000 21.780000 7.700000 207 195 178 0
18.480000 21.780000 7.920000 207 195 178 0
18.700000 21.780000 7.920000 206 194 177 0
18.920000 21.780000 7.920000 205 191 173 0
19.140000 21.780000 9.460000 202 188 170 0
19.360000 21.780000 9.460000 202 186 168 0
19.580000 21.780000 9.460000 201 185 167 0
19.800000 21.780000 9.460000 201 183 166 0
20.020000 21.780000 9.460000 202 184 167 0
20.240000 21.780000 9.680000 203 187 169 0
20.460000 21.780000 9.460000 203 187 169 0
20.680000 21.780000 11.660000 203 187 167 0
20.900000 21.780000 12.540000 205 189 169 0
21.120000 21.780000 12.540000 203 189 173 0
21.340000 21.780000 12.540000 205 191 175 0
21.560000 21.780000 12.540000 205 191 175 0
21.780000 21.780000 14.080000 206 192 176 0
22.000000 21.780000 14.080000 207 193 177 0
22.220000 21.780000 14.080000 209 195 179 0
22.440000 21.780000 14.080000 210 193 178 0
22.660000 21.780000 14.080000 210 193 178 0
22.880000 21.780000 14.080000 209 195 181 0
23.100000 21.780000 15.620000 211 197 183 0
23.320000 21.780000 15.620000 214 197 182 0
23.540000 21.780000 15.840000 214 197 182 0
23.760000 21.780000 15.840000 213 199 185 0
23.980000 21.780000 15.840000 214 200 186 0
24.200000 21.780000 15.840000 215 201 187 0
24.420000 21.780000 17.380000 216 202 188 0
24.640000 21.780000 17.380000 216 202 188 0
24.860000 21.780000 17.380000 216 202 188 0
25.080000 21.780000 17.380000 218 201 186 0
25.300000 21.780000 17.380000 215 198 183 0
25.520000 21.780000 17.600000 223 190 178 0
25.740000 21.780000 17.600000 213 180 168 0
25.960000 21.780000 16.280000 226 152 148 0
26.180000 21.780000 14.960000 208 134 130 0
26.400000 21.780000 11.880000 214 108 113 0
