ply
format ascii 1.0
element vertex 1124
property float x
property float y
property float z
property uchar red
property uchar green
property uchar blue
property uchar alpha
end_header
30.800000 29.700000 13.860000 201 93 101 0
31.020000 29.700000 13.860000 201 93 101 0
31.240000 29.700000 14.080000 202 92 100 0
31.460000 29.700000 14.080000 203 93 101 0
31.680000 29.700000 14.080000 202 92 100 0
31.900000 29.700000 14.080000 202 92 100 0
32.120000 29.700000 15.620000 202 91 102 0
32.340000 29.700000 15.620000 202 91 102 0
32.560000 29.700000 15.620000 202 92 100 0
32.780000 29.700000 15.840000 203 93 101 0
33.000000 29.700000 15.840000 203 93 101 0
33.220000 29.700000 15.840000 203 93 101 0
33.440000 29.700000 16.060000 203 93 101 0
33.660000 29.700000 16.060000 205 95 103 0
33.880000 29.700000 16.060000 204 94 102 0
34.100000 29.700000 16.060000 203 93 101 0
34.320000 29.700000 16.280000 203 93 101 0
34.540000 29.700000 16.280000 203 93 101 0
34.760000 29.700000 16.500000 202 92 100 0
34.980000 29.700000 17.600000 203 93 101 0
35.200000 29.700000 18.260000 204 94 102 0
35.420000 29.700000 19.360000 205 95 103 0
35.640000 29.700000 20.900000 204 94 102 0
35.860000 29.700000 20.900000 203 93 101 0
36.080000 29.700000 20.900000 204 94 102 0
36.300000 29.700000 21.120000 204 94 102 0
36.520000 29.700000 21.120000 204 94 102 0
36.740000 29.700000 22.440000 204 94 102 0
36.960000 29.700000 22.660000 205 95 103 0
37.180000 29.700000 22.660000 205 95 103 0
0.000000 29.920000 1.320000 160 84 81 0
0.220000 29.920000 1.320000 161 85 82 0
0.440000 29.920000 2.420000 162 83 81 0
0.660000 29.920000 4.620000 163 84 82 0
0.880000 29.920000 4.620000 160 84 81 0
1.100000 29.920000 3.300000 161 85 82 0
1.320000 29.920000 3.520000 161 87 83 0
1.540000 29.920000 3.520000 162 88 84 0
1.760000 29.920000 3.300000 160 90 85 0
1.980000 29.920000 4.400000 162 92 87 0
2.200000 29.920000 4.400000 152 101 93 0
2.420000 29.920000 4.400000 154 103 95 0
2.640000 29.920000 4.400000 149 108 99 0
2.860000 29.920000 4.400000 151 110 101 0
3.080000 29.920000 4.400000 149 114 103 0
3.300000 29.920000 4.180000 150 115 104 0
3.520000 29.920000 4.180000 148 118 105 0
3.740000 29.920000 4.180000 150 120 107 0
3.960000 29.920000 2.860000 151 121 108 0
4.180000 29.920000 1.980000 154 124 111 0
4.400000 29.920000 1.100000 156 128 112 0
7.480000 29.920000 1.760000 206 196 192 0
7.700000 29.920000 1.320000 210 200 196 0
7.920000 29.920000 1.540000 211 201 197 0
8.140000 29.920000 1.540000 212 202 198 0
8.360000 29.920000 1.540000 213 201 196 0
8.580000 29.920000 1.540000 214 202 197 0
8.800000 29.920000 1.540000 213 203 199 0
9.020000 29.920000 2.860000 214 204 200 0
9.240000 29.920000 3.080000 216 204 201 0
9.460000 29.920000 3.080000 217 205 202 0
9.680000 29.920000 4.400000 217 205 200 0
9.900000 29.920000 4.620000 218 206 201 0
10.120000 29.920000 4.620000 220 208 203 0
10.340000 29.920000 4.840000 220 208 203 0
10.560000 29.920000 4.840000 219 209 203 0
10.780000 29.920000 5.060000 220 210 204 0
11.000000 29.920000 5.060000 220 208 205 0
11.220000 29.920000 5.060000 218 206 203 0
11.440000 29.920000 5.280000 216 204 199 0
11.660000 29.920000 5.280000 214 202 197 0
11.880000 29.920000 5.280000 214 200 195 0
12.100000 29.920000 3.960000 212 198 193 0
12.320000 29.920000 3.960000 212 196 191 0
12.540000 29.920000 3.960000 211 195 190 0
12.760000 29.920000 3.960000 209 193 189 0
12.980000 29.920000 4.180000 211 195 191 0
13.200000 29.920000 5.060000 212 196 192 0
13.420000 29.920000 5.940000 214 198 194 0
13.640000 29.920000 7.040000 214 200 195 0
13.860000 29.920000 7.040000 215 201 196 0
14.080000 29.920000 7.040000 217 203 198 0
14.300000 29.920000 7.040000 219 205 200 0
14.520000 29.920000 7.040000 220 204 202 0
14.740000 29.920000 7.040000 220 204 202 0
14.960000 29.920000 7.040000 220 205 203 0
15.180000 29.920000 7.260000 220 205 203 0
15.400000 29.920000 7.260000 221 206 204 0
15.620000 29.920000 7.260000 222 207 205 0
15.840000 29.920000 5.940000 223 207 205 0
16.060000 29.920000 5.940000 224 208 206 0
16.280000 29.920000 6.160000 224 212 211 0
16.500000 29.920000 6.160000 229 217 216 0
16.720000 29.920000 6.160000 232 227 229 0
16.940000 29.920000 6.160000 238 233 235 0
17.160000 29.920000 6.160000 239 232 234 0
17.380000 29.920000 6.160000 234 227 229 0
17.600000 29.920000 6.160000 235 219 217 0
17.820000 29.920000 7.700000 226 210 208 0
18.040000 29.920000 7.920000 222 202 198 0
18.260000 29.920000 9.240000 214 194 190 0
18.480000 29.920000 10.780000 232 156 161 0
18.700000 29.920000 12.100000 213 137 142 0
18.920000 29.920000 14.960000 214 113 116 0
19.140000 29.920000 16.280000 208 107 110 0
19.360000 29.920000 17.380000 208 105 111 0
19.580000 29.920000 19.580000 206 103 109 0
19.800000 29.920000 19.580000 205 103 109 0
20.020000 29.920000 19.580000 205 103 109 0
20.240000 29.920000 19.800000 205 102 108 0
20.460000 29.920000 19.800000 204 101 107 0
20.680000 29.920000 19.800000 205 99 106 0
20.900000 29.920000 21.340000 205 99 106 0
21.120000 29.920000 21.340000 206 100 109 0
21.340000 29.920000 21.560000 204 98 107 0
21.560000 29.920000 23.100000 205 97 105 0
21.780000 29.920000 24.200000 204 96 104 0
22.000000 29.920000 26.620000 204 98 105 0
22.220000 29.920000 27.940000 203 97 104 0
22.440000 29.920000 30.580000 204 96 104 0
22.660000 29.920000 26.620000 203 95 103 0
22.880000 29.920000 11.440000 204 98 105 0
23.100000 29.920000 1.980000 203 97 104 0
23.320000 29.920000 2.200000 202 94 102 0
23.540000 29.920000 3.520000 202 94 102 0
23.760000 29.920000 4.620000 202 94 102 0
23.980000 29.920000 5.720000 201 93 101 0
24.200000 29.920000 4.400000 201 93 101 0
24.420000 29.920000 4.400000 200 92 100 0
24.640000 29.920000 4.400000 201 93 103 0
24.860000 29.920000 4.620000 199 91 101 0
25.080000 29.920000 4.620000 198 90 100 0
25.300000 29.920000 4.840000 201 93 103 0
25.520000 29.920000 4.840000 199 91 99 0
25.740000 29.920000 5.060000 200 92 100 0
25.960000 29.920000 5.060000 200 92 100 0
26.180000 29.920000 5.280000 200 92 100 0
26.400000 29.920000 5.280000 201 90 101 0
26.620000 29.920000 6.380000 200 89 100 0
26.840000 29.920000 8.580000 201 90 101 0
27.060000 29.920000 8.360000 200 89 100 0
27.280000 29.920000 9.900000 200 92 102 0
27.500000 29.920000 9.900000 200 92 102 0
27.720000 29.920000 9.900000 202 94 102 0
27.940000 29.920000 10.120000 204 96 104 0
28.160000 29.920000 11.440000 206 100 109 0
28.380000 29.920000 12.980000 206 100 109 0
28.600000 29.920000 12.980000 205 103 112 0
28.820000 29.920000 12.980000 207 105 114 0
29.040000 29.920000 14.300000 206 104 113 0
29.260000 29.920000 14.300000 206 104 113 0
29.480000 29.920000 14.300000 209 103 110 0
29.700000 29.920000 14.300000 208 102 109 0
29.920000 29.920000 14.300000 205 97 107 0
30.140000 29.920000 14.080000 204 96 106 0
30.360000 29.920000 14.080000 204 93 104 0
30.580000 29.920000 13.860000 203 92 103 0
30.800000 29.920000 13.860000 200 92 100 0
31.020000 29.920000 13.860000 200 92 100 0
31.240000 29.920000 14.080000 203 93 101 0
31.460000 29.920000 14.080000 203 93 101 0
31.680000 29.920000 14.080000 201 91 99 0
31.900000 29.920000 14.080000 202 92 100 0
32.120000 29.920000 15.620000 202 91 102 0
32.340000 29.920000 15.620000 204 93 104 0
32.560000 29.920000 15.620000 203 93 101 0
32.780000 29.920000 15.840000 204 94 102 0
33.000000 29.920000 15.840000 204 94 102 0
33.220000 29.920000 15.840000 205 95 103 0
33.440000 29.920000 16.060000 204 94 102 0
33.660000 29.920000 16.060000 205 95 103 0
33.880000 29.920000 16.060000 205 95 103 0
34.100000 29.920000 16.060000 204 94 102 0
34.320000 29.920000 16.280000 203 93 101 0
34.540000 29.920000 16.280000 204 94 102 0
34.760000 29.920000 16.500000 205 95 103 0
34.980000 29.920000 17.600000 205 95 103 0
35.200000 29.920000 18.260000 205 95 103 0
35.420000 29.920000 19.360000 204 94 102 0
35.640000 29.920000 20.900000 205 95 103 0
35.860000 29.920000 20.900000 205 95 103 0
36.080000 29.920000 20.900000 206 96 104 0
36.300000 29.920000 21.120000 204 94 102 0
36.520000 29.920000 21.120000 204 94 102 0
36.740000 29.920000 22.440000 205 95 103 0
36.960000 29.920000 22.660000 204 94 102 0
37.180000 29.920000 22.660000 204 94 102 0
0.000000 30.140000 1.320000 164 88 85 0
0.220000 30.140000 1.320000 163 87 84 0
0.440000 30.140000 2.640000 162 86 81 0
0.660000 30.140000 2.420000 161 85 80 0
0.880000 30.140000 2.420000 163 84 82 0
1.100000 30.140000 3.520000 163 84 82 0
1.320000 30.140000 4.620000 161 85 80 0
1.540000 30.140000 4.840000 162 86 81 0
1.760000 30.140000 4.620000 163 87 84 0
1.980000 30.140000 4.400000 166 90 87 0
2.200000 30.140000 4.400000 163 93 88 0
2.420000 30.140000 4.400000 166 96 91 0
2.640000 30.140000 4.400000 159 104 96 0
2.860000 30.140000 4.400000 162 107 99 0
3.080000 30.140000 4.400000 154 111 100 0
3.300000 30.140000 4.400000 155 112 101 0
3.520000 30.140000 4.180000 150 117 105 0
3.740000 30.140000 4.180000 151 118 106 0
3.960000 30.140000 4.180000 150 121 108 0
4.180000 30.140000 3.080000 153 124 111 0
4.400000 30.140000 2.200000 154 125 114 0
4.620000 30.140000 1.100000 156 127 116 0
7.260000 30.140000 0.440000 203 191 186 0
7.480000 30.140000 1.540000 205 195 189 0
7.700000 30.140000 1.540000 208 198 192 0
7.920000 30.140000 1.540000 211 199 194 0
8.140000 30.140000 1.540000 210 198 193 0
8.360000 30.140000 1.540000 212 200 195 0
8.580000 30.140000 1.540000 213 201 196 0
8.800000 30.140000 1.540000 216 202 197 0
9.020000 30.140000 3.080000 216 202 197 0
9.240000 30.140000 3.080000 215 203 198 0
9.460000 30.140000 3.080000 216 204 199 0
9.680000 30.140000 4.620000 216 204 199 0
9.900000 30.140000 4.620000 218 206 201 0
10.120000 30.140000 4.620000 219 207 204 0
10.340000 30.140000 4.840000 220 208 205 0
10.560000 30.140000 4.840000 219 209 205 0
10.780000 30.140000 5.060000 220 210 206 0
11.000000 30.140000 5.060000 215 211 207 0
11.220000 30.140000 5.060000 215 211 207 0
11.440000 30.140000 5.280000 218 206 201 0
11.660000 30.140000 5.280000 214 202 197 0
11.880000 30.140000 5.280000 215 201 196 0
12.100000 30.140000 5.280000 213 199 194 0
12.320000 30.140000 3.960000 213 197 192 0
12.540000 30.140000 3.960000 211 195 190 0
12.760000 30.140000 3.960000 210 196 190 0
12.980000 30.140000 3.960000 210 196 190 0
13.200000 30.140000 5.060000 210 196 190 0
13.420000 30.140000 5.940000 210 196 190 0
13.640000 30.140000 7.040000 212 198 193 0
13.860000 30.140000 7.040000 213 199 194 0
14.080000 30.140000 7.040000 214 200 195 0
14.300000 30.140000 7.040000 216 202 197 0
14.520000 30.140000 7.040000 217 203 198 0
14.740000 30.140000 7.040000 217 203 198 0
14.960000 30.140000 7.040000 220 206 201 0
15.180000 30.140000 7.260000 220 206 201 0
15.400000 30.140000 7.260000 221 207 202 0
15.620000 30.140000 7.260000 221 207 202 0
15.840000 30.140000 5.940000 223 208 206 0
16.060000 30.140000 5.940000 224 209 207 0
16.280000 30.140000 6.160000 227 211 216 0
16.500000 30.140000 6.160000 233 217 222 0
16.720000 30.140000 6.160000 238 228 234 0
16.940000 30.140000 6.160000 240 230 236 0
17.160000 30.140000 6.160000 239 234 236 0
17.380000 30.140000 6.160000 235 230 232 0
17.600000 30.140000 6.160000 234 220 215 0
17.820000 30.140000 7.700000 225 211 206 0
18.040000 30.140000 7.920000 233 195 190 0
18.260000 30.140000 9.240000 221 183 178 0
18.480000 30.140000 10.780000 231 149 146 0
18.700000 30.140000 13.420000 211 129 126 0
18.920000 30.140000 14.960000 210 108 114 0
19.140000 30.140000 16.060000 207 105 111 0
19.360000 30.140000 18.480000 207 104 110 0
19.580000 30.140000 19.580000 205 102 108 0
19.800000 30.140000 19.580000 206 103 109 0
20.020000 30.140000 19.580000 205 102 108 0
20.240000 30.140000 19.800000 205 102 106 0
20.460000 30.140000 19.800000 205 102 106 0
20.680000 30.140000 19.800000 204 101 107 0
20.900000 30.140000 21.340000 203 100 106 0
21.120000 30.140000 21.560000 205 99 106 0
21.340000 30.140000 22.880000 205 99 106 0
21.560000 30.140000 23.100000 206 100 107 0
21.780000 30.140000 24.420000 204 98 105 0
22.000000 30.140000 26.620000 204 98 105 0
22.220000 30.140000 27.940000 204 98 105 0
22.440000 30.140000 27.940000 203 97 104 0
22.660000 30.140000 21.120000 203 97 104 0
22.880000 30.140000 8.580000 204 96 104 0
23.100000 30.140000 3.300000 203 95 103 0
23.320000 30.140000 2.200000 203 95 103 0
23.540000 30.140000 3.520000 204 96 104 0
23.760000 30.140000 4.620000 203 95 103 0
23.980000 30.140000 5.720000 202 94 102 0
24.200000 30.140000 4.400000 201 93 101 0
24.420000 30.140000 4.400000 200 92 100 0
24.640000 30.140000 4.400000 200 92 100 0
24.860000 30.140000 4.620000 201 93 101 0
25.080000 30.140000 4.620000 201 93 101 0
25.300000 30.140000 4.840000 200 92 100 0
25.520000 30.140000 4.840000 201 93 101 0
25.740000 30.140000 5.060000 200 92 100 0
25.960000 30.140000 5.060000 201 91 99 0
26.180000 30.140000 5.280000 202 92 100 0
26.400000 30.140000 5.280000 201 90 101 0
26.620000 30.140000 6.600000 201 90 101 0
26.840000 30.140000 7.260000 201 91 99 0
27.060000 30.140000 8.360000 201 91 99 0
27.280000 30.140000 8.580000 200 92 100 0
27.500000 30.140000 9.900000 200 92 100 0
27.720000 30.140000 9.900000 203 92 103 0
27.940000 30.140000 10.120000 204 93 104 0
28.160000 30.140000 11.440000 205 99 108 0
28.380000 30.140000 12.980000 208 102 111 0
28.600000 30.140000 12.980000 206 105 116 0
28.820000 30.140000 14.300000 206 105 116 0
29.040000 30.140000 14.300000 210 108 117 0
29.260000 30.140000 14.300000 209 107 116 0
29.480000 30.140000 14.300000 211 103 113 0
29.700000 30.140000 14.300000 210 102 112 0
29.920000 30.140000 14.300000 207 96 107 0
30.140000 30.140000 14.080000 205 94 105 0
30.360000 30.140000 14.080000 205 95 103 0
30.580000 30.140000 13.860000 203 93 101 0
30.800000 30.140000 13.860000 204 94 102 0
31.020000 30.140000 13.860000 203 93 101 0
31.240000 30.140000 14.080000 203 92 103 0
31.460000 30.140000 14.080000 203 92 103 0
31.680000 30.140000 14.080000 204 93 104 0
31.900000 30.140000 14.080000 203 92 103 0
32.120000 30.140000 14.300000 203 93 101 0
32.340000 30.140000 15.620000 204 94 102 0
32.560000 30.140000 15.620000 204 94 102 0
32.780000 30.140000 15.840000 204 94 102 0
33.000000 30.140000 15.840000 204 94 102 0
33.220000 30.140000 15.840000 203 93 101 0
33.440000 30.140000 15.840000 205 95 103 0
33.660000 30.140000 16.060000 204 94 102 0
33.880000 30.140000 16.060000 205 95 103 0
34.100000 30.140000 16.060000 204 94 102 0
34.320000 30.140000 16.280000 204 94 102 0
34.540000 30.140000 16.280000 204 94 102 0
34.760000 30.140000 16.500000 205 95 103 0
34.980000 30.140000 17.600000 205 95 103 0
35.200000 30.140000 18.480000 205 95 103 0
35.420000 30.140000 19.580000 205 95 103 0
35.640000 30.140000 20.900000 205 95 103 0
35.860000 30.140000 20.900000 206 96 104 0
36.080000 30.140000 20.900000 205 95 103 0
36.300000 30.140000 21.120000 205 95 103 0
36.520000 30.140000 21.120000 204 94 102 0
36.740000 30.140000 22.440000 204 94 102 0
36.960000 30.140000 22.660000 205 95 103 0
37.180000 30.140000 22.660000 204 94 102 0
0.000000 30.360000 1.320000 163 87 84 0
0.220000 30.360000 1.320000 163 87 84 0
0.440000 30.360000 1.320000 163 87 82 0
0.660000 30.360000 2.640000 161 85 80 0
0.880000 30.360000 2.420000 163 84 82 0
1.100000 30.360000 3.520000 163 84 82 0
1.320000 30.360000 4.400000 161 85 80 0
1.540000 30.360000 4.400000 161 85 80 0
1.760000 30.360000 4.400000 162 86 83 0
1.980000 30.360000 5.720000 164 88 85 0
2.200000 30.360000 5.720000 161 91 86 0
2.420000 30.360000 4.400000 163 93 88 0
2.640000 30.360000 4.400000 156 101 93 0
2.860000 30.360000 4.400000 159 104 96 0
3.080000 30.360000 4.400000 153 110 99 0
3.300000 30.360000 4.400000 154 111 100 0
3.520000 30.360000 4.180000 149 116 104 0
3.740000 30.360000 4.180000 150 117 105 0
3.960000 30.360000 4.180000 147 118 105 0
4.180000 30.360000 4.180000 151 122 109 0
4.400000 30.360000 3.080000 153 124 113 0
4.620000 30.360000 1.980000 154 125 114 0
4.840000 30.360000 0.880000 159 128 118 0
7.040000 30.360000 0.440000 195 183 178 0
7.260000 30.360000 1.540000 200 188 183 0
7.480000 30.360000 1.540000 202 192 186 0
7.700000 30.360000 1.540000 206 196 190 0
7.920000 30.360000 1.540000 209 197 192 0
8.140000 30.360000 1.540000 209 197 192 0
8.360000 30.360000 1.540000 210 198 193 0
8.580000 30.360000 1.540000 212 200 195 0
8.800000 30.360000 1.540000 214 200 195 0
9.020000 30.360000 3.080000 215 201 196 0
9.240000 30.360000 3.080000 215 203 198 0
9.460000 30.360000 3.080000 216 204 199 0
9.680000 30.360000 4.620000 216 204 199 0
9.900000 30.360000 4.620000 216 204 199 0
10.120000 30.360000 4.840000 219 207 204 0
10.340000 30.360000 4.840000 220 208 205 0
10.560000 30.360000 4.840000 220 210 206 0
10.780000 30.360000 5.060000 221 211 207 0
11.000000 30.360000 5.060000 227 223 219 0
11.220000 30.360000 5.060000 231 227 223 0
11.440000 30.360000 5.280000 236 224 219 0
11.660000 30.360000 5.280000 225 213 208 0
11.880000 30.360000 5.280000 216 202 197 0
12.100000 30.360000 5.280000 214 200 195 0
12.320000 30.360000 3.960000 212 196 191 0
12.540000 30.360000 3.960000 210 194 189 0
12.760000 30.360000 3.960000 209 195 189 0
12.980000 30.360000 3.960000 209 195 189 0
13.200000 30.360000 5.060000 209 195 189 0
13.420000 30.360000 5.940000 211 197 191 0
13.640000 30.360000 7.040000 211 197 192 0
13.860000 30.360000 7.040000 212 198 193 0
14.080000 30.360000 7.040000 212 198 193 0
14.300000 30.360000 7.040000 212 198 193 0
14.520000 30.360000 7.040000 215 201 196 0
14.740000 30.360000 7.040000 216 202 197 0
14.960000 30.360000 7.040000 217 203 198 0
15.180000 30.360000 7.260000 218 204 199 0
15.400000 30.360000 7.260000 220 206 201 0
15.620000 30.360000 7.260000 220 206 201 0
15.840000 30.360000 5.940000 222 207 205 0
16.060000 30.360000 5.940000 224 209 207 0
16.280000 30.360000 5.940000 227 211 216 0
16.500000 30.360000 6.160000 233 217 222 0
16.720000 30.360000 6.160000 234 224 230 0
16.940000 30.360000 6.160000 237 227 233 0
17.160000 30.360000 6.160000 231 226 228 0
17.380000 30.360000 6.160000 230 225 227 0
17.600000 30.360000 6.160000 230 216 211 0
17.820000 30.360000 7.700000 223 209 204 0
18.040000 30.360000 7.920000 229 191 186 0
18.260000 30.360000 10.560000 212 174 169 0
18.480000 30.360000 12.100000 225 143 140 0
18.700000 30.360000 13.420000 206 124 121 0
18.920000 30.360000 14.960000 209 107 113 0
19.140000 30.360000 17.380000 206 104 110 0
19.360000 30.360000 18.260000 206 103 109 0
19.580000 30.360000 19.360000 205 102 108 0
19.800000 30.360000 19.580000 205 102 108 0
20.020000 30.360000 19.580000 204 101 107 0
20.240000 30.360000 19.800000 205 102 106 0
20.460000 30.360000 19.800000 206 103 107 0
20.680000 30.360000 21.340000 204 101 107 0
20.900000 30.360000 21.340000 204 101 107 0
21.120000 30.360000 21.560000 205 99 106 0
21.340000 30.360000 22.880000 205 99 106 0
21.560000 30.360000 23.100000 205 99 106 0
21.780000 30.360000 24.420000 204 98 105 0
22.000000 30.360000 26.620000 204 98 105 0
22.220000 30.360000 27.940000 204 98 105 0
22.440000 30.360000 22.440000 204 98 105 0
22.660000 30.360000 12.760000 204 98 105 0
22.880000 30.360000 4.620000 203 95 103 0
23.100000 30.360000 3.300000 203 95 103 0
23.320000 30.360000 2.200000 203 95 103 0
23.540000 30.360000 3.520000 203 95 103 0
23.760000 30.360000 4.400000 201 93 101 0
23.980000 30.360000 5.720000 201 93 101 0
24.200000 30.360000 4.400000 201 93 101 0
24.420000 30.360000 4.400000 201 93 101 0
24.640000 30.360000 4.400000 201 93 101 0
24.860000 30.360000 4.620000 201 93 101 0
25.080000 30.360000 4.620000 201 93 101 0
25.300000 30.360000 4.840000 201 93 101 0
25.520000 30.360000 4.840000 200 92 100 0
25.740000 30.360000 4.840000 200 92 100 0
25.960000 30.360000 5.060000 203 93 101 0
26.180000 30.360000 5.060000 202 92 100 0
26.400000 30.360000 5.280000 200 89 100 0
26.620000 30.360000 6.380000 201 90 101 0
26.840000 30.360000 7.260000 202 92 100 0
27.060000 30.360000 8.360000 201 91 99 0
27.280000 30.360000 8.580000 199 91 99 0
27.500000 30.360000 9.900000 201 93 101 0
27.720000 30.360000 10.120000 203 92 103 0
27.940000 30.360000 10.120000 205 94 105 0
28.160000 30.360000 11.440000 204 98 107 0
28.380000 30.360000 12.980000 206 100 109 0
28.600000 30.360000 12.980000 205 104 115 0
28.820000 30.360000 14.300000 209 108 119 0
29.040000 30.360000 15.620000 213 111 120 0
29.260000 30.360000 14.300000 209 107 116 0
29.480000 30.360000 14.300000 211 103 113 0
29.700000 30.360000 14.300000 209 101 111 0
29.920000 30.360000 14.300000 209 98 109 0
30.140000 30.360000 14.300000 206 95 106 0
30.360000 30.360000 14.080000 205 95 103 0
30.580000 30.360000 13.860000 204 94 102 0
30.800000 30.360000 13.860000 204 94 102 0
31.020000 30.360000 13.860000 203 93 101 0
31.240000 30.360000 14.080000 202 91 102 0
31.460000 30.360000 14.080000 203 92 103 0
31.680000 30.360000 14.080000 204 93 104 0
31.900000 30.360000 14.080000 203 92 103 0
32.120000 30.360000 14.300000 203 93 101 0
32.340000 30.360000 15.620000 205 95 103 0
32.560000 30.360000 15.620000 204 94 102 0
32.780000 30.360000 15.840000 203 93 101 0
33.000000 30.360000 15.840000 203 93 101 0
33.220000 30.360000 15.840000 203 93 101 0
33.440000 30.360000 15.840000 204 94 102 0
33.660000 30.360000 16.060000 204 94 102 0
33.880000 30.360000 16.060000 204 94 102 0
34.100000 30.360000 16.060000 204 94 102 0
34.320000 30.360000 16.280000 203 93 101 0
34.540000 30.360000 16.280000 205 95 103 0
34.760000 30.360000 16.280000 203 93 101 0
34.980000 30.360000 17.600000 205 95 103 0
35.200000 30.360000 18.700000 204 94 102 0
35.420000 30.360000 19.580000 205 95 103 0
35.640000 30.360000 20.900000 203 93 101 0
35.860000 30.360000 20.900000 204 94 102 0
36.080000 30.360000 20.900000 204 94 102 0
36.300000 30.360000 21.120000 205 95 103 0
36.520000 30.360000 21.120000 205 95 103 0
36.740000 30.360000 22.660000 204 94 102 0
36.960000 30.360000 22.660000 205 95 103 0
37.180000 30.360000 22.660000 204 94 102 0
0.000000 30.580000 1.320000 166 87 85 0
0.220000 30.580000 1.320000 167 88 86 0
0.440000 30.580000 1.320000 167 88 86 0
0.660000 30.580000 2.640000 165 86 84 0
0.880000 30.580000 3.520000 165 85 83 0
1.100000 30.580000 3.300000 164 84 82 0
1.320000 30.580000 4.400000 165 85 81 0
1.540000 30.580000 5.720000 164 84 80 0
1.760000 30.580000 5.720000 164 85 83 0
1.980000 30.580000 5.720000 165 86 84 0
2.200000 30.580000 5.720000 166 87 85 0
2.420000 30.580000 5.720000 168 89 87 0
2.640000 30.580000 5.720000 165 93 91 0
2.860000 30.580000 4.400000 166 94 92 0
3.080000 30.580000 4.400000 157 102 95 0
3.300000 30.580000 4.400000 159 104 97 0
3.520000 30.580000 4.400000 151 112 100 0
3.740000 30.580000 4.180000 153 114 102 0
3.960000 30.580000 4.180000 148 118 105 0
4.180000 30.580000 4.180000 150 120 107 0
4.400000 30.580000 4.180000 151 121 108 0
4.620000 30.580000 2.860000 154 124 111 0
4.840000 30.580000 3.080000 160 126 112 0
5.060000 30.580000 1.760000 163 129 115 0
5.280000 30.580000 1.760000 168 134 120 0
5.500000 30.580000 1.760000 171 137 123 0
5.720000 30.580000 1.760000 173 143 130 0
5.940000 30.580000 1.760000 177 147 134 0
6.160000 30.580000 1.760000 186 153 141 0
6.380000 30.580000 1.760000 191 158 146 0
6.600000 30.580000 1.760000 193 166 154 0
6.820000 30.580000 1.760000 200 173 161 0
7.040000 30.580000 1.540000 200 179 171 0
7.260000 30.580000 1.540000 203 182 174 0
7.480000 30.580000 1.540000 204 189 181 0
7.700000 30.580000 1.540000 209 194 186 0
7.920000 30.580000 1.540000 210 196 190 0
8.140000 30.580000 1.540000 212 198 192 0
8.360000 30.580000 1.540000 211 199 196 0
8.580000 30.580000 1.540000 211 199 196 0
8.800000 30.580000 2.860000 214 200 195 0
9.020000 30.580000 3.080000 216 202 197 0
9.240000 30.580000 3.080000 214 202 197 0
9.460000 30.580000 3.080000 215 203 198 0
9.680000 30.580000 4.620000 216 204 199 0
9.900000 30.580000 4.620000 216 204 199 0
10.120000 30.580000 4.840000 217 207 203 0
10.340000 30.580000 4.840000 220 210 206 0
10.560000 30.580000 4.840000 222 213 211 0
10.780000 30.580000 5.060000 226 217 215 0
11.000000 30.580000 5.060000 234 222 219 0
11.220000 30.580000 5.280000 228 216 213 0
11.440000 30.580000 5.280000 225 213 210 0
11.660000 30.580000 5.280000 232 220 217 0
11.880000 30.580000 5.280000 221 207 202 0
12.100000 30.580000 5.280000 216 202 197 0
12.320000 30.580000 3.960000 214 198 194 0
12.540000 30.580000 3.960000 211 195 191 0
12.760000 30.580000 3.960000 210 194 189 0
12.980000 30.580000 3.960000 209 193 188 0
13.200000 30.580000 5.060000 209 193 188 0
13.420000 30.580000 5.940000 210 194 189 0
13.640000 30.580000 7.040000 210 194 189 0
13.860000 30.580000 7.040000 211 195 190 0
14.080000 30.580000 7.040000 211 195 190 0
14.300000 30.580000 7.040000 212 196 191 0
14.520000 30.580000 7.040000 213 197 192 0
14.740000 30.580000 7.040000 215 199 194 0
14.960000 30.580000 7.040000 215 201 196 0
15.180000 30.580000 7.260000 217 203 198 0
15.400000 30.580000 7.260000 216 204 201 0
15.620000 30.580000 7.260000 218 206 203 0
15.840000 30.580000 5.940000 218 209 209 0
16.060000 30.580000 5.940000 222 213 213 0
16.280000 30.580000 5.940000 221 216 218 0
16.500000 30.580000 6.160000 229 224 226 0
16.720000 30.580000 6.160000 239 224 226 0
16.940000 30.580000 6.160000 239 224 226 0
17.160000 30.580000 6.160000 236 221 221 0
17.380000 30.580000 6.160000 233 218 218 0
17.600000 30.580000 7.700000 228 210 205 0
17.820000 30.580000 7.700000 220 202 197 0
18.040000 30.580000 9.240000 239 175 171 0
18.260000 30.580000 10.560000 218 154 150 0
18.480000 30.580000 12.100000 226 129 131 0
18.700000 30.580000 14.960000 211 114 116 0
18.920000 30.580000 16.280000 209 106 112 0
19.140000 30.580000 17.600000 205 102 108 0
19.360000 30.580000 18.260000 205 102 108 0
19.580000 30.580000 19.360000 205 102 108 0
19.800000 30.580000 19.580000 205 102 108 0
20.020000 30.580000 19.580000 206 103 109 0
20.240000 30.580000 19.800000 205 102 108 0
20.460000 30.580000 19.800000 205 102 108 0
20.680000 30.580000 21.340000 207 101 108 0
20.900000 30.580000 21.340000 207 101 108 0
21.120000 30.580000 21.560000 206 100 107 0
21.340000 30.580000 22.880000 205 99 106 0
21.560000 30.580000 24.420000 205 99 106 0
21.780000 30.580000 25.520000 204 98 105 0
22.000000 30.580000 26.620000 204 98 105 0
22.220000 30.580000 27.940000 204 98 105 0
22.440000 30.580000 21.120000 205 97 107 0
22.660000 30.580000 7.260000 204 96 106 0
22.880000 30.580000 1.760000 205 97 105 0
23.100000 30.580000 1.980000 203 95 103 0
23.320000 30.580000 2.200000 205 95 103 0
23.540000 30.580000 3.520000 205 95 103 0
23.760000 30.580000 4.620000 201 93 101 0
23.980000 30.580000 4.400000 201 93 101 0
24.200000 30.580000 4.400000 202 91 102 0
24.420000 30.580000 4.400000 202 91 102 0
24.640000 30.580000 4.400000 203 93 101 0
24.860000 30.580000 4.620000 203 93 101 0
25.080000 30.580000 4.620000 204 94 102 0
25.300000 30.580000 4.620000 203 93 101 0
25.520000 30.580000 4.840000 202 91 102 0
25.740000 30.580000 4.840000 203 92 103 0
25.960000 30.580000 5.060000 203 92 103 0
26.180000 30.580000 5.060000 202 91 102 0
26.400000 30.580000 5.280000 200 89 100 0
26.620000 30.580000 6.380000 202 91 102 0
26.840000 30.580000 7.260000 203 92 103 0
27.060000 30.580000 8.360000 203 92 103 0
27.280000 30.580000 8.580000 203 92 103 0
27.500000 30.580000 9.900000 203 92 103 0
27.720000 30.580000 10.120000 204 93 104 0
27.940000 30.580000 10.120000 204 93 104 0
28.160000 30.580000 11.440000 205 97 107 0
28.380000 30.580000 12.980000 207 99 109 0
28.600000 30.580000 12.980000 205 103 111 0
28.820000 30.580000 14.300000 209 107 115 0
29.040000 30.580000 15.620000 211 109 118 0
29.260000 30.580000 14.300000 210 108 117 0
29.480000 30.580000 14.300000 211 103 113 0
29.700000 30.580000 14.300000 209 101 111 0
29.920000 30.580000 12.980000 208 97 108 0
30.140000 30.580000 12.980000 207 96 107 0
30.360000 30.580000 12.760000 206 95 106 0
30.580000 30.580000 14.080000 203 92 103 0
30.800000 30.580000 13.860000 203 92 103 0
31.020000 30.580000 13.860000 203 92 103 0
31.240000 30.580000 14.080000 203 92 103 0
31.460000 30.580000 14.080000 204 93 104 0
31.680000 30.580000 14.080000 204 93 104 0
31.900000 30.580000 14.080000 204 93 104 0
32.120000 30.580000 14.300000 204 93 104 0
32.340000 30.580000 15.620000 205 94 105 0
32.560000 30.580000 15.620000 203 93 101 0
32.780000 30.580000 15.840000 203 93 101 0
33.000000 30.580000 15.840000 203 92 103 0
33.220000 30.580000 15.840000 203 92 103 0
33.440000 30.580000 15.840000 203 92 103 0
33.660000 30.580000 16.060000 204 93 104 0
33.880000 30.580000 16.060000 204 94 102 0
34.100000 30.580000 16.060000 203 93 101 0
34.320000 30.580000 16.060000 205 95 103 0
34.540000 30.580000 16.280000 205 95 103 0
34.760000 30.580000 16.280000 204 93 104 0
34.980000 30.580000 17.600000 205 94 105 0
35.200000 30.580000 18.480000 206 96 104 0
35.420000 30.580000 19.580000 204 94 102 0
35.640000 30.580000 20.900000 206 96 104 0
35.860000 30.580000 20.900000 205 95 103 0
36.080000 30.580000 20.900000 206 96 104 0
36.300000 30.580000 21.120000 207 97 105 0
36.520000 30.580000 21.120000 206 95 106 0
36.740000 30.580000 21.120000 205 94 105 0
36.960000 30.580000 22.660000 203 93 101 0
37.180000 30.580000 22.660000 205 95 103 0
0.000000 30.800000 1.320000 166 87 85 0
0.220000 30.800000 1.320000 166 87 85 0
0.440000 30.800000 1.320000 166 87 85 0
0.660000 30.800000 2.640000 166 87 85 0
0.880000 30.800000 2.200000 165 85 83 0
1.100000 30.800000 3.740000 165 85 83 0
1.320000 30.800000 3.520000 165 85 81 0
1.540000 30.800000 4.620000 165 85 81 0
1.760000 30.800000 4.620000 163 84 82 0
1.980000 30.800000 5.720000 164 85 83 0
2.200000 30.800000 5.720000 164 85 83 0
2.420000 30.800000 5.720000 166 87 85 0
2.640000 30.800000 5.720000 162 90 88 0
2.860000 30.800000 5.720000 165 93 91 0
3.080000 30.800000 4.400000 155 100 93 0
3.300000 30.800000 4.400000 158 103 96 0
3.520000 30.800000 4.400000 150 111 99 0
3.740000 30.800000 4.400000 153 114 102 0
3.960000 30.800000 4.400000 148 118 105 0
4.180000 30.800000 4.400000 147 117 104 0
4.400000 30.800000 4.180000 150 120 107 0
4.620000 30.800000 2.860000 153 123 110 0
4.840000 30.800000 2.860000 158 124 110 0
5.060000 30.800000 2.860000 162 128 114 0
5.280000 30.800000 2.860000 165 131 117 0
5.500000 30.800000 2.860000 168 134 120 0
5.720000 30.800000 2.860000 170 140 127 0
5.940000 30.800000 2.860000 174 144 131 0
6.160000 30.800000 2.860000 181 148 136 0
6.380000 30.800000 1.320000 189 156 144 0
6.600000 30.800000 1.540000 189 162 150 0
6.820000 30.800000 1.540000 196 169 157 0
7.040000 30.800000 1.540000 195 174 166 0
7.260000 30.800000 1.540000 201 180 172 0
7.480000 30.800000 1.540000 201 186 178 0
7.700000 30.800000 1.540000 206 191 183 0
7.920000 30.800000 1.540000 209 195 189 0
8.140000 30.800000 1.540000 210 196 190 0
8.360000 30.800000 1.540000 210 198 195 0
8.580000 30.800000 1.540000 211 199 196 0
8.800000 30.800000 3.080000 214 200 195 0
9.020000 30.800000 3.080000 215 201 196 0
9.240000 30.800000 3.080000 214 202 197 0
9.460000 30.800000 3.080000 215 203 198 0
9.680000 30.800000 4.620000 216 204 199 0
9.900000 30.800000 4.620000 217 205 200 0
10.120000 30.800000 4.840000 217 207 203 0
10.340000 30.800000 4.840000 222 212 208 0
10.560000 30.800000 4.840000 222 213 211 0
10.780000 30.800000 5.060000 224 215 213 0
11.000000 30.800000 5.060000 228 216 213 0
11.220000 30.800000 5.060000 228 216 213 0
11.440000 30.800000 5.280000 226 214 211 0
11.660000 30.800000 5.280000 227 215 212 0
11.880000 30.800000 5.280000 225 211 206 0
12.100000 30.800000 5.280000 217 203 198 0
12.320000 30.800000 5.280000 215 199 195 0
12.540000 30.800000 3.960000 214 198 194 0
12.760000 30.800000 3.960000 210 194 189 0
12.980000 30.800000 3.960000 210 194 189 0
13.200000 30.800000 5.060000 211 195 190 0
13.420000 30.800000 5.940000 209 193 188 0
13.640000 30.800000 7.040000 209 193 188 0
13.860000 30.800000 7.040000 209 193 188 0
14.080000 30.800000 7.040000 209 193 188 0
14.300000 30.800000 7.040000 210 194 189 0
14.520000 30.800000 7.040000 211 195 190 0
14.740000 30.800000 7.040000 212 196 191 0
14.960000 30.800000 7.260000 213 199 194 0
15.180000 30.800000 7.260000 214 200 195 0
15.400000 30.800000 7.260000 215 203 200 0
15.620000 30.800000 7.260000 217 205 202 0
15.840000 30.800000 5.940000 218 209 209 0
16.060000 30.800000 5.940000 222 213 213 0
16.280000 30.800000 5.940000 222 217 219 0
16.500000 30.800000 6.160000 229 224 226 0
16.720000 30.800000 6.160000 238 223 225 0
16.940000 30.800000 6.160000 234 219 221 0
17.160000 30.800000 6.160000 231 216 216 0
17.380000 30.800000 6.160000 225 210 210 0
17.600000 30.800000 7.700000 223 205 200 0
17.820000 30.800000 9.020000 211 193 188 0
18.040000 30.800000 10.560000 228 164 160 0
18.260000 30.800000 12.100000 211 147 143 0
18.480000 30.800000 13.420000 218 121 123 0
18.700000 30.800000 14.960000 207 110 112 0
18.920000 30.800000 16.280000 206 103 109 0
19.140000 30.800000 17.600000 205 102 108 0
19.360000 30.800000 18.260000 206 103 109 0
19.580000 30.800000 19.580000 205 102 108 0
19.800000 30.800000 19.580000 205 102 108 0
20.020000 30.800000 19.580000 205 102 108 0
20.240000 30.800000 19.800000 205 102 108 0
20.460000 30.800000 19.800000 205 102 108 0
20.680000 30.800000 21.340000 207 101 108 0
20.900000 30.800000 21.340000 205 99 106 0
21.120000 30.800000 22.880000 205 99 106 0
21.340000 30.800000 23.100000 205 99 106 0
21.560000 30.800000 24.420000 204 98 105 0
21.780000 30.800000 25.520000 204 98 105 0
22.000000 30.800000 26.620000 204 98 105 0
22.220000 30.800000 27.940000 203 97 104 0
22.440000 30.800000 21.120000 204 96 106 0
22.660000 30.800000 8.580000 204 96 106 0
22.880000 30.800000 1.760000 204 96 104 0
23.100000 30.800000 1.980000 203 95 103 0
23.320000 30.800000 2.200000 205 95 103 0
23.540000 30.800000 2.200000 203 93 101 0
23.760000 30.800000 3.520000 201 93 101 0
23.980000 30.800000 4.400000 200 92 100 0
24.200000 30.800000 4.400000 201 90 101 0
24.420000 30.800000 4.400000 201 90 101 0
24.640000 30.800000 4.400000 201 91 99 0
24.860000 30.800000 4.620000 202 92 100 0
25.080000 30.800000 4.620000 202 92 100 0
25.300000 30.800000 4.620000 202 92 100 0
25.520000 30.800000 4.840000 201 90 101 0
25.740000 30.800000 4.840000 203 92 103 0
25.960000 30.800000 5.060000 203 92 103 0
26.180000 30.800000 5.060000 203 92 103 0
26.400000 30.800000 5.280000 202 91 102 0
26.620000 30.800000 6.380000 201 90 101 0
26.840000 30.800000 7.260000 202 91 102 0
27.060000 30.800000 8.360000 201 90 101 0
27.280000 30.800000 8.580000 201 90 101 0
27.500000 30.800000 9.900000 202 91 102 0
27.720000 30.800000 10.120000 203 92 103 0
27.940000 30.800000 10.120000 205 94 105 0
28.160000 30.800000 11.440000 204 96 106 0
28.380000 30.800000 11.440000 207 99 109 0
28.600000 30.800000 12.980000 205 103 111 0
28.820000 30.800000 14.300000 209 107 115 0
29.040000 30.800000 14.300000 211 109 118 0
29.260000 30.800000 14.300000 209 107 116 0
29.480000 30.800000 14.300000 210 102 112 0
29.700000 30.800000 14.300000 207 99 109 0
29.920000 30.800000 12.980000 207 96 107 0
30.140000 30.800000 12.980000 207 96 107 0
30.360000 30.800000 12.760000 205 94 105 0
30.580000 30.800000 14.080000 203 92 103 0
30.800000 30.800000 13.860000 202 91 102 0
31.020000 30.800000 13.860000 203 92 103 0
31.240000 30.800000 14.080000 204 93 104 0
31.460000 30.800000 14.080000 204 93 104 0
31.680000 30.800000 14.080000 205 94 105 0
31.900000 30.800000 14.080000 206 95 106 0
32.120000 30.800000 14.300000 204 93 104 0
32.340000 30.800000 15.620000 204 93 104 0
32.560000 30.800000 15.620000 203 93 101 0
32.780000 30.800000 15.620000 203 93 101 0
33.000000 30.800000 15.840000 203 92 103 0
33.220000 30.800000 15.840000 203 92 103 0
33.440000 30.800000 15.840000 202 91 102 0
33.660000 30.800000 16.060000 204 93 104 0
33.880000 30.800000 16.060000 203 93 101 0
34.100000 30.800000 16.060000 204 94 102 0
34.320000 30.800000 16.060000 204 94 102 0
34.540000 30.800000 16.280000 204 94 102 0
34.760000 30.800000 16.280000 204 93 104 0
34.980000 30.800000 17.600000 204 93 104 0
35.200000 30.800000 18.480000 204 94 102 0
35.420000 30.800000 19.580000 206 96 104 0
35.640000 30.800000 20.900000 206 96 104 0
35.860000 30.800000 20.900000 205 95 103 0
36.080000 30.800000 20.900000 205 95 103 0
36.300000 30.800000 21.120000 206 96 104 0
36.520000 30.800000 21.120000 206 95 106 0
36.740000 30.800000 22.660000 206 95 106 0
36.960000 30.800000 22.660000 205 95 103 0
37.180000 30.800000 22.660000 205 95 103 0
0.000000 31.020000 1.320000 164 88 85 0
0.220000 31.020000 1.320000 164 88 85 0
0.440000 31.020000 1.320000 167 87 85 0
0.660000 31.020000 2.200000 167 87 85 0
0.880000 31.020000 3.520000 167 88 86 0
1.100000 31.020000 2.420000 166 87 85 0
1.320000 31.020000 3.740000 166 86 84 0
1.540000 31.020000 3.520000 166 86 84 0
1.760000 31.020000 3.520000 165 85 81 0
1.980000 31.020000 4.620000 165 85 81 0
2.200000 31.020000 5.720000 166 84 83 0
2.420000 31.020000 5.720000 166 84 83 0
2.640000 31.020000 5.720000 167 87 85 0
2.860000 31.020000 5.720000 170 90 88 0
3.080000 31.020000 4.400000 169 93 90 0
3.300000 31.020000 4.400000 170 94 91 0
3.520000 31.020000 4.400000 156 106 94 0
3.740000 31.020000 4.400000 158 108 96 0
3.960000 31.020000 4.400000 152 113 101 0
4.180000 31.020000 4.400000 154 115 103 0
4.400000 31.020000 4.400000 155 118 107 0
4.620000 31.020000 4.400000 157 120 109 0
4.840000 31.020000 2.860000 160 121 111 0
5.060000 31.020000 2.860000 163 124 114 0
5.280000 31.020000 2.860000 162 128 114 0
5.500000 31.020000 2.860000 166 132 118 0
5.720000 31.020000 2.860000 169 136 122 0
5.940000 31.020000 2.860000 174 141 127 0
6.160000 31.020000 2.860000 176 147 134 0
6.380000 31.020000 2.860000 181 152 139 0
6.600000 31.020000 2.860000 188 157 149 0
6.820000 31.020000 1.540000 194 163 155 0
7.040000 31.020000 1.540000 196 170 164 0
7.260000 31.020000 1.540000 202 176 170 0
7.480000 31.020000 1.540000 201 181 177 0
7.700000 31.020000 1.540000 208 188 184 0
7.920000 31.020000 1.540000 203 191 186 0
8.140000 31.020000 1.540000 206 194 189 0
8.360000 31.020000 1.540000 209 197 192 0
8.580000 31.020000 1.540000 211 199 194 0
8.800000 31.020000 1.540000 211 199 196 0
9.020000 31.020000 3.080000 213 201 198 0
9.240000 31.020000 3.080000 214 202 199 0
9.460000 31.020000 3.080000 215 203 200 0
9.680000 31.020000 3.300000 216 204 201 0
9.900000 31.020000 4.620000 217 205 202 0
10.120000 31.020000 4.840000 218 206 201 0
10.340000 31.020000 4.840000 220 208 203 0
10.560000 31.020000 4.840000 225 213 210 0
10.780000 31.020000 5.060000 225 213 210 0
11.000000 31.020000 5.060000 226 214 211 0
11.220000 31.020000 5.060000 226 214 211 0
11.440000 31.020000 5.280000 214 215 214 0
11.660000 31.020000 5.280000 225 226 225 0
11.880000 31.020000 5.280000 234 235 234 0
12.100000 31.020000 5.280000 235 236 235 0
12.320000 31.020000 5.280000 230 215 213 0
12.540000 31.020000 3.960000 212 197 195 0
12.760000 31.020000 3.960000 213 197 192 0
12.980000 31.020000 3.960000 209 193 188 0
13.200000 31.020000 5.060000 208 192 187 0
13.420000 31.020000 5.940000 208 192 187 0
13.640000 31.020000 7.040000 210 190 187 0
13.860000 31.020000 7.040000 210 190 187 0
14.080000 31.020000 7.040000 210 188 185 0
14.300000 31.020000 7.040000 210 188 185 0
14.520000 31.020000 7.040000 210 192 187 0
14.740000 31.020000 7.040000 212 194 189 0
14.960000 31.020000 7.260000 211 195 190 0
15.180000 31.020000 7.260000 213 197 192 0
15.400000 31.020000 7.260000 214 198 194 0
15.620000 31.020000 7.260000 217 201 197 0
15.840000 31.020000 5.940000 220 205 203 0
16.060000 31.020000 5.940000 225 210 208 0
16.280000 31.020000 5.940000 226 213 215 0
16.500000 31.020000 6.160000 226 213 215 0
16.720000 31.020000 6.160000 231 214 215 0
16.940000 31.020000 6.160000 231 214 215 0
17.160000 31.020000 6.160000 229 210 207 0
17.380000 31.020000 7.700000 224 205 202 0
17.600000 31.020000 7.700000 236 185 185 0
17.820000 31.020000 9.020000 223 172 172 0
18.040000 31.020000 10.560000 231 144 147 0
18.260000 31.020000 13.420000 214 127 130 0
18.480000 31.020000 14.740000 211 111 116 0
18.700000 31.020000 16.280000 206 106 111 0
18.920000 31.020000 16.280000 206 103 109 0
19.140000 31.020000 17.380000 205 102 108 0
19.360000 31.020000 19.800000 205 101 110 0
19.580000 31.020000 19.580000 205 101 110 0
19.800000 31.020000 19.580000 204 102 108 0
20.020000 31.020000 19.580000 204 102 108 0
20.240000 31.020000 19.800000 204 101 107 0
20.460000 31.020000 19.800000 205 102 108 0
20.680000 31.020000 21.340000 206 100 107 0
20.900000 31.020000 21.340000 205 99 106 0
21.120000 31.020000 22.880000 203 99 108 0
21.340000 31.020000 23.100000 203 99 108 0
21.560000 31.020000 24.420000 204 98 105 0
21.780000 31.020000 25.740000 205 99 106 0
22.000000 31.020000 26.620000 206 98 106 0
22.220000 31.020000 27.940000 204 96 104 0
22.440000 31.020000 21.120000 204 96 104 0
22.660000 31.020000 8.580000 204 96 104 0
22.880000 31.020000 3.300000 202 94 102 0
23.100000 31.020000 3.300000 202 94 102 0
23.320000 31.020000 2.200000 201 93 101 0
23.540000 31.020000 2.200000 201 93 101 0
23.760000 31.020000 3.520000 199 91 99 0
23.980000 31.020000 4.620000 201 93 101 0
24.200000 31.020000 4.400000 200 92 100 0
24.420000 31.020000 4.400000 200 92 100 0
24.640000 31.020000 4.400000 200 92 100 0
24.860000 31.020000 4.620000 199 91 99 0
25.080000 31.020000 4.620000 201 93 101 0
25.300000 31.020000 4.620000 201 93 101 0
25.520000 31.020000 4.840000 198 90 98 0
25.740000 31.020000 4.840000 201 93 101 0
25.960000 31.020000 5.060000 201 93 101 0
26.180000 31.020000 5.060000 201 93 101 0
26.400000 31.020000 5.280000 202 92 100 0
26.620000 31.020000 6.380000 201 91 99 0
26.840000 31.020000 7.480000 201 91 99 0
27.060000 31.020000 8.580000 201 91 99 0
27.280000 31.020000 8.580000 200 92 100 0
27.500000 31.020000 9.900000 200 92 100 0
27.720000 31.020000 9.900000 203 92 103 0
27.940000 31.020000 10.120000 204 93 104 0
28.160000 31.020000 11.440000 205 97 107 0
28.380000 31.020000 11.440000 207 99 109 0
28.600000 31.020000 12.980000 207 103 113 0
28.820000 31.020000 14.300000 209 105 115 0
29.040000 31.020000 14.300000 210 106 116 0
29.260000 31.020000 14.300000 209 105 115 0
29.480000 31.020000 14.300000 208 100 110 0
29.700000 31.020000 12.980000 205 97 107 0
29.920000 31.020000 12.980000 204 96 104 0
30.140000 31.020000 12.980000 204 96 104 0
30.360000 31.020000 12.980000 205 95 103 0
30.580000 31.020000 14.080000 205 95 103 0
30.800000 31.020000 13.860000 203 92 103 0
31.020000 31.020000 13.860000 204 93 104 0
31.240000 31.020000 14.080000 202 91 102 0
31.460000 31.020000 14.080000 203 92 103 0
31.680000 31.020000 14.080000 202 94 102 0
31.900000 31.020000 14.080000 203 95 103 0
32.120000 31.020000 14.300000 204 94 102 0
32.340000 31.020000 14.300000 204 94 102 0
32.560000 31.020000 15.620000 202 92 100 0
32.780000 31.020000 15.620000 203 93 101 0
33.000000 31.020000 15.840000 203 93 101 0
33.220000 31.020000 15.840000 204 94 102 0
33.440000 31.020000 15.840000 204 94 102 0
33.660000 31.020000 15.840000 204 94 102 0
33.880000 31.020000 16.060000 204 94 102 0
34.100000 31.020000 16.060000 204 94 102 0
34.320000 31.020000 16.060000 204 94 102 0
34.540000 31.020000 16.060000 203 93 101 0
34.760000 31.020000 16.280000 203 93 101 0
34.980000 31.020000 17.600000 204 94 102 0
35.200000 31.020000 18.700000 205 95 103 0
35.420000 31.020000 19.580000 206 96 104 0
35.640000 31.020000 20.900000 206 96 104 0
35.860000 31.020000 20.900000 205 95 103 0
36.080000 31.020000 20.900000 205 95 103 0
36.300000 31.020000 21.120000 205 95 103 0
36.520000 31.020000 21.120000 206 96 104 0
36.740000 31.020000 22.660000 203 93 101 0
36.960000 31.020000 22.660000 204 94 102 0
37.180000 31.020000 22.660000 204 94 102 0
0.000000 31.240000 1.320000 163 87 84 0
0.220000 31.240000 1.320000 164 88 85 0
0.440000 31.240000 1.100000 167 87 85 0
0.660000 31.240000 3.520000 168 88 86 0
0.880000 31.240000 4.620000 167 88 86 0
1.100000 31.240000 3.300000 168 89 87 0
1.320000 31.240000 4.620000 169 89 87 0
1.540000 31.240000 4.620000 169 89 87 0
1.760000 31.240000 4.840000 167 87 83 0
1.980000 31.240000 4.400000 167 87 83 0
2.200000 31.240000 5.720000 166 84 83 0
2.420000 31.240000 5.720000 166 84 83 0
2.640000 31.240000 5.720000 167 87 85 0
2.860000 31.240000 4.400000 167 87 85 0
3.080000 31.240000 4.400000 166 90 87 0
3.300000 31.240000 4.620000 168 92 89 0
3.520000 31.240000 4.400000 152 102 90 0
3.740000 31.240000 4.400000 155 105 93 0
3.960000 31.240000 4.400000 150 111 99 0
4.180000 31.240000 4.400000 153 114 102 0
4.400000 31.240000 4.400000 153 116 105 0
4.620000 31.240000 4.400000 155 118 107 0
4.840000 31.240000 4.180000 159 120 110 0
5.060000 31.240000 2.860000 159 120 110 0
5.280000 31.240000 2.860000 159 125 111 0
5.500000 31.240000 2.860000 163 129 115 0
5.720000 31.240000 2.860000 167 134 120 0
5.940000 31.240000 2.860000 171 138 124 0
6.160000 31.240000 2.860000 172 143 130 0
6.380000 31.240000 2.860000 177 148 135 0
6.600000 31.240000 2.860000 184 153 145 0
6.820000 31.240000 1.540000 192 161 153 0
7.040000 31.240000 1.540000 194 168 162 0
7.260000 31.240000 1.540000 198 172 166 0
7.480000 31.240000 1.540000 198 178 174 0
7.700000 31.240000 1.540000 202 182 178 0
7.920000 31.240000 1.540000 202 190 185 0
8.140000 31.240000 1.540000 205 193 188 0
8.360000 31.240000 1.540000 208 196 191 0
8.580000 31.240000 1.540000 210 198 193 0
8.800000 31.240000 1.540000 212 200 197 0
9.020000 31.240000 3.080000 213 201 198 0
9.240000 31.240000 3.080000 214 202 199 0
9.460000 31.240000 3.080000 215 203 200 0
9.680000 31.240000 3.300000 217 205 202 0
9.900000 31.240000 4.620000 217 205 202 0
10.120000 31.240000 4.840000 218 206 201 0
10.340000 31.240000 4.840000 218 206 201 0
10.560000 31.240000 4.840000 221 209 206 0
10.780000 31.240000 5.060000 221 209 206 0
11.000000 31.240000 5.060000 222 210 207 0
11.220000 31.240000 5.060000 222 210 207 0
11.440000 31.240000 5.280000 227 228 227 0
11.660000 31.240000 5.280000 240 241 240 0
11.880000 31.240000 5.280000 239 240 239 0
12.100000 31.240000 5.280000 239 240 239 0
12.320000 31.240000 5.280000 250 235 233 0
12.540000 31.240000 5.280000 226 211 209 0
12.760000 31.240000 3.960000 215 199 194 0
12.980000 31.240000 3.960000 209 193 188 0
13.200000 31.240000 5.060000 209 193 188 0
13.420000 31.240000 5.940000 207 191 186 0
13.640000 31.240000 7.040000 210 190 187 0
13.860000 31.240000 7.040000 207 187 184 0
14.080000 31.240000 7.040000 207 185 182 0
14.300000 31.240000 7.040000 207 185 182 0
14.520000 31.240000 7.040000 206 188 183 0
14.740000 31.240000 7.040000 207 189 184 0
14.960000 31.240000 7.260000 207 191 186 0
15.180000 31.240000 7.260000 209 193 188 0
15.400000 31.240000 7.260000 213 197 193 0
15.620000 31.240000 7.260000 215 199 195 0
15.840000 31.240000 7.260000 216 201 199 0
16.060000 31.240000 5.940000 222 207 205 0
16.280000 31.240000 5.940000 222 209 211 0
16.500000 31.240000 6.160000 221 208 210 0
16.720000 31.240000 6.160000 226 209 210 0
16.940000 31.240000 6.160000 225 208 209 0
17.160000 31.240000 7.700000 222 203 200 0
17.380000 31.240000 7.700000 214 195 192 0
17.600000 31.240000 9.020000 227 176 176 0
17.820000 31.240000 10.560000 209 158 158 0
18.040000 31.240000 11.880000 219 132 135 0
18.260000 31.240000 13.420000 207 120 123 0
18.480000 31.240000 14.740000 208 108 113 0
18.700000 31.240000 16.060000 207 107 112 0
18.920000 31.240000 16.280000 206 103 109 0
19.140000 31.240000 17.380000 205 102 108 0
19.360000 31.240000 19.800000 205 101 110 0
19.580000 31.240000 19.580000 205 101 110 0
19.800000 31.240000 19.580000 204 102 108 0
20.020000 31.240000 19.580000 205 103 109 0
20.240000 31.240000 19.800000 204 101 107 0
20.460000 31.240000 19.800000 205 102 108 0
20.680000 31.240000 21.340000 205 99 106 0
20.900000 31.240000 21.340000 205 99 106 0
21.120000 31.240000 22.880000 204 100 109 0
21.340000 31.240000 22.880000 203 99 108 0
21.560000 31.240000 24.420000 204 98 105 0
21.780000 31.240000 25.740000 205 99 106 0
22.000000 31.240000 26.620000 205 97 105 0
22.220000 31.240000 27.940000 204 96 104 0
22.440000 31.240000 21.120000 203 95 103 0
22.660000 31.240000 8.580000 203 95 103 0
22.880000 31.240000 3.080000 203 95 103 0
23.100000 31.240000 3.300000 202 94 102 0
23.320000 31.240000 3.300000 202 94 102 0
