ply
format ascii 1.0
element vertex 1118
property float x
property float y
property float z
property uchar red
property uchar green
property uchar blue
property uchar alpha
end_header
36.740000 10.560000 12.540000 196 217 217 0
36.960000 10.560000 12.540000 196 217 217 0
37.180000 10.560000 12.540000 197 218 218 0
0.000000 10.780000 11.880000 113 101 96 0
0.220000 10.780000 11.880000 114 103 96 0
0.440000 10.780000 8.470000 114 103 96 0
0.660000 10.780000 3.630000 114 102 97 0
0.880000 10.780000 5.060000 115 103 98 0
1.100000 10.780000 6.380000 115 103 98 0
1.320000 10.780000 2.200000 114 102 97 0
1.540000 10.780000 0.110000 114 103 96 0
1.760000 10.780000 0.880000 114 103 96 0
1.980000 10.780000 0.880000 113 102 95 0
2.200000 10.780000 3.630000 114 103 96 0
2.420000 10.780000 5.720000 114 102 97 0
2.640000 10.780000 2.970000 115 103 98 0
2.860000 10.780000 0.880000 115 103 98 0
3.080000 10.780000 1.540000 115 103 98 0
3.300000 10.780000 0.880000 115 104 97 0
3.520000 10.780000 0.880000 117 106 99 0
3.740000 10.780000 0.880000 117 106 99 0
3.960000 10.780000 0.880000 117 106 99 0
4.180000 10.780000 0.880000 117 105 100 0
4.400000 10.780000 0.880000 117 105 100 0
4.620000 10.780000 0.880000 117 107 101 0
4.840000 10.780000 0.880000 117 107 101 0
5.060000 10.780000 0.880000 118 106 101 0
5.280000 10.780000 0.880000 119 107 102 0
5.500000 10.780000 0.880000 118 108 102 0
5.720000 10.780000 0.880000 119 109 103 0
5.940000 10.780000 0.880000 120 110 104 0
6.160000 10.780000 0.880000 120 110 104 0
6.380000 10.780000 0.880000 122 112 108 0
6.600000 10.780000 0.880000 124 114 110 0
6.820000 10.780000 0.880000 125 115 109 0
7.040000 10.780000 0.880000 127 117 111 0
7.260000 10.780000 0.880000 126 118 113 0
7.480000 10.780000 0.880000 128 120 115 0
7.700000 10.780000 0.880000 129 123 118 0
7.920000 10.780000 0.770000 131 125 120 0
8.140000 10.780000 0.770000 133 127 124 0
8.360000 10.780000 0.770000 135 129 126 0
8.580000 10.780000 0.770000 139 133 130 0
8.800000 10.780000 0.770000 144 138 135 0
9.020000 10.780000 0.770000 141 142 139 0
9.240000 10.780000 0.770000 147 148 145 0
9.460000 10.780000 0.770000 150 154 160 0
9.680000 10.780000 0.770000 157 161 167 0
9.900000 10.780000 0.770000 159 171 182 0
10.120000 10.780000 0.110000 169 181 192 0
10.340000 10.780000 0.110000 177 194 196 0
10.560000 10.780000 0.110000 185 202 204 0
10.780000 10.780000 0.110000 192 211 212 0
11.000000 10.780000 0.110000 197 216 217 0
11.220000 10.780000 0.110000 200 226 222 0
11.440000 10.780000 0.110000 201 227 223 0
11.660000 10.780000 0.110000 204 230 224 0
11.880000 10.780000 0.110000 204 230 224 0
12.100000 10.780000 0.110000 203 228 220 0
12.320000 10.780000 0.110000 200 225 217 0
12.540000 10.780000 0.110000 201 220 219 0
12.760000 10.780000 0.110000 197 216 215 0
12.980000 10.780000 0.110000 196 214 211 0
13.200000 10.780000 0.110000 194 212 209 0
13.420000 10.780000 0.110000 193 211 208 0
13.640000 10.780000 0.110000 192 210 207 0
13.860000 10.780000 0.110000 191 210 209 0
14.080000 10.780000 0.110000 191 210 209 0
14.300000 10.780000 0.880000 191 209 208 0
14.520000 10.780000 0.880000 192 210 209 0
14.740000 10.780000 0.880000 192 210 207 0
14.960000 10.780000 0.880000 191 209 206 0
15.180000 10.780000 0.990000 191 209 208 0
15.400000 10.780000 0.990000 191 209 208 0
15.620000 10.780000 0.990000 190 209 208 0
15.840000 10.780000 0.990000 190 209 208 0
16.060000 10.780000 0.990000 192 210 209 0
16.280000 10.780000 1.100000 192 210 209 0
16.500000 10.780000 1.100000 192 211 210 0
16.720000 10.780000 1.100000 192 211 210 0
16.940000 10.780000 1.100000 195 213 212 0
17.160000 10.780000 1.870000 195 213 212 0
17.380000 10.780000 1.870000 194 213 212 0
17.600000 10.780000 1.980000 195 214 213 0
17.820000 10.780000 1.980000 196 215 214 0
18.040000 10.780000 1.980000 196 215 214 0
18.260000 10.780000 1.980000 197 216 217 0
18.480000 10.780000 1.980000 198 217 218 0
18.700000 10.780000 2.530000 198 217 218 0
18.920000 10.780000 2.970000 198 217 218 0
19.140000 10.780000 3.520000 198 217 218 0
19.360000 10.780000 3.520000 199 218 219 0
19.580000 10.780000 3.520000 198 219 219 0
19.800000 10.780000 3.520000 198 219 219 0
20.020000 10.780000 3.630000 198 219 219 0
20.240000 10.780000 4.290000 199 220 220 0
20.460000 10.780000 4.290000 196 220 219 0
20.680000 10.780000 4.400000 198 222 221 0
20.900000 10.780000 4.400000 198 221 222 0
21.120000 10.780000 4.400000 198 221 222 0
21.340000 10.780000 4.400000 200 221 222 0
21.560000 10.780000 4.510000 200 221 222 0
21.780000 10.780000 4.510000 198 221 222 0
22.000000 10.780000 4.510000 199 222 223 0
22.220000 10.780000 4.510000 200 223 224 0
22.440000 10.780000 4.510000 200 223 224 0
22.660000 10.780000 4.620000 200 223 224 0
22.880000 10.780000 5.280000 200 223 224 0
23.100000 10.780000 5.390000 201 224 225 0
23.320000 10.780000 5.390000 200 223 224 0
23.540000 10.780000 5.390000 199 224 224 0
23.760000 10.780000 5.390000 200 225 225 0
23.980000 10.780000 5.500000 199 224 224 0
24.200000 10.780000 5.500000 200 225 225 0
24.420000 10.780000 6.050000 201 224 227 0
24.640000 10.780000 7.040000 202 225 228 0
24.860000 10.780000 6.930000 202 225 226 0
25.080000 10.780000 7.700000 202 225 226 0
25.300000 10.780000 7.700000 202 225 226 0
25.520000 10.780000 7.700000 202 225 226 0
25.740000 10.780000 7.700000 201 224 225 0
25.960000 10.780000 7.700000 201 224 225 0
26.180000 10.780000 7.810000 200 223 224 0
26.400000 10.780000 7.810000 199 222 223 0
26.620000 10.780000 7.810000 197 222 222 0
26.840000 10.780000 7.810000 196 221 221 0
27.060000 10.780000 7.810000 196 219 220 0
27.280000 10.780000 7.810000 193 216 217 0
27.500000 10.780000 7.920000 191 216 218 0
27.720000 10.780000 7.920000 188 213 215 0
27.940000 10.780000 8.580000 186 211 213 0
28.160000 10.780000 8.580000 184 209 211 0
28.380000 10.780000 8.690000 184 207 208 0
28.600000 10.780000 8.690000 183 206 207 0
28.820000 10.780000 8.030000 182 207 209 0
29.040000 10.780000 8.690000 182 207 209 0
29.260000 10.780000 8.690000 184 207 208 0
29.480000 10.780000 8.690000 184 207 208 0
29.700000 10.780000 8.690000 182 207 209 0
29.920000 10.780000 8.800000 183 208 210 0
30.140000 10.780000 8.800000 184 207 208 0
30.360000 10.780000 8.800000 184 207 208 0
30.580000 10.780000 8.800000 187 210 211 0
30.800000 10.780000 9.460000 185 208 209 0
31.020000 10.780000 9.460000 188 209 209 0
31.240000 10.780000 9.460000 190 211 211 0
31.460000 10.780000 10.010000 190 211 211 0
31.680000 10.780000 10.560000 190 211 211 0
31.900000 10.780000 10.560000 191 212 212 0
32.120000 10.780000 10.560000 191 212 212 0
32.340000 10.780000 10.560000 193 212 211 0
32.560000 10.780000 11.220000 194 213 212 0
32.780000 10.780000 11.220000 194 213 214 0
33.000000 10.780000 11.220000 194 213 214 0
33.220000 10.780000 11.220000 193 214 214 0
33.440000 10.780000 11.220000 193 214 214 0
33.660000 10.780000 11.220000 193 214 214 0
33.880000 10.780000 11.220000 193 214 214 0
34.100000 10.780000 11.220000 195 214 213 0
34.320000 10.780000 11.220000 195 214 213 0
34.540000 10.780000 11.880000 196 215 216 0
34.760000 10.780000 11.880000 195 214 215 0
34.980000 10.780000 11.880000 195 216 216 0
35.200000 10.780000 11.880000 195 216 216 0
35.420000 10.780000 11.880000 196 217 217 0
35.640000 10.780000 12.540000 195 216 216 0
35.860000 10.780000 12.540000 197 216 215 0
36.080000 10.780000 12.540000 196 215 214 0
36.300000 10.780000 12.540000 197 216 217 0
36.520000 10.780000 12.540000 197 216 217 0
36.740000 10.780000 12.650000 196 217 217 0
36.960000 10.780000 12.650000 197 218 218 0
37.180000 10.780000 12.650000 196 217 217 0
0.000000 11.000000 11.880000 113 101 96 0
0.220000 11.000000 11.220000 114 102 97 0
0.440000 11.000000 6.380000 114 102 97 0
0.660000 11.000000 3.630000 114 103 96 0
0.880000 11.000000 7.810000 114 103 96 0
1.100000 11.000000 7.810000 114 102 97 0
1.320000 11.000000 2.970000 113 101 96 0
1.540000 11.000000 0.110000 114 102 97 0
1.760000 11.000000 0.880000 114 102 97 0
1.980000 11.000000 2.200000 114 102 97 0
2.200000 11.000000 6.380000 114 102 97 0
2.420000 11.000000 7.040000 115 104 97 0
2.640000 11.000000 2.860000 115 104 97 0
2.860000 11.000000 0.880000 114 104 98 0
3.080000 11.000000 0.880000 114 104 98 0
3.300000 11.000000 2.310000 115 103 98 0
3.520000 11.000000 2.970000 116 104 99 0
3.740000 11.000000 2.200000 116 106 100 0
3.960000 11.000000 0.880000 116 106 100 0
4.180000 11.000000 0.880000 118 107 100 0
4.400000 11.000000 0.880000 118 107 100 0
4.620000 11.000000 0.880000 117 107 101 0
4.840000 11.000000 1.540000 117 107 101 0
5.060000 11.000000 1.540000 117 107 101 0
5.280000 11.000000 0.880000 119 109 103 0
5.500000 11.000000 0.880000 119 109 103 0
5.720000 11.000000 0.880000 120 110 104 0
5.940000 11.000000 0.880000 120 110 104 0
6.160000 11.000000 0.880000 121 111 105 0
6.380000 11.000000 0.880000 125 115 109 0
6.600000 11.000000 0.880000 123 113 107 0
6.820000 11.000000 0.880000 124 114 108 0
7.040000 11.000000 0.880000 126 116 110 0
7.260000 11.000000 0.880000 127 119 112 0
7.480000 11.000000 0.880000 128 120 113 0
7.700000 11.000000 0.880000 131 122 120 0
7.920000 11.000000 0.770000 134 125 123 0
8.140000 11.000000 0.770000 133 129 123 0
8.360000 11.000000 0.770000 135 131 125 0
8.580000 11.000000 0.770000 137 132 131 0
8.800000 11.000000 0.770000 142 137 136 0
9.020000 11.000000 0.770000 143 142 145 0
9.240000 11.000000 0.770000 147 146 149 0
9.460000 11.000000 0.770000 152 155 159 0
9.680000 11.000000 0.770000 161 164 168 0
9.900000 11.000000 0.770000 159 172 183 0
10.120000 11.000000 0.110000 169 182 193 0
10.340000 11.000000 0.110000 176 195 196 0
10.560000 11.000000 0.110000 186 205 206 0
10.780000 11.000000 0.110000 190 214 213 0
11.000000 11.000000 0.110000 196 220 219 0
11.220000 11.000000 0.110000 200 225 224 0
11.440000 11.000000 0.110000 203 228 227 0
11.660000 11.000000 0.110000 203 232 225 0
11.880000 11.000000 0.110000 202 231 224 0
12.100000 11.000000 0.110000 202 228 222 0
12.320000 11.000000 0.110000 201 227 221 0
12.540000 11.000000 0.110000 200 221 219 0
12.760000 11.000000 0.110000 197 218 216 0
12.980000 11.000000 0.110000 196 215 214 0
13.200000 11.000000 0.110000 194 213 212 0
13.420000 11.000000 0.110000 192 212 208 0
13.640000 11.000000 0.110000 191 211 207 0
13.860000 11.000000 0.110000 192 211 210 0
14.080000 11.000000 0.110000 190 209 208 0
14.300000 11.000000 0.880000 191 210 209 0
14.520000 11.000000 0.880000 191 210 209 0
14.740000 11.000000 0.880000 193 211 210 0
14.960000 11.000000 0.880000 192 210 209 0
15.180000 11.000000 0.990000 191 210 209 0
15.400000 11.000000 0.990000 191 210 209 0
15.620000 11.000000 0.990000 192 210 209 0
15.840000 11.000000 0.990000 193 211 210 0
16.060000 11.000000 0.990000 192 211 210 0
16.280000 11.000000 1.100000 193 212 211 0
16.500000 11.000000 1.100000 193 212 211 0
16.720000 11.000000 1.100000 194 213 212 0
16.940000 11.000000 1.870000 193 212 211 0
17.160000 11.000000 1.870000 193 212 211 0
17.380000 11.000000 1.870000 195 214 213 0
17.600000 11.000000 1.980000 196 215 214 0
17.820000 11.000000 1.980000 196 215 214 0
18.040000 11.000000 1.980000 197 216 215 0
18.260000 11.000000 1.980000 198 217 218 0
18.480000 11.000000 1.980000 197 216 217 0
18.700000 11.000000 2.530000 197 218 218 0
18.920000 11.000000 2.970000 197 218 218 0
19.140000 11.000000 3.520000 197 218 218 0
19.360000 11.000000 3.520000 197 218 218 0
19.580000 11.000000 3.520000 198 219 219 0
19.800000 11.000000 3.520000 198 219 219 0
20.020000 11.000000 3.630000 198 219 219 0
20.240000 11.000000 4.290000 198 219 219 0
20.460000 11.000000 4.290000 196 220 219 0
20.680000 11.000000 4.400000 198 222 221 0
20.900000 11.000000 4.400000 197 221 220 0
21.120000 11.000000 4.400000 198 222 221 0
21.340000 11.000000 4.400000 198 222 221 0
21.560000 11.000000 4.510000 198 222 221 0
21.780000 11.000000 4.510000 199 222 223 0
22.000000 11.000000 4.510000 199 222 223 0
22.220000 11.000000 4.510000 199 222 223 0
22.440000 11.000000 4.510000 200 223 224 0
22.660000 11.000000 5.280000 199 222 223 0
22.880000 11.000000 5.280000 200 223 224 0
23.100000 11.000000 5.390000 199 224 224 0
23.320000 11.000000 5.390000 200 225 225 0
23.540000 11.000000 5.390000 200 223 224 0
23.760000 11.000000 5.390000 201 224 225 0
23.980000 11.000000 5.500000 201 224 225 0
24.200000 11.000000 5.500000 202 225 226 0
24.420000 11.000000 6.050000 202 225 226 0
24.640000 11.000000 6.490000 201 224 225 0
24.860000 11.000000 6.930000 201 226 226 0
25.080000 11.000000 7.700000 202 227 227 0
25.300000 11.000000 7.700000 203 226 227 0
25.520000 11.000000 7.700000 202 225 226 0
25.740000 11.000000 7.700000 201 224 225 0
25.960000 11.000000 7.700000 201 224 225 0
26.180000 11.000000 7.810000 200 223 224 0
26.400000 11.000000 7.810000 200 223 224 0
26.620000 11.000000 7.810000 198 223 223 0
26.840000 11.000000 7.810000 197 222 222 0
27.060000 11.000000 7.810000 197 220 221 0
27.280000 11.000000 7.810000 196 219 220 0
27.500000 11.000000 7.920000 195 219 218 0
27.720000 11.000000 8.580000 192 216 215 0
27.940000 11.000000 8.580000 192 211 212 0
28.160000 11.000000 8.580000 192 211 212 0
28.380000 11.000000 8.690000 191 212 212 0
28.600000 11.000000 8.690000 189 210 210 0
28.820000 11.000000 8.690000 188 209 209 0
29.040000 11.000000 8.690000 187 208 208 0
29.260000 11.000000 8.690000 189 208 209 0
29.480000 11.000000 8.800000 189 208 209 0
29.700000 11.000000 8.800000 188 209 210 0
29.920000 11.000000 8.800000 188 209 210 0
30.140000 11.000000 8.800000 189 210 210 0
30.360000 11.000000 8.800000 189 210 210 0
30.580000 11.000000 8.910000 191 210 211 0
30.800000 11.000000 8.910000 191 210 211 0
31.020000 11.000000 9.570000 192 211 212 0
31.240000 11.000000 10.120000 192 211 212 0
31.460000 11.000000 10.560000 192 211 210 0
31.680000 11.000000 11.110000 192 211 210 0
31.900000 11.000000 11.110000 194 213 214 0
32.120000 11.000000 11.110000 193 212 213 0
32.340000 11.000000 11.110000 194 213 214 0
32.560000 11.000000 11.110000 194 213 214 0
32.780000 11.000000 11.110000 194 213 214 0
33.000000 11.000000 11.110000 195 214 215 0
33.220000 11.000000 11.220000 195 214 213 0
33.440000 11.000000 11.880000 196 215 214 0
33.660000 11.000000 11.880000 194 215 215 0
33.880000 11.000000 11.880000 195 216 216 0
34.100000 11.000000 11.880000 195 214 215 0
34.320000 11.000000 11.880000 196 215 216 0
34.540000 11.000000 11.880000 196 215 216 0
34.760000 11.000000 11.880000 196 215 216 0
34.980000 11.000000 11.880000 196 215 216 0
35.200000 11.000000 12.540000 197 216 217 0
35.420000 11.000000 12.540000 196 217 217 0
35.640000 11.000000 12.540000 197 218 218 0
35.860000 11.000000 12.540000 196 217 218 0
36.080000 11.000000 12.650000 196 217 218 0
36.300000 11.000000 12.650000 196 217 217 0
36.520000 11.000000 12.650000 196 217 217 0
36.740000 11.000000 12.650000 196 217 217 0
36.960000 11.000000 12.650000 197 218 218 0
37.180000 11.000000 12.650000 197 218 218 0
0.000000 11.220000 9.790000 113 101 96 0
0.220000 11.220000 7.810000 115 103 98 0
0.440000 11.220000 4.290000 114 102 97 0
0.660000 11.220000 4.290000 114 103 96 0
0.880000 11.220000 6.380000 114 103 96 0
1.100000 11.220000 6.380000 115 103 98 0
1.320000 11.220000 2.970000 114 102 97 0
1.540000 11.220000 0.220000 114 102 97 0
1.760000 11.220000 0.220000 115 103 98 0
1.980000 11.220000 2.860000 114 102 97 0
2.200000 11.220000 7.040000 116 104 99 0
2.420000 11.220000 5.610000 114 103 96 0
2.640000 11.220000 1.540000 115 104 97 0
2.860000 11.220000 0.220000 114 104 98 0
3.080000 11.220000 0.220000 114 104 98 0
3.300000 11.220000 2.970000 115 103 98 0
3.520000 11.220000 5.720000 116 104 99 0
3.740000 11.220000 2.970000 115 105 99 0
3.960000 11.220000 0.880000 116 106 100 0
4.180000 11.220000 0.880000 118 107 100 0
4.400000 11.220000 0.880000 118 107 100 0
4.620000 11.220000 0.880000 117 107 101 0
4.840000 11.220000 0.880000 117 107 101 0
5.060000 11.220000 0.880000 118 108 102 0
5.280000 11.220000 0.880000 119 109 103 0
5.500000 11.220000 0.880000 119 109 103 0
5.720000 11.220000 0.880000 120 110 104 0
5.940000 11.220000 0.880000 120 110 104 0
6.160000 11.220000 0.880000 121 111 105 0
6.380000 11.220000 0.880000 122 112 106 0
6.600000 11.220000 0.880000 124 114 108 0
6.820000 11.220000 0.880000 125 115 109 0
7.040000 11.220000 0.880000 127 117 111 0
7.260000 11.220000 0.880000 127 119 112 0
7.480000 11.220000 0.880000 129 121 114 0
7.700000 11.220000 0.770000 132 123 121 0
7.920000 11.220000 0.770000 133 124 122 0
8.140000 11.220000 0.770000 132 128 122 0
8.360000 11.220000 0.770000 136 132 126 0
8.580000 11.220000 0.770000 138 133 132 0
8.800000 11.220000 0.770000 142 137 136 0
9.020000 11.220000 0.770000 143 142 145 0
9.240000 11.220000 0.770000 147 146 149 0
9.460000 11.220000 0.770000 151 154 158 0
9.680000 11.220000 0.770000 159 162 166 0
9.900000 11.220000 0.110000 159 172 183 0
10.120000 11.220000 0.110000 168 181 192 0
10.340000 11.220000 0.110000 176 195 196 0
10.560000 11.220000 0.110000 185 204 205 0
10.780000 11.220000 0.110000 189 213 212 0
11.000000 11.220000 0.110000 196 220 219 0
11.220000 11.220000 0.110000 201 226 225 0
11.440000 11.220000 0.110000 204 229 228 0
11.660000 11.220000 0.110000 204 233 226 0
11.880000 11.220000 0.110000 203 232 225 0
12.100000 11.220000 0.110000 202 228 222 0
12.320000 11.220000 0.110000 199 225 219 0
12.540000 11.220000 0.110000 201 222 220 0
12.760000 11.220000 0.110000 197 218 216 0
12.980000 11.220000 0.110000 196 215 214 0
13.200000 11.220000 0.110000 194 213 212 0
13.420000 11.220000 0.110000 193 213 209 0
13.640000 11.220000 0.110000 192 212 208 0
13.860000 11.220000 0.110000 191 210 209 0
14.080000 11.220000 0.110000 191 210 209 0
14.300000 11.220000 0.880000 191 210 209 0
14.520000 11.220000 0.880000 190 209 208 0
14.740000 11.220000 0.880000 192 210 209 0
14.960000 11.220000 0.880000 192 210 209 0
15.180000 11.220000 0.990000 192 211 210 0
15.400000 11.220000 0.990000 191 210 209 0
15.620000 11.220000 0.990000 193 211 210 0
15.840000 11.220000 0.990000 192 210 209 0
16.060000 11.220000 0.990000 192 211 210 0
16.280000 11.220000 1.100000 193 212 211 0
16.500000 11.220000 1.100000 194 213 212 0
16.720000 11.220000 1.100000 194 213 212 0
16.940000 11.220000 1.870000 194 213 212 0
17.160000 11.220000 1.870000 194 213 212 0
17.380000 11.220000 1.870000 194 213 212 0
17.600000 11.220000 1.980000 195 214 213 0
17.820000 11.220000 1.980000 197 216 215 0
18.040000 11.220000 1.980000 196 215 214 0
18.260000 11.220000 1.980000 198 217 218 0
18.480000 11.220000 1.980000 197 216 217 0
18.700000 11.220000 2.530000 197 218 218 0
18.920000 11.220000 2.970000 196 217 217 0
19.140000 11.220000 3.520000 196 217 217 0
19.360000 11.220000 3.520000 197 218 218 0
19.580000 11.220000 3.520000 197 218 218 0
19.800000 11.220000 3.520000 197 218 218 0
20.020000 11.220000 4.290000 197 218 218 0
20.240000 11.220000 4.290000 198 219 219 0
20.460000 11.220000 4.290000 196 220 219 0
20.680000 11.220000 4.400000 197 221 220 0
20.900000 11.220000 4.400000 197 221 220 0
21.120000 11.220000 4.400000 197 221 220 0
21.340000 11.220000 4.400000 198 222 221 0
21.560000 11.220000 4.510000 198 222 221 0
21.780000 11.220000 4.510000 198 221 222 0
22.000000 11.220000 4.510000 198 221 222 0
22.220000 11.220000 4.510000 198 221 222 0
22.440000 11.220000 4.510000 199 222 223 0
22.660000 11.220000 5.280000 199 222 223 0
22.880000 11.220000 5.280000 199 222 223 0
23.100000 11.220000 5.390000 198 223 223 0
23.320000 11.220000 5.390000 198 223 223 0
23.540000 11.220000 5.390000 199 222 223 0
23.760000 11.220000 5.390000 200 223 224 0
23.980000 11.220000 5.500000 201 224 225 0
24.200000 11.220000 5.500000 200 223 224 0
24.420000 11.220000 6.160000 201 224 225 0
24.640000 11.220000 6.600000 202 225 226 0
24.860000 11.220000 7.040000 200 225 225 0
25.080000 11.220000 7.700000 201 226 226 0
25.300000 11.220000 7.700000 202 225 226 0
25.520000 11.220000 7.700000 201 224 225 0
25.740000 11.220000 7.700000 201 224 225 0
25.960000 11.220000 7.700000 200 223 224 0
26.180000 11.220000 7.810000 200 223 224 0
26.400000 11.220000 7.810000 200 223 224 0
26.620000 11.220000 7.810000 198 223 223 0
26.840000 11.220000 7.810000 198 223 223 0
27.060000 11.220000 7.810000 198 221 222 0
27.280000 11.220000 7.920000 198 221 222 0
27.500000 11.220000 8.580000 196 220 219 0
27.720000 11.220000 8.580000 195 219 218 0
27.940000 11.220000 8.580000 197 216 217 0
28.160000 11.220000 8.690000 195 214 215 0
28.380000 11.220000 8.690000 192 213 213 0
28.600000 11.220000 8.690000 192 213 213 0
28.820000 11.220000 8.690000 192 213 213 0
29.040000 11.220000 8.800000 191 212 212 0
29.260000 11.220000 8.800000 192 211 212 0
29.480000 11.220000 8.800000 192 211 212 0
29.700000 11.220000 8.800000 190 211 212 0
29.920000 11.220000 8.800000 190 211 212 0
30.140000 11.220000 8.910000 192 213 213 0
30.360000 11.220000 8.910000 191 212 212 0
30.580000 11.220000 8.910000 192 211 212 0
30.800000 11.220000 9.570000 193 212 213 0
31.020000 11.220000 9.460000 192 211 212 0
31.240000 11.220000 10.560000 192 211 212 0
31.460000 11.220000 11.110000 194 213 212 0
31.680000 11.220000 11.110000 195 214 213 0
31.900000 11.220000 11.110000 195 214 215 0
32.120000 11.220000 11.110000 194 213 214 0
32.340000 11.220000 11.110000 195 214 215 0
32.560000 11.220000 11.220000 194 213 214 0
32.780000 11.220000 11.220000 196 215 216 0
33.000000 11.220000 11.220000 195 214 215 0
33.220000 11.220000 11.220000 196 215 214 0
33.440000 11.220000 11.880000 196 215 214 0
33.660000 11.220000 11.880000 195 216 216 0
33.880000 11.220000 11.880000 196 217 217 0
34.100000 11.220000 11.880000 196 215 216 0
34.320000 11.220000 11.880000 196 215 216 0
34.540000 11.220000 11.880000 197 216 217 0
34.760000 11.220000 11.880000 197 216 217 0
34.980000 11.220000 12.650000 196 215 216 0
35.200000 11.220000 12.650000 197 216 217 0
35.420000 11.220000 12.650000 197 218 218 0
35.640000 11.220000 12.650000 197 218 218 0
35.860000 11.220000 12.650000 197 218 219 0
36.080000 11.220000 12.650000 196 217 218 0
36.300000 11.220000 12.650000 197 218 218 0
36.520000 11.220000 12.650000 196 217 217 0
36.740000 11.220000 13.310000 196 217 217 0
36.960000 11.220000 13.310000 196 217 217 0
37.180000 11.220000 13.310000 197 218 218 0
0.000000 11.440000 10.450000 114 102 97 0
0.220000 11.440000 8.470000 115 103 98 0
0.440000 11.440000 5.720000 114 102 97 0
0.660000 11.440000 5.720000 114 102 97 0
0.880000 11.440000 4.950000 115 103 98 0
1.100000 11.440000 3.630000 114 102 97 0
1.320000 11.440000 1.540000 115 103 98 0
1.540000 11.440000 0.220000 114 102 97 0
1.760000 11.440000 0.110000 115 103 98 0
1.980000 11.440000 1.540000 113 103 97 0
2.200000 11.440000 2.860000 113 103 97 0
2.420000 11.440000 1.540000 115 103 98 0
2.640000 11.440000 0.880000 115 103 98 0
2.860000 11.440000 0.220000 115 105 99 0
3.080000 11.440000 0.220000 115 105 99 0
3.300000 11.440000 2.200000 114 104 98 0
3.520000 11.440000 3.630000 115 105 99 0
3.740000 11.440000 2.200000 115 105 99 0
3.960000 11.440000 0.880000 115 105 99 0
4.180000 11.440000 0.880000 117 107 101 0
4.400000 11.440000 0.880000 116 106 100 0
4.620000 11.440000 0.880000 118 108 102 0
4.840000 11.440000 0.880000 118 108 102 0
5.060000 11.440000 0.880000 119 109 103 0
5.280000 11.440000 0.880000 119 109 103 0
5.500000 11.440000 0.880000 120 110 104 0
5.720000 11.440000 0.880000 120 110 104 0
5.940000 11.440000 0.880000 120 110 104 0
6.160000 11.440000 0.880000 122 112 106 0
6.380000 11.440000 0.880000 121 113 108 0
6.600000 11.440000 0.880000 123 115 110 0
6.820000 11.440000 0.880000 123 115 108 0
7.040000 11.440000 0.880000 126 118 111 0
7.260000 11.440000 0.880000 127 119 114 0
7.480000 11.440000 0.770000 127 119 114 0
7.700000 11.440000 0.770000 130 121 119 0
7.920000 11.440000 0.770000 133 124 122 0
8.140000 11.440000 0.770000 131 127 123 0
8.360000 11.440000 0.770000 137 133 129 0
8.580000 11.440000 0.770000 134 132 130 0
8.800000 11.440000 0.770000 139 137 135 0
9.020000 11.440000 0.770000 141 142 142 0
9.240000 11.440000 0.770000 147 148 148 0
9.460000 11.440000 0.770000 148 156 156 0
9.680000 11.440000 0.770000 157 165 165 0
9.900000 11.440000 0.110000 160 172 179 0
10.120000 11.440000 0.110000 172 184 191 0
10.340000 11.440000 0.110000 177 194 196 0
10.560000 11.440000 0.110000 186 203 205 0
10.780000 11.440000 0.110000 191 212 212 0
11.000000 11.440000 0.110000 199 220 220 0
11.220000 11.440000 0.110000 201 226 225 0
11.440000 11.440000 0.110000 205 230 229 0
11.660000 11.440000 0.110000 203 233 226 0
11.880000 11.440000 0.110000 203 233 226 0
12.100000 11.440000 0.110000 204 230 222 0
12.320000 11.440000 0.110000 201 227 219 0
12.540000 11.440000 0.110000 200 221 221 0
12.760000 11.440000 0.110000 198 219 219 0
12.980000 11.440000 0.110000 197 216 215 0
13.200000 11.440000 0.110000 195 214 213 0
13.420000 11.440000 0.110000 194 212 209 0
13.640000 11.440000 0.110000 192 210 207 0
13.860000 11.440000 0.110000 191 210 209 0
14.080000 11.440000 0.110000 192 211 210 0
14.300000 11.440000 0.880000 190 209 208 0
14.520000 11.440000 0.880000 190 209 208 0
14.740000 11.440000 0.880000 190 209 208 0
14.960000 11.440000 0.880000 190 209 208 0
15.180000 11.440000 0.990000 191 210 209 0
15.400000 11.440000 0.990000 191 210 209 0
15.620000 11.440000 0.990000 192 211 210 0
15.840000 11.440000 0.990000 192 211 210 0
16.060000 11.440000 0.990000 192 211 210 0
16.280000 11.440000 1.100000 193 212 211 0
16.500000 11.440000 1.100000 192 213 211 0
16.720000 11.440000 1.100000 193 214 212 0
16.940000 11.440000 1.870000 194 213 212 0
17.160000 11.440000 1.870000 194 213 212 0
17.380000 11.440000 1.870000 193 212 211 0
17.600000 11.440000 1.980000 194 213 212 0
17.820000 11.440000 1.980000 195 216 214 0
18.040000 11.440000 1.980000 196 217 215 0
18.260000 11.440000 1.980000 195 216 216 0
18.480000 11.440000 1.980000 196 217 217 0
18.700000 11.440000 2.530000 196 217 217 0
18.920000 11.440000 2.970000 196 217 217 0
19.140000 11.440000 3.520000 196 217 217 0
19.360000 11.440000 3.520000 197 218 218 0
19.580000 11.440000 3.520000 196 217 217 0
19.800000 11.440000 3.520000 196 217 217 0
20.020000 11.440000 4.290000 195 219 218 0
20.240000 11.440000 4.290000 196 220 219 0
20.460000 11.440000 4.290000 198 219 219 0
20.680000 11.440000 4.400000 199 220 220 0
20.900000 11.440000 4.400000 199 220 220 0
21.120000 11.440000 4.400000 199 220 220 0
21.340000 11.440000 4.400000 197 221 220 0
21.560000 11.440000 4.510000 197 221 220 0
21.780000 11.440000 4.510000 198 221 222 0
22.000000 11.440000 4.510000 198 221 222 0
22.220000 11.440000 4.510000 197 220 221 0
22.440000 11.440000 4.510000 199 222 223 0
22.660000 11.440000 5.280000 199 222 223 0
22.880000 11.440000 5.280000 199 222 223 0
23.100000 11.440000 5.390000 199 222 223 0
23.320000 11.440000 5.390000 200 223 224 0
23.540000 11.440000 5.390000 199 224 224 0
23.760000 11.440000 5.390000 199 224 224 0
23.980000 11.440000 5.390000 200 223 224 0
24.200000 11.440000 5.500000 200 223 224 0
24.420000 11.440000 6.050000 200 223 224 0
24.640000 11.440000 6.490000 201 224 225 0
24.860000 11.440000 6.930000 200 225 225 0
25.080000 11.440000 7.700000 200 225 225 0
25.300000 11.440000 7.700000 201 226 226 0
25.520000 11.440000 7.700000 201 226 226 0
25.740000 11.440000 7.700000 201 224 225 0
25.960000 11.440000 7.700000 200 223 224 0
26.180000 11.440000 7.810000 199 224 224 0
26.400000 11.440000 7.810000 200 225 225 0
26.620000 11.440000 7.810000 200 225 225 0
26.840000 11.440000 7.810000 199 224 224 0
27.060000 11.440000 7.810000 199 224 224 0
27.280000 11.440000 7.920000 198 223 223 0
27.500000 11.440000 8.580000 197 220 221 0
27.720000 11.440000 8.580000 196 219 220 0
27.940000 11.440000 8.690000 195 219 218 0
28.160000 11.440000 8.690000 195 219 218 0
28.380000 11.440000 8.690000 194 218 217 0
28.600000 11.440000 8.690000 194 218 217 0
28.820000 11.440000 8.690000 191 214 215 0
29.040000 11.440000 8.800000 190 213 214 0
29.260000 11.440000 8.800000 193 214 214 0
29.480000 11.440000 8.800000 194 215 215 0
29.700000 11.440000 8.800000 194 215 215 0
29.920000 11.440000 8.910000 193 214 214 0
30.140000 11.440000 8.910000 195 216 216 0
30.360000 11.440000 8.910000 194 215 215 0
30.580000 11.440000 9.570000 193 214 215 0
30.800000 11.440000 10.120000 195 216 217 0
31.020000 11.440000 10.560000 195 216 216 0
31.240000 11.440000 11.110000 194 215 215 0
31.460000 11.440000 11.110000 196 215 214 0
31.680000 11.440000 11.110000 195 214 213 0
31.900000 11.440000 11.110000 196 215 216 0
32.120000 11.440000 11.220000 196 215 216 0
32.340000 11.440000 11.220000 194 215 215 0
32.560000 11.440000 11.220000 194 215 215 0
32.780000 11.440000 11.220000 195 216 216 0
33.000000 11.440000 11.220000 196 217 217 0
33.220000 11.440000 11.880000 197 216 215 0
33.440000 11.440000 11.990000 197 216 215 0
33.660000 11.440000 11.990000 197 216 217 0
33.880000 11.440000 11.990000 197 216 217 0
34.100000 11.440000 11.990000 196 217 217 0
34.320000 11.440000 11.990000 196 217 217 0
34.540000 11.440000 11.990000 197 216 217 0
34.760000 11.440000 11.990000 197 216 217 0
34.980000 11.440000 12.650000 198 217 216 0
35.200000 11.440000 12.650000 198 217 216 0
35.420000 11.440000 12.650000 197 218 218 0
35.640000 11.440000 12.650000 197 218 218 0
35.860000 11.440000 12.650000 197 218 218 0
36.080000 11.440000 12.650000 197 218 218 0
36.300000 11.440000 13.310000 198 217 218 0
36.520000 11.440000 13.310000 198 217 218 0
36.740000 11.440000 13.310000 198 217 218 0
36.960000 11.440000 13.310000 198 217 218 0
37.180000 11.440000 13.310000 198 217 218 0
0.000000 11.660000 8.470000 115 103 98 0
0.220000 11.660000 6.380000 114 102 97 0
0.440000 11.660000 3.630000 114 102 97 0
0.660000 11.660000 4.290000 115 103 98 0
0.880000 11.660000 4.290000 114 102 97 0
1.100000 11.660000 2.200000 115 103 98 0
1.320000 11.660000 0.880000 115 103 98 0
1.540000 11.660000 0.220000 115 103 98 0
1.760000 11.660000 0.110000 115 103 98 0
1.980000 11.660000 0.110000 115 105 99 0
2.200000 11.660000 0.770000 115 105 99 0
2.420000 11.660000 0.880000 115 103 98 0
2.640000 11.660000 0.880000 115 103 98 0
2.860000 11.660000 0.880000 114 104 98 0
3.080000 11.660000 0.880000 115 105 99 0
3.300000 11.660000 0.880000 115 105 99 0
3.520000 11.660000 0.880000 114 104 98 0
3.740000 11.660000 1.540000 115 105 99 0
3.960000 11.660000 0.880000 116 106 100 0
4.180000 11.660000 0.880000 116 106 100 0
4.400000 11.660000 0.880000 117 107 101 0
4.620000 11.660000 0.770000 117 107 101 0
4.840000 11.660000 0.880000 118 108 102 0
5.060000 11.660000 0.880000 118 108 102 0
5.280000 11.660000 0.880000 118 108 102 0
5.500000 11.660000 0.880000 120 110 104 0
5.720000 11.660000 0.880000 120 110 104 0
5.940000 11.660000 0.880000 121 111 105 0
6.160000 11.660000 0.880000 122 112 106 0
6.380000 11.660000 0.880000 121 113 108 0
6.600000 11.660000 0.770000 122 114 109 0
6.820000 11.660000 0.770000 124 116 109 0
7.040000 11.660000 0.880000 126 118 111 0
7.260000 11.660000 0.880000 127 119 114 0
7.480000 11.660000 0.770000 128 120 115 0
7.700000 11.660000 0.770000 130 121 119 0
7.920000 11.660000 0.770000 132 123 121 0
8.140000 11.660000 0.770000 133 129 125 0
8.360000 11.660000 0.770000 135 131 127 0
8.580000 11.660000 0.770000 136 134 132 0
8.800000 11.660000 0.770000 139 137 135 0
9.020000 11.660000 0.770000 141 142 142 0
9.240000 11.660000 0.770000 147 148 148 0
9.460000 11.660000 0.770000 148 156 156 0
9.680000 11.660000 0.770000 157 165 165 0
9.900000 11.660000 0.110000 161 173 180 0
10.120000 11.660000 0.110000 170 182 189 0
10.340000 11.660000 0.110000 178 195 197 0
10.560000 11.660000 0.110000 187 204 206 0
10.780000 11.660000 0.110000 194 215 215 0
11.000000 11.660000 0.110000 199 220 220 0
11.220000 11.660000 0.110000 200 225 224 0
11.440000 11.660000 0.110000 205 230 229 0
11.660000 11.660000 0.110000 203 233 226 0
11.880000 11.660000 0.110000 202 232 225 0
12.100000 11.660000 0.110000 204 230 222 0
12.320000 11.660000 0.110000 200 226 218 0
12.540000 11.660000 0.110000 200 221 221 0
12.760000 11.660000 0.110000 199 220 220 0
12.980000 11.660000 0.110000 197 216 215 0
13.200000 11.660000 0.110000 195 214 213 0
13.420000 11.660000 0.110000 194 212 209 0
13.640000 11.660000 0.110000 193 211 208 0
13.860000 11.660000 0.110000 192 211 210 0
14.080000 11.660000 0.110000 191 210 209 0
14.300000 11.660000 0.880000 190 209 208 0
14.520000 11.660000 0.880000 190 209 208 0
14.740000 11.660000 0.880000 190 209 208 0
14.960000 11.660000 0.880000 191 210 209 0
15.180000 11.660000 0.990000 192 211 210 0
15.400000 11.660000 0.990000 192 211 210 0
15.620000 11.660000 0.990000 192 211 210 0
15.840000 11.660000 0.990000 192 211 210 0
16.060000 11.660000 0.990000 193 212 211 0
16.280000 11.660000 1.100000 193 212 211 0
16.500000 11.660000 1.100000 193 214 212 0
16.720000 11.660000 1.100000 193 214 212 0
16.940000 11.660000 1.870000 194 213 212 0
17.160000 11.660000 1.870000 195 214 213 0
17.380000 11.660000 1.870000 194 213 212 0
17.600000 11.660000 1.980000 195 214 213 0
17.820000 11.660000 1.980000 195 216 214 0
18.040000 11.660000 1.980000 195 216 214 0
18.260000 11.660000 1.980000 196 217 217 0
18.480000 11.660000 1.980000 196 217 217 0
18.700000 11.660000 2.530000 196 217 217 0
18.920000 11.660000 2.970000 196 217 217 0
19.140000 11.660000 3.520000 196 217 217 0
19.360000 11.660000 3.520000 196 217 217 0
19.580000 11.660000 3.520000 197 218 218 0
19.800000 11.660000 3.520000 197 218 218 0
20.020000 11.660000 4.290000 195 219 218 0
20.240000 11.660000 4.290000 196 220 219 0
20.460000 11.660000 4.290000 198 219 219 0
20.680000 11.660000 4.400000 198 219 219 0
20.900000 11.660000 4.400000 198 219 219 0
21.120000 11.660000 4.400000 199 220 220 0
21.340000 11.660000 4.400000 197 221 220 0
21.560000 11.660000 4.510000 197 221 220 0
21.780000 11.660000 4.510000 198 221 222 0
22.000000 11.660000 4.510000 198 221 222 0
22.220000 11.660000 4.510000 197 220 221 0
22.440000 11.660000 5.280000 198 221 222 0
22.660000 11.660000 5.280000 198 221 222 0
22.880000 11.660000 5.280000 199 222 223 0
23.100000 11.660000 5.390000 199 222 223 0
23.320000 11.660000 5.390000 200 223 224 0
23.540000 11.660000 5.390000 198 223 223 0
23.760000 11.660000 5.390000 199 224 224 0
23.980000 11.660000 5.390000 200 223 224 0
24.200000 11.660000 5.500000 200 223 224 0
24.420000 11.660000 6.050000 200 223 224 0
24.640000 11.660000 7.040000 201 224 225 0
24.860000 11.660000 6.930000 200 225 225 0
25.080000 11.660000 7.700000 200 225 225 0
25.300000 11.660000 7.700000 200 225 225 0
25.520000 11.660000 7.700000 200 225 225 0
25.740000 11.660000 7.700000 201 224 225 0
25.960000 11.660000 7.700000 201 224 225 0
26.180000 11.660000 7.810000 201 226 226 0
26.400000 11.660000 7.810000 200 225 225 0
26.620000 11.660000 7.810000 199 224 224 0
26.840000 11.660000 7.810000 199 224 224 0
27.060000 11.660000 7.810000 199 224 224 0
27.280000 11.660000 8.580000 199 224 224 0
27.500000 11.660000 8.580000 200 223 224 0
27.720000 11.660000 8.580000 197 220 221 0
27.940000 11.660000 8.690000 197 221 220 0
28.160000 11.660000 8.690000 197 221 220 0
28.380000 11.660000 8.690000 197 221 220 0
28.600000 11.660000 8.690000 196 220 219 0
28.820000 11.660000 8.800000 195 218 219 0
29.040000 11.660000 8.800000 195 218 219 0
29.260000 11.660000 8.800000 195 216 216 0
29.480000 11.660000 8.800000 196 217 217 0
29.700000 11.660000 8.910000 196 217 217 0
29.920000 11.660000 8.910000 195 216 216 0
30.140000 11.660000 8.910000 197 218 218 0
30.360000 11.660000 9.680000 197 218 218 0
30.580000 11.660000 9.570000 197 218 219 0
30.800000 11.660000 10.670000 198 219 220 0
31.020000 11.660000 11.110000 198 219 219 0
31.240000 11.660000 11.110000 197 218 218 0
31.460000 11.660000 11.110000 198 217 216 0
31.680000 11.660000 11.110000 198 217 216 0
31.900000 11.660000 11.220000 199 218 219 0
32.120000 11.660000 11.220000 198 217 218 0
32.340000 11.660000 11.220000 196 217 217 0
32.560000 11.660000 11.220000 197 218 218 0
32.780000 11.660000 11.220000 197 218 218 0
33.000000 11.660000 11.990000 198 219 219 0
33.220000 11.660000 11.990000 199 218 217 0
33.440000 11.660000 11.990000 199 218 217 0
33.660000 11.660000 11.990000 198 217 218 0
33.880000 11.660000 11.990000 197 216 217 0
34.100000 11.660000 11.990000 196 217 217 0
34.320000 11.660000 11.990000 197 218 218 0
34.540000 11.660000 12.100000 198 217 218 0
34.760000 11.660000 12.100000 198 217 218 0
34.980000 11.660000 12.100000 199 218 217 0
35.200000 11.660000 12.760000 198 217 216 0
35.420000 11.660000 12.760000 198 219 219 0
35.640000 11.660000 12.760000 198 219 219 0
35.860000 11.660000 12.760000 198 219 219 0
36.080000 11.660000 12.760000 197 218 218 0
36.300000 11.660000 13.420000 199 218 219 0
36.520000 11.660000 13.420000 199 218 219 0
36.740000 11.660000 13.420000 199 218 219 0
36.960000 11.660000 13.310000 199 218 219 0
37.180000 11.660000 13.310000 199 218 219 0
0.000000 11.880000 7.810000 115 104 97 0
0.220000 11.880000 4.290000 114 103 96 0
0.440000 11.880000 1.540000 115 104 97 0
0.660000 11.880000 2.860000 115 103 98 0
0.880000 11.880000 5.610000 115 103 98 0
1.100000 11.880000 3.630000 115 104 97 0
1.320000 11.880000 2.200000 116 105 98 0
1.540000 11.880000 2.970000 114 104 98 0
1.760000 11.880000 1.540000 114 104 98 0
1.980000 11.880000 0.110000 114 104 98 0
2.200000 11.880000 0.770000 113 103 97 0
2.420000 11.880000 0.880000 114 104 98 0
2.640000 11.880000 0.880000 113 103 97 0
2.860000 11.880000 0.880000 114 104 98 0
3.080000 11.880000 0.880000 114 104 98 0
3.300000 11.880000 0.880000 115 105 99 0
3.520000 11.880000 0.880000 115 105 99 0
3.740000 11.880000 1.540000 116 106 100 0
3.960000 11.880000 1.540000 116 106 100 0
4.180000 11.880000 0.880000 117 107 101 0
4.400000 11.880000 0.880000 118 108 102 0
4.620000 11.880000 1.540000 118 108 102 0
4.840000 11.880000 0.880000 118 108 102 0
5.060000 11.880000 0.880000 119 109 103 0
5.280000 11.880000 0.880000 119 109 103 0
5.500000 11.880000 1.540000 119 111 104 0
5.720000 11.880000 0.880000 120 112 105 0
5.940000 11.880000 0.770000 121 111 105 0
6.160000 11.880000 0.880000 122 112 106 0
6.380000 11.880000 0.880000 121 113 106 0
6.600000 11.880000 0.770000 122 114 107 0
6.820000 11.880000 0.770000 124 114 110 0
7.040000 11.880000 0.770000 126 116 112 0
7.260000 11.880000 0.770000 126 118 113 0
7.480000 11.880000 0.770000 128 120 115 0
7.700000 11.880000 0.770000 130 122 117 0
7.920000 11.880000 0.770000 133 125 120 0
8.140000 11.880000 0.770000 132 126 123 0
8.360000 11.880000 0.770000 136 130 127 0
8.580000 11.880000 0.770000 138 134 130 0
8.800000 11.880000 0.770000 142 138 134 0
9.020000 11.880000 0.770000 143 142 143 0
9.240000 11.880000 0.770000 148 147 148 0
9.460000 11.880000 0.770000 150 152 159 0
9.680000 11.880000 0.770000 159 161 168 0
9.900000 11.880000 0.110000 161 173 180 0
10.120000 11.880000 0.110000 169 181 188 0
10.340000 11.880000 0.110000 179 196 198 0
10.560000 11.880000 0.110000 187 204 206 0
10.780000 11.880000 0.110000 194 215 215 0
11.000000 11.880000 0.110000 199 220 220 0
11.220000 11.880000 0.110000 202 226 225 0
11.440000 11.880000 0.110000 206 230 229 0
11.660000 11.880000 0.110000 206 232 226 0
11.880000 11.880000 0.110000 206 232 226 0
12.100000 11.880000 0.110000 206 230 225 0
12.320000 11.880000 0.110000 202 226 221 0
12.540000 11.880000 0.110000 202 221 220 0
12.760000 11.880000 0.110000 199 218 217 0
12.980000 11.880000 0.110000 198 216 215 0
13.200000 11.880000 0.110000 195 213 212 0
13.420000 11.880000 0.110000 194 212 209 0
13.640000 11.880000 0.110000 194 212 209 0
13.860000 11.880000 0.110000 193 211 210 0
14.080000 11.880000 0.110000 192 210 209 0
14.300000 11.880000 0.880000 192 210 209 0
14.520000 11.880000 0.880000 192 210 209 0
14.740000 11.880000 0.880000 191 209 208 0
14.960000 11.880000 0.880000 191 209 208 0
15.180000 11.880000 0.990000 192 210 207 0
15.400000 11.880000 0.990000 193 211 208 0
15.620000 11.880000 0.990000 192 210 209 0
15.840000 11.880000 0.990000 192 210 209 0
16.060000 11.880000 0.990000 194 212 211 0
16.280000 11.880000 1.100000 195 213 212 0
16.500000 11.880000 1.100000 194 213 212 0
16.720000 11.880000 1.100000 194 213 212 0
16.940000 11.880000 1.870000 195 213 212 0
17.160000 11.880000 1.870000 196 214 213 0
17.380000 11.880000 1.870000 196 215 214 0
17.600000 11.880000 1.980000 196 215 214 0
17.820000 11.880000 1.980000 196 215 214 0
18.040000 11.880000 1.980000 196 215 214 0
18.260000 11.880000 1.980000 197 216 217 0
18.480000 11.880000 1.980000 196 215 216 0
18.700000 11.880000 2.530000 197 216 215 0
18.920000 11.880000 2.970000 197 216 215 0
19.140000 11.880000 3.520000 197 216 217 0
19.360000 11.880000 3.520000 197 216 217 0
19.580000 11.880000 3.520000 198 217 218 0
19.800000 11.880000 3.520000 198 217 218 0
20.020000 11.880000 4.290000 199 218 219 0
20.240000 11.880000 4.290000 199 218 219 0
20.460000 11.880000 4.290000 199 218 217 0
20.680000 11.880000 4.400000 199 218 217 0
20.900000 11.880000 4.400000 198 219 219 0
21.120000 11.880000 4.400000 199 220 220 0
21.340000 11.880000 4.400000 198 219 219 0
21.560000 11.880000 4.510000 199 220 220 0
21.780000 11.880000 4.510000 199 220 220 0
22.000000 11.880000 4.510000 199 220 220 0
22.220000 11.880000 4.510000 200 221 221 0
22.440000 11.880000 5.280000 200 221 221 0
22.660000 11.880000 5.280000 201 222 222 0
22.880000 11.880000 5.280000 201 222 222 0
23.100000 11.880000 5.390000 199 222 223 0
23.320000 11.880000 5.390000 199 222 223 0
23.540000 11.880000 5.390000 201 222 223 0
23.760000 11.880000 5.390000 202 223 224 0
23.980000 11.880000 5.390000 200 224 223 0
24.200000 11.880000 5.500000 201 225 224 0
24.420000 11.880000 6.050000 200 223 224 0
24.640000 11.880000 6.490000 201 224 225 0
24.860000 11.880000 6.930000 201 224 225 0
25.080000 11.880000 7.700000 201 224 225 0
25.300000 11.880000 7.700000 201 224 225 0
25.520000 11.880000 7.700000 200 223 224 0
25.740000 11.880000 7.700000 201 225 224 0
25.960000 11.880000 7.700000 202 226 225 0
26.180000 11.880000 7.810000 202 225 226 0
26.400000 11.880000 7.810000 202 225 226 0
26.620000 11.880000 7.810000 202 225 226 0
26.840000 11.880000 7.810000 202 225 226 0
27.060000 11.880000 8.580000 201 224 225 0
27.280000 11.880000 8.580000 201 224 225 0
27.500000 11.880000 8.580000 201 225 224 0
27.720000 11.880000 8.580000 200 224 223 0
27.940000 11.880000 8.690000 199 223 222 0
28.160000 11.880000 8.690000 199 223 222 0
28.380000 11.880000 8.690000 199 223 222 0
28.600000 11.880000 8.690000 199 223 222 0
28.820000 11.880000 8.800000 198 221 222 0
29.040000 11.880000 8.800000 198 221 222 0
29.260000 11.880000 8.800000 196 220 219 0
29.480000 11.880000 8.800000 197 221 220 0
29.700000 11.880000 8.910000 198 222 221 0
29.920000 11.880000 8.910000 197 221 220 0
30.140000 11.880000 9.570000 199 220 220 0
30.360000 11.880000 9.680000 201 222 222 0
30.580000 11.880000 10.230000 200 221 221 0
30.800000 11.880000 10.560000 199 220 220 0
31.020000 11.880000 11.110000 199 220 220 0
31.240000 11.880000 11.110000 200 221 221 0
31.460000 11.880000 11.110000 199 220 220 0
31.680000 11.880000 11.110000 199 220 220 0
31.900000 11.880000 11.220000 199 220 220 0
32.120000 11.880000 11.220000 200 221 221 0
32.340000 11.880000 11.220000 199 220 220 0
32.560000 11.880000 11.220000 200 221 221 0
32.780000 11.880000 11.220000 199 220 220 0
33.000000 11.880000 11.330000 199 220 220 0
33.220000 11.880000 11.990000 199 220 220 0
33.440000 11.880000 11.990000 199 220 220 0
33.660000 11.880000 11.990000 198 219 219 0
33.880000 11.880000 12.100000 199 220 220 0
34.100000 11.880000 12.100000 198 219 219 0
34.320000 11.880000 12.100000 199 220 220 0
34.540000 11.880000 12.100000 199 220 220 0
34.760000 11.880000 12.100000 199 220 220 0
34.980000 11.880000 12.210000 198 219 219 0
35.200000 11.880000 12.210000 198 219 219 0
35.420000 11.880000 12.210000 199 220 220 0
35.640000 11.880000 12.210000 199 220 220 0
35.860000 11.880000 12.320000 200 219 220 0
36.080000 11.880000 12.980000 199 218 219 0
36.300000 11.880000 12.980000 200 219 220 0
36.520000 11.880000 12.870000 199 218 219 0
36.740000 11.880000 13.530000 200 219 220 0
36.960000 11.880000 13.420000 200 219 220 0
37.180000 11.880000 13.970000 200 219 220 0
0.000000 12.100000 7.810000 115 104 97 0
0.220000 12.100000 4.290000 114 103 96 0
0.440000 12.100000 0.220000 115 104 97 0
0.660000 12.100000 2.860000 115 103 98 0
0.880000 12.100000 5.610000 115 103 98 0
1.100000 12.100000 4.290000 114 103 96 0
1.320000 12.100000 3.630000 115 104 97 0
1.540000 12.100000 4.950000 115 105 99 0
1.760000 12.100000 2.200000 115 105 99 0
1.980000 12.100000 0.110000 115 105 99 0
2.200000 12.100000 0.110000 114 104 98 0
2.420000 12.100000 0.110000 114 104 98 0
2.640000 12.100000 0.110000 114 104 98 0
2.860000 12.100000 0.880000 115 105 99 0
3.080000 12.100000 0.880000 115 105 99 0
3.300000 12.100000 0.880000 116 106 100 0
3.520000 12.100000 0.880000 115 105 99 0
3.740000 12.100000 0.880000 115 105 99 0
3.960000 12.100000 1.540000 116 106 100 0
4.180000 12.100000 0.770000 117 107 101 0
4.400000 12.100000 0.770000 117 107 101 0
4.620000 12.100000 1.540000 117 107 101 0
4.840000 12.100000 0.880000 119 109 103 0
5.060000 12.100000 0.880000 120 110 104 0
5.280000 12.100000 0.880000 120 110 104 0
5.500000 12.100000 1.540000 119 111 104 0
5.720000 12.100000 0.770000 120 112 105 0
5.940000 12.100000 0.770000 121 111 105 0
6.160000 12.100000 0.770000 122 112 106 0
6.380000 12.100000 0.770000 121 113 106 0
6.600000 12.100000 0.770000 123 115 108 0
6.820000 12.100000 0.770000 125 115 111 0
7.040000 12.100000 0.770000 127 117 113 0
7.260000 12.100000 0.770000 127 119 114 0
7.480000 12.100000 0.770000 129 121 116 0
7.700000 12.100000 0.770000 130 122 117 0
7.920000 12.100000 0.770000 132 124 119 0
8.140000 12.100000 0.770000 134 128 125 0
8.360000 12.100000 0.770000 136 130 127 0
8.580000 12.100000 0.770000 139 135 131 0
8.800000 12.100000 0.770000 142 138 134 0
9.020000 12.100000 0.770000 145 144 145 0
9.240000 12.100000 0.770000 151 150 151 0
9.460000 12.100000 0.770000 153 155 162 0
9.680000 12.100000 0.770000 160 162 169 0
9.900000 12.100000 0.110000 163 175 182 0
10.120000 12.100000 0.110000 170 182 189 0
10.340000 12.100000 0.110000 180 197 199 0
10.560000 12.100000 0.110000 186 203 205 0
10.780000 12.100000 0.110000 193 214 214 0
11.000000 12.100000 0.110000 201 222 222 0
11.220000 12.100000 0.110000 203 227 226 0
11.440000 12.100000 0.110000 204 228 227 0
11.660000 12.100000 0.110000 207 233 227 0
11.880000 12.100000 0.110000 207 233 227 0
12.100000 12.100000 0.110000 206 230 225 0
12.320000 12.100000 0.110000 203 227 222 0
12.540000 12.100000 0.110000 202 221 220 0
12.760000 12.100000 0.110000 200 219 218 0
12.980000 12.100000 0.110000 199 217 216 0
13.200000 12.100000 0.110000 196 214 213 0
13.420000 12.100000 0.110000 195 213 210 0
13.640000 12.100000 0.110000 194 212 209 0
13.860000 12.100000 0.110000 192 210 209 0
14.080000 12.100000 0.110000 191 209 208 0
14.300000 12.100000 0.880000 193 211 210 0
14.520000 12.100000 0.880000 192 210 209 0
14.740000 12.100000 0.880000 191 209 208 0
14.960000 12.100000 0.880000 192 210 209 0
15.180000 12.100000 0.990000 192 210 207 0
15.400000 12.100000 0.990000 193 211 208 0
15.620000 12.100000 0.990000 193 211 210 0
15.840000 12.100000 0.990000 194 212 211 0
16.060000 12.100000 0.990000 195 213 212 0
16.280000 12.100000 1.100000 195 213 212 0
16.500000 12.100000 1.100000 195 214 213 0
16.720000 12.100000 1.100000 194 213 212 0
16.940000 12.100000 1.870000 197 215 214 0
17.160000 12.100000 1.870000 196 214 213 0
17.380000 12.100000 1.870000 196 215 214 0
17.600000 12.100000 1.980000 196 215 214 0
17.820000 12.100000 1.980000 197 216 215 0
18.040000 12.100000 1.980000 197 216 215 0
18.260000 12.100000 1.980000 197 216 217 0
18.480000 12.100000 1.980000 198 217 218 0
18.700000 12.100000 2.530000 197 216 215 0
18.920000 12.100000 2.970000 198 217 216 0
19.140000 12.100000 3.520000 198 217 218 0
19.360000 12.100000 3.520000 198 217 218 0
19.580000 12.100000 3.520000 198 217 218 0
19.800000 12.100000 3.520000 198 217 218 0
20.020000 12.100000 4.290000 198 217 218 0
20.240000 12.100000 4.290000 198 217 218 0
20.460000 12.100000 4.290000 199 218 217 0
20.680000 12.100000 4.400000 200 219 218 0
