ply
format ascii 1.0
element vertex 1128
property float x
property float y
property float z
property uchar red
property uchar green
property uchar blue
property uchar alpha
end_header
14.740000 7.920000 37.840000 208 237 238 0
14.960000 7.920000 37.840000 208 237 238 0
15.180000 7.920000 38.060000 207 236 237 0
15.400000 7.920000 38.060000 208 237 238 0
15.620000 7.920000 38.060000 206 237 237 0
15.840000 7.920000 39.380000 205 236 236 0
16.060000 7.920000 39.600000 206 235 236 0
16.280000 7.920000 29.920000 207 236 237 0
16.500000 7.920000 9.460000 207 238 238 0
16.940000 7.920000 1.320000 207 238 238 0
17.160000 7.920000 2.420000 207 238 238 0
17.380000 7.920000 4.400000 203 238 237 0
17.600000 7.920000 5.500000 202 237 236 0
17.820000 7.920000 5.500000 193 235 244 0
18.040000 7.920000 5.500000 188 230 239 0
18.260000 7.920000 5.500000 182 223 238 0
18.480000 7.920000 4.180000 176 217 232 0
18.700000 7.920000 4.180000 176 211 226 0
18.920000 7.920000 4.180000 174 209 224 0
19.140000 7.920000 2.860000 169 210 227 0
19.360000 7.920000 2.860000 169 210 227 0
19.580000 7.920000 2.860000 170 212 229 0
19.800000 7.920000 2.860000 172 214 231 0
20.020000 7.920000 2.860000 174 216 233 0
20.240000 7.920000 2.860000 178 220 237 0
20.460000 7.920000 2.860000 179 221 238 0
20.680000 7.920000 1.540000 180 222 239 0
20.900000 7.920000 1.540000 179 224 238 0
21.120000 7.920000 1.540000 180 225 239 0
21.340000 7.920000 1.540000 182 225 237 0
21.560000 7.920000 1.540000 182 225 237 0
21.780000 7.920000 1.540000 179 228 240 0
22.000000 7.920000 1.540000 179 228 240 0
22.220000 7.920000 1.540000 181 226 240 0
22.440000 7.920000 0.220000 180 225 239 0
22.660000 7.920000 0.220000 182 225 239 0
22.880000 7.920000 0.220000 181 224 238 0
23.100000 7.920000 0.220000 182 223 236 0
23.320000 7.920000 0.220000 182 223 236 0
23.540000 7.920000 0.220000 179 224 238 0
23.760000 7.920000 0.440000 178 223 237 0
23.980000 7.920000 0.440000 180 223 237 0
24.200000 7.920000 0.440000 181 224 238 0
24.420000 7.920000 1.760000 180 227 238 0
24.640000 7.920000 1.760000 182 229 240 0
24.860000 7.920000 3.080000 183 231 238 0
25.080000 7.920000 3.080000 186 234 241 0
25.300000 7.920000 4.620000 192 236 240 0
25.520000 7.920000 4.620000 193 237 241 0
25.740000 7.920000 5.940000 192 239 242 0
25.960000 7.920000 7.260000 192 239 242 0
26.180000 7.920000 7.260000 196 239 240 0
26.400000 7.920000 7.260000 196 239 240 0
26.620000 7.920000 8.800000 193 240 241 0
26.840000 7.920000 8.800000 194 241 242 0
27.060000 7.920000 8.800000 193 240 243 0
27.280000 7.920000 8.800000 190 237 240 0
27.500000 7.920000 8.800000 191 235 243 0
27.720000 7.920000 8.800000 186 230 238 0
27.940000 7.920000 9.020000 182 218 239 0
28.160000 7.920000 9.020000 176 212 233 0
28.380000 7.920000 10.340000 177 202 220 0
28.600000 7.920000 9.020000 171 196 214 0
28.820000 7.920000 9.020000 175 182 195 0
29.040000 7.920000 9.020000 167 174 187 0
29.260000 7.920000 8.800000 167 167 174 0
29.480000 7.920000 7.480000 162 162 169 0
29.700000 7.920000 7.480000 165 153 158 0
29.920000 7.920000 6.160000 162 150 155 0
30.140000 7.920000 4.620000 160 149 152 0
30.360000 7.920000 4.620000 157 146 149 0
30.580000 7.920000 3.300000 162 143 142 0
30.800000 7.920000 8.800000 161 142 141 0
31.020000 7.920000 21.120000 158 139 136 0
31.240000 7.920000 34.980000 158 139 136 0
31.460000 7.920000 37.620000 159 139 136 0
31.680000 7.920000 34.980000 157 137 134 0
31.900000 7.920000 36.300000 157 135 132 0
32.120000 7.920000 37.620000 157 135 132 0
32.340000 7.920000 36.300000 157 135 132 0
32.560000 7.920000 36.300000 156 134 131 0
32.780000 7.920000 36.300000 156 134 131 0
33.000000 7.920000 37.620000 155 133 130 0
33.220000 7.920000 36.300000 157 133 128 0
33.440000 7.920000 34.980000 156 132 127 0
33.660000 7.920000 34.980000 155 131 126 0
33.880000 7.920000 34.760000 156 132 127 0
34.100000 7.920000 34.760000 156 132 127 0
34.320000 7.920000 34.760000 157 133 128 0
34.540000 7.920000 33.440000 156 132 127 0
34.760000 7.920000 33.440000 155 131 126 0
34.980000 7.920000 33.440000 156 130 126 0
35.200000 7.920000 32.120000 157 131 127 0
35.420000 7.920000 33.440000 156 132 127 0
35.640000 7.920000 33.440000 155 131 126 0
35.860000 7.920000 33.440000 156 130 126 0
36.080000 7.920000 34.760000 155 129 125 0
36.300000 7.920000 33.440000 156 130 126 0
36.520000 7.920000 33.440000 156 130 126 0
36.740000 7.920000 33.440000 155 129 123 0
36.960000 7.920000 32.120000 155 129 123 0
37.180000 7.920000 32.120000 155 129 125 0
0.000000 8.140000 23.760000 197 216 217 0
0.220000 8.140000 23.760000 198 217 218 0
0.440000 8.140000 25.080000 198 217 218 0
0.660000 8.140000 25.080000 199 218 219 0
0.880000 8.140000 25.080000 198 217 218 0
1.100000 8.140000 25.080000 199 218 219 0
1.320000 8.140000 25.080000 199 218 219 0
1.540000 8.140000 25.300000 198 219 219 0
1.760000 8.140000 25.300000 198 219 219 0
1.980000 8.140000 25.300000 197 218 219 0
2.200000 8.140000 25.300000 198 219 220 0
2.420000 8.140000 25.300000 199 220 220 0
2.640000 8.140000 26.620000 200 221 221 0
2.860000 8.140000 26.620000 200 219 220 0
3.080000 8.140000 26.840000 201 220 221 0
3.300000 8.140000 26.840000 200 221 222 0
3.520000 8.140000 26.840000 200 221 222 0
3.740000 8.140000 26.840000 200 221 222 0
3.960000 8.140000 26.840000 201 222 223 0
4.180000 8.140000 26.840000 201 222 222 0
4.400000 8.140000 27.060000 201 222 222 0
4.620000 8.140000 27.060000 202 221 222 0
4.840000 8.140000 27.060000 201 220 221 0
5.060000 8.140000 27.280000 201 222 223 0
5.280000 8.140000 27.280000 202 223 224 0
5.500000 8.140000 27.280000 202 223 224 0
5.720000 8.140000 27.280000 202 223 224 0
5.940000 8.140000 27.500000 203 224 225 0
6.160000 8.140000 27.500000 203 224 225 0
6.380000 8.140000 27.500000 203 224 225 0
6.600000 8.140000 27.280000 203 224 225 0
6.820000 8.140000 28.380000 201 224 225 0
7.040000 8.140000 29.260000 203 226 227 0
7.260000 8.140000 30.580000 204 227 228 0
7.480000 8.140000 30.580000 204 227 228 0
7.700000 8.140000 30.580000 203 226 227 0
7.920000 8.140000 30.580000 204 227 228 0
8.140000 8.140000 30.580000 204 227 228 0
8.360000 8.140000 30.800000 205 228 229 0
8.580000 8.140000 30.800000 206 229 230 0
8.800000 8.140000 30.800000 204 227 228 0
9.020000 8.140000 30.800000 203 230 232 0
9.240000 8.140000 31.020000 203 230 232 0
9.460000 8.140000 31.020000 205 230 230 0
9.680000 8.140000 31.020000 205 230 230 0
9.900000 8.140000 31.020000 203 230 232 0
10.120000 8.140000 31.020000 204 231 233 0
10.340000 8.140000 31.240000 204 231 233 0
10.560000 8.140000 31.240000 204 231 233 0
10.780000 8.140000 31.240000 204 231 233 0
11.000000 8.140000 31.460000 204 231 233 0
11.220000 8.140000 31.460000 205 234 235 0
11.440000 8.140000 31.460000 206 235 236 0
11.660000 8.140000 33.000000 205 234 235 0
11.880000 8.140000 33.000000 206 235 236 0
12.100000 8.140000 33.000000 206 235 236 0
12.320000 8.140000 33.000000 207 236 237 0
12.540000 8.140000 32.780000 207 236 237 0
12.760000 8.140000 34.980000 207 236 237 0
12.980000 8.140000 36.080000 207 236 237 0
13.200000 8.140000 36.080000 207 236 237 0
13.420000 8.140000 36.080000 208 237 238 0
13.640000 8.140000 36.080000 208 237 238 0
13.860000 8.140000 36.300000 207 238 238 0
14.080000 8.140000 36.300000 207 238 238 0
14.300000 8.140000 36.300000 207 236 237 0
14.520000 8.140000 36.520000 207 236 237 0
14.740000 8.140000 36.520000 207 236 237 0
14.960000 8.140000 37.840000 207 236 237 0
15.180000 8.140000 38.060000 207 236 237 0
15.400000 8.140000 38.060000 206 235 236 0
15.620000 8.140000 38.060000 205 236 236 0
15.840000 8.140000 39.380000 204 235 235 0
16.060000 8.140000 36.740000 206 235 236 0
16.280000 8.140000 24.420000 208 237 238 0
16.500000 8.140000 6.600000 207 238 238 0
16.940000 8.140000 1.320000 208 239 239 0
17.160000 8.140000 2.420000 207 238 238 0
17.380000 8.140000 4.620000 203 238 237 0
17.600000 8.140000 5.720000 201 236 235 0
17.820000 8.140000 5.500000 192 234 243 0
18.040000 8.140000 5.500000 188 230 239 0
18.260000 8.140000 5.500000 181 222 237 0
18.480000 8.140000 4.180000 175 216 231 0
18.700000 8.140000 4.180000 176 211 226 0
18.920000 8.140000 4.180000 173 208 223 0
19.140000 8.140000 4.180000 169 210 227 0
19.360000 8.140000 2.860000 170 211 228 0
19.580000 8.140000 2.860000 170 212 229 0
19.800000 8.140000 2.860000 172 214 231 0
20.020000 8.140000 2.860000 174 216 233 0
20.240000 8.140000 2.860000 176 218 235 0
20.460000 8.140000 2.860000 178 220 237 0
20.680000 8.140000 1.540000 179 221 238 0
20.900000 8.140000 1.540000 178 223 237 0
21.120000 8.140000 1.540000 179 224 238 0
21.340000 8.140000 1.540000 181 224 236 0
21.560000 8.140000 1.540000 182 225 237 0
21.780000 8.140000 1.540000 178 227 239 0
22.000000 8.140000 1.540000 177 226 238 0
22.220000 8.140000 1.540000 180 225 239 0
22.440000 8.140000 1.540000 179 224 238 0
22.660000 8.140000 0.220000 180 223 237 0
22.880000 8.140000 0.220000 180 223 237 0
23.100000 8.140000 0.220000 181 222 235 0
23.320000 8.140000 0.220000 182 223 236 0
23.540000 8.140000 0.440000 177 222 236 0
23.760000 8.140000 0.440000 178 223 237 0
23.980000 8.140000 0.440000 180 223 237 0
24.200000 8.140000 0.440000 180 223 237 0
24.420000 8.140000 1.760000 178 225 236 0
24.640000 8.140000 1.760000 180 227 238 0
24.860000 8.140000 3.080000 182 230 237 0
25.080000 8.140000 4.620000 186 234 241 0
25.300000 8.140000 4.620000 191 235 239 0
25.520000 8.140000 5.940000 193 237 241 0
25.740000 8.140000 5.940000 192 239 242 0
25.960000 8.140000 7.260000 193 240 243 0
26.180000 8.140000 7.260000 197 240 241 0
26.400000 8.140000 8.800000 197 240 241 0
26.620000 8.140000 8.800000 194 241 242 0
26.840000 8.140000 8.800000 194 241 242 0
27.060000 8.140000 8.800000 191 238 241 0
27.280000 8.140000 8.800000 191 238 241 0
27.500000 8.140000 8.800000 192 236 244 0
27.720000 8.140000 10.340000 186 230 238 0
27.940000 8.140000 10.340000 183 219 240 0
28.160000 8.140000 10.340000 175 211 232 0
28.380000 8.140000 10.340000 176 201 219 0
28.600000 8.140000 10.340000 168 193 211 0
28.820000 8.140000 10.340000 174 181 194 0
29.040000 8.140000 9.020000 165 172 185 0
29.260000 8.140000 9.020000 165 165 172 0
29.480000 8.140000 9.020000 160 160 167 0
29.700000 8.140000 7.480000 168 156 161 0
29.920000 8.140000 7.480000 161 149 154 0
30.140000 8.140000 6.160000 159 148 151 0
30.360000 8.140000 4.620000 156 145 148 0
30.580000 8.140000 4.620000 161 142 141 0
30.800000 8.140000 8.800000 160 141 140 0
31.020000 8.140000 21.120000 159 140 137 0
31.240000 8.140000 34.980000 158 139 136 0
31.460000 8.140000 40.480000 158 138 135 0
31.680000 8.140000 40.480000 157 137 134 0
31.900000 8.140000 39.160000 158 136 133 0
32.120000 8.140000 37.620000 158 136 133 0
32.340000 8.140000 36.300000 157 135 132 0
32.560000 8.140000 34.760000 156 134 131 0
32.780000 8.140000 36.300000 155 133 130 0
33.000000 8.140000 36.300000 155 133 130 0
33.220000 8.140000 36.300000 156 132 127 0
33.440000 8.140000 34.980000 156 132 127 0
33.660000 8.140000 34.760000 156 132 127 0
33.880000 8.140000 34.760000 155 131 126 0
34.100000 8.140000 34.760000 156 132 127 0
34.320000 8.140000 34.760000 155 131 126 0
34.540000 8.140000 34.760000 154 130 125 0
34.760000 8.140000 34.760000 155 131 126 0
34.980000 8.140000 33.440000 157 131 127 0
35.200000 8.140000 32.120000 157 131 127 0
35.420000 8.140000 33.440000 155 131 126 0
35.640000 8.140000 33.440000 155 131 126 0
35.860000 8.140000 33.440000 156 130 126 0
36.080000 8.140000 33.440000 155 129 125 0
36.300000 8.140000 32.120000 156 130 126 0
36.520000 8.140000 32.120000 155 129 125 0
36.740000 8.140000 32.120000 155 129 123 0
36.960000 8.140000 33.440000 155 129 123 0
37.180000 8.140000 33.440000 154 128 124 0
0.000000 8.360000 25.080000 196 217 217 0
0.220000 8.360000 25.080000 197 218 218 0
0.440000 8.360000 25.300000 196 217 217 0
0.660000 8.360000 25.300000 197 218 218 0
0.880000 8.360000 25.300000 197 218 218 0
1.100000 8.360000 25.300000 198 217 218 0
1.320000 8.360000 25.300000 199 218 219 0
1.540000 8.360000 25.300000 197 218 218 0
1.760000 8.360000 26.620000 197 218 218 0
1.980000 8.360000 26.620000 199 218 219 0
2.200000 8.360000 26.840000 199 218 219 0
2.420000 8.360000 26.840000 198 219 219 0
2.640000 8.360000 26.840000 198 219 219 0
2.860000 8.360000 26.840000 199 218 219 0
3.080000 8.360000 26.840000 200 219 220 0
3.300000 8.360000 26.840000 201 220 221 0
3.520000 8.360000 26.840000 200 219 220 0
3.740000 8.360000 28.160000 200 219 220 0
3.960000 8.360000 28.160000 201 220 221 0
4.180000 8.360000 26.840000 200 221 221 0
4.400000 8.360000 28.380000 200 221 221 0
4.620000 8.360000 27.060000 201 220 221 0
4.840000 8.360000 27.280000 201 220 221 0
5.060000 8.360000 27.280000 201 220 221 0
5.280000 8.360000 27.280000 202 221 222 0
5.500000 8.360000 27.500000 202 221 222 0
5.720000 8.360000 27.500000 202 221 222 0
5.940000 8.360000 27.500000 201 222 223 0
6.160000 8.360000 28.600000 201 222 223 0
6.380000 8.360000 28.380000 202 221 222 0
6.600000 8.360000 29.480000 202 221 222 0
6.820000 8.360000 30.800000 202 223 223 0
7.040000 8.360000 30.580000 203 224 224 0
7.260000 8.360000 30.580000 205 224 226 0
7.480000 8.360000 30.580000 204 223 225 0
7.700000 8.360000 30.580000 204 225 226 0
7.920000 8.360000 30.580000 204 225 226 0
8.140000 8.360000 30.800000 204 225 225 0
8.360000 8.360000 30.800000 205 226 226 0
8.580000 8.360000 30.800000 206 227 228 0
8.800000 8.360000 30.800000 206 227 228 0
9.020000 8.360000 30.800000 206 227 228 0
9.240000 8.360000 31.020000 206 227 228 0
9.460000 8.360000 31.020000 206 227 228 0
9.680000 8.360000 31.020000 206 227 228 0
9.900000 8.360000 31.020000 206 227 228 0
10.120000 8.360000 31.240000 207 228 229 0
10.340000 8.360000 31.240000 204 229 229 0
10.560000 8.360000 31.240000 204 229 229 0
10.780000 8.360000 31.240000 205 230 230 0
11.000000 8.360000 31.460000 205 230 230 0
11.220000 8.360000 31.460000 205 230 232 0
11.440000 8.360000 31.460000 205 230 232 0
11.660000 8.360000 33.000000 207 230 233 0
11.880000 8.360000 33.000000 207 230 233 0
12.100000 8.360000 33.000000 207 232 234 0
12.320000 8.360000 33.000000 207 232 234 0
12.540000 8.360000 34.100000 206 233 235 0
12.760000 8.360000 34.980000 206 233 235 0
12.980000 8.360000 36.080000 207 234 236 0
13.200000 8.360000 36.080000 207 234 236 0
13.420000 8.360000 36.080000 207 234 236 0
13.640000 8.360000 36.080000 208 235 237 0
13.860000 8.360000 36.300000 208 235 237 0
14.080000 8.360000 36.300000 207 234 236 0
14.300000 8.360000 36.300000 207 236 237 0
14.520000 8.360000 36.520000 207 236 237 0
14.740000 8.360000 36.520000 208 235 237 0
14.960000 8.360000 37.840000 207 234 236 0
15.180000 8.360000 38.060000 207 234 236 0
15.400000 8.360000 38.060000 207 234 236 0
15.620000 8.360000 38.060000 204 233 234 0
15.840000 8.360000 39.380000 205 234 235 0
16.060000 8.360000 31.240000 205 236 236 0
16.280000 8.360000 14.740000 207 238 238 0
16.500000 8.360000 2.420000 206 237 237 0
16.940000 8.360000 1.320000 207 238 238 0
17.160000 8.360000 2.640000 206 237 237 0
17.380000 8.360000 4.840000 199 240 241 0
17.600000 8.360000 5.720000 196 237 238 0
17.820000 8.360000 5.500000 195 233 243 0
18.040000 8.360000 5.500000 190 228 238 0
18.260000 8.360000 5.500000 185 220 235 0
18.480000 8.360000 5.720000 178 213 228 0
18.700000 8.360000 4.180000 177 209 225 0
18.920000 8.360000 4.180000 175 207 223 0
19.140000 8.360000 4.180000 174 206 222 0
19.360000 8.360000 2.860000 176 208 224 0
19.580000 8.360000 2.860000 173 210 226 0
19.800000 8.360000 2.860000 175 212 228 0
20.020000 8.360000 2.860000 173 215 232 0
20.240000 8.360000 2.860000 175 217 234 0
20.460000 8.360000 2.860000 174 221 236 0
20.680000 8.360000 2.860000 176 223 238 0
20.900000 8.360000 2.860000 179 221 238 0
21.120000 8.360000 1.540000 180 222 239 0
21.340000 8.360000 1.540000 181 224 238 0
21.560000 8.360000 1.540000 181 224 238 0
21.780000 8.360000 1.540000 178 223 237 0
22.000000 8.360000 1.540000 178 223 237 0
22.220000 8.360000 1.540000 178 225 238 0
22.440000 8.360000 1.540000 177 224 237 0
22.660000 8.360000 0.220000 179 221 238 0
22.880000 8.360000 0.220000 180 222 239 0
23.100000 8.360000 0.220000 181 222 237 0
23.320000 8.360000 0.440000 181 222 237 0
23.540000 8.360000 0.440000 177 222 238 0
23.760000 8.360000 0.440000 175 220 236 0
23.980000 8.360000 0.440000 177 222 236 0
24.200000 8.360000 1.760000 177 222 236 0
24.420000 8.360000 1.760000 179 222 236 0
24.640000 8.360000 1.760000 181 224 238 0
24.860000 8.360000 3.080000 185 228 239 0
25.080000 8.360000 4.620000 186 229 240 0
25.300000 8.360000 5.940000 189 233 239 0
25.520000 8.360000 5.940000 191 235 241 0
25.740000 8.360000 7.260000 196 236 239 0
25.960000 8.360000 7.260000 197 237 240 0
26.180000 8.360000 7.260000 193 240 241 0
26.400000 8.360000 8.800000 193 240 241 0
26.620000 8.360000 8.800000 195 240 241 0
26.840000 8.360000 8.800000 194 239 240 0
27.060000 8.360000 8.800000 194 237 241 0
27.280000 8.360000 8.800000 193 236 240 0
27.500000 8.360000 8.800000 192 231 244 0
27.720000 8.360000 10.340000 189 228 241 0
27.940000 8.360000 10.340000 189 214 231 0
28.160000 8.360000 10.340000 183 208 225 0
28.380000 8.360000 10.340000 180 198 213 0
28.600000 8.360000 10.340000 172 190 205 0
28.820000 8.360000 10.340000 177 179 187 0
29.040000 8.360000 10.340000 168 170 178 0
29.260000 8.360000 9.020000 167 164 168 0
29.480000 8.360000 9.020000 161 158 162 0
29.700000 8.360000 8.800000 164 153 156 0
29.920000 8.360000 7.480000 160 149 152 0
30.140000 8.360000 7.480000 163 146 147 0
30.360000 8.360000 6.160000 159 142 143 0
30.580000 8.360000 4.620000 160 141 140 0
30.800000 8.360000 5.940000 160 141 140 0
31.020000 8.360000 14.300000 159 139 136 0
31.240000 8.360000 28.160000 159 139 136 0
31.460000 8.360000 37.840000 159 139 136 0
31.680000 8.360000 39.160000 157 137 134 0
31.900000 8.360000 37.620000 155 135 132 0
32.120000 8.360000 36.300000 155 135 132 0
32.340000 8.360000 36.300000 156 134 131 0
32.560000 8.360000 36.300000 155 133 130 0
32.780000 8.360000 36.300000 157 133 128 0
33.000000 8.360000 36.300000 156 132 127 0
33.220000 8.360000 36.300000 157 133 128 0
33.440000 8.360000 34.760000 156 132 127 0
33.660000 8.360000 34.760000 154 132 129 0
33.880000 8.360000 34.760000 153 131 128 0
34.100000 8.360000 34.760000 155 131 128 0
34.320000 8.360000 34.760000 156 132 129 0
34.540000 8.360000 34.760000 155 131 126 0
34.760000 8.360000 34.760000 155 131 126 0
34.980000 8.360000 33.440000 156 130 126 0
35.200000 8.360000 33.440000 155 129 125 0
35.420000 8.360000 33.440000 154 130 125 0
35.640000 8.360000 33.440000 153 129 124 0
35.860000 8.360000 32.120000 155 129 125 0
36.080000 8.360000 32.120000 156 130 126 0
36.300000 8.360000 32.120000 155 129 123 0
36.520000 8.360000 32.120000 155 129 123 0
36.740000 8.360000 32.120000 156 128 122 0
36.960000 8.360000 33.440000 157 129 123 0
37.180000 8.360000 33.440000 155 129 125 0
0.000000 8.580000 25.300000 197 218 218 0
0.220000 8.580000 25.300000 196 217 217 0
0.440000 8.580000 25.300000 196 217 217 0
0.660000 8.580000 25.300000 197 218 218 0
0.880000 8.580000 25.300000 196 217 217 0
1.100000 8.580000 26.840000 198 217 218 0
1.320000 8.580000 26.840000 199 218 219 0
1.540000 8.580000 26.840000 197 218 218 0
1.760000 8.580000 26.840000 197 218 218 0
1.980000 8.580000 26.840000 199 218 219 0
2.200000 8.580000 26.840000 198 217 218 0
2.420000 8.580000 26.840000 197 218 218 0
2.640000 8.580000 26.840000 197 218 218 0
2.860000 8.580000 26.840000 199 218 219 0
3.080000 8.580000 27.060000 199 218 219 0
3.300000 8.580000 27.060000 200 219 220 0
3.520000 8.580000 28.160000 200 219 220 0
3.740000 8.580000 28.160000 200 219 220 0
3.960000 8.580000 28.160000 200 219 220 0
4.180000 8.580000 28.160000 200 221 221 0
4.400000 8.580000 28.160000 199 220 220 0
4.620000 8.580000 28.380000 201 220 221 0
4.840000 8.580000 28.600000 200 219 220 0
5.060000 8.580000 28.600000 201 220 221 0
5.280000 8.580000 28.600000 201 220 221 0
5.500000 8.580000 28.600000 201 220 221 0
5.720000 8.580000 28.600000 202 221 222 0
5.940000 8.580000 28.600000 201 222 223 0
6.160000 8.580000 29.480000 200 221 222 0
6.380000 8.580000 30.800000 201 220 221 0
6.600000 8.580000 30.580000 202 221 222 0
6.820000 8.580000 30.580000 201 222 222 0
7.040000 8.580000 30.580000 201 222 222 0
7.260000 8.580000 30.580000 203 222 224 0
7.480000 8.580000 30.580000 204 223 225 0
7.700000 8.580000 30.580000 203 224 225 0
7.920000 8.580000 30.580000 203 224 225 0
8.140000 8.580000 30.800000 203 224 224 0
8.360000 8.580000 30.800000 202 223 223 0
8.580000 8.580000 30.800000 203 224 225 0
8.800000 8.580000 30.800000 203 224 225 0
9.020000 8.580000 31.020000 204 225 226 0
9.240000 8.580000 31.020000 204 225 226 0
9.460000 8.580000 31.020000 205 226 227 0
9.680000 8.580000 31.020000 204 225 226 0
9.900000 8.580000 31.020000 204 225 226 0
10.120000 8.580000 31.240000 205 226 227 0
10.340000 8.580000 31.240000 202 227 227 0
10.560000 8.580000 32.560000 203 228 228 0
10.780000 8.580000 32.780000 203 228 228 0
11.000000 8.580000 32.780000 203 228 228 0
11.220000 8.580000 32.780000 203 228 230 0
11.440000 8.580000 33.000000 204 229 231 0
11.660000 8.580000 33.000000 205 228 231 0
11.880000 8.580000 33.000000 205 228 231 0
12.100000 8.580000 33.000000 205 230 232 0
12.320000 8.580000 32.780000 206 231 233 0
12.540000 8.580000 34.980000 203 230 232 0
12.760000 8.580000 36.080000 204 231 233 0
12.980000 8.580000 36.080000 204 231 233 0
13.200000 8.580000 36.080000 205 232 234 0
13.420000 8.580000 36.080000 205 232 234 0
13.640000 8.580000 36.300000 206 233 235 0
13.860000 8.580000 36.300000 206 233 235 0
14.080000 8.580000 36.300000 207 234 236 0
14.300000 8.580000 36.300000 205 234 235 0
14.520000 8.580000 36.520000 204 233 234 0
14.740000 8.580000 37.840000 206 233 235 0
14.960000 8.580000 37.840000 204 231 233 0
15.180000 8.580000 38.060000 206 233 235 0
15.400000 8.580000 38.060000 205 232 234 0
15.620000 8.580000 38.060000 203 232 233 0
15.840000 8.580000 39.380000 203 232 233 0
16.060000 8.580000 29.920000 203 234 234 0
16.280000 8.580000 9.240000 206 237 237 0
16.720000 8.580000 1.100000 206 237 237 0
16.940000 8.580000 1.320000 206 237 237 0
17.160000 8.580000 2.420000 207 238 238 0
17.380000 8.580000 4.620000 199 240 241 0
17.600000 8.580000 5.720000 196 237 238 0
17.820000 8.580000 5.500000 193 231 241 0
18.040000 8.580000 5.500000 189 227 237 0
18.260000 8.580000 5.500000 185 220 235 0
18.480000 8.580000 5.720000 179 214 229 0
18.700000 8.580000 4.180000 176 208 224 0
18.920000 8.580000 4.180000 175 207 223 0
19.140000 8.580000 4.180000 173 205 221 0
19.360000 8.580000 4.180000 174 206 222 0
19.580000 8.580000 2.860000 172 209 225 0
19.800000 8.580000 2.860000 175 212 228 0
20.020000 8.580000 2.860000 173 215 232 0
20.240000 8.580000 2.860000 174 216 233 0
20.460000 8.580000 2.860000 172 219 234 0
20.680000 8.580000 2.860000 174 221 236 0
20.900000 8.580000 2.860000 178 220 237 0
21.120000 8.580000 2.860000 179 221 238 0
21.340000 8.580000 1.540000 180 223 237 0
21.560000 8.580000 1.540000 180 223 237 0
21.780000 8.580000 1.540000 178 223 237 0
22.000000 8.580000 1.540000 178 223 237 0
22.220000 8.580000 1.540000 176 223 236 0
22.440000 8.580000 1.540000 177 224 237 0
22.660000 8.580000 0.220000 179 221 238 0
22.880000 8.580000 0.220000 178 220 237 0
23.100000 8.580000 0.220000 180 221 236 0
23.320000 8.580000 0.440000 179 220 235 0
23.540000 8.580000 0.440000 178 223 239 0
23.760000 8.580000 0.440000 176 221 237 0
23.980000 8.580000 0.440000 176 221 235 0
24.200000 8.580000 1.760000 176 221 235 0
24.420000 8.580000 1.760000 180 223 237 0
24.640000 8.580000 3.300000 181 224 238 0
24.860000 8.580000 3.080000 183 226 237 0
25.080000 8.580000 4.620000 186 229 240 0
25.300000 8.580000 5.940000 188 232 238 0
25.520000 8.580000 5.940000 190 234 240 0
25.740000 8.580000 7.260000 196 236 239 0
25.960000 8.580000 7.260000 197 237 240 0
26.180000 8.580000 8.800000 192 239 240 0
26.400000 8.580000 8.800000 192 239 240 0
26.620000 8.580000 8.800000 195 240 241 0
26.840000 8.580000 8.800000 194 239 240 0
27.060000 8.580000 8.800000 193 236 240 0
27.280000 8.580000 8.800000 191 234 238 0
27.500000 8.580000 10.340000 191 230 243 0
27.720000 8.580000 10.340000 186 225 238 0
27.940000 8.580000 10.340000 187 212 229 0
28.160000 8.580000 10.340000 183 208 225 0
28.380000 8.580000 10.340000 180 198 213 0
28.600000 8.580000 10.340000 171 189 204 0
28.820000 8.580000 10.340000 175 177 185 0
29.040000 8.580000 10.340000 168 170 178 0
29.260000 8.580000 10.340000 166 163 167 0
29.480000 8.580000 9.020000 161 158 162 0
29.700000 8.580000 8.800000 161 150 153 0
29.920000 8.580000 8.800000 159 148 151 0
30.140000 8.580000 7.480000 161 144 145 0
30.360000 8.580000 7.480000 159 142 143 0
30.580000 8.580000 4.620000 160 141 140 0
30.800000 8.580000 3.300000 159 140 139 0
31.020000 8.580000 5.940000 158 138 135 0
31.240000 8.580000 15.620000 159 139 136 0
31.460000 8.580000 28.160000 157 137 134 0
31.680000 8.580000 36.300000 155 135 132 0
31.900000 8.580000 37.620000 155 135 132 0
32.120000 8.580000 36.300000 155 135 132 0
32.340000 8.580000 36.300000 156 134 131 0
32.560000 8.580000 36.300000 155 133 130 0
32.780000 8.580000 36.300000 156 132 127 0
33.000000 8.580000 36.300000 156 132 127 0
33.220000 8.580000 34.760000 156 132 127 0
33.440000 8.580000 34.760000 156 132 127 0
33.660000 8.580000 33.440000 153 131 128 0
33.880000 8.580000 33.440000 153 131 128 0
34.100000 8.580000 34.760000 155 131 128 0
34.320000 8.580000 34.980000 154 130 127 0
34.540000 8.580000 33.440000 155 131 126 0
34.760000 8.580000 33.440000 153 129 124 0
34.980000 8.580000 33.440000 155 129 125 0
35.200000 8.580000 33.440000 155 129 125 0
35.420000 8.580000 33.440000 154 130 125 0
35.640000 8.580000 33.440000 153 129 124 0
35.860000 8.580000 33.440000 155 129 125 0
36.080000 8.580000 32.120000 155 129 125 0
36.300000 8.580000 32.120000 155 129 123 0
36.520000 8.580000 33.440000 154 128 122 0
36.740000 8.580000 33.440000 156 128 122 0
36.960000 8.580000 33.440000 156 128 122 0
37.180000 8.580000 33.440000 154 128 124 0
0.000000 8.800000 25.300000 197 218 218 0
0.220000 8.800000 26.620000 197 218 218 0
0.440000 8.800000 26.620000 197 218 218 0
0.660000 8.800000 26.840000 196 217 218 0
0.880000 8.800000 26.840000 197 218 219 0
1.100000 8.800000 26.840000 197 218 218 0
1.320000 8.800000 26.840000 198 219 219 0
1.540000 8.800000 26.840000 197 218 218 0
1.760000 8.800000 26.840000 198 219 219 0
1.980000 8.800000 26.840000 198 219 219 0
2.200000 8.800000 27.060000 198 219 219 0
2.420000 8.800000 27.060000 198 219 219 0
2.640000 8.800000 27.060000 198 219 219 0
2.860000 8.800000 27.280000 198 219 219 0
3.080000 8.800000 27.280000 198 219 219 0
3.300000 8.800000 27.280000 198 219 219 0
3.520000 8.800000 28.600000 198 219 219 0
3.740000 8.800000 29.480000 199 220 220 0
3.960000 8.800000 29.480000 198 219 219 0
4.180000 8.800000 29.480000 199 220 220 0
4.400000 8.800000 30.580000 199 220 220 0
4.620000 8.800000 29.260000 199 220 220 0
4.840000 8.800000 29.480000 199 220 220 0
5.060000 8.800000 29.480000 200 221 221 0
5.280000 8.800000 29.480000 200 221 221 0
5.500000 8.800000 29.480000 199 220 220 0
5.720000 8.800000 29.480000 199 220 220 0
5.940000 8.800000 30.800000 199 220 220 0
6.160000 8.800000 30.580000 199 220 220 0
6.380000 8.800000 30.580000 200 221 221 0
6.600000 8.800000 30.580000 200 221 221 0
6.820000 8.800000 30.580000 200 221 221 0
7.040000 8.800000 30.580000 200 221 221 0
7.260000 8.800000 32.120000 201 220 222 0
7.480000 8.800000 32.120000 201 220 222 0
7.700000 8.800000 32.120000 200 221 221 0
7.920000 8.800000 32.120000 201 222 222 0
8.140000 8.800000 32.120000 201 222 222 0
8.360000 8.800000 32.120000 202 223 223 0
8.580000 8.800000 32.340000 203 224 224 0
8.800000 8.800000 32.340000 201 222 222 0
9.020000 8.800000 32.340000 202 223 224 0
9.240000 8.800000 32.340000 203 224 225 0
9.460000 8.800000 32.340000 202 223 223 0
9.680000 8.800000 32.560000 204 225 225 0
9.900000 8.800000 32.560000 204 225 226 0
10.120000 8.800000 32.560000 202 223 224 0
10.340000 8.800000 32.560000 203 224 225 0
10.560000 8.800000 32.780000 203 224 225 0
10.780000 8.800000 32.780000 203 224 225 0
11.000000 8.800000 32.780000 203 224 225 0
11.220000 8.800000 32.780000 204 225 226 0
11.440000 8.800000 33.000000 205 226 227 0
11.660000 8.800000 33.000000 203 226 227 0
11.880000 8.800000 33.000000 203 226 227 0
12.100000 8.800000 33.000000 204 227 228 0
12.320000 8.800000 34.100000 204 227 228 0
12.540000 8.800000 34.760000 204 227 230 0
12.760000 8.800000 36.080000 204 227 230 0
12.980000 8.800000 36.080000 203 228 228 0
13.200000 8.800000 36.080000 204 229 229 0
13.420000 8.800000 36.080000 205 230 230 0
13.640000 8.800000 36.300000 206 231 231 0
13.860000 8.800000 36.300000 206 231 233 0
14.080000 8.800000 37.620000 206 231 233 0
14.300000 8.800000 37.840000 204 231 235 0
14.520000 8.800000 37.840000 204 231 235 0
14.740000 8.800000 37.840000 203 230 232 0
14.960000 8.800000 37.840000 204 231 233 0
15.180000 8.800000 38.060000 205 230 232 0
15.400000 8.800000 38.060000 206 231 233 0
15.620000 8.800000 39.380000 203 232 235 0
15.840000 8.800000 36.740000 203 232 235 0
16.060000 8.800000 24.420000 205 234 237 0
16.280000 8.800000 6.600000 207 236 239 0
16.720000 8.800000 1.320000 207 236 237 0
16.940000 8.800000 1.320000 206 237 237 0
17.160000 8.800000 2.420000 206 237 237 0
17.380000 8.800000 4.620000 203 236 238 0
17.600000 8.800000 5.720000 202 235 237 0
17.820000 8.800000 5.500000 200 232 242 0
18.040000 8.800000 5.500000 195 227 237 0
18.260000 8.800000 5.500000 185 220 235 0
18.480000 8.800000 5.720000 179 214 229 0
18.700000 8.800000 5.720000 174 210 221 0
18.920000 8.800000 4.180000 171 207 218 0
19.140000 8.800000 4.180000 173 204 217 0
19.360000 8.800000 4.180000 174 205 218 0
19.580000 8.800000 4.180000 173 208 223 0
19.800000 8.800000 2.860000 175 210 225 0
20.020000 8.800000 2.860000 173 214 229 0
20.240000 8.800000 2.860000 175 216 231 0
20.460000 8.800000 2.860000 175 217 234 0
20.680000 8.800000 2.860000 177 219 236 0
20.900000 8.800000 2.860000 178 220 237 0
21.120000 8.800000 2.860000 179 221 238 0
21.340000 8.800000 2.860000 177 222 238 0
21.560000 8.800000 1.540000 177 222 238 0
21.780000 8.800000 1.540000 177 222 238 0
22.000000 8.800000 1.540000 177 222 238 0
22.220000 8.800000 1.540000 179 221 238 0
22.440000 8.800000 1.540000 178 220 237 0
22.660000 8.800000 0.220000 179 221 238 0
22.880000 8.800000 0.220000 178 220 237 0
23.100000 8.800000 0.440000 179 220 235 0
23.320000 8.800000 0.440000 180 221 236 0
23.540000 8.800000 0.440000 178 221 235 0
23.760000 8.800000 0.440000 178 221 235 0
23.980000 8.800000 0.440000 179 220 235 0
24.200000 8.800000 1.760000 179 220 235 0
24.420000 8.800000 1.760000 179 220 235 0
24.640000 8.800000 3.300000 181 222 237 0
24.860000 8.800000 4.620000 182 225 237 0
25.080000 8.800000 4.620000 185 228 240 0
25.300000 8.800000 5.940000 187 229 238 0
25.520000 8.800000 7.260000 189 231 240 0
25.740000 8.800000 7.260000 194 234 239 0
25.960000 8.800000 7.260000 196 236 241 0
26.180000 8.800000 8.800000 194 237 239 0
26.400000 8.800000 8.800000 195 238 240 0
26.620000 8.800000 8.800000 197 237 240 0
26.840000 8.800000 8.800000 197 237 240 0
27.060000 8.800000 8.800000 196 234 242 0
27.280000 8.800000 8.800000 195 233 241 0
27.500000 8.800000 10.340000 195 226 241 0
27.720000 8.800000 10.340000 189 220 235 0
27.940000 8.800000 10.340000 190 213 224 0
28.160000 8.800000 10.340000 184 207 218 0
28.380000 8.800000 10.340000 185 197 208 0
28.600000 8.800000 10.340000 176 188 199 0
28.820000 8.800000 10.340000 177 174 186 0
29.040000 8.800000 10.340000 169 166 178 0
29.260000 8.800000 10.340000 169 159 163 0
29.480000 8.800000 10.340000 165 155 159 0
29.700000 8.800000 9.020000 164 149 149 0
29.920000 8.800000 8.800000 161 146 146 0
30.140000 8.800000 8.800000 163 144 143 0
30.360000 8.800000 7.480000 159 140 139 0
30.580000 8.800000 6.160000 160 140 137 0
30.800000 8.800000 4.620000 158 138 135 0
31.020000 8.800000 4.620000 158 138 135 0
31.240000 8.800000 7.260000 158 138 135 0
31.460000 8.800000 16.940000 155 135 132 0
31.680000 8.800000 27.940000 155 135 132 0
31.900000 8.800000 33.440000 156 134 131 0
32.120000 8.800000 34.760000 155 133 130 0
32.340000 8.800000 34.760000 156 132 127 0
32.560000 8.800000 36.300000 156 132 127 0
32.780000 8.800000 36.300000 156 132 127 0
33.000000 8.800000 34.760000 156 132 127 0
33.220000 8.800000 34.760000 155 131 128 0
33.440000 8.800000 33.440000 155 131 128 0
33.660000 8.800000 32.120000 153 129 124 0
33.880000 8.800000 33.440000 155 131 126 0
34.100000 8.800000 34.760000 156 130 126 0
34.320000 8.800000 34.980000 155 129 125 0
34.540000 8.800000 33.440000 154 128 124 0
34.760000 8.800000 32.120000 154 128 124 0
34.980000 8.800000 32.120000 153 129 124 0
35.200000 8.800000 32.120000 153 129 124 0
35.420000 8.800000 33.440000 154 128 124 0
35.640000 8.800000 33.440000 154 128 124 0
35.860000 8.800000 33.440000 156 128 122 0
36.080000 8.800000 32.120000 156 128 122 0
36.300000 8.800000 33.440000 157 129 123 0
36.520000 8.800000 33.440000 156 128 122 0
36.740000 8.800000 33.440000 153 127 123 0
36.960000 8.800000 33.440000 154 128 124 0
37.180000 8.800000 33.440000 153 127 121 0
0.000000 9.020000 26.620000 196 217 217 0
0.220000 9.020000 26.620000 197 218 218 0
0.440000 9.020000 26.840000 197 218 218 0
0.660000 9.020000 26.840000 197 218 219 0
0.880000 9.020000 26.840000 197 218 219 0
1.100000 9.020000 26.840000 198 219 219 0
1.320000 9.020000 26.840000 198 219 219 0
1.540000 9.020000 26.840000 197 218 218 0
1.760000 9.020000 27.060000 198 219 219 0
1.980000 9.020000 27.060000 198 219 219 0
2.200000 9.020000 27.280000 198 219 219 0
2.420000 9.020000 27.280000 198 219 219 0
2.640000 9.020000 27.280000 198 219 219 0
2.860000 9.020000 27.500000 197 218 218 0
3.080000 9.020000 27.500000 198 219 219 0
3.300000 9.020000 27.280000 198 219 219 0
3.520000 9.020000 28.380000 198 219 219 0
3.740000 9.020000 29.480000 199 220 220 0
3.960000 9.020000 30.580000 198 219 219 0
4.180000 9.020000 30.580000 198 219 219 0
4.400000 9.020000 30.580000 198 219 219 0
4.620000 9.020000 30.580000 198 219 219 0
4.840000 9.020000 30.580000 197 218 218 0
5.060000 9.020000 30.580000 198 219 219 0
5.280000 9.020000 30.580000 199 220 220 0
5.500000 9.020000 30.580000 199 220 220 0
5.720000 9.020000 30.580000 199 220 220 0
5.940000 9.020000 30.800000 199 220 220 0
6.160000 9.020000 30.800000 198 219 219 0
6.380000 9.020000 30.800000 199 220 220 0
6.600000 9.020000 32.120000 199 220 220 0
6.820000 9.020000 32.120000 199 220 220 0
7.040000 9.020000 32.120000 199 220 220 0
7.260000 9.020000 32.120000 201 220 222 0
7.480000 9.020000 32.120000 200 219 221 0
7.700000 9.020000 32.120000 200 221 221 0
7.920000 9.020000 32.340000 200 221 221 0
8.140000 9.020000 32.340000 200 221 221 0
8.360000 9.020000 32.340000 200 221 221 0
8.580000 9.020000 32.340000 201 222 222 0
8.800000 9.020000 32.340000 201 222 222 0
9.020000 9.020000 32.340000 201 222 223 0
9.240000 9.020000 32.340000 201 222 223 0
9.460000 9.020000 32.340000 201 222 222 0
9.680000 9.020000 32.560000 200 221 221 0
9.900000 9.020000 32.560000 201 222 223 0
10.120000 9.020000 32.560000 200 221 222 0
10.340000 9.020000 32.780000 201 222 223 0
10.560000 9.020000 32.780000 201 222 223 0
10.780000 9.020000 32.780000 201 222 223 0
11.000000 9.020000 32.780000 200 221 222 0
11.220000 9.020000 33.000000 201 222 223 0
11.440000 9.020000 33.000000 202 223 224 0
11.660000 9.020000 33.000000 200 223 224 0
11.880000 9.020000 33.000000 201 224 225 0
12.100000 9.020000 34.100000 201 224 225 0
12.320000 9.020000 34.980000 201 224 225 0
12.540000 9.020000 36.080000 203 226 229 0
12.760000 9.020000 36.080000 202 225 228 0
12.980000 9.020000 36.080000 202 227 227 0
13.200000 9.020000 36.080000 201 226 226 0
13.420000 9.020000 36.080000 202 227 227 0
13.640000 9.020000 37.620000 203 228 228 0
13.860000 9.020000 37.620000 204 229 231 0
14.080000 9.020000 37.620000 203 228 230 0
14.300000 9.020000 37.840000 201 228 232 0
14.520000 9.020000 37.840000 201 228 232 0
14.740000 9.020000 37.840000 203 230 232 0
14.960000 9.020000 37.840000 202 229 231 0
15.180000 9.020000 38.060000 205 230 232 0
15.400000 9.020000 39.380000 205 230 232 0
15.620000 9.020000 39.380000 202 231 234 0
15.840000 9.020000 32.560000 204 233 236 0
16.060000 9.020000 14.740000 206 235 238 0
16.280000 9.020000 2.420000 207 236 239 0
16.500000 9.020000 1.100000 207 236 237 0
16.720000 9.020000 1.320000 208 237 238 0
16.940000 9.020000 2.640000 206 237 237 0
17.160000 9.020000 2.640000 206 237 237 0
17.380000 9.020000 3.520000 204 237 239 0
17.600000 9.020000 5.720000 203 236 238 0
17.820000 9.020000 7.040000 197 229 239 0
18.040000 9.020000 7.040000 193 225 235 0
18.260000 9.020000 5.720000 185 220 235 0
18.480000 9.020000 5.720000 177 212 227 0
18.700000 9.020000 5.720000 173 209 220 0
18.920000 9.020000 4.180000 171 207 218 0
19.140000 9.020000 4.180000 174 205 218 0
19.360000 9.020000 4.180000 173 204 217 0
19.580000 9.020000 4.180000 171 206 221 0
19.800000 9.020000 4.180000 173 208 223 0
20.020000 9.020000 2.860000 172 213 228 0
20.240000 9.020000 2.860000 174 215 230 0
20.460000 9.020000 2.860000 174 216 233 0
20.680000 9.020000 2.860000 176 218 235 0
20.900000 9.020000 2.860000 177 219 236 0
21.120000 9.020000 2.860000 178 220 237 0
21.340000 9.020000 2.860000 176 221 237 0
21.560000 9.020000 2.860000 175 220 236 0
21.780000 9.020000 1.540000 175 220 236 0
22.000000 9.020000 1.540000 176 221 237 0
22.220000 9.020000 1.540000 178 220 237 0
22.440000 9.020000 1.540000 178 220 237 0
22.660000 9.020000 0.220000 177 219 236 0
22.880000 9.020000 0.440000 177 219 236 0
23.100000 9.020000 0.440000 178 219 234 0
23.320000 9.020000 0.440000 178 219 234 0
23.540000 9.020000 0.440000 176 219 233 0
23.760000 9.020000 0.440000 176 219 233 0
23.980000 9.020000 0.440000 177 218 233 0
24.200000 9.020000 1.760000 177 218 233 0
24.420000 9.020000 1.760000 178 219 234 0
24.640000 9.020000 3.300000 179 220 235 0
24.860000 9.020000 4.620000 180 223 235 0
25.080000 9.020000 5.940000 182 225 237 0
25.300000 9.020000 5.940000 186 228 237 0
25.520000 9.020000 7.260000 188 230 239 0
25.740000 9.020000 7.260000 192 232 237 0
25.960000 9.020000 7.260000 193 233 238 0
26.180000 9.020000 8.800000 193 236 238 0
26.400000 9.020000 8.800000 194 237 239 0
26.620000 9.020000 8.800000 197 237 240 0
26.840000 9.020000 8.800000 195 235 238 0
27.060000 9.020000 8.800000 195 233 241 0
27.280000 9.020000 8.800000 193 231 239 0
27.500000 9.020000 10.340000 193 224 239 0
27.720000 9.020000 10.340000 188 219 234 0
27.940000 9.020000 10.340000 188 211 222 0
28.160000 9.020000 10.340000 181 204 215 0
28.380000 9.020000 10.340000 183 195 206 0
28.600000 9.020000 10.340000 176 188 199 0
28.820000 9.020000 10.340000 176 173 185 0
29.040000 9.020000 10.340000 168 165 177 0
29.260000 9.020000 10.340000 167 157 161 0
29.480000 9.020000 10.340000 163 153 157 0
29.700000 9.020000 10.340000 164 149 149 0
29.920000 9.020000 8.800000 160 145 145 0
30.140000 9.020000 8.800000 162 143 142 0
30.360000 9.020000 7.480000 158 139 138 0
30.580000 9.020000 7.480000 159 139 136 0
30.800000 9.020000 5.940000 157 137 134 0
31.020000 9.020000 3.300000 156 136 133 0
31.240000 9.020000 8.800000 155 135 132 0
31.460000 9.020000 18.480000 154 134 131 0
31.680000 9.020000 25.300000 154 134 131 0
31.900000 9.020000 32.120000 154 132 129 0
32.120000 9.020000 34.980000 153 131 128 0
32.340000 9.020000 33.440000 155 131 126 0
32.560000 9.020000 34.980000 155 131 126 0
32.780000 9.020000 36.300000 155 131 126 0
33.000000 9.020000 36.300000 154 130 125 0
33.220000 9.020000 34.980000 155 131 128 0
33.440000 9.020000 33.440000 153 129 126 0
33.660000 9.020000 32.120000 153 129 124 0
33.880000 9.020000 33.440000 154 130 125 0
34.100000 9.020000 33.440000 155 129 125 0
34.320000 9.020000 33.440000 154 128 124 0
34.540000 9.020000 32.120000 154 128 124 0
34.760000 9.020000 32.120000 154 128 124 0
34.980000 9.020000 32.120000 152 128 123 0
35.200000 9.020000 32.120000 153 129 124 0
35.420000 9.020000 32.120000 153 127 123 0
35.640000 9.020000 32.120000 153 127 123 0
35.860000 9.020000 32.120000 155 127 121 0
36.080000 9.020000 32.120000 156 128 122 0
36.300000 9.020000 33.440000 156 128 122 0
36.520000 9.020000 33.440000 155 127 121 0
36.740000 9.020000 32.120000 154 128 124 0
36.960000 9.020000 32.120000 153 127 123 0
37.180000 9.020000 32.120000 153 127 121 0
0.000000 9.240000 26.620000 198 217 218 0
0.220000 9.240000 26.620000 198 217 218 0
0.440000 9.240000 26.620000 198 217 218 0
0.660000 9.240000 26.620000 197 218 218 0
0.880000 9.240000 26.840000 197 218 218 0
1.100000 9.240000 28.160000 199 218 219 0
1.320000 9.240000 28.160000 200 219 220 0
1.540000 9.240000 28.160000 197 218 218 0
1.760000 9.240000 27.060000 198 219 219 0
1.980000 9.240000 27.060000 198 219 219 0
2.200000 9.240000 27.060000 198 219 219 0
2.420000 9.240000 27.280000 199 218 219 0
2.640000 9.240000 27.280000 199 218 219 0
2.860000 9.240000 28.600000 199 218 219 0
3.080000 9.240000 28.600000 199 218 219 0
3.300000 9.240000 29.480000 198 219 219 0
3.520000 9.240000 29.260000 198 219 219 0
3.740000 9.240000 30.580000 199 220 220 0
3.960000 9.240000 30.580000 199 220 220 0
4.180000 9.240000 30.580000 198 219 219 0
4.400000 9.240000 30.580000 199 220 220 0
4.620000 9.240000 30.580000 200 219 220 0
4.840000 9.240000 30.580000 199 218 219 0
5.060000 9.240000 30.580000 198 219 220 0
5.280000 9.240000 30.800000 199 220 221 0
5.500000 9.240000 32.120000 199 220 221 0
5.720000 9.240000 32.120000 198 219 220 0
5.940000 9.240000 32.120000 198 219 219 0
6.160000 9.240000 32.120000 198 219 219 0
6.380000 9.240000 32.120000 199 218 219 0
6.600000 9.240000 32.340000 200 219 220 0
6.820000 9.240000 32.340000 198 219 220 0
7.040000 9.240000 32.340000 199 220 221 0
7.260000 9.240000 32.340000 199 220 221 0
7.480000 9.240000 32.340000 198 219 220 0
7.700000 9.240000 32.340000 199 220 221 0
7.920000 9.240000 32.340000 199 220 221 0
8.140000 9.240000 32.340000 200 219 220 0
8.360000 9.240000 32.560000 200 219 220 0
8.580000 9.240000 32.560000 200 221 222 0
8.800000 9.240000 32.560000 200 221 222 0
9.020000 9.240000 32.560000 200 221 222 0
9.240000 9.240000 32.560000 200 221 222 0
9.460000 9.240000 32.560000 199 220 221 0
9.680000 9.240000 32.780000 199 220 221 0
9.900000 9.240000 32.780000 200 219 220 0
10.120000 9.240000 32.780000 201 220 221 0
10.340000 9.240000 32.780000 200 221 222 0
10.560000 9.240000 32.780000 199 220 221 0
10.780000 9.240000 33.000000 199 220 221 0
11.000000 9.240000 33.000000 200 221 222 0
11.220000 9.240000 33.000000 201 220 222 0
11.440000 9.240000 33.000000 202 221 223 0
11.660000 9.240000 34.320000 202 221 222 0
11.880000 9.240000 34.100000 202 221 222 0
12.100000 9.240000 34.980000 201 222 223 0
12.320000 9.240000 36.080000 201 222 223 0
12.540000 9.240000 36.080000 202 223 224 0
12.760000 9.240000 36.080000 202 223 224 0
12.980000 9.240000 36.080000 203 222 224 0
13.200000 9.240000 37.620000 203 222 224 0
13.420000 9.240000 37.620000 204 223 225 0
13.640000 9.240000 37.620000 205 224 226 0
13.860000 9.240000 37.620000 201 226 228 0
14.080000 9.240000 37.840000 202 227 229 0
14.300000 9.240000 37.840000 200 227 229 0
14.520000 9.240000 37.840000 200 227 229 0
14.740000 9.240000 37.840000 201 228 232 0
14.960000 9.240000 38.060000 202 229 233 0
15.180000 9.240000 39.380000 204 231 233 0
15.400000 9.240000 36.740000 204 231 233 0
15.620000 9.240000 32.560000 204 233 234 0
15.840000 9.240000 23.100000 205 234 235 0
16.060000 9.240000 7.920000 206 235 236 0
16.500000 9.240000 1.100000 208 237 238 0
16.720000 9.240000 2.640000 208 237 238 0
16.940000 9.240000 2.640000 208 237 238 0
17.160000 9.240000 2.640000 208 237 238 0
17.380000 9.240000 5.060000 206 236 239 0
17.600000 9.240000 5.720000 205 235 238 0
17.820000 9.240000 7.040000 196 234 240 0
18.040000 9.240000 7.040000 190 228 234 0
18.260000 9.240000 7.040000 188 221 235 0
18.480000 9.240000 5.720000 180 213 227 0
18.700000 9.240000 5.720000 177 208 221 0
18.920000 9.240000 5.720000 175 206 219 0
19.140000 9.240000 4.180000 175 204 215 0
19.360000 9.240000 4.180000 176 205 216 0
19.580000 9.240000 4.180000 171 206 221 0
19.800000 9.240000 4.180000 172 207 222 0
20.020000 9.240000 4.180000 173 211 227 0
20.240000 9.240000 2.860000 176 214 230 0
20.460000 9.240000 2.860000 174 216 233 0
20.680000 9.240000 2.860000 175 217 234 0
20.900000 9.240000 2.860000 176 219 233 0
21.120000 9.240000 2.860000 177 220 234 0
21.340000 9.240000 2.860000 179 220 235 0
21.560000 9.240000 2.860000 178 219 234 0
21.780000 9.240000 1.540000 178 219 234 0
22.000000 9.240000 1.540000 178 219 234 0
22.220000 9.240000 1.540000 178 219 236 0
22.440000 9.240000 1.540000 178 219 236 0
22.660000 9.240000 1.760000 179 217 233 0
22.880000 9.240000 0.440000 180 218 234 0
23.100000 9.240000 0.440000 180 217 233 0
23.320000 9.240000 0.440000 179 216 232 0
23.540000 9.240000 0.440000 178 216 232 0
23.760000 9.240000 0.440000 179 217 233 0
23.980000 9.240000 1.760000 179 217 233 0
24.200000 9.240000 1.760000 179 217 233 0
24.420000 9.240000 3.300000 181 218 234 0
24.640000 9.240000 3.300000 181 218 234 0
24.860000 9.240000 4.620000 184 221 235 0
25.080000 9.240000 5.940000 185 222 236 0
25.300000 9.240000 7.260000 191 224 236 0
25.520000 9.240000 7.260000 193 226 238 0
25.740000 9.240000 7.260000 198 227 238 0
25.960000 9.240000 8.800000 199 228 239 0
26.180000 9.240000 8.800000 194 232 238 0
26.400000 9.240000 8.800000 196 234 240 0
26.620000 9.240000 8.800000 201 230 239 0
26.840000 9.240000 8.800000 201 230 239 0
27.060000 9.240000 8.800000 201 228 240 0
27.280000 9.240000 8.800000 198 225 237 0
27.500000 9.240000 10.340000 197 220 233 0
27.720000 9.240000 10.340000 194 217 230 0
27.940000 9.240000 10.340000 190 208 215 0
28.160000 9.240000 10.340000 185 203 210 0
28.380000 9.240000 10.340000 185 193 203 0
28.600000 9.240000 10.340000 177 185 195 0
28.820000 9.240000 10.340000 177 171 178 0
29.040000 9.240000 10.340000 171 165 172 0
29.260000 9.240000 10.340000 167 156 157 0
29.480000 9.240000 10.340000 163 152 153 0
29.700000 9.240000 10.340000 162 147 147 0
29.920000 9.240000 8.800000 159 144 144 0
30.140000 9.240000 8.800000 161 140 140 0
30.360000 9.240000 7.480000 159 138 138 0
30.580000 9.240000 7.480000 157 137 133 0
30.800000 9.240000 6.160000 156 136 132 0
31.020000 9.240000 3.300000 156 134 131 0
31.240000 9.240000 10.120000 155 133 130 0
31.460000 9.240000 25.300000 154 132 129 0
31.680000 9.240000 30.800000 155 133 130 0
31.900000 9.240000 30.800000 156 132 129 0
32.120000 9.240000 33.440000 154 130 127 0
32.340000 9.240000 33.440000 154 130 127 0
32.560000 9.240000 33.660000 155 131 128 0
32.780000 9.240000 34.980000 154 130 125 0
33.000000 9.240000 34.980000 153 129 124 0
33.220000 9.240000 34.760000 153 129 124 0
33.440000 9.240000 34.760000 153 129 124 0
33.660000 9.240000 33.440000 154 128 124 0
33.880000 9.240000 33.440000 154 128 124 0
34.100000 9.240000 34.760000 153 129 124 0
34.320000 9.240000 33.440000 152 128 123 0
34.540000 9.240000 32.120000 154 128 124 0
34.760000 9.240000 32.120000 153 127 123 0
34.980000 9.240000 32.120000 151 127 122 0
35.200000 9.240000 32.120000 152 128 123 0
35.420000 9.240000 32.120000 153 127 123 0
35.640000 9.240000 32.120000 151 125 121 0
35.860000 9.240000 32.120000 155 127 121 0
36.080000 9.240000 32.120000 155 127 121 0
36.300000 9.240000 32.120000 155 127 121 0
36.520000 9.240000 32.120000 156 128 122 0
36.740000 9.240000 32.120000 154 126 120 0
36.960000 9.240000 32.120000 154 126 120 0
37.180000 9.240000 32.120000 154 126 120 0
0.000000 9.460000 26.620000 199 218 219 0
0.220000 9.460000 27.940000 199 218 219 0
0.440000 9.460000 27.940000 198 217 218 0
0.660000 9.460000 27.940000 198 219 219 0
0.880000 9.460000 27.940000 197 218 218 0
1.100000 9.460000 27.940000 200 219 220 0
1.320000 9.460000 29.260000 199 218 219 0
1.540000 9.460000 29.260000 199 220 220 0
1.760000 9.460000 29.480000 198 219 219 0
1.980000 9.460000 29.480000 198 219 219 0
2.200000 9.460000 29.480000 198 219 219 0
