ply
format ascii 1.0
element vertex 1146
property float x
property float y
property float z
property uchar red
property uchar green
property uchar blue
property uchar alpha
end_header
34.980000 34.540000 16.940000 152 85 90 0
35.200000 34.540000 16.940000 153 86 91 0
35.420000 34.540000 16.830000 153 86 91 0
35.640000 34.540000 16.720000 154 84 89 0
35.860000 34.540000 16.060000 154 84 89 0
36.080000 34.540000 16.170000 155 84 87 0
36.300000 34.540000 16.060000 154 83 86 0
36.520000 34.540000 16.060000 154 82 88 0
36.740000 34.540000 15.950000 154 82 88 0
36.960000 34.540000 16.060000 154 81 85 0
37.180000 34.540000 16.060000 152 79 83 0
0.000000 34.760000 18.040000 136 79 67 0
0.220000 34.760000 18.150000 136 79 67 0
0.440000 34.760000 18.040000 134 80 67 0
0.660000 34.760000 18.040000 134 80 67 0
0.880000 34.760000 18.150000 135 78 66 0
1.100000 34.760000 18.150000 136 79 67 0
1.320000 34.760000 18.810000 136 79 67 0
1.540000 34.760000 18.810000 136 79 67 0
1.760000 34.760000 18.700000 137 79 70 0
1.980000 34.760000 18.700000 137 79 70 0
2.200000 34.760000 18.700000 137 79 70 0
2.420000 34.760000 18.810000 137 79 70 0
2.640000 34.760000 18.810000 138 80 71 0
2.860000 34.760000 18.810000 139 81 72 0
3.080000 34.760000 18.810000 140 81 72 0
3.300000 34.760000 18.810000 139 80 71 0
3.520000 34.760000 18.810000 139 81 72 0
3.740000 34.760000 18.810000 140 82 73 0
3.960000 34.760000 18.810000 141 82 73 0
4.180000 34.760000 18.810000 141 82 73 0
4.400000 34.760000 18.810000 141 82 73 0
4.620000 34.760000 18.810000 141 82 73 0
4.840000 34.760000 18.810000 141 82 73 0
5.060000 34.760000 18.810000 142 83 74 0
5.280000 34.760000 18.810000 142 82 76 0
5.500000 34.760000 19.470000 144 84 78 0
5.720000 34.760000 19.470000 143 83 77 0
5.940000 34.760000 18.810000 144 84 78 0
6.160000 34.760000 19.470000 144 84 78 0
6.380000 34.760000 19.470000 145 85 79 0
6.600000 34.760000 19.470000 145 85 79 0
6.820000 34.760000 19.470000 144 84 78 0
7.040000 34.760000 19.470000 145 85 79 0
7.260000 34.760000 19.470000 146 86 80 0
7.480000 34.760000 19.470000 145 87 80 0
7.700000 34.760000 19.470000 145 87 80 0
7.920000 34.760000 19.470000 146 88 82 0
8.140000 34.760000 19.470000 146 88 82 0
8.360000 34.760000 19.470000 146 88 82 0
8.580000 34.760000 19.470000 147 89 83 0
8.800000 34.760000 19.470000 148 88 82 0
9.020000 34.760000 19.470000 148 88 82 0
9.240000 34.760000 19.470000 147 89 83 0
9.460000 34.760000 19.470000 148 90 84 0
9.680000 34.760000 19.470000 149 91 85 0
9.900000 34.760000 19.470000 149 91 85 0
10.120000 34.760000 19.470000 149 91 85 0
10.340000 34.760000 19.470000 150 92 86 0
10.560000 34.760000 19.470000 151 93 87 0
10.780000 34.760000 19.470000 151 93 87 0
11.000000 34.760000 19.470000 152 94 88 0
11.220000 34.760000 19.470000 152 94 88 0
11.440000 34.760000 19.470000 153 95 89 0
11.660000 34.760000 19.470000 154 96 90 0
11.880000 34.760000 19.470000 154 96 90 0
12.100000 34.760000 19.470000 155 97 91 0
12.320000 34.760000 19.470000 156 98 92 0
12.540000 34.760000 19.470000 156 98 92 0
12.760000 34.760000 19.580000 154 98 94 0
12.980000 34.760000 19.580000 154 98 94 0
13.200000 34.760000 19.580000 156 98 92 0
13.420000 34.760000 19.580000 155 97 91 0
13.640000 34.760000 19.580000 155 95 90 0
13.860000 34.760000 19.580000 154 94 89 0
14.080000 34.760000 19.580000 152 92 86 0
14.300000 34.760000 19.580000 151 91 85 0
14.520000 34.760000 19.580000 151 90 84 0
14.740000 34.760000 19.580000 150 89 83 0
14.960000 34.760000 19.580000 151 86 79 0
15.180000 34.760000 20.240000 150 85 78 0
15.400000 34.760000 20.240000 153 81 77 0
15.620000 34.760000 20.240000 153 81 77 0
15.840000 34.760000 20.240000 152 81 74 0
16.060000 34.760000 20.240000 151 80 73 0
16.280000 34.760000 20.240000 152 78 70 0
16.500000 34.760000 20.240000 150 76 68 0
16.720000 34.760000 20.240000 151 77 69 0
16.940000 34.760000 20.240000 148 74 66 0
17.160000 34.760000 20.350000 147 71 66 0
17.380000 34.760000 20.350000 146 70 65 0
17.600000 34.760000 20.350000 149 69 65 0
17.820000 34.760000 20.350000 148 68 64 0
18.040000 34.760000 20.350000 147 67 61 0
18.260000 34.760000 19.580000 146 66 60 0
18.480000 34.760000 19.580000 146 66 60 0
18.700000 34.760000 19.690000 145 65 59 0
18.920000 34.760000 19.690000 144 62 59 0
19.140000 34.760000 19.690000 145 63 60 0
19.360000 34.760000 19.690000 145 63 60 0
19.580000 34.760000 19.580000 146 64 61 0
19.800000 34.760000 19.580000 145 70 62 0
20.020000 34.760000 19.580000 151 76 68 0
20.240000 34.760000 19.580000 155 82 70 0
20.460000 34.760000 19.580000 157 84 72 0
20.680000 34.760000 18.920000 159 84 74 0
20.900000 34.760000 18.920000 157 82 72 0
21.120000 34.760000 18.920000 157 78 69 0
21.340000 34.760000 18.920000 156 77 68 0
21.560000 34.760000 18.920000 154 74 68 0
21.780000 34.760000 18.920000 151 71 65 0
22.000000 34.760000 18.920000 150 63 64 0
22.220000 34.760000 18.920000 145 58 59 0
22.440000 34.760000 18.920000 142 55 56 0
22.660000 34.760000 18.920000 141 54 55 0
22.880000 34.760000 18.920000 141 54 55 0
23.100000 34.760000 18.920000 140 53 54 0
23.320000 34.760000 18.260000 142 52 56 0
23.540000 34.760000 18.920000 143 53 57 0
23.760000 34.760000 18.920000 141 51 55 0
23.980000 34.760000 18.920000 142 52 56 0
24.200000 34.760000 18.920000 141 51 55 0
24.420000 34.760000 18.920000 140 50 54 0
24.640000 34.760000 18.260000 138 48 52 0
24.860000 34.760000 18.260000 138 48 52 0
25.080000 34.760000 18.260000 139 48 52 0
25.300000 34.760000 18.260000 141 50 54 0
25.520000 34.760000 18.260000 138 48 52 0
25.740000 34.760000 18.260000 139 49 53 0
25.960000 34.760000 18.920000 138 48 52 0
26.180000 34.760000 18.920000 138 48 52 0
26.400000 34.760000 18.150000 140 50 54 0
26.620000 34.760000 18.150000 140 50 54 0
26.840000 34.760000 18.810000 141 51 55 0
27.060000 34.760000 18.810000 139 49 53 0
27.280000 34.760000 18.040000 141 51 55 0
27.500000 34.760000 18.040000 139 49 53 0
27.720000 34.760000 18.150000 140 49 53 0
27.940000 34.760000 18.150000 140 49 53 0
28.160000 34.760000 18.150000 140 50 54 0
28.380000 34.760000 18.150000 141 51 55 0
28.600000 34.760000 18.150000 141 51 55 0
28.820000 34.760000 18.150000 141 51 55 0
29.040000 34.760000 17.490000 141 54 57 0
29.260000 34.760000 17.490000 142 55 58 0
29.480000 34.760000 18.150000 142 56 62 0
29.700000 34.760000 18.150000 143 57 63 0
29.920000 34.760000 18.150000 142 59 64 0
30.140000 34.760000 18.150000 144 61 66 0
30.360000 34.760000 18.150000 144 63 67 0
30.580000 34.760000 16.170000 147 66 70 0
30.800000 34.760000 13.310000 145 68 71 0
31.020000 34.760000 15.400000 146 69 72 0
31.240000 34.760000 17.490000 146 69 74 0
31.460000 34.760000 17.490000 145 68 73 0
31.680000 34.760000 17.490000 147 67 71 0
31.900000 34.760000 16.830000 147 67 71 0
32.120000 34.760000 16.830000 145 68 71 0
32.340000 34.760000 16.720000 146 69 72 0
32.560000 34.760000 16.060000 143 70 72 0
32.780000 34.760000 14.630000 147 74 76 0
33.000000 34.760000 13.310000 147 75 81 0
33.220000 34.760000 14.080000 148 76 82 0
33.440000 34.760000 14.740000 149 79 84 0
33.660000 34.760000 15.400000 150 80 85 0
33.880000 34.760000 16.060000 153 83 88 0
34.100000 34.760000 16.830000 152 82 87 0
34.320000 34.760000 16.830000 153 84 86 0
34.540000 34.760000 16.720000 153 84 86 0
34.760000 34.760000 16.720000 154 83 86 0
34.980000 34.760000 16.720000 155 84 87 0
35.200000 34.760000 16.720000 154 84 89 0
35.420000 34.760000 16.720000 154 84 89 0
35.640000 34.760000 16.060000 156 85 88 0
35.860000 34.760000 15.950000 154 83 86 0
36.080000 34.760000 15.950000 154 83 86 0
36.300000 34.760000 16.060000 153 82 85 0
36.520000 34.760000 15.400000 153 80 84 0
36.740000 34.760000 15.950000 153 80 84 0
36.960000 34.760000 15.950000 154 79 81 0
37.180000 34.760000 16.060000 153 78 80 0
0.000000 34.980000 18.150000 135 78 66 0
0.220000 34.980000 18.150000 137 80 68 0
0.440000 34.980000 18.150000 134 80 67 0
0.660000 34.980000 18.040000 134 80 67 0
0.880000 34.980000 18.040000 136 79 67 0
1.100000 34.980000 18.040000 135 78 66 0
1.320000 34.980000 18.040000 136 79 67 0
1.540000 34.980000 18.810000 136 79 67 0
1.760000 34.980000 18.810000 137 79 70 0
1.980000 34.980000 18.810000 137 79 70 0
2.200000 34.980000 18.810000 138 80 71 0
2.420000 34.980000 18.810000 137 79 70 0
2.640000 34.980000 18.810000 139 81 72 0
2.860000 34.980000 18.810000 140 82 73 0
3.080000 34.980000 18.810000 140 81 72 0
3.300000 34.980000 18.810000 140 81 72 0
3.520000 34.980000 18.810000 138 80 71 0
3.740000 34.980000 18.810000 140 82 73 0
3.960000 34.980000 18.810000 141 82 73 0
4.180000 34.980000 18.810000 142 83 74 0
4.400000 34.980000 18.810000 141 82 73 0
4.620000 34.980000 18.810000 141 82 73 0
4.840000 34.980000 18.810000 142 83 74 0
5.060000 34.980000 18.810000 141 82 73 0
5.280000 34.980000 18.810000 142 82 76 0
5.500000 34.980000 18.810000 143 83 77 0
5.720000 34.980000 18.810000 143 83 77 0
5.940000 34.980000 18.810000 144 84 78 0
6.160000 34.980000 18.810000 144 84 78 0
6.380000 34.980000 18.810000 145 85 79 0
6.600000 34.980000 18.810000 145 85 79 0
6.820000 34.980000 18.810000 145 85 79 0
7.040000 34.980000 18.810000 145 85 79 0
7.260000 34.980000 18.810000 146 86 80 0
7.480000 34.980000 19.470000 144 86 79 0
7.700000 34.980000 19.470000 145 87 80 0
7.920000 34.980000 19.470000 146 88 82 0
8.140000 34.980000 18.810000 147 89 83 0
8.360000 34.980000 18.810000 146 88 82 0
8.580000 34.980000 19.470000 148 90 84 0
8.800000 34.980000 19.470000 148 88 82 0
9.020000 34.980000 19.470000 148 88 82 0
9.240000 34.980000 19.470000 148 90 84 0
9.460000 34.980000 19.470000 148 90 84 0
9.680000 34.980000 19.470000 148 90 84 0
9.900000 34.980000 19.470000 149 91 85 0
10.120000 34.980000 19.470000 150 92 86 0
10.340000 34.980000 19.470000 150 92 86 0
10.560000 34.980000 19.470000 152 94 88 0
10.780000 34.980000 19.470000 151 93 87 0
11.000000 34.980000 19.470000 152 94 88 0
11.220000 34.980000 19.470000 152 94 88 0
11.440000 34.980000 19.470000 153 95 89 0
11.660000 34.980000 19.470000 155 97 91 0
11.880000 34.980000 19.470000 154 96 90 0
12.100000 34.980000 19.470000 155 97 91 0
12.320000 34.980000 19.470000 156 98 92 0
12.540000 34.980000 19.470000 156 98 92 0
12.760000 34.980000 18.810000 155 99 95 0
12.980000 34.980000 18.810000 154 98 94 0
13.200000 34.980000 18.810000 156 98 92 0
13.420000 34.980000 18.810000 155 97 91 0
13.640000 34.980000 18.810000 154 94 89 0
13.860000 34.980000 18.810000 154 94 89 0
14.080000 34.980000 18.810000 153 93 87 0
14.300000 34.980000 18.810000 150 90 84 0
14.520000 34.980000 19.580000 150 89 83 0
14.740000 34.980000 19.580000 149 88 82 0
14.960000 34.980000 19.580000 151 86 79 0
15.180000 34.980000 19.580000 150 85 78 0
15.400000 34.980000 19.580000 153 81 77 0
15.620000 34.980000 20.240000 152 80 76 0
15.840000 34.980000 20.240000 151 80 73 0
16.060000 34.980000 20.240000 150 79 72 0
16.280000 34.980000 20.240000 151 77 69 0
16.500000 34.980000 20.240000 150 76 68 0
16.720000 34.980000 20.240000 150 76 68 0
16.940000 34.980000 20.350000 148 74 66 0
17.160000 34.980000 19.580000 148 72 67 0
17.380000 34.980000 20.350000 147 71 66 0
17.600000 34.980000 20.350000 149 69 65 0
17.820000 34.980000 20.350000 147 67 63 0
18.040000 34.980000 20.350000 146 66 60 0
18.260000 34.980000 19.580000 146 66 60 0
18.480000 34.980000 19.580000 145 65 59 0
18.700000 34.980000 19.690000 144 64 58 0
18.920000 34.980000 19.690000 145 63 60 0
19.140000 34.980000 19.690000 143 61 58 0
19.360000 34.980000 19.690000 145 63 60 0
19.580000 34.980000 19.580000 146 64 61 0
19.800000 34.980000 19.580000 146 71 63 0
20.020000 34.980000 19.580000 154 79 71 0
20.240000 34.980000 19.580000 156 83 71 0
20.460000 34.980000 19.580000 156 83 71 0
20.680000 34.980000 18.920000 157 82 72 0
20.900000 34.980000 18.920000 155 80 70 0
21.120000 34.980000 18.920000 156 77 68 0
21.340000 34.980000 18.920000 153 74 65 0
21.560000 34.980000 18.920000 152 72 66 0
21.780000 34.980000 18.920000 149 69 63 0
22.000000 34.980000 18.920000 148 61 62 0
22.220000 34.980000 18.920000 144 57 58 0
22.440000 34.980000 18.920000 142 55 56 0
22.660000 34.980000 18.920000 142 55 56 0
22.880000 34.980000 18.920000 140 53 54 0
23.100000 34.980000 18.920000 140 53 54 0
23.320000 34.980000 18.260000 143 53 57 0
23.540000 34.980000 18.920000 139 49 53 0
23.760000 34.980000 18.810000 140 50 54 0
23.980000 34.980000 18.920000 142 52 56 0
24.200000 34.980000 18.260000 141 51 55 0
24.420000 34.980000 18.260000 141 51 55 0
24.640000 34.980000 18.260000 140 50 54 0
24.860000 34.980000 18.260000 140 50 54 0
25.080000 34.980000 18.260000 140 49 53 0
25.300000 34.980000 18.260000 138 47 51 0
25.520000 34.980000 18.260000 138 48 52 0
25.740000 34.980000 18.260000 138 48 52 0
25.960000 34.980000 18.920000 139 49 53 0
26.180000 34.980000 18.810000 139 49 53 0
26.400000 34.980000 18.150000 139 49 53 0
26.620000 34.980000 18.150000 140 50 54 0
26.840000 34.980000 18.150000 140 50 54 0
27.060000 34.980000 18.810000 140 50 54 0
27.280000 34.980000 18.150000 141 51 55 0
27.500000 34.980000 18.150000 139 49 53 0
27.720000 34.980000 18.150000 141 50 54 0
27.940000 34.980000 17.490000 141 50 54 0
28.160000 34.980000 17.490000 140 50 54 0
28.380000 34.980000 18.150000 141 51 55 0
28.600000 34.980000 18.260000 143 53 57 0
28.820000 34.980000 18.150000 142 52 56 0
29.040000 34.980000 17.490000 140 53 56 0
29.260000 34.980000 17.490000 142 55 58 0
29.480000 34.980000 17.490000 143 57 63 0
29.700000 34.980000 17.490000 144 58 64 0
29.920000 34.980000 17.380000 141 58 63 0
30.140000 34.980000 17.380000 143 60 65 0
30.360000 34.980000 18.150000 145 64 68 0
30.580000 34.980000 17.490000 145 64 68 0
30.800000 34.980000 16.060000 144 67 70 0
31.020000 34.980000 16.720000 145 68 71 0
31.240000 34.980000 17.380000 146 69 74 0
31.460000 34.980000 17.380000 145 68 73 0
31.680000 34.980000 16.720000 145 65 69 0
31.900000 34.980000 16.720000 145 65 69 0
32.120000 34.980000 16.060000 146 69 72 0
32.340000 34.980000 16.720000 146 69 72 0
32.560000 34.980000 16.060000 144 71 73 0
32.780000 34.980000 13.310000 147 74 76 0
33.000000 34.980000 11.220000 146 74 80 0
33.220000 34.980000 12.650000 149 77 83 0
33.440000 34.980000 14.740000 148 78 83 0
33.660000 34.980000 15.400000 151 81 86 0
33.880000 34.980000 16.060000 151 81 86 0
34.100000 34.980000 16.720000 152 82 87 0
34.320000 34.980000 16.720000 152 83 85 0
34.540000 34.980000 16.830000 152 83 85 0
34.760000 34.980000 16.830000 154 83 86 0
34.980000 34.980000 16.060000 154 83 86 0
35.200000 34.980000 16.060000 153 83 88 0
35.420000 34.980000 16.060000 155 85 90 0
35.640000 34.980000 16.060000 155 84 87 0
35.860000 34.980000 15.950000 155 84 87 0
36.080000 34.980000 15.950000 153 82 85 0
36.300000 34.980000 15.290000 152 81 84 0
36.520000 34.980000 15.290000 153 80 84 0
36.740000 34.980000 15.290000 152 79 83 0
36.960000 34.980000 15.290000 152 77 79 0
37.180000 34.980000 15.950000 150 75 77 0
0.000000 35.200000 18.040000 136 79 67 0
0.220000 35.200000 18.040000 136 79 67 0
0.440000 35.200000 18.150000 135 78 66 0
0.660000 35.200000 18.150000 136 79 67 0
0.880000 35.200000 18.150000 136 79 67 0
1.100000 35.200000 18.040000 136 79 67 0
1.320000 35.200000 18.040000 136 79 67 0
1.540000 35.200000 18.040000 137 80 68 0
1.760000 35.200000 18.150000 137 80 68 0
1.980000 35.200000 18.150000 137 80 68 0
2.200000 35.200000 18.150000 137 79 70 0
2.420000 35.200000 18.150000 138 80 71 0
2.640000 35.200000 18.810000 138 80 71 0
2.860000 35.200000 18.810000 139 81 72 0
3.080000 35.200000 18.810000 138 80 71 0
3.300000 35.200000 18.810000 139 81 72 0
3.520000 35.200000 18.810000 140 81 72 0
3.740000 35.200000 18.810000 140 81 72 0
3.960000 35.200000 18.810000 139 81 72 0
4.180000 35.200000 18.810000 140 82 73 0
4.400000 35.200000 18.810000 141 81 75 0
4.620000 35.200000 18.810000 142 82 76 0
4.840000 35.200000 18.810000 141 83 76 0
5.060000 35.200000 18.810000 141 83 76 0
5.280000 35.200000 18.810000 142 82 76 0
5.500000 35.200000 18.810000 143 83 77 0
5.720000 35.200000 18.810000 142 84 77 0
5.940000 35.200000 18.810000 143 85 78 0
6.160000 35.200000 18.810000 144 84 78 0
6.380000 35.200000 18.810000 144 84 78 0
6.600000 35.200000 18.810000 144 86 79 0
6.820000 35.200000 18.810000 143 85 78 0
7.040000 35.200000 18.810000 144 84 78 0
7.260000 35.200000 18.810000 146 86 80 0
7.480000 35.200000 18.810000 145 87 80 0
7.700000 35.200000 18.810000 145 87 80 0
7.920000 35.200000 18.810000 146 86 81 0
8.140000 35.200000 18.810000 148 88 83 0
8.360000 35.200000 18.810000 147 89 83 0
8.580000 35.200000 18.810000 147 89 83 0
8.800000 35.200000 18.810000 147 89 83 0
9.020000 35.200000 18.810000 147 89 83 0
9.240000 35.200000 18.810000 148 90 84 0
9.460000 35.200000 18.810000 148 90 84 0
9.680000 35.200000 18.810000 148 90 84 0
9.900000 35.200000 18.810000 149 91 85 0
10.120000 35.200000 18.810000 149 91 85 0
10.340000 35.200000 18.810000 150 92 86 0
10.560000 35.200000 18.810000 151 93 87 0
10.780000 35.200000 18.810000 151 93 87 0
11.000000 35.200000 19.470000 151 93 87 0
11.220000 35.200000 19.470000 153 95 89 0
11.440000 35.200000 19.470000 153 95 89 0
11.660000 35.200000 19.470000 153 95 89 0
11.880000 35.200000 19.470000 155 97 91 0
12.100000 35.200000 18.810000 156 98 92 0
12.320000 35.200000 18.810000 153 98 91 0
12.540000 35.200000 18.810000 154 99 92 0
12.760000 35.200000 18.810000 154 99 92 0
12.980000 35.200000 18.810000 154 99 92 0
13.200000 35.200000 18.810000 155 97 91 0
13.420000 35.200000 18.810000 154 96 90 0
13.640000 35.200000 18.810000 153 95 89 0
13.860000 35.200000 18.810000 152 94 88 0
14.080000 35.200000 18.810000 151 91 85 0
14.300000 35.200000 18.810000 150 90 84 0
14.520000 35.200000 18.810000 152 87 80 0
14.740000 35.200000 19.580000 152 87 80 0
14.960000 35.200000 19.580000 153 85 77 0
15.180000 35.200000 19.580000 151 83 75 0
15.400000 35.200000 19.580000 152 81 72 0
15.620000 35.200000 19.580000 152 81 72 0
15.840000 35.200000 19.580000 152 78 72 0
16.060000 35.200000 19.580000 152 78 72 0
16.280000 35.200000 19.580000 151 78 67 0
16.500000 35.200000 19.580000 150 77 66 0
16.720000 35.200000 19.580000 149 76 65 0
16.940000 35.200000 19.580000 148 75 64 0
17.160000 35.200000 19.580000 147 71 66 0
17.380000 35.200000 19.580000 146 70 65 0
17.600000 35.200000 19.580000 148 70 65 0
17.820000 35.200000 19.580000 145 67 62 0
18.040000 35.200000 19.580000 148 68 64 0
18.260000 35.200000 19.580000 146 66 62 0
18.480000 35.200000 19.580000 145 65 61 0
18.700000 35.200000 19.580000 145 65 61 0
18.920000 35.200000 19.580000 144 64 60 0
19.140000 35.200000 19.580000 144 64 60 0
19.360000 35.200000 19.580000 144 66 59 0
19.580000 35.200000 19.580000 145 67 60 0
19.800000 35.200000 18.920000 151 76 66 0
20.020000 35.200000 18.920000 158 83 73 0
20.240000 35.200000 18.920000 156 83 72 0
20.460000 35.200000 18.920000 155 82 71 0
20.680000 35.200000 18.920000 158 80 73 0
20.900000 35.200000 18.920000 155 77 70 0
21.120000 35.200000 18.920000 154 74 68 0
21.340000 35.200000 18.920000 153 73 67 0
21.560000 35.200000 18.150000 153 69 66 0
21.780000 35.200000 18.920000 151 67 64 0
22.000000 35.200000 18.920000 148 61 62 0
22.220000 35.200000 18.920000 143 56 57 0
22.440000 35.200000 18.920000 141 54 55 0
22.660000 35.200000 18.920000 141 54 55 0
22.880000 35.200000 18.920000 142 52 56 0
23.100000 35.200000 18.260000 142 52 56 0
23.320000 35.200000 18.260000 142 53 54 0
23.540000 35.200000 18.260000 141 52 53 0
23.760000 35.200000 18.150000 142 52 56 0
23.980000 35.200000 18.260000 141 51 55 0
24.200000 35.200000 18.260000 140 51 52 0
24.420000 35.200000 18.260000 140 51 52 0
24.640000 35.200000 18.260000 139 49 53 0
24.860000 35.200000 18.260000 141 51 55 0
25.080000 35.200000 18.260000 138 48 52 0
25.300000 35.200000 18.260000 139 49 53 0
25.520000 35.200000 18.260000 140 50 54 0
25.740000 35.200000 18.150000 139 49 53 0
25.960000 35.200000 18.150000 139 50 51 0
26.180000 35.200000 18.150000 141 52 53 0
26.400000 35.200000 18.150000 140 50 54 0
26.620000 35.200000 17.490000 139 49 53 0
26.840000 35.200000 18.150000 139 49 53 0
27.060000 35.200000 18.920000 139 49 53 0
27.280000 35.200000 18.920000 141 51 55 0
27.500000 35.200000 18.260000 140 50 54 0
27.720000 35.200000 17.490000 140 50 54 0
27.940000 35.200000 17.490000 139 49 53 0
28.160000 35.200000 17.490000 141 51 56 0
28.380000 35.200000 17.490000 141 51 56 0
28.600000 35.200000 18.150000 141 51 56 0
28.820000 35.200000 18.150000 142 52 57 0
29.040000 35.200000 17.490000 140 53 57 0
29.260000 35.200000 17.490000 143 56 60 0
29.480000 35.200000 17.490000 144 59 62 0
29.700000 35.200000 17.490000 145 60 63 0
29.920000 35.200000 17.380000 141 62 63 0
30.140000 35.200000 17.380000 143 64 65 0
30.360000 35.200000 18.040000 142 65 70 0
30.580000 35.200000 18.920000 142 65 70 0
30.800000 35.200000 18.260000 143 66 69 0
31.020000 35.200000 18.040000 144 67 70 0
31.240000 35.200000 18.040000 145 65 69 0
31.460000 35.200000 16.720000 145 65 69 0
31.680000 35.200000 16.720000 143 66 69 0
31.900000 35.200000 16.720000 145 68 71 0
32.120000 35.200000 16.720000 143 67 72 0
32.340000 35.200000 17.380000 146 70 75 0
32.560000 35.200000 15.400000 143 70 72 0
32.780000 35.200000 11.990000 146 73 75 0
33.000000 35.200000 10.560000 146 75 78 0
33.220000 35.200000 13.310000 149 78 81 0
33.440000 35.200000 14.740000 147 78 80 0
33.660000 35.200000 15.400000 150 81 83 0
33.880000 35.200000 16.060000 151 80 83 0
34.100000 35.200000 15.950000 152 81 84 0
34.320000 35.200000 16.060000 153 80 84 0
34.540000 35.200000 16.170000 154 81 85 0
34.760000 35.200000 16.170000 153 82 85 0
34.980000 35.200000 16.060000 153 82 85 0
35.200000 35.200000 16.060000 153 84 86 0
35.420000 35.200000 16.060000 154 85 87 0
35.640000 35.200000 15.400000 154 85 87 0
35.860000 35.200000 15.290000 153 84 86 0
36.080000 35.200000 15.290000 154 81 83 0
36.300000 35.200000 15.290000 153 80 82 0
36.520000 35.200000 14.630000 152 79 83 0
36.740000 35.200000 14.740000 151 78 82 0
36.960000 35.200000 15.400000 151 74 75 0
37.180000 35.200000 16.060000 151 74 75 0
0.000000 35.420000 18.040000 137 80 68 0
0.220000 35.420000 18.040000 136 79 67 0
0.440000 35.420000 18.150000 136 79 67 0
0.660000 35.420000 18.150000 136 79 67 0
0.880000 35.420000 18.150000 136 79 67 0
1.100000 35.420000 18.150000 135 78 66 0
1.320000 35.420000 18.150000 136 79 67 0
1.540000 35.420000 18.150000 136 79 67 0
1.760000 35.420000 18.150000 136 79 67 0
1.980000 35.420000 18.040000 136 79 67 0
2.200000 35.420000 18.040000 137 79 70 0
2.420000 35.420000 18.040000 137 79 70 0
2.640000 35.420000 18.810000 138 80 71 0
2.860000 35.420000 18.810000 138 80 71 0
3.080000 35.420000 18.810000 139 81 72 0
3.300000 35.420000 18.810000 139 81 72 0
3.520000 35.420000 18.810000 141 82 73 0
3.740000 35.420000 18.810000 141 82 73 0
3.960000 35.420000 18.810000 141 83 74 0
4.180000 35.420000 18.810000 140 82 73 0
4.400000 35.420000 18.810000 142 82 76 0
4.620000 35.420000 18.810000 142 82 76 0
4.840000 35.420000 18.810000 140 82 75 0
5.060000 35.420000 18.810000 141 83 76 0
5.280000 35.420000 18.810000 142 82 76 0
5.500000 35.420000 18.810000 143 83 77 0
5.720000 35.420000 18.810000 142 84 77 0
5.940000 35.420000 18.810000 142 84 77 0
6.160000 35.420000 18.810000 144 84 78 0
6.380000 35.420000 18.810000 144 84 78 0
6.600000 35.420000 18.810000 144 86 79 0
6.820000 35.420000 18.810000 144 86 79 0
7.040000 35.420000 18.810000 146 86 80 0
7.260000 35.420000 18.810000 146 86 80 0
7.480000 35.420000 18.810000 145 87 80 0
7.700000 35.420000 18.810000 145 87 80 0
7.920000 35.420000 18.810000 147 87 82 0
8.140000 35.420000 18.810000 147 87 82 0
8.360000 35.420000 18.810000 147 89 83 0
8.580000 35.420000 18.810000 147 89 83 0
8.800000 35.420000 18.810000 147 89 83 0
9.020000 35.420000 18.810000 147 89 83 0
9.240000 35.420000 18.810000 149 91 85 0
9.460000 35.420000 18.810000 148 90 84 0
9.680000 35.420000 18.810000 149 91 85 0
9.900000 35.420000 18.810000 149 91 85 0
10.120000 35.420000 18.810000 150 92 86 0
10.340000 35.420000 18.810000 150 92 86 0
10.560000 35.420000 18.810000 151 93 87 0
10.780000 35.420000 18.810000 152 94 88 0
11.000000 35.420000 18.810000 152 94 88 0
11.220000 35.420000 18.810000 153 95 89 0
11.440000 35.420000 18.810000 154 96 90 0
11.660000 35.420000 18.810000 154 96 90 0
11.880000 35.420000 18.810000 155 97 91 0
12.100000 35.420000 18.810000 155 97 91 0
12.320000 35.420000 18.810000 153 98 91 0
12.540000 35.420000 18.810000 153 98 91 0
12.760000 35.420000 18.810000 154 99 92 0
12.980000 35.420000 18.810000 154 99 92 0
13.200000 35.420000 18.810000 155 97 91 0
13.420000 35.420000 18.810000 154 96 90 0
13.640000 35.420000 18.810000 152 94 88 0
13.860000 35.420000 18.810000 152 94 88 0
14.080000 35.420000 18.810000 151 91 85 0
14.300000 35.420000 18.810000 149 89 83 0
14.520000 35.420000 18.920000 152 87 80 0
14.740000 35.420000 18.920000 150 85 78 0
14.960000 35.420000 19.580000 152 84 76 0
15.180000 35.420000 19.580000 151 83 75 0
15.400000 35.420000 19.580000 153 82 73 0
15.620000 35.420000 19.580000 152 81 72 0
15.840000 35.420000 19.580000 152 78 72 0
16.060000 35.420000 19.580000 151 77 71 0
16.280000 35.420000 19.580000 151 78 67 0
16.500000 35.420000 19.580000 149 76 65 0
16.720000 35.420000 19.580000 149 76 65 0
16.940000 35.420000 19.580000 148 75 64 0
17.160000 35.420000 19.580000 147 71 66 0
17.380000 35.420000 19.580000 146 70 65 0
17.600000 35.420000 19.580000 147 69 64 0
17.820000 35.420000 19.580000 146 68 63 0
18.040000 35.420000 19.580000 147 67 63 0
18.260000 35.420000 19.580000 146 66 62 0
18.480000 35.420000 19.580000 145 65 61 0
18.700000 35.420000 19.580000 145 65 61 0
18.920000 35.420000 19.580000 146 66 62 0
19.140000 35.420000 19.580000 144 64 60 0
19.360000 35.420000 19.580000 145 67 60 0
19.580000 35.420000 18.920000 149 71 64 0
19.800000 35.420000 18.920000 155 80 70 0
20.020000 35.420000 18.920000 158 83 73 0
20.240000 35.420000 18.920000 156 83 72 0
20.460000 35.420000 18.920000 155 82 71 0
20.680000 35.420000 18.920000 156 78 71 0
20.900000 35.420000 18.920000 154 76 69 0
21.120000 35.420000 18.810000 154 74 68 0
21.340000 35.420000 18.810000 151 71 65 0
21.560000 35.420000 18.810000 153 69 66 0
21.780000 35.420000 18.810000 149 65 62 0
22.000000 35.420000 18.920000 146 59 60 0
22.220000 35.420000 18.920000 144 57 58 0
22.440000 35.420000 18.920000 141 54 55 0
22.660000 35.420000 18.920000 140 53 54 0
22.880000 35.420000 18.260000 143 53 57 0
23.100000 35.420000 18.260000 142 52 56 0
23.320000 35.420000 18.260000 142 53 54 0
23.540000 35.420000 18.260000 141 52 53 0
23.760000 35.420000 18.150000 141 51 55 0
23.980000 35.420000 18.150000 141 51 55 0
24.200000 35.420000 18.150000 140 51 52 0
24.420000 35.420000 18.260000 140 51 52 0
24.640000 35.420000 18.260000 139 49 53 0
24.860000 35.420000 18.260000 138 48 52 0
25.080000 35.420000 18.920000 140 50 54 0
25.300000 35.420000 18.920000 139 49 53 0
25.520000 35.420000 18.260000 141 51 55 0
25.740000 35.420000 17.600000 140 50 54 0
25.960000 35.420000 17.490000 138 49 50 0
26.180000 35.420000 18.150000 140 51 52 0
26.400000 35.420000 17.490000 140 50 54 0
26.620000 35.420000 18.150000 139 49 53 0
26.840000 35.420000 18.150000 139 49 53 0
27.060000 35.420000 18.150000 141 51 55 0
27.280000 35.420000 18.150000 139 49 53 0
27.500000 35.420000 18.150000 141 51 55 0
27.720000 35.420000 17.490000 141 51 55 0
27.940000 35.420000 17.490000 140 50 54 0
28.160000 35.420000 17.490000 141 51 56 0
28.380000 35.420000 17.600000 140 50 55 0
28.600000 35.420000 18.150000 140 50 55 0
28.820000 35.420000 18.150000 143 53 58 0
29.040000 35.420000 18.260000 142 55 59 0
29.260000 35.420000 17.490000 142 55 59 0
29.480000 35.420000 18.150000 143 58 61 0
29.700000 35.420000 18.040000 145 60 63 0
29.920000 35.420000 18.040000 143 64 65 0
30.140000 35.420000 18.040000 144 65 66 0
30.360000 35.420000 18.810000 143 66 71 0
30.580000 35.420000 18.370000 143 66 71 0
30.800000 35.420000 17.600000 144 67 70 0
31.020000 35.420000 17.380000 143 66 69 0
31.240000 35.420000 17.380000 144 64 68 0
31.460000 35.420000 16.720000 145 65 69 0
31.680000 35.420000 16.720000 143 66 69 0
31.900000 35.420000 17.380000 145 68 71 0
32.120000 35.420000 17.380000 144 68 73 0
32.340000 35.420000 18.150000 145 69 74 0
32.560000 35.420000 14.740000 144 71 73 0
32.780000 35.420000 7.150000 145 72 74 0
33.000000 35.420000 6.380000 146 75 78 0
33.220000 35.420000 10.560000 147 76 79 0
33.440000 35.420000 12.650000 148 79 81 0
33.660000 35.420000 14.080000 149 80 82 0
33.880000 35.420000 15.400000 150 79 82 0
34.100000 35.420000 15.950000 151 80 83 0
34.320000 35.420000 15.950000 152 79 83 0
34.540000 35.420000 16.060000 153 80 84 0
34.760000 35.420000 16.060000 153 82 85 0
34.980000 35.420000 16.060000 153 82 85 0
35.200000 35.420000 15.950000 153 84 86 0
35.420000 35.420000 16.060000 153 84 86 0
35.640000 35.420000 15.400000 153 84 86 0
35.860000 35.420000 15.400000 154 85 87 0
36.080000 35.420000 14.630000 155 82 84 0
36.300000 35.420000 14.630000 153 80 82 0
36.520000 35.420000 14.630000 151 78 82 0
36.740000 35.420000 14.740000 150 77 81 0
36.960000 35.420000 13.970000 151 74 75 0
37.180000 35.420000 13.970000 149 72 73 0
0.000000 35.640000 18.040000 137 80 68 0
0.220000 35.640000 18.150000 136 79 67 0
0.440000 35.640000 18.150000 136 79 67 0
0.660000 35.640000 18.150000 136 79 67 0
0.880000 35.640000 18.150000 136 79 67 0
1.100000 35.640000 18.040000 137 80 68 0
1.320000 35.640000 18.040000 137 80 68 0
1.540000 35.640000 18.040000 137 80 68 0
1.760000 35.640000 18.040000 137 80 68 0
1.980000 35.640000 18.040000 137 80 68 0
2.200000 35.640000 18.040000 137 80 68 0
2.420000 35.640000 18.700000 138 81 69 0
2.640000 35.640000 18.810000 139 80 71 0
2.860000 35.640000 18.040000 139 80 71 0
3.080000 35.640000 18.150000 139 80 71 0
3.300000 35.640000 18.810000 141 82 73 0
3.520000 35.640000 18.810000 140 81 72 0
3.740000 35.640000 18.040000 141 82 73 0
3.960000 35.640000 18.810000 141 82 73 0
4.180000 35.640000 18.810000 141 82 73 0
4.400000 35.640000 18.810000 142 82 76 0
4.620000 35.640000 18.810000 142 82 76 0
4.840000 35.640000 18.810000 143 83 77 0
5.060000 35.640000 18.810000 142 82 76 0
5.280000 35.640000 18.810000 143 83 77 0
5.500000 35.640000 18.810000 143 83 77 0
5.720000 35.640000 18.810000 144 84 78 0
5.940000 35.640000 18.810000 144 84 78 0
6.160000 35.640000 18.810000 143 83 77 0
6.380000 35.640000 18.810000 144 84 78 0
6.600000 35.640000 18.810000 145 85 79 0
6.820000 35.640000 18.810000 146 86 80 0
7.040000 35.640000 18.810000 145 85 79 0
7.260000 35.640000 18.810000 145 85 79 0
7.480000 35.640000 18.810000 146 86 80 0
7.700000 35.640000 18.810000 147 87 81 0
7.920000 35.640000 18.810000 147 87 82 0
8.140000 35.640000 18.810000 147 87 82 0
8.360000 35.640000 18.810000 147 89 83 0
8.580000 35.640000 18.810000 147 89 83 0
8.800000 35.640000 18.810000 147 89 83 0
9.020000 35.640000 18.810000 146 88 82 0
9.240000 35.640000 18.810000 148 90 84 0
9.460000 35.640000 18.810000 149 91 85 0
9.680000 35.640000 18.810000 150 90 85 0
9.900000 35.640000 18.810000 150 90 85 0
10.120000 35.640000 18.810000 150 92 86 0
10.340000 35.640000 18.810000 151 93 87 0
10.560000 35.640000 18.810000 151 93 87 0
10.780000 35.640000 18.810000 152 94 88 0
11.000000 35.640000 18.810000 153 95 89 0
11.220000 35.640000 18.810000 152 94 88 0
11.440000 35.640000 18.810000 154 96 90 0
11.660000 35.640000 18.810000 154 96 90 0
11.880000 35.640000 18.810000 153 95 89 0
12.100000 35.640000 18.810000 154 96 90 0
12.320000 35.640000 18.810000 155 97 91 0
12.540000 35.640000 18.810000 156 98 92 0
12.760000 35.640000 18.810000 156 98 92 0
12.980000 35.640000 18.810000 155 97 91 0
13.200000 35.640000 18.810000 154 96 90 0
13.420000 35.640000 18.810000 152 94 88 0
13.640000 35.640000 18.810000 153 93 87 0
13.860000 35.640000 18.810000 153 93 87 0
14.080000 35.640000 18.810000 152 91 85 0
14.300000 35.640000 18.920000 151 90 84 0
14.520000 35.640000 18.920000 149 88 82 0
14.740000 35.640000 18.920000 149 88 82 0
14.960000 35.640000 19.580000 152 84 78 0
15.180000 35.640000 19.580000 150 82 76 0
15.400000 35.640000 19.580000 151 82 72 0
15.620000 35.640000 19.580000 151 82 72 0
15.840000 35.640000 19.580000 152 78 70 0
16.060000 35.640000 19.580000 151 77 69 0
16.280000 35.640000 19.580000 152 77 69 0
16.500000 35.640000 19.580000 151 76 68 0
16.720000 35.640000 19.580000 149 74 66 0
16.940000 35.640000 19.580000 149 74 66 0
17.160000 35.640000 19.580000 149 71 66 0
17.380000 35.640000 19.580000 148 70 65 0
17.600000 35.640000 19.580000 147 69 62 0
17.820000 35.640000 19.580000 146 68 61 0
18.040000 35.640000 19.580000 148 68 62 0
18.260000 35.640000 19.580000 146 66 60 0
18.480000 35.640000 19.580000 146 66 60 0
18.700000 35.640000 18.920000 144 64 58 0
18.920000 35.640000 19.580000 146 65 59 0
19.140000 35.640000 19.580000 147 66 60 0
19.360000 35.640000 18.920000 144 69 59 0
19.580000 35.640000 18.920000 150 75 65 0
19.800000 35.640000 18.920000 158 83 72 0
20.020000 35.640000 18.920000 158 83 72 0
20.240000 35.640000 18.920000 158 83 73 0
20.460000 35.640000 18.920000 157 82 72 0
20.680000 35.640000 18.260000 156 81 71 0
20.900000 35.640000 18.260000 153 78 68 0
21.120000 35.640000 18.150000 155 75 69 0
21.340000 35.640000 18.150000 152 72 66 0
21.560000 35.640000 18.150000 153 69 66 0
21.780000 35.640000 18.810000 146 62 59 0
22.000000 35.640000 18.260000 144 57 58 0
22.220000 35.640000 18.150000 142 55 56 0
22.440000 35.640000 18.810000 143 54 55 0
22.660000 35.640000 18.920000 142 53 54 0
22.880000 35.640000 18.260000 143 54 55 0
23.100000 35.640000 18.260000 143 54 55 0
23.320000 35.640000 18.260000 142 53 54 0
23.540000 35.640000 18.150000 142 53 54 0
23.760000 35.640000 18.150000 140 51 52 0
23.980000 35.640000 18.150000 141 52 53 0
24.200000 35.640000 18.150000 140 50 54 0
24.420000 35.640000 18.260000 139 49 53 0
24.640000 35.640000 18.260000 140 49 53 0
24.860000 35.640000 18.920000 139 48 52 0
25.080000 35.640000 18.920000 140 50 54 0
25.300000 35.640000 18.920000 138 48 52 0
25.520000 35.640000 18.260000 140 50 54 0
25.740000 35.640000 17.490000 141 51 55 0
25.960000 35.640000 17.490000 140 50 54 0
26.180000 35.640000 18.150000 140 50 54 0
26.400000 35.640000 18.150000 141 50 54 0
26.620000 35.640000 18.040000 141 50 54 0
26.840000 35.640000 18.150000 140 50 54 0
27.060000 35.640000 18.040000 141 51 55 0
27.280000 35.640000 18.040000 141 51 55 0
27.500000 35.640000 18.150000 141 51 55 0
27.720000 35.640000 18.150000 141 51 55 0
27.940000 35.640000 18.150000 141 51 55 0
28.160000 35.640000 17.490000 143 53 57 0
28.380000 35.640000 17.490000 142 52 56 0
28.600000 35.640000 18.150000 140 53 57 0
28.820000 35.640000 17.490000 141 54 58 0
29.040000 35.640000 17.600000 140 57 60 0
29.260000 35.640000 17.490000 142 59 62 0
29.480000 35.640000 18.040000 139 62 67 0
29.700000 35.640000 18.810000 142 65 70 0
29.920000 35.640000 18.700000 143 66 71 0
30.140000 35.640000 18.040000 144 67 72 0
30.360000 35.640000 18.260000 145 69 74 0
30.580000 35.640000 17.710000 143 67 72 0
30.800000 35.640000 17.600000 144 67 70 0
31.020000 35.640000 17.380000 144 67 70 0
31.240000 35.640000 16.720000 144 64 68 0
31.460000 35.640000 16.060000 145 65 69 0
31.680000 35.640000 16.720000 146 66 70 0
31.900000 35.640000 18.040000 145 65 69 0
32.120000 35.640000 18.150000 145 68 71 0
32.340000 35.640000 15.400000 146 69 72 0
32.560000 35.640000 11.880000 146 70 75 0
32.780000 35.640000 6.380000 146 70 75 0
33.000000 35.640000 2.970000 148 72 77 0
33.220000 35.640000 3.630000 150 74 79 0
33.440000 35.640000 7.040000 150 77 81 0
33.660000 35.640000 11.880000 150 77 81 0
33.880000 35.640000 14.630000 150 77 81 0
34.100000 35.640000 15.290000 150 77 81 0
34.320000 35.640000 15.950000 151 78 82 0
34.540000 35.640000 15.950000 152 79 83 0
34.760000 35.640000 16.060000 152 80 86 0
34.980000 35.640000 16.060000 153 81 87 0
35.200000 35.640000 16.060000 155 83 89 0
35.420000 35.640000 15.400000 154 82 88 0
35.640000 35.640000 15.400000 154 83 86 0
35.860000 35.640000 15.290000 154 83 86 0
36.080000 35.640000 14.630000 154 81 85 0
36.300000 35.640000 14.630000 152 79 83 0
36.520000 35.640000 13.970000 154 77 80 0
36.740000 35.640000 13.310000 152 75 78 0
36.960000 35.640000 10.560000 153 74 75 0
37.180000 35.640000 8.470000 151 72 73 0
0.000000 35.860000 17.380000 137 80 68 0
0.220000 35.860000 17.380000 137 80 68 0
0.440000 35.860000 18.150000 137 80 68 0
0.660000 35.860000 18.150000 137 80 68 0
0.880000 35.860000 18.040000 136 79 67 0
1.100000 35.860000 18.040000 136 79 67 0
1.320000 35.860000 18.040000 137 80 68 0
1.540000 35.860000 18.040000 137 80 68 0
1.760000 35.860000 18.040000 136 79 67 0
1.980000 35.860000 18.040000 137 80 68 0
2.200000 35.860000 18.040000 137 80 68 0
2.420000 35.860000 18.040000 137 80 68 0
2.640000 35.860000 18.040000 139 80 71 0
2.860000 35.860000 18.040000 139 80 71 0
3.080000 35.860000 18.040000 139 80 71 0
3.300000 35.860000 18.150000 140 81 72 0
3.520000 35.860000 18.040000 140 81 72 0
3.740000 35.860000 18.040000 141 82 73 0
3.960000 35.860000 18.040000 141 82 73 0
4.180000 35.860000 18.040000 141 82 73 0
4.400000 35.860000 18.810000 142 82 76 0
4.620000 35.860000 18.810000 142 82 76 0
4.840000 35.860000 18.810000 143 83 77 0
5.060000 35.860000 18.810000 142 82 76 0
5.280000 35.860000 18.810000 143 83 77 0
5.500000 35.860000 18.810000 143 83 77 0
5.720000 35.860000 18.810000 144 84 78 0
5.940000 35.860000 18.810000 143 83 77 0
6.160000 35.860000 18.810000 144 84 78 0
6.380000 35.860000 18.810000 144 84 78 0
6.600000 35.860000 18.810000 144 84 78 0
6.820000 35.860000 18.810000 145 85 79 0
7.040000 35.860000 18.810000 145 85 79 0
7.260000 35.860000 18.810000 146 86 80 0
7.480000 35.860000 18.810000 147 87 81 0
7.700000 35.860000 18.810000 147 87 81 0
7.920000 35.860000 18.810000 148 88 83 0
8.140000 35.860000 18.810000 148 88 83 0
8.360000 35.860000 18.810000 146 88 82 0
8.580000 35.860000 18.810000 146 88 82 0
8.800000 35.860000 18.810000 147 89 83 0
9.020000 35.860000 18.810000 148 90 84 0
9.240000 35.860000 18.810000 148 90 84 0
9.460000 35.860000 18.810000 148 90 84 0
9.680000 35.860000 18.810000 149 89 84 0
9.900000 35.860000 18.810000 150 90 85 0
10.120000 35.860000 18.810000 150 92 86 0
10.340000 35.860000 18.810000 151 93 87 0
10.560000 35.860000 18.810000 150 92 86 0
10.780000 35.860000 18.810000 151 93 87 0
11.000000 35.860000 18.810000 152 94 88 0
11.220000 35.860000 18.810000 152 94 88 0
11.440000 35.860000 18.810000 153 95 89 0
11.660000 35.860000 18.810000 153 95 89 0
11.880000 35.860000 18.810000 155 97 91 0
12.100000 35.860000 18.810000 154 96 90 0
12.320000 35.860000 18.810000 154 96 90 0
12.540000 35.860000 18.810000 155 97 91 0
12.760000 35.860000 18.810000 156 98 92 0
12.980000 35.860000 18.810000 155 97 91 0
13.200000 35.860000 18.810000 154 96 90 0
13.420000 35.860000 18.810000 153 95 89 0
13.640000 35.860000 18.810000 153 93 87 0
13.860000 35.860000 18.810000 152 92 86 0
14.080000 35.860000 18.810000 151 90 84 0
14.300000 35.860000 18.920000 149 88 82 0
14.520000 35.860000 18.920000 150 89 83 0
14.740000 35.860000 18.920000 148 87 81 0
14.960000 35.860000 18.920000 152 84 78 0
15.180000 35.860000 19.580000 151 83 77 0
15.400000 35.860000 19.580000 150 81 71 0
15.620000 35.860000 19.580000 150 81 71 0
15.840000 35.860000 19.580000 153 79 71 0
16.060000 35.860000 19.580000 152 78 70 0
16.280000 35.860000 19.580000 152 77 69 0
16.500000 35.860000 19.580000 150 75 67 0
16.720000 35.860000 19.580000 149 74 66 0
16.940000 35.860000 19.580000 149 74 66 0
17.160000 35.860000 19.580000 149 71 66 0
17.380000 35.860000 19.580000 148 70 65 0
17.600000 35.860000 19.580000 146 68 61 0
17.820000 35.860000 19.580000 147 69 62 0
18.040000 35.860000 19.580000 146 66 60 0
18.260000 35.860000 19.580000 147 67 61 0
18.480000 35.860000 19.690000 145 65 59 0
18.700000 35.860000 18.920000 145 65 59 0
18.920000 35.860000 18.920000 146 65 59 0
19.140000 35.860000 18.920000 146 65 59 0
19.360000 35.860000 18.920000 144 69 59 0
19.580000 35.860000 18.920000 155 80 70 0
19.800000 35.860000 18.920000 158 83 72 0
20.020000 35.860000 18.920000 159 84 73 0
20.240000 35.860000 18.920000 158 83 73 0
20.460000 35.860000 18.920000 157 82 72 0
20.680000 35.860000 18.920000 156 81 71 0
20.900000 35.860000 18.260000 154 79 69 0
21.120000 35.860000 18.260000 155 75 69 0
21.340000 35.860000 18.260000 153 73 67 0
21.560000 35.860000 18.150000 152 68 65 0
21.780000 35.860000 18.150000 146 62 59 0
22.000000 35.860000 18.260000 144 57 58 0
22.220000 35.860000 18.260000 143 56 57 0
22.440000 35.860000 18.810000 143 54 55 0
22.660000 35.860000 18.920000 143 54 55 0
22.880000 35.860000 18.920000 143 54 55 0
23.100000 35.860000 18.260000 143 54 55 0
23.320000 35.860000 18.920000 141 52 53 0
23.540000 35.860000 18.920000 142 53 54 0
23.760000 35.860000 18.150000 142 53 54 0
23.980000 35.860000 18.810000 141 52 53 0
24.200000 35.860000 18.810000 142 52 56 0
24.420000 35.860000 18.150000 141 51 55 0
24.640000 35.860000 18.150000 142 51 55 0
24.860000 35.860000 18.920000 141 50 54 0
25.080000 35.860000 18.920000 140 50 54 0
25.300000 35.860000 18.810000 139 49 53 0
25.520000 35.860000 18.150000 139 49 53 0
25.740000 35.860000 17.490000 139 49 53 0
25.960000 35.860000 17.490000 141 51 55 0
26.180000 35.860000 18.260000 141 51 55 0
26.400000 35.860000 18.150000 141 50 54 0
26.620000 35.860000 18.810000 140 49 53 0
26.840000 35.860000 18.810000 141 51 55 0
27.060000 35.860000 18.040000 139 49 53 0
27.280000 35.860000 18.040000 142 52 56 0
27.500000 35.860000 17.490000 141 51 55 0
27.720000 35.860000 18.150000 141 51 55 0
27.940000 35.860000 18.150000 142 52 56 0
28.160000 35.860000 18.150000 144 54 58 0
28.380000 35.860000 18.150000 143 53 57 0
28.600000 35.860000 18.150000 142 55 59 0
28.820000 35.860000 17.490000 142 55 59 0
29.040000 35.860000 16.830000 141 58 61 0
29.260000 35.860000 17.380000 142 59 62 0
29.480000 35.860000 18.040000 141 64 69 0
29.700000 35.860000 18.040000 144 67 72 0
29.920000 35.860000 18.040000 146 69 74 0
30.140000 35.860000 18.150000 147 70 75 0
30.360000 35.860000 17.600000 146 70 75 0
30.580000 35.860000 16.940000 145 69 74 0
30.800000 35.860000 16.830000 146 69 72 0
31.020000 35.860000 16.830000 145 68 71 0
31.240000 35.860000 16.060000 146 66 70 0
31.460000 35.860000 16.060000 145 65 69 0
31.680000 35.860000 16.060000 145 65 69 0
31.900000 35.860000 15.400000 146 66 70 0
32.120000 35.860000 12.650000 145 68 71 0
32.340000 35.860000 7.150000 146 69 72 0
32.560000 35.860000 6.380000 149 73 78 0
32.780000 35.860000 6.380000 148 72 77 0
33.000000 35.860000 2.860000 148 72 77 0
33.220000 35.860000 0.770000 148 72 77 0
33.440000 35.860000 2.860000 148 75 79 0
33.660000 35.860000 9.130000 149 76 80 0
33.880000 35.860000 14.630000 149 76 80 0
34.100000 35.860000 16.060000 148 75 79 0
34.320000 35.860000 15.950000 150 77 81 0
34.540000 35.860000 15.950000 151 78 82 0
34.760000 35.860000 15.400000 151 79 85 0
34.980000 35.860000 15.400000 153 81 87 0
35.200000 35.860000 15.400000 154 82 88 0
35.420000 35.860000 14.740000 155 83 89 0
35.640000 35.860000 14.740000 153 82 85 0
35.860000 35.860000 14.630000 152 81 84 0
36.080000 35.860000 14.630000 153 80 84 0
36.300000 35.860000 13.970000 152 79 83 0
36.520000 35.860000 13.970000 152 75 78 0
36.740000 35.860000 11.990000 151 74 77 0
36.960000 35.860000 6.380000 152 73 74 0
37.180000 35.860000 2.970000 150 71 72 0
0.000000 36.080000 18.040000 136 79 65 0
0.220000 36.080000 17.380000 136 79 65 0
0.440000 36.080000 17.380000 137 78 65 0
0.660000 36.080000 17.380000 138 79 66 0
0.880000 36.080000 18.040000 136 79 67 0
1.100000 36.080000 18.040000 137 80 68 0
1.320000 36.080000 18.040000 138 79 68 0
1.540000 36.080000 18.040000 138 79 68 0
1.760000 36.080000 18.150000 138 79 68 0
1.980000 36.080000 18.150000 139 80 69 0
2.200000 36.080000 18.040000 139 80 69 0
2.420000 36.080000 18.040000 139 80 69 0
2.640000 36.080000 18.040000 139 80 71 0
2.860000 36.080000 18.040000 140 81 72 0
3.080000 36.080000 18.040000 140 81 72 0
3.300000 36.080000 18.040000 140 81 72 0
3.520000 36.080000 18.040000 141 82 71 0
3.740000 36.080000 18.040000 140 81 70 0
3.960000 36.080000 18.040000 141 82 73 0
4.180000 36.080000 18.040000 141 82 73 0
4.400000 36.080000 18.040000 142 83 74 0
4.620000 36.080000 18.150000 142 83 74 0
4.840000 36.080000 18.150000 143 83 77 0
5.060000 36.080000 18.040000 142 82 76 0
5.280000 36.080000 18.040000 143 84 75 0
5.500000 36.080000 18.810000 143 84 75 0
5.720000 36.080000 18.810000 143 84 75 0
5.940000 36.080000 18.810000 143 84 75 0
6.160000 36.080000 18.810000 144 84 78 0
6.380000 36.080000 18.810000 145 85 79 0
6.600000 36.080000 18.810000 145 85 79 0
6.820000 36.080000 18.810000 146 86 80 0
7.040000 36.080000 18.810000 145 85 79 0
7.260000 36.080000 18.810000 146 86 80 0
7.480000 36.080000 18.810000 147 87 81 0
7.700000 36.080000 18.810000 147 87 81 0
7.920000 36.080000 18.810000 147 87 81 0
8.140000 36.080000 18.810000 147 87 81 0
8.360000 36.080000 18.810000 148 88 82 0
8.580000 36.080000 18.810000 147 87 81 0
8.800000 36.080000 18.810000 148 88 82 0
9.020000 36.080000 18.810000 149 89 83 0
9.240000 36.080000 18.810000 149 89 83 0
9.460000 36.080000 18.810000 148 88 82 0
9.680000 36.080000 18.810000 148 90 84 0
9.900000 36.080000 18.810000 149 91 85 0
10.120000 36.080000 18.810000 149 91 85 0
10.340000 36.080000 18.810000 150 92 86 0
10.560000 36.080000 18.810000 150 92 86 0
10.780000 36.080000 18.810000 151 93 87 0
11.000000 36.080000 18.810000 153 93 88 0
11.220000 36.080000 18.810000 154 94 89 0
11.440000 36.080000 18.810000 152 94 88 0
11.660000 36.080000 18.810000 153 95 89 0
11.880000 36.080000 18.810000 154 96 90 0
12.100000 36.080000 18.810000 155 97 91 0
12.320000 36.080000 18.810000 155 97 91 0
12.540000 36.080000 18.810000 155 97 91 0
12.760000 36.080000 18.810000 155 97 91 0
12.980000 36.080000 18.810000 155 97 91 0
13.200000 36.080000 18.810000 154 96 90 0
13.420000 36.080000 18.810000 153 95 89 0
13.640000 36.080000 18.810000 153 93 88 0
13.860000 36.080000 18.810000 151 91 86 0
14.080000 36.080000 18.150000 152 91 85 0
14.300000 36.080000 18.150000 150 89 83 0
14.520000 36.080000 18.150000 151 87 80 0
14.740000 36.080000 18.920000 150 86 79 0
14.960000 36.080000 18.920000 153 84 74 0
15.180000 36.080000 18.920000 152 83 73 0
15.400000 36.080000 18.920000 152 81 74 0
15.620000 36.080000 18.920000 152 81 74 0
15.840000 36.080000 18.920000 151 80 73 0
16.060000 36.080000 18.920000 150 79 72 0
16.280000 36.080000 19.580000 152 78 70 0
16.500000 36.080000 19.580000 150 76 68 0
16.720000 36.080000 18.920000 150 75 67 0
16.940000 36.080000 19.580000 148 73 65 0
17.160000 36.080000 19.580000 150 72 65 0
17.380000 36.080000 19.580000 148 70 63 0
17.600000 36.080000 18.920000 147 69 62 0
17.820000 36.080000 19.580000 146 68 61 0
18.040000 36.080000 19.580000 146 66 60 0
18.260000 36.080000 19.580000 146 66 60 0
18.480000 36.080000 19.690000 145 65 61 0
18.700000 36.080000 18.920000 146 66 62 0
18.920000 36.080000 18.920000 145 65 59 0
19.140000 36.080000 18.920000 146 66 60 0
19.360000 36.080000 18.920000 146 71 63 0
19.580000 36.080000 18.920000 155 80 72 0
19.800000 36.080000 18.920000 158 83 73 0
20.020000 36.080000 18.920000 158 83 73 0
20.240000 36.080000 18.920000 158 83 73 0
20.460000 36.080000 19.580000 157 82 72 0
20.680000 36.080000 18.920000 157 79 72 0
20.900000 36.080000 18.920000 156 78 71 0
21.120000 36.080000 18.920000 155 75 69 0
21.340000 36.080000 18.260000 154 74 68 0
21.560000 36.080000 18.920000 149 65 62 0
21.780000 36.080000 18.920000 144 60 57 0
22.000000 36.080000 18.920000 143 56 57 0
22.220000 36.080000 18.920000 143 56 57 0
22.440000 36.080000 18.810000 142 55 56 0
22.660000 36.080000 19.580000 142 55 56 0
22.880000 36.080000 18.920000 144 55 56 0
23.100000 36.080000 18.920000 142 53 54 0
23.320000 36.080000 18.920000 142 51 55 0
23.540000 36.080000 18.920000 143 52 56 0
23.760000 36.080000 18.920000 140 51 52 0
23.980000 36.080000 19.470000 142 53 54 0
24.200000 36.080000 19.470000 140 50 54 0
24.420000 36.080000 18.810000 142 52 56 0
24.640000 36.080000 18.150000 141 51 55 0
24.860000 36.080000 18.920000 141 51 55 0
25.080000 36.080000 18.920000 140 51 52 0
