ply
format ascii 1.0
element vertex 1108
property float x
property float y
property float z
property uchar red
property uchar green
property uchar blue
property uchar alpha
end_header
33.440000 33.440000 1.100000 204 219 207 0
33.660000 33.440000 1.210000 204 219 207 0
33.880000 33.440000 1.210000 204 219 207 0
34.100000 33.440000 1.210000 203 218 206 0
34.320000 33.440000 1.210000 203 218 206 0
34.540000 33.440000 1.980000 203 218 206 0
34.760000 33.440000 1.980000 204 219 207 0
34.980000 33.440000 2.530000 204 219 207 0
35.200000 33.440000 2.970000 204 219 207 0
35.420000 33.440000 3.520000 203 218 206 0
35.640000 33.440000 3.520000 202 217 205 0
35.860000 33.440000 4.180000 203 218 206 0
36.080000 33.440000 4.290000 202 217 205 0
36.300000 33.440000 4.290000 203 218 206 0
36.520000 33.440000 4.290000 203 218 206 0
36.740000 33.440000 4.400000 203 218 206 0
36.960000 33.440000 4.400000 203 218 206 0
37.180000 33.440000 4.400000 203 218 206 0
0.000000 33.660000 4.400000 211 214 216 0
0.220000 33.660000 4.400000 215 220 219 0
0.440000 33.660000 4.400000 213 218 217 0
0.660000 33.660000 4.510000 211 216 215 0
0.880000 33.660000 4.510000 209 214 213 0
1.100000 33.660000 4.510000 206 211 210 0
1.320000 33.660000 5.170000 207 212 211 0
1.540000 33.660000 5.280000 207 212 211 0
1.760000 33.660000 5.280000 207 212 211 0
1.980000 33.660000 5.280000 203 205 199 0
2.200000 33.660000 5.280000 192 194 188 0
2.420000 33.660000 5.280000 188 187 177 0
2.640000 33.660000 5.280000 185 184 174 0
2.860000 33.660000 5.280000 186 185 178 0
3.080000 33.660000 5.170000 190 189 182 0
3.300000 33.660000 5.170000 193 195 187 0
3.520000 33.660000 4.510000 196 198 190 0
3.740000 33.660000 4.620000 197 201 197 0
3.960000 33.660000 4.620000 202 206 202 0
4.180000 33.660000 4.730000 204 210 207 0
4.400000 33.660000 4.730000 207 213 210 0
4.620000 33.660000 4.730000 208 216 213 0
4.840000 33.660000 5.500000 208 216 213 0
5.060000 33.660000 5.500000 209 217 214 0
5.280000 33.660000 6.050000 208 216 213 0
5.500000 33.660000 6.380000 208 216 213 0
5.720000 33.660000 6.930000 209 217 214 0
5.940000 33.660000 7.590000 209 217 214 0
6.160000 33.660000 7.700000 209 217 214 0
6.380000 33.660000 7.700000 209 219 215 0
6.600000 33.660000 7.700000 209 219 215 0
6.820000 33.660000 7.700000 209 217 214 0
7.040000 33.660000 7.810000 209 217 214 0
7.260000 33.660000 7.810000 209 217 214 0
7.480000 33.660000 7.810000 209 217 214 0
7.700000 33.660000 7.810000 208 218 214 0
7.920000 33.660000 7.810000 208 218 214 0
8.140000 33.660000 7.920000 210 220 216 0
8.360000 33.660000 7.920000 210 220 216 0
8.580000 33.660000 7.920000 210 218 215 0
8.800000 33.660000 7.920000 210 218 215 0
9.020000 33.660000 8.030000 209 217 214 0
9.240000 33.660000 8.030000 208 216 213 0
9.460000 33.660000 8.030000 208 218 212 0
9.680000 33.660000 8.800000 210 220 214 0
9.900000 33.660000 8.800000 210 220 216 0
10.120000 33.660000 8.800000 210 220 216 0
10.340000 33.660000 8.800000 209 219 213 0
10.560000 33.660000 8.910000 208 218 212 0
10.780000 33.660000 8.910000 207 217 213 0
11.000000 33.660000 8.910000 207 217 213 0
11.220000 33.660000 9.460000 208 218 212 0
11.440000 33.660000 10.560000 209 219 213 0
11.660000 33.660000 11.110000 210 220 214 0
11.880000 33.660000 11.110000 209 219 213 0
12.100000 33.660000 11.110000 208 218 212 0
12.320000 33.660000 11.880000 208 218 212 0
12.540000 33.660000 11.880000 208 218 212 0
12.760000 33.660000 11.880000 207 217 211 0
12.980000 33.660000 11.990000 208 218 212 0
13.200000 33.660000 11.990000 209 219 213 0
13.420000 33.660000 11.990000 208 218 212 0
13.640000 33.660000 11.990000 208 218 212 0
13.860000 33.660000 11.990000 207 217 211 0
14.080000 33.660000 12.100000 207 217 211 0
14.300000 33.660000 12.100000 208 218 212 0
14.520000 33.660000 12.100000 208 218 212 0
14.740000 33.660000 12.870000 209 219 213 0
14.960000 33.660000 12.870000 208 218 212 0
15.180000 33.660000 12.870000 206 218 211 0
15.400000 33.660000 12.870000 206 218 211 0
15.620000 33.660000 12.980000 208 218 212 0
15.840000 33.660000 12.980000 207 217 211 0
16.060000 33.660000 12.980000 208 218 212 0
16.280000 33.660000 13.090000 208 218 212 0
16.500000 33.660000 13.090000 207 219 212 0
16.720000 33.660000 13.090000 206 218 211 0
16.940000 33.660000 13.530000 206 218 211 0
17.160000 33.660000 13.970000 206 218 211 0
17.380000 33.660000 14.520000 205 217 210 0
17.600000 33.660000 14.630000 207 219 212 0
17.820000 33.660000 14.630000 208 218 212 0
18.040000 33.660000 14.630000 208 218 212 0
18.260000 33.660000 14.630000 205 217 210 0
18.480000 33.660000 14.630000 205 217 210 0
18.700000 33.660000 15.400000 205 217 210 0
18.920000 33.660000 15.400000 204 216 209 0
19.140000 33.660000 15.400000 203 215 208 0
19.360000 33.660000 16.060000 202 214 207 0
19.580000 33.660000 16.060000 201 213 206 0
19.800000 33.660000 16.830000 201 213 206 0
20.020000 33.660000 16.390000 203 215 208 0
20.240000 33.660000 16.390000 205 217 210 0
20.460000 33.660000 16.940000 207 219 212 0
20.680000 33.660000 18.040000 209 221 214 0
20.900000 33.660000 18.040000 206 218 209 0
21.120000 33.660000 18.040000 204 216 207 0
21.340000 33.660000 18.040000 205 217 210 0
21.560000 33.660000 18.810000 206 218 211 0
21.780000 33.660000 18.810000 206 218 211 0
22.000000 33.660000 18.810000 206 218 211 0
22.220000 33.660000 18.920000 203 218 210 0
22.440000 33.660000 18.920000 204 219 211 0
22.660000 33.660000 18.920000 207 219 210 0
22.880000 33.660000 18.920000 205 217 208 0
23.100000 33.660000 19.030000 204 216 209 0
23.320000 33.660000 19.030000 204 216 209 0
23.540000 33.660000 19.030000 204 216 207 0
23.760000 33.660000 19.030000 205 217 208 0
23.980000 33.660000 19.140000 203 218 208 0
24.200000 33.660000 19.800000 203 218 208 0
24.420000 33.660000 19.800000 203 218 208 0
24.640000 33.660000 19.800000 203 218 208 0
24.860000 33.660000 19.800000 201 216 206 0
25.080000 33.660000 19.800000 199 214 204 0
25.300000 33.660000 19.910000 199 210 199 0
25.520000 33.660000 19.910000 192 203 192 0
25.740000 33.660000 19.910000 186 198 179 0
25.960000 33.660000 19.910000 182 194 175 0
26.180000 33.660000 19.800000 182 194 175 0
26.400000 33.660000 19.140000 184 196 177 0
26.620000 33.660000 19.140000 187 197 181 0
26.840000 33.660000 19.140000 189 199 183 0
27.060000 33.660000 19.140000 191 202 189 0
27.280000 33.660000 19.140000 193 204 191 0
27.500000 33.660000 19.140000 194 209 199 0
27.720000 33.660000 19.140000 197 212 202 0
27.940000 33.660000 19.140000 199 214 204 0
28.160000 33.660000 20.350000 201 216 206 0
28.380000 33.660000 20.790000 202 217 207 0
28.600000 33.660000 15.950000 203 218 208 0
28.820000 33.660000 5.610000 203 218 208 0
29.040000 33.660000 0.110000 203 218 208 0
29.260000 33.660000 0.110000 203 218 208 0
29.480000 33.660000 0.110000 204 219 209 0
29.700000 33.660000 0.110000 204 219 209 0
29.920000 33.660000 0.770000 204 219 209 0
30.140000 33.660000 0.770000 203 220 209 0
30.360000 33.660000 0.770000 202 219 208 0
30.580000 33.660000 0.770000 203 220 209 0
30.800000 33.660000 0.880000 204 221 210 0
31.020000 33.660000 0.880000 202 219 208 0
31.240000 33.660000 0.880000 203 220 209 0
31.460000 33.660000 0.880000 203 218 208 0
31.680000 33.660000 0.880000 204 219 209 0
31.900000 33.660000 0.880000 204 221 210 0
32.120000 33.660000 0.990000 204 221 210 0
32.340000 33.660000 0.990000 203 220 209 0
32.560000 33.660000 0.990000 203 220 209 0
32.780000 33.660000 0.990000 203 220 207 0
33.000000 33.660000 1.100000 203 220 207 0
33.220000 33.660000 1.100000 203 220 207 0
33.440000 33.660000 1.100000 203 220 207 0
33.660000 33.660000 1.100000 203 220 209 0
33.880000 33.660000 1.210000 203 220 209 0
34.100000 33.660000 1.210000 202 219 208 0
34.320000 33.660000 1.980000 203 220 209 0
34.540000 33.660000 1.980000 203 220 207 0
34.760000 33.660000 1.980000 204 221 208 0
34.980000 33.660000 2.530000 203 220 207 0
35.200000 33.660000 2.970000 202 219 206 0
35.420000 33.660000 3.520000 203 220 209 0
35.640000 33.660000 3.520000 202 219 208 0
35.860000 33.660000 4.180000 202 219 208 0
36.080000 33.660000 4.290000 203 220 209 0
36.300000 33.660000 4.290000 202 219 206 0
36.520000 33.660000 4.290000 202 219 206 0
36.740000 33.660000 4.290000 202 219 206 0
36.960000 33.660000 4.400000 202 219 206 0
37.180000 33.660000 4.400000 202 219 208 0
0.000000 33.880000 4.400000 214 217 219 0
0.220000 33.880000 4.400000 215 220 219 0
0.440000 33.880000 4.400000 214 219 218 0
0.660000 33.880000 4.400000 213 218 217 0
0.880000 33.880000 4.510000 210 215 214 0
1.100000 33.880000 5.170000 208 213 212 0
1.320000 33.880000 5.280000 208 213 212 0
1.540000 33.880000 5.280000 210 215 214 0
1.760000 33.880000 5.280000 205 210 209 0
1.980000 33.880000 5.280000 203 205 199 0
2.200000 33.880000 5.280000 193 195 189 0
2.420000 33.880000 5.280000 188 187 177 0
2.640000 33.880000 5.280000 186 185 175 0
2.860000 33.880000 5.280000 188 187 180 0
3.080000 33.880000 5.280000 191 190 183 0
3.300000 33.880000 4.510000 194 196 188 0
3.520000 33.880000 4.620000 196 198 190 0
3.740000 33.880000 4.620000 200 204 200 0
3.960000 33.880000 4.620000 203 207 203 0
4.180000 33.880000 4.730000 204 210 207 0
4.400000 33.880000 4.730000 206 212 209 0
4.620000 33.880000 5.390000 208 216 213 0
4.840000 33.880000 5.500000 210 218 215 0
5.060000 33.880000 5.500000 210 218 215 0
5.280000 33.880000 6.050000 210 218 215 0
5.500000 33.880000 6.490000 209 217 214 0
5.720000 33.880000 6.930000 209 217 214 0
5.940000 33.880000 7.590000 209 217 214 0
6.160000 33.880000 7.700000 209 217 214 0
6.380000 33.880000 7.700000 208 218 214 0
6.600000 33.880000 7.700000 209 219 215 0
6.820000 33.880000 7.700000 211 219 216 0
7.040000 33.880000 7.810000 211 219 216 0
7.260000 33.880000 7.810000 210 218 215 0
7.480000 33.880000 7.810000 209 217 214 0
7.700000 33.880000 7.810000 209 219 215 0
7.920000 33.880000 7.810000 210 220 216 0
8.140000 33.880000 7.920000 210 220 216 0
8.360000 33.880000 7.920000 210 220 216 0
8.580000 33.880000 7.920000 211 219 216 0
8.800000 33.880000 7.920000 210 218 215 0
9.020000 33.880000 8.030000 210 218 215 0
9.240000 33.880000 8.030000 210 218 215 0
9.460000 33.880000 8.030000 210 220 214 0
9.680000 33.880000 8.030000 210 220 214 0
9.900000 33.880000 8.800000 211 221 217 0
10.120000 33.880000 8.800000 211 221 217 0
10.340000 33.880000 8.800000 209 219 213 0
10.560000 33.880000 8.910000 208 218 212 0
10.780000 33.880000 8.910000 208 218 214 0
11.000000 33.880000 8.910000 209 219 215 0
11.220000 33.880000 9.460000 209 219 213 0
11.440000 33.880000 10.560000 210 220 214 0
11.660000 33.880000 11.110000 211 221 215 0
11.880000 33.880000 11.110000 210 220 214 0
12.100000 33.880000 11.110000 210 220 214 0
12.320000 33.880000 11.880000 209 219 213 0
12.540000 33.880000 11.880000 209 219 213 0
12.760000 33.880000 11.880000 209 219 213 0
12.980000 33.880000 11.990000 209 219 213 0
13.200000 33.880000 11.990000 210 220 214 0
13.420000 33.880000 11.990000 210 220 214 0
13.640000 33.880000 11.990000 208 218 212 0
13.860000 33.880000 11.990000 208 218 212 0
14.080000 33.880000 12.100000 209 219 213 0
14.300000 33.880000 12.100000 209 219 213 0
14.520000 33.880000 12.100000 210 220 214 0
14.740000 33.880000 12.870000 209 219 213 0
14.960000 33.880000 12.870000 211 221 215 0
15.180000 33.880000 12.870000 209 221 214 0
15.400000 33.880000 12.870000 207 219 212 0
15.620000 33.880000 12.980000 208 218 212 0
15.840000 33.880000 12.980000 208 218 212 0
16.060000 33.880000 12.980000 209 219 213 0
16.280000 33.880000 13.090000 210 220 214 0
16.500000 33.880000 13.090000 208 220 213 0
16.720000 33.880000 13.090000 207 219 212 0
16.940000 33.880000 13.640000 207 219 212 0
17.160000 33.880000 13.970000 207 219 212 0
17.380000 33.880000 14.520000 206 218 211 0
17.600000 33.880000 14.630000 208 220 213 0
17.820000 33.880000 14.630000 209 219 213 0
18.040000 33.880000 14.630000 209 219 213 0
18.260000 33.880000 14.630000 207 219 212 0
18.480000 33.880000 14.630000 206 218 211 0
18.700000 33.880000 15.400000 206 218 211 0
18.920000 33.880000 15.400000 205 217 210 0
19.140000 33.880000 15.400000 204 216 209 0
19.360000 33.880000 16.170000 203 215 208 0
19.580000 33.880000 16.170000 202 214 207 0
19.800000 33.880000 16.830000 203 215 208 0
20.020000 33.880000 16.940000 204 216 209 0
20.240000 33.880000 16.390000 207 219 212 0
20.460000 33.880000 16.940000 208 220 213 0
20.680000 33.880000 18.040000 211 223 216 0
20.900000 33.880000 18.040000 209 221 212 0
21.120000 33.880000 18.040000 206 218 209 0
21.340000 33.880000 18.040000 205 217 210 0
21.560000 33.880000 18.810000 206 218 211 0
21.780000 33.880000 18.810000 206 218 211 0
22.000000 33.880000 18.810000 206 218 211 0
22.220000 33.880000 18.920000 205 220 212 0
22.440000 33.880000 18.920000 204 219 211 0
22.660000 33.880000 18.920000 206 218 209 0
22.880000 33.880000 18.920000 206 218 209 0
23.100000 33.880000 19.030000 205 217 210 0
23.320000 33.880000 19.030000 204 216 209 0
23.540000 33.880000 19.030000 205 217 208 0
23.760000 33.880000 19.030000 206 218 209 0
23.980000 33.880000 19.800000 204 219 209 0
24.200000 33.880000 19.800000 204 219 209 0
24.420000 33.880000 19.800000 204 219 209 0
24.640000 33.880000 19.800000 203 218 208 0
24.860000 33.880000 19.800000 201 216 206 0
25.080000 33.880000 19.800000 202 217 207 0
25.300000 33.880000 19.910000 201 212 201 0
25.520000 33.880000 19.910000 195 206 195 0
25.740000 33.880000 19.910000 187 199 180 0
25.960000 33.880000 19.910000 182 194 175 0
26.180000 33.880000 19.800000 183 195 176 0
26.400000 33.880000 19.140000 185 197 178 0
26.620000 33.880000 19.140000 187 197 181 0
26.840000 33.880000 19.140000 190 200 184 0
27.060000 33.880000 19.140000 191 202 189 0
27.280000 33.880000 19.140000 195 206 193 0
27.500000 33.880000 19.140000 196 211 201 0
27.720000 33.880000 19.140000 198 213 203 0
27.940000 33.880000 19.140000 199 214 204 0
28.160000 33.880000 20.350000 202 217 207 0
28.380000 33.880000 20.790000 202 217 207 0
28.600000 33.880000 15.950000 204 219 209 0
28.820000 33.880000 5.610000 204 219 209 0
29.040000 33.880000 0.110000 203 218 208 0
29.260000 33.880000 0.110000 204 219 209 0
29.480000 33.880000 0.110000 204 219 209 0
29.700000 33.880000 0.110000 205 220 210 0
29.920000 33.880000 0.770000 205 220 210 0
30.140000 33.880000 0.770000 203 220 209 0
30.360000 33.880000 0.770000 204 221 210 0
30.580000 33.880000 0.770000 204 221 210 0
30.800000 33.880000 0.880000 204 221 210 0
31.020000 33.880000 0.880000 203 220 209 0
31.240000 33.880000 0.880000 203 220 209 0
31.460000 33.880000 0.880000 205 220 210 0
31.680000 33.880000 0.880000 205 220 210 0
31.900000 33.880000 0.880000 203 220 209 0
32.120000 33.880000 0.990000 205 222 211 0
32.340000 33.880000 0.990000 203 220 209 0
32.560000 33.880000 0.990000 204 221 210 0
32.780000 33.880000 0.990000 204 221 208 0
33.000000 33.880000 1.100000 204 221 208 0
33.220000 33.880000 1.100000 203 220 207 0
33.440000 33.880000 1.100000 203 220 207 0
33.660000 33.880000 1.100000 204 221 210 0
33.880000 33.880000 1.210000 203 220 209 0
34.100000 33.880000 1.870000 203 220 209 0
34.320000 33.880000 1.980000 203 220 209 0
34.540000 33.880000 1.980000 204 221 208 0
34.760000 33.880000 1.980000 204 221 208 0
34.980000 33.880000 2.530000 204 221 208 0
35.200000 33.880000 2.970000 203 220 207 0
35.420000 33.880000 3.520000 203 220 209 0
35.640000 33.880000 3.520000 203 220 209 0
35.860000 33.880000 4.180000 203 220 209 0
36.080000 33.880000 4.290000 204 221 210 0
36.300000 33.880000 4.290000 204 221 208 0
36.520000 33.880000 4.290000 204 221 208 0
36.740000 33.880000 4.290000 204 221 208 0
36.960000 33.880000 4.400000 204 221 208 0
37.180000 33.880000 4.400000 203 220 209 0
0.000000 34.100000 4.400000 216 219 219 0
0.220000 34.100000 4.400000 216 221 222 0
0.440000 34.100000 4.400000 214 219 220 0
0.660000 34.100000 4.400000 214 219 218 0
0.880000 34.100000 4.510000 212 217 216 0
1.100000 34.100000 5.170000 209 214 213 0
1.320000 34.100000 5.280000 214 219 218 0
1.540000 34.100000 5.280000 220 225 224 0
1.760000 34.100000 5.280000 207 212 211 0
1.980000 34.100000 5.280000 202 202 197 0
2.200000 34.100000 5.280000 191 191 186 0
2.420000 34.100000 5.280000 191 186 177 0
2.640000 34.100000 5.280000 190 185 176 0
2.860000 34.100000 5.280000 189 190 180 0
3.080000 34.100000 5.280000 191 192 182 0
3.300000 34.100000 4.510000 194 196 190 0
3.520000 34.100000 4.620000 196 198 192 0
3.740000 34.100000 4.620000 198 202 200 0
3.960000 34.100000 4.620000 203 207 205 0
4.180000 34.100000 4.620000 202 210 207 0
4.400000 34.100000 4.730000 203 211 208 0
4.620000 34.100000 5.390000 210 215 214 0
4.840000 34.100000 5.390000 212 217 216 0
5.060000 34.100000 5.500000 210 218 215 0
5.280000 34.100000 5.500000 209 217 214 0
5.500000 34.100000 5.940000 211 217 214 0
5.720000 34.100000 7.040000 211 217 214 0
5.940000 34.100000 6.930000 209 217 214 0
6.160000 34.100000 7.700000 209 217 214 0
6.380000 34.100000 7.700000 209 217 214 0
6.600000 34.100000 7.700000 210 218 215 0
6.820000 34.100000 7.700000 209 217 214 0
7.040000 34.100000 7.810000 210 218 215 0
7.260000 34.100000 7.810000 210 218 215 0
7.480000 34.100000 7.810000 209 217 214 0
7.700000 34.100000 7.810000 210 218 215 0
7.920000 34.100000 7.810000 210 218 215 0
8.140000 34.100000 7.920000 210 218 215 0
8.360000 34.100000 7.920000 210 218 215 0
8.580000 34.100000 7.920000 209 217 214 0
8.800000 34.100000 7.920000 209 217 214 0
9.020000 34.100000 8.030000 209 217 214 0
9.240000 34.100000 8.030000 210 218 215 0
9.460000 34.100000 8.030000 211 220 214 0
9.680000 34.100000 8.030000 211 220 214 0
9.900000 34.100000 8.800000 212 220 217 0
10.120000 34.100000 8.800000 211 219 216 0
10.340000 34.100000 8.800000 210 218 215 0
10.560000 34.100000 8.910000 209 217 214 0
10.780000 34.100000 8.910000 209 218 212 0
11.000000 34.100000 8.910000 210 219 213 0
11.220000 34.100000 9.460000 210 219 213 0
11.440000 34.100000 10.560000 210 219 213 0
11.660000 34.100000 11.110000 210 219 213 0
11.880000 34.100000 11.110000 211 220 214 0
12.100000 34.100000 11.110000 209 219 213 0
12.320000 34.100000 11.880000 210 220 214 0
12.540000 34.100000 11.880000 209 219 213 0
12.760000 34.100000 11.880000 209 219 213 0
12.980000 34.100000 11.990000 209 219 213 0
13.200000 34.100000 11.990000 209 219 213 0
13.420000 34.100000 11.990000 210 219 213 0
13.640000 34.100000 11.990000 210 219 213 0
13.860000 34.100000 11.990000 208 218 212 0
14.080000 34.100000 12.100000 208 218 212 0
14.300000 34.100000 12.100000 210 220 214 0
14.520000 34.100000 12.100000 210 220 214 0
14.740000 34.100000 12.870000 210 220 214 0
14.960000 34.100000 12.870000 210 220 214 0
15.180000 34.100000 12.870000 209 219 213 0
15.400000 34.100000 12.870000 208 218 212 0
15.620000 34.100000 12.980000 209 219 213 0
15.840000 34.100000 12.980000 208 218 212 0
16.060000 34.100000 12.980000 209 219 213 0
16.280000 34.100000 13.090000 209 219 213 0
16.500000 34.100000 13.090000 209 219 213 0
16.720000 34.100000 13.090000 208 218 212 0
16.940000 34.100000 13.640000 209 219 213 0
17.160000 34.100000 13.970000 209 219 213 0
17.380000 34.100000 14.520000 208 218 212 0
17.600000 34.100000 14.630000 209 219 213 0
17.820000 34.100000 14.630000 209 219 213 0
18.040000 34.100000 14.630000 210 220 214 0
18.260000 34.100000 14.630000 207 219 212 0
18.480000 34.100000 14.630000 206 218 211 0
18.700000 34.100000 15.400000 207 217 211 0
18.920000 34.100000 15.400000 206 216 210 0
19.140000 34.100000 15.400000 204 216 209 0
19.360000 34.100000 16.170000 203 215 208 0
19.580000 34.100000 16.170000 204 214 208 0
19.800000 34.100000 16.720000 203 213 207 0
20.020000 34.100000 16.830000 204 216 209 0
20.240000 34.100000 17.050000 208 220 213 0
20.460000 34.100000 16.940000 208 220 213 0
20.680000 34.100000 18.040000 207 219 212 0
20.900000 34.100000 18.040000 208 220 213 0
21.120000 34.100000 18.040000 207 219 212 0
21.340000 34.100000 18.810000 206 218 209 0
21.560000 34.100000 18.810000 206 218 209 0
21.780000 34.100000 18.810000 207 219 210 0
22.000000 34.100000 18.810000 206 218 209 0
22.220000 34.100000 18.920000 206 218 211 0
22.440000 34.100000 18.920000 207 219 212 0
22.660000 34.100000 18.920000 207 219 212 0
22.880000 34.100000 18.920000 206 218 211 0
23.100000 34.100000 19.030000 205 217 208 0
23.320000 34.100000 19.030000 205 217 208 0
23.540000 34.100000 19.030000 204 216 207 0
23.760000 34.100000 19.030000 207 219 210 0
23.980000 34.100000 19.800000 208 220 211 0
24.200000 34.100000 19.800000 207 219 210 0
24.420000 34.100000 19.800000 206 218 209 0
24.640000 34.100000 19.800000 205 217 208 0
24.860000 34.100000 19.800000 204 216 207 0
25.080000 34.100000 19.800000 204 216 207 0
25.300000 34.100000 19.910000 203 214 203 0
25.520000 34.100000 19.910000 196 207 196 0
25.740000 34.100000 19.910000 189 200 181 0
25.960000 34.100000 19.910000 185 196 177 0
26.180000 34.100000 19.800000 183 195 176 0
26.400000 34.100000 19.140000 185 197 178 0
26.620000 34.100000 19.140000 187 198 179 0
26.840000 34.100000 19.140000 190 201 182 0
27.060000 34.100000 19.140000 192 202 189 0
27.280000 34.100000 19.140000 196 206 193 0
27.500000 34.100000 19.140000 196 211 201 0
27.720000 34.100000 19.140000 198 213 203 0
27.940000 34.100000 19.800000 200 215 205 0
28.160000 34.100000 20.350000 202 217 207 0
28.380000 34.100000 20.790000 203 218 208 0
28.600000 34.100000 15.950000 204 219 209 0
28.820000 34.100000 5.610000 203 218 208 0
29.040000 34.100000 0.110000 203 218 208 0
29.260000 34.100000 0.110000 203 218 208 0
29.480000 34.100000 0.110000 204 219 209 0
29.700000 34.100000 0.110000 204 219 209 0
29.920000 34.100000 0.770000 205 220 210 0
30.140000 34.100000 0.770000 205 220 210 0
30.360000 34.100000 0.770000 205 220 210 0
30.580000 34.100000 0.770000 205 220 210 0
30.800000 34.100000 0.880000 205 220 210 0
31.020000 34.100000 0.880000 204 219 207 0
31.240000 34.100000 0.880000 204 219 207 0
31.460000 34.100000 0.880000 205 220 210 0
31.680000 34.100000 0.880000 204 219 209 0
31.900000 34.100000 0.880000 204 219 207 0
32.120000 34.100000 0.990000 204 219 207 0
32.340000 34.100000 0.990000 203 218 208 0
32.560000 34.100000 0.990000 204 219 209 0
32.780000 34.100000 0.990000 205 220 208 0
33.000000 34.100000 1.100000 205 220 208 0
33.220000 34.100000 1.100000 205 220 210 0
33.440000 34.100000 1.100000 205 220 210 0
33.660000 34.100000 1.100000 203 218 206 0
33.880000 34.100000 1.870000 204 219 207 0
34.100000 34.100000 1.870000 203 220 209 0
34.320000 34.100000 1.980000 203 220 209 0
34.540000 34.100000 1.980000 205 220 208 0
34.760000 34.100000 1.980000 205 220 208 0
34.980000 34.100000 2.530000 205 220 210 0
35.200000 34.100000 2.970000 205 220 210 0
35.420000 34.100000 3.520000 204 219 207 0
35.640000 34.100000 3.520000 204 219 207 0
35.860000 34.100000 4.180000 203 220 207 0
36.080000 34.100000 4.290000 203 220 207 0
36.300000 34.100000 4.290000 203 220 207 0
36.520000 34.100000 4.290000 204 221 208 0
36.740000 34.100000 4.290000 203 220 207 0
36.960000 34.100000 4.400000 203 220 207 0
37.180000 34.100000 4.400000 203 220 207 0
0.000000 34.320000 4.400000 217 220 220 0
0.220000 34.320000 4.400000 219 224 225 0
0.440000 34.320000 4.400000 215 220 221 0
0.660000 34.320000 4.400000 214 219 218 0
0.880000 34.320000 4.510000 212 217 216 0
1.100000 34.320000 4.510000 211 216 215 0
1.320000 34.320000 5.280000 211 216 215 0
1.540000 34.320000 5.280000 213 218 217 0
1.760000 34.320000 5.280000 210 215 214 0
1.980000 34.320000 5.280000 205 205 200 0
2.200000 34.320000 5.280000 194 194 189 0
2.420000 34.320000 5.280000 192 187 178 0
2.640000 34.320000 5.280000 192 187 178 0
2.860000 34.320000 5.280000 190 191 181 0
3.080000 34.320000 5.280000 193 194 184 0
3.300000 34.320000 4.620000 195 197 191 0
3.520000 34.320000 4.620000 197 199 193 0
3.740000 34.320000 4.620000 198 202 200 0
3.960000 34.320000 4.620000 203 207 205 0
4.180000 34.320000 4.620000 202 210 207 0
4.400000 34.320000 5.390000 205 213 210 0
4.620000 34.320000 5.390000 209 214 213 0
4.840000 34.320000 5.390000 210 215 214 0
5.060000 34.320000 5.500000 209 217 214 0
5.280000 34.320000 5.500000 209 217 214 0
5.500000 34.320000 6.050000 211 217 214 0
5.720000 34.320000 7.040000 211 217 214 0
5.940000 34.320000 6.930000 209 217 214 0
6.160000 34.320000 7.590000 208 216 213 0
6.380000 34.320000 7.700000 209 217 214 0
6.600000 34.320000 7.700000 209 217 214 0
6.820000 34.320000 7.700000 209 217 214 0
7.040000 34.320000 7.810000 209 217 214 0
7.260000 34.320000 7.810000 208 216 213 0
7.480000 34.320000 7.810000 208 216 213 0
7.700000 34.320000 7.810000 208 216 213 0
7.920000 34.320000 7.810000 208 216 213 0
8.140000 34.320000 7.920000 208 216 213 0
8.360000 34.320000 7.920000 208 216 213 0
8.580000 34.320000 7.920000 208 216 213 0
8.800000 34.320000 7.920000 209 217 214 0
9.020000 34.320000 8.030000 209 217 214 0
9.240000 34.320000 8.030000 209 217 214 0
9.460000 34.320000 8.030000 209 218 212 0
9.680000 34.320000 8.030000 209 218 212 0
9.900000 34.320000 8.140000 209 217 214 0
10.120000 34.320000 8.800000 209 217 214 0
10.340000 34.320000 8.800000 208 216 213 0
10.560000 34.320000 8.910000 208 216 213 0
10.780000 34.320000 8.910000 209 218 212 0
11.000000 34.320000 8.910000 209 218 212 0
11.220000 34.320000 9.460000 209 218 212 0
11.440000 34.320000 10.560000 209 218 212 0
11.660000 34.320000 11.110000 209 218 212 0
11.880000 34.320000 11.110000 208 217 211 0
12.100000 34.320000 11.110000 207 217 211 0
12.320000 34.320000 11.220000 208 218 212 0
12.540000 34.320000 11.880000 208 218 212 0
12.760000 34.320000 11.880000 207 217 211 0
12.980000 34.320000 11.990000 208 218 212 0
13.200000 34.320000 11.990000 208 218 212 0
13.420000 34.320000 11.990000 210 219 213 0
13.640000 34.320000 11.990000 208 217 211 0
13.860000 34.320000 11.990000 208 218 212 0
14.080000 34.320000 12.100000 208 218 212 0
14.300000 34.320000 12.100000 208 218 212 0
14.520000 34.320000 12.100000 209 219 213 0
14.740000 34.320000 12.870000 209 219 213 0
14.960000 34.320000 12.870000 209 219 213 0
15.180000 34.320000 12.870000 208 218 212 0
15.400000 34.320000 12.870000 207 217 211 0
15.620000 34.320000 12.980000 207 217 211 0
15.840000 34.320000 12.980000 209 219 213 0
16.060000 34.320000 12.980000 209 219 213 0
16.280000 34.320000 13.090000 209 219 213 0
16.500000 34.320000 13.090000 209 219 213 0
16.720000 34.320000 13.090000 208 218 212 0
16.940000 34.320000 13.530000 208 218 212 0
17.160000 34.320000 13.970000 207 217 211 0
17.380000 34.320000 14.520000 208 218 212 0
17.600000 34.320000 14.630000 208 218 212 0
17.820000 34.320000 14.630000 209 219 213 0
18.040000 34.320000 14.630000 208 218 212 0
18.260000 34.320000 14.630000 207 219 212 0
18.480000 34.320000 14.740000 206 218 211 0
18.700000 34.320000 14.740000 207 217 211 0
18.920000 34.320000 15.400000 206 216 210 0
19.140000 34.320000 15.400000 204 216 209 0
19.360000 34.320000 15.400000 203 215 208 0
19.580000 34.320000 16.170000 204 214 208 0
19.800000 34.320000 16.830000 203 213 207 0
20.020000 34.320000 16.940000 203 215 208 0
20.240000 34.320000 16.390000 207 219 212 0
20.460000 34.320000 17.050000 208 220 213 0
20.680000 34.320000 17.380000 207 219 212 0
20.900000 34.320000 18.040000 207 219 212 0
21.120000 34.320000 18.040000 207 219 212 0
21.340000 34.320000 18.810000 207 219 210 0
21.560000 34.320000 18.810000 207 219 210 0
21.780000 34.320000 18.810000 206 218 209 0
22.000000 34.320000 18.810000 206 218 209 0
22.220000 34.320000 18.920000 207 219 212 0
22.440000 34.320000 18.920000 207 219 212 0
22.660000 34.320000 18.920000 206 218 211 0
22.880000 34.320000 18.920000 206 218 211 0
23.100000 34.320000 19.030000 206 218 209 0
23.320000 34.320000 19.030000 206 218 209 0
23.540000 34.320000 19.690000 206 218 209 0
23.760000 34.320000 19.800000 207 219 210 0
23.980000 34.320000 19.800000 207 219 210 0
24.200000 34.320000 19.800000 206 218 209 0
24.420000 34.320000 19.800000 205 217 208 0
24.640000 34.320000 19.800000 205 217 208 0
24.860000 34.320000 19.800000 204 216 207 0
25.080000 34.320000 19.910000 202 214 205 0
25.300000 34.320000 19.910000 202 213 202 0
25.520000 34.320000 19.910000 197 208 197 0
25.740000 34.320000 19.910000 189 200 181 0
25.960000 34.320000 19.910000 185 196 177 0
26.180000 34.320000 19.800000 183 195 176 0
26.400000 34.320000 19.140000 185 197 178 0
26.620000 34.320000 19.140000 187 198 179 0
26.840000 34.320000 19.140000 189 200 181 0
27.060000 34.320000 19.140000 192 202 189 0
27.280000 34.320000 19.140000 195 205 192 0
27.500000 34.320000 19.140000 196 211 201 0
27.720000 34.320000 19.140000 198 213 203 0
27.940000 34.320000 19.800000 200 215 205 0
28.160000 34.320000 20.350000 202 217 207 0
28.380000 34.320000 20.900000 203 218 208 0
28.600000 34.320000 15.950000 203 218 208 0
28.820000 34.320000 5.610000 202 217 207 0
29.040000 34.320000 0.110000 203 218 208 0
29.260000 34.320000 0.110000 204 219 209 0
29.480000 34.320000 0.110000 204 219 209 0
29.700000 34.320000 0.110000 204 219 209 0
29.920000 34.320000 0.770000 204 219 209 0
30.140000 34.320000 0.770000 205 220 210 0
30.360000 34.320000 0.770000 204 219 209 0
30.580000 34.320000 0.770000 204 219 209 0
30.800000 34.320000 0.880000 204 219 209 0
31.020000 34.320000 0.880000 204 219 207 0
31.240000 34.320000 0.880000 204 219 207 0
31.460000 34.320000 0.880000 204 219 209 0
31.680000 34.320000 0.880000 205 220 210 0
31.900000 34.320000 0.880000 204 219 207 0
32.120000 34.320000 0.990000 204 219 207 0
32.340000 34.320000 0.990000 203 218 208 0
32.560000 34.320000 0.990000 204 219 209 0
32.780000 34.320000 0.990000 204 219 207 0
33.000000 34.320000 1.100000 205 220 208 0
33.220000 34.320000 1.100000 204 219 209 0
33.440000 34.320000 1.100000 204 219 209 0
33.660000 34.320000 1.100000 203 218 206 0
33.880000 34.320000 1.870000 203 218 206 0
34.100000 34.320000 1.870000 203 220 209 0
34.320000 34.320000 1.980000 204 221 210 0
34.540000 34.320000 1.980000 204 219 207 0
34.760000 34.320000 1.980000 205 220 208 0
34.980000 34.320000 2.530000 204 219 209 0
35.200000 34.320000 2.970000 204 219 209 0
35.420000 34.320000 3.520000 204 219 207 0
35.640000 34.320000 3.520000 204 219 207 0
35.860000 34.320000 4.180000 204 221 208 0
36.080000 34.320000 4.290000 203 220 207 0
36.300000 34.320000 4.290000 203 220 207 0
36.520000 34.320000 4.290000 202 219 206 0
36.740000 34.320000 4.400000 203 220 207 0
36.960000 34.320000 4.400000 202 219 206 0
37.180000 34.320000 4.400000 203 220 207 0
0.000000 34.540000 4.400000 214 217 217 0
0.220000 34.540000 4.400000 219 224 223 0
0.440000 34.540000 4.400000 220 225 224 0
0.660000 34.540000 4.400000 213 218 217 0
0.880000 34.540000 4.510000 211 216 215 0
1.100000 34.540000 4.510000 210 215 214 0
1.320000 34.540000 5.280000 210 215 214 0
1.540000 34.540000 5.280000 208 213 212 0
1.760000 34.540000 5.280000 210 215 214 0
1.980000 34.540000 5.280000 209 211 205 0
2.200000 34.540000 5.280000 194 196 190 0
2.420000 34.540000 5.280000 193 188 180 0
2.640000 34.540000 5.280000 192 187 179 0
2.860000 34.540000 5.280000 193 189 181 0
3.080000 34.540000 5.280000 195 191 183 0
3.300000 34.540000 4.620000 196 195 186 0
3.520000 34.540000 4.620000 199 198 189 0
3.740000 34.540000 4.620000 197 201 197 0
3.960000 34.540000 4.620000 201 205 201 0
4.180000 34.540000 5.390000 204 210 207 0
4.400000 34.540000 5.390000 205 211 208 0
4.620000 34.540000 5.390000 205 213 210 0
4.840000 34.540000 5.390000 207 215 212 0
5.060000 34.540000 5.500000 208 216 214 0
5.280000 34.540000 5.500000 208 216 214 0
5.500000 34.540000 6.050000 208 216 213 0
5.720000 34.540000 7.040000 208 216 213 0
5.940000 34.540000 6.930000 208 216 213 0
6.160000 34.540000 7.590000 208 216 213 0
6.380000 34.540000 7.700000 208 216 213 0
6.600000 34.540000 7.700000 208 216 213 0
6.820000 34.540000 7.700000 208 216 213 0
7.040000 34.540000 7.810000 208 216 213 0
7.260000 34.540000 7.810000 208 216 213 0
7.480000 34.540000 7.810000 208 216 213 0
7.700000 34.540000 7.810000 208 216 213 0
7.920000 34.540000 7.810000 208 216 213 0
8.140000 34.540000 7.920000 208 216 213 0
8.360000 34.540000 7.920000 207 215 212 0
8.580000 34.540000 7.920000 209 217 214 0
8.800000 34.540000 7.920000 208 216 213 0
9.020000 34.540000 8.030000 208 216 213 0
9.240000 34.540000 8.030000 208 216 213 0
9.460000 34.540000 8.030000 209 217 214 0
9.680000 34.540000 8.030000 208 216 213 0
9.900000 34.540000 8.140000 209 218 212 0
10.120000 34.540000 8.800000 208 217 211 0
10.340000 34.540000 8.800000 208 216 213 0
10.560000 34.540000 8.910000 207 215 212 0
10.780000 34.540000 8.910000 208 217 211 0
11.000000 34.540000 8.910000 208 217 211 0
11.220000 34.540000 9.570000 208 217 211 0
11.440000 34.540000 10.670000 209 218 212 0
11.660000 34.540000 11.110000 208 217 211 0
11.880000 34.540000 11.110000 208 217 211 0
12.100000 34.540000 11.110000 208 217 211 0
12.320000 34.540000 11.110000 208 217 211 0
12.540000 34.540000 11.880000 207 217 211 0
12.760000 34.540000 11.880000 206 216 210 0
12.980000 34.540000 11.990000 206 216 210 0
13.200000 34.540000 11.990000 206 216 210 0
13.420000 34.540000 11.990000 207 216 210 0
13.640000 34.540000 11.990000 207 216 210 0
13.860000 34.540000 11.990000 207 217 211 0
14.080000 34.540000 12.100000 207 217 211 0
14.300000 34.540000 12.100000 207 217 211 0
14.520000 34.540000 12.100000 206 216 210 0
14.740000 34.540000 12.210000 207 217 211 0
14.960000 34.540000 12.870000 207 217 211 0
15.180000 34.540000 12.870000 206 216 210 0
15.400000 34.540000 12.870000 206 216 210 0
15.620000 34.540000 12.980000 206 216 210 0
15.840000 34.540000 12.980000 206 216 210 0
16.060000 34.540000 12.980000 207 217 211 0
16.280000 34.540000 13.090000 207 217 211 0
16.500000 34.540000 13.090000 206 216 210 0
16.720000 34.540000 12.980000 206 216 210 0
16.940000 34.540000 13.420000 206 216 210 0
17.160000 34.540000 14.630000 207 217 211 0
17.380000 34.540000 14.520000 207 217 211 0
17.600000 34.540000 14.630000 207 217 211 0
17.820000 34.540000 14.630000 207 217 211 0
18.040000 34.540000 14.630000 207 217 211 0
18.260000 34.540000 14.630000 207 217 211 0
18.480000 34.540000 14.740000 206 216 210 0
18.700000 34.540000 14.740000 206 216 210 0
18.920000 34.540000 15.400000 205 215 209 0
19.140000 34.540000 15.400000 204 214 208 0
19.360000 34.540000 15.400000 204 214 208 0
19.580000 34.540000 16.170000 203 214 205 0
19.800000 34.540000 16.170000 203 214 205 0
20.020000 34.540000 16.280000 203 215 208 0
20.240000 34.540000 16.500000 205 217 210 0
20.460000 34.540000 16.390000 207 219 212 0
20.680000 34.540000 17.490000 207 219 212 0
20.900000 34.540000 18.040000 207 219 212 0
21.120000 34.540000 18.040000 207 219 212 0
21.340000 34.540000 18.810000 208 219 210 0
21.560000 34.540000 18.810000 208 219 210 0
21.780000 34.540000 18.810000 206 218 209 0
22.000000 34.540000 18.810000 205 217 208 0
22.220000 34.540000 18.920000 206 218 209 0
22.440000 34.540000 18.920000 208 220 211 0
22.660000 34.540000 18.920000 207 219 212 0
22.880000 34.540000 18.920000 207 219 212 0
23.100000 34.540000 19.690000 207 218 209 0
23.320000 34.540000 19.690000 207 218 209 0
23.540000 34.540000 19.690000 206 218 209 0
23.760000 34.540000 19.800000 206 218 209 0
23.980000 34.540000 19.800000 206 218 209 0
24.200000 34.540000 19.800000 206 218 209 0
24.420000 34.540000 19.800000 205 217 210 0
24.640000 34.540000 19.800000 205 217 210 0
24.860000 34.540000 19.800000 205 217 208 0
25.080000 34.540000 19.910000 203 215 206 0
25.300000 34.540000 19.910000 201 212 201 0
25.520000 34.540000 19.910000 196 207 196 0
25.740000 34.540000 19.910000 190 198 180 0
25.960000 34.540000 19.910000 186 194 176 0
26.180000 34.540000 19.910000 184 196 177 0
26.400000 34.540000 19.140000 186 198 179 0
26.620000 34.540000 19.140000 190 198 180 0
26.840000 34.540000 19.140000 191 199 181 0
27.060000 34.540000 19.140000 191 202 191 0
27.280000 34.540000 19.140000 193 204 193 0
27.500000 34.540000 19.140000 196 209 197 0
27.720000 34.540000 19.250000 200 213 201 0
27.940000 34.540000 19.250000 199 214 204 0
28.160000 34.540000 20.460000 202 217 207 0
28.380000 34.540000 20.900000 202 217 207 0
28.600000 34.540000 15.950000 203 218 208 0
28.820000 34.540000 5.610000 205 217 208 0
29.040000 34.540000 0.110000 205 217 208 0
29.260000 34.540000 0.110000 203 218 208 0
29.480000 34.540000 0.110000 203 218 208 0
29.700000 34.540000 0.110000 204 219 209 0
29.920000 34.540000 0.770000 204 219 209 0
30.140000 34.540000 0.770000 205 220 210 0
30.360000 34.540000 0.770000 203 218 208 0
30.580000 34.540000 0.770000 203 218 208 0
30.800000 34.540000 0.880000 203 218 208 0
31.020000 34.540000 0.880000 203 218 208 0
31.240000 34.540000 0.880000 204 219 209 0
31.460000 34.540000 0.880000 205 220 210 0
31.680000 34.540000 0.880000 204 219 209 0
31.900000 34.540000 0.880000 204 219 207 0
32.120000 34.540000 0.990000 204 219 207 0
32.340000 34.540000 0.990000 204 219 209 0
32.560000 34.540000 0.990000 204 219 209 0
32.780000 34.540000 0.990000 204 219 209 0
33.000000 34.540000 1.100000 205 220 210 0
33.220000 34.540000 1.100000 204 219 209 0
33.440000 34.540000 1.100000 204 219 209 0
33.660000 34.540000 1.100000 204 219 207 0
33.880000 34.540000 1.870000 203 218 206 0
34.100000 34.540000 1.870000 204 219 207 0
34.320000 34.540000 1.980000 204 219 207 0
34.540000 34.540000 1.980000 204 219 209 0
34.760000 34.540000 1.980000 204 219 209 0
34.980000 34.540000 2.530000 203 218 206 0
35.200000 34.540000 2.970000 203 218 206 0
35.420000 34.540000 3.520000 203 220 207 0
35.640000 34.540000 3.520000 203 220 207 0
35.860000 34.540000 4.180000 204 219 207 0
36.080000 34.540000 4.290000 204 219 207 0
36.300000 34.540000 4.290000 203 218 208 0
36.520000 34.540000 4.290000 203 218 208 0
36.740000 34.540000 4.400000 202 219 206 0
36.960000 34.540000 4.400000 202 219 206 0
37.180000 34.540000 4.400000 202 219 206 0
0.000000 34.760000 4.400000 214 217 217 0
0.220000 34.760000 4.400000 214 219 218 0
0.440000 34.760000 4.400000 221 226 225 0
0.660000 34.760000 4.400000 220 225 224 0
0.880000 34.760000 4.510000 212 217 216 0
1.100000 34.760000 4.510000 211 216 215 0
1.320000 34.760000 4.510000 211 216 215 0
1.540000 34.760000 5.280000 208 213 212 0
1.760000 34.760000 5.280000 205 210 209 0
1.980000 34.760000 5.280000 207 209 203 0
2.200000 34.760000 5.280000 194 196 190 0
2.420000 34.760000 5.280000 193 188 180 0
2.640000 34.760000 5.280000 192 187 179 0
2.860000 34.760000 5.280000 194 190 182 0
3.080000 34.760000 5.280000 196 192 184 0
3.300000 34.760000 4.620000 196 195 186 0
3.520000 34.760000 4.620000 198 197 188 0
3.740000 34.760000 4.620000 197 201 197 0
3.960000 34.760000 4.620000 201 205 201 0
4.180000 34.760000 5.390000 203 209 206 0
4.400000 34.760000 5.390000 205 211 208 0
4.620000 34.760000 5.390000 205 213 210 0
4.840000 34.760000 5.390000 206 214 211 0
5.060000 34.760000 5.500000 207 215 213 0
5.280000 34.760000 5.500000 207 215 213 0
5.500000 34.760000 6.050000 208 216 213 0
5.720000 34.760000 7.040000 208 216 213 0
5.940000 34.760000 6.930000 209 217 214 0
6.160000 34.760000 7.590000 208 216 213 0
6.380000 34.760000 7.700000 208 216 213 0
6.600000 34.760000 7.700000 208 216 213 0
6.820000 34.760000 7.700000 208 216 213 0
7.040000 34.760000 7.810000 208 216 213 0
7.260000 34.760000 7.150000 207 215 212 0
7.480000 34.760000 7.810000 208 216 213 0
7.700000 34.760000 7.810000 208 216 213 0
7.920000 34.760000 7.810000 208 216 213 0
8.140000 34.760000 7.920000 209 217 214 0
8.360000 34.760000 7.920000 207 215 212 0
8.580000 34.760000 7.920000 207 215 212 0
8.800000 34.760000 7.920000 209 217 214 0
9.020000 34.760000 8.030000 208 216 213 0
9.240000 34.760000 8.030000 209 217 214 0
9.460000 34.760000 8.030000 209 217 214 0
9.680000 34.760000 8.030000 209 217 214 0
9.900000 34.760000 8.140000 208 217 211 0
10.120000 34.760000 8.800000 208 217 211 0
10.340000 34.760000 8.800000 208 216 213 0
10.560000 34.760000 8.910000 208 216 213 0
10.780000 34.760000 8.910000 208 217 211 0
11.000000 34.760000 8.910000 208 217 211 0
11.220000 34.760000 9.570000 208 217 211 0
11.440000 34.760000 10.010000 208 217 211 0
11.660000 34.760000 10.450000 209 218 212 0
11.880000 34.760000 11.110000 209 218 212 0
12.100000 34.760000 11.110000 207 216 210 0
12.320000 34.760000 11.110000 208 217 211 0
12.540000 34.760000 11.880000 206 216 210 0
12.760000 34.760000 11.880000 207 217 211 0
12.980000 34.760000 11.990000 206 216 210 0
13.200000 34.760000 11.990000 207 217 211 0
13.420000 34.760000 11.990000 207 216 210 0
13.640000 34.760000 11.990000 207 216 210 0
13.860000 34.760000 11.990000 207 217 211 0
14.080000 34.760000 12.100000 206 216 210 0
14.300000 34.760000 12.100000 206 216 210 0
14.520000 34.760000 12.100000 206 216 210 0
14.740000 34.760000 12.210000 206 216 210 0
14.960000 34.760000 12.870000 206 216 210 0
15.180000 34.760000 12.870000 206 216 210 0
15.400000 34.760000 12.870000 206 216 210 0
15.620000 34.760000 12.980000 207 217 211 0
15.840000 34.760000 12.980000 206 216 210 0
16.060000 34.760000 12.980000 206 216 210 0
16.280000 34.760000 13.090000 206 216 210 0
16.500000 34.760000 13.090000 207 217 211 0
16.720000 34.760000 13.090000 206 216 210 0
16.940000 34.760000 13.530000 206 216 210 0
17.160000 34.760000 13.970000 206 216 210 0
17.380000 34.760000 14.520000 206 216 210 0
17.600000 34.760000 14.520000 207 217 211 0
17.820000 34.760000 14.630000 206 216 210 0
18.040000 34.760000 14.630000 207 217 211 0
18.260000 34.760000 14.630000 206 216 210 0
18.480000 34.760000 14.740000 207 217 211 0
18.700000 34.760000 14.740000 206 216 210 0
18.920000 34.760000 14.740000 206 216 210 0
19.140000 34.760000 15.400000 205 215 209 0
19.360000 34.760000 15.400000 204 214 208 0
19.580000 34.760000 15.510000 203 214 205 0
19.800000 34.760000 16.170000 203 214 205 0
20.020000 34.760000 16.280000 204 216 209 0
20.240000 34.760000 16.500000 207 219 212 0
20.460000 34.760000 16.390000 207 219 212 0
20.680000 34.760000 17.490000 208 220 213 0
20.900000 34.760000 18.040000 208 220 213 0
21.120000 34.760000 18.700000 207 219 212 0
21.340000 34.760000 18.700000 208 219 210 0
21.560000 34.760000 18.810000 207 218 209 0
21.780000 34.760000 18.810000 205 217 208 0
22.000000 34.760000 18.810000 205 217 208 0
22.220000 34.760000 18.920000 207 219 210 0
22.440000 34.760000 18.920000 208 220 211 0
22.660000 34.760000 19.580000 207 219 212 0
22.880000 34.760000 19.580000 206 218 211 0
23.100000 34.760000 19.690000 208 219 210 0
23.320000 34.760000 19.690000 208 219 210 0
23.540000 34.760000 19.690000 207 219 210 0
23.760000 34.760000 19.800000 208 220 211 0
23.980000 34.760000 19.800000 206 218 209 0
24.200000 34.760000 19.800000 206 218 209 0
24.420000 34.760000 19.800000 206 218 211 0
24.640000 34.760000 19.800000 205 217 210 0
24.860000 34.760000 19.800000 205 217 208 0
25.080000 34.760000 19.910000 203 215 206 0
25.300000 34.760000 19.910000 201 212 201 0
25.520000 34.760000 19.910000 196 207 196 0
25.740000 34.760000 19.910000 190 198 180 0
25.960000 34.760000 19.910000 186 194 176 0
26.180000 34.760000 19.910000 183 195 176 0
26.400000 34.760000 19.140000 185 197 178 0
26.620000 34.760000 19.140000 190 198 180 0
26.840000 34.760000 19.140000 191 199 181 0
27.060000 34.760000 19.140000 191 202 191 0
27.280000 34.760000 19.140000 194 205 194 0
27.500000 34.760000 19.250000 197 210 198 0
27.720000 34.760000 19.250000 200 213 201 0
27.940000 34.760000 19.250000 199 214 204 0
28.160000 34.760000 19.800000 201 216 206 0
28.380000 34.760000 20.900000 202 217 207 0
28.600000 34.760000 15.950000 204 219 209 0
28.820000 34.760000 5.610000 205 217 208 0
29.040000 34.760000 0.110000 204 216 207 0
29.260000 34.760000 0.110000 203 218 208 0
29.480000 34.760000 0.110000 203 218 208 0
29.700000 34.760000 0.110000 204 219 209 0
29.920000 34.760000 0.770000 203 218 208 0
30.140000 34.760000 0.770000 204 219 209 0
30.360000 34.760000 0.770000 203 218 208 0
30.580000 34.760000 0.770000 203 218 208 0
30.800000 34.760000 0.880000 203 218 208 0
31.020000 34.760000 0.880000 204 219 209 0
31.240000 34.760000 0.880000 204 219 209 0
31.460000 34.760000 0.880000 204 219 209 0
31.680000 34.760000 0.880000 205 220 210 0
31.900000 34.760000 0.880000 204 219 207 0
32.120000 34.760000 0.990000 204 219 207 0
32.340000 34.760000 0.990000 204 219 209 0
32.560000 34.760000 0.990000 204 219 209 0
32.780000 34.760000 0.990000 205 220 210 0
33.000000 34.760000 1.100000 205 220 210 0
33.220000 34.760000 1.100000 204 219 209 0
33.440000 34.760000 1.100000 203 218 208 0
33.660000 34.760000 1.100000 204 219 207 0
33.880000 34.760000 1.870000 203 218 206 0
34.100000 34.760000 1.870000 204 219 207 0
34.320000 34.760000 1.980000 205 220 208 0
34.540000 34.760000 1.980000 204 219 209 0
34.760000 34.760000 1.980000 203 218 208 0
34.980000 34.760000 2.530000 204 219 207 0
35.200000 34.760000 2.970000 204 219 207 0
35.420000 34.760000 3.520000 203 220 207 0
35.640000 34.760000 4.180000 203 220 207 0
35.860000 34.760000 4.180000 205 220 208 0
36.080000 34.760000 4.290000 204 219 207 0
36.300000 34.760000 4.290000 203 218 208 0
36.520000 34.760000 4.290000 203 218 208 0
36.740000 34.760000 4.400000 202 219 206 0
36.960000 34.760000 4.400000 203 220 207 0
37.180000 34.760000 4.400000 203 220 207 0
0.000000 34.980000 4.400000 213 216 216 0
0.220000 34.980000 4.400000 214 217 217 0
0.440000 34.980000 4.400000 215 218 218 0
0.660000 34.980000 4.510000 219 224 223 0
0.880000 34.980000 4.510000 213 218 217 0
1.100000 34.980000 4.510000 212 217 216 0
1.320000 34.980000 4.510000 215 220 219 0
1.540000 34.980000 5.280000 215 218 218 0
1.760000 34.980000 5.280000 207 210 210 0
1.980000 34.980000 5.280000 204 204 199 0
2.200000 34.980000 5.280000 197 197 192 0
2.420000 34.980000 5.280000 194 190 182 0
2.640000 34.980000 5.280000 194 190 182 0
2.860000 34.980000 5.280000 191 191 184 0
3.080000 34.980000 5.280000 194 194 187 0
3.300000 34.980000 4.620000 194 194 187 0
3.520000 34.980000 4.620000 198 198 191 0
3.740000 34.980000 4.730000 198 199 196 0
3.960000 34.980000 4.620000 204 205 202 0
4.180000 34.980000 5.390000 204 210 207 0
4.400000 34.980000 5.390000 205 211 208 0
4.620000 34.980000 5.390000 204 212 209 0
4.840000 34.980000 5.390000 204 212 209 0
5.060000 34.980000 5.500000 207 212 211 0
5.280000 34.980000 5.500000 208 213 212 0
5.500000 34.980000 6.050000 206 214 211 0
5.720000 34.980000 7.040000 206 214 211 0
5.940000 34.980000 6.930000 209 215 212 0
6.160000 34.980000 7.590000 209 215 212 0
6.380000 34.980000 7.700000 207 215 212 0
6.600000 34.980000 7.700000 207 215 212 0
6.820000 34.980000 7.700000 207 215 212 0
7.040000 34.980000 7.810000 206 214 211 0
7.260000 34.980000 7.810000 206 214 211 0
7.480000 34.980000 7.810000 206 214 211 0
7.700000 34.980000 7.810000 207 215 212 0
7.920000 34.980000 7.810000 206 214 211 0
8.140000 34.980000 7.920000 207 215 212 0
8.360000 34.980000 7.920000 207 215 212 0
8.580000 34.980000 7.920000 207 215 212 0
8.800000 34.980000 7.920000 207 215 212 0
9.020000 34.980000 8.030000 207 215 212 0
9.240000 34.980000 8.030000 208 216 213 0
9.460000 34.980000 8.030000 208 216 213 0
9.680000 34.980000 8.030000 208 216 213 0
9.900000 34.980000 8.140000 207 217 213 0
10.120000 34.980000 8.800000 206 216 212 0
10.340000 34.980000 8.800000 207 215 212 0
10.560000 34.980000 8.910000 207 215 212 0
10.780000 34.980000 8.910000 207 215 212 0
11.000000 34.980000 8.910000 208 216 213 0
11.220000 34.980000 9.570000 208 216 213 0
11.440000 34.980000 9.900000 208 216 213 0
11.660000 34.980000 11.110000 207 217 213 0
11.880000 34.980000 11.110000 207 217 213 0
12.100000 34.980000 11.110000 208 216 213 0
12.320000 34.980000 11.110000 207 215 212 0
12.540000 34.980000 11.880000 208 217 211 0
12.760000 34.980000 11.880000 207 216 210 0
12.980000 34.980000 11.990000 207 216 210 0
13.200000 34.980000 11.990000 207 216 210 0
13.420000 34.980000 11.990000 206 216 210 0
13.640000 34.980000 11.990000 207 217 211 0
13.860000 34.980000 11.990000 207 217 211 0
14.080000 34.980000 12.100000 207 217 211 0
14.300000 34.980000 12.100000 207 217 211 0
14.520000 34.980000 12.100000 207 217 211 0
14.740000 34.980000 12.210000 207 217 211 0
14.960000 34.980000 12.870000 207 217 211 0
15.180000 34.980000 12.870000 206 216 210 0
