ply
format ascii 1.0
element vertex 1100
property float x
property float y
property float z
property uchar red
property uchar green
property uchar blue
property uchar alpha
end_header
25.520000 35.420000 39.820000 197 209 200 0
25.740000 35.420000 39.820000 191 202 183 0
25.960000 35.420000 39.820000 185 196 177 0
26.180000 35.420000 39.820000 187 198 179 0
26.400000 35.420000 39.820000 187 198 179 0
26.620000 35.420000 38.280000 190 198 182 0
26.840000 35.420000 38.280000 191 199 183 0
27.060000 35.420000 38.280000 190 201 190 0
27.280000 35.420000 38.500000 194 205 194 0
27.500000 35.420000 38.500000 194 209 199 0
27.720000 35.420000 38.720000 197 212 202 0
27.940000 35.420000 38.720000 199 214 204 0
28.160000 35.420000 40.040000 200 215 205 0
28.380000 35.420000 38.280000 201 216 206 0
28.600000 35.420000 26.620000 201 216 206 0
28.820000 35.420000 8.360000 202 217 207 0
29.260000 35.420000 0.220000 201 216 206 0
29.480000 35.420000 0.220000 202 217 207 0
29.700000 35.420000 0.220000 202 217 207 0
29.920000 35.420000 0.220000 202 217 207 0
30.140000 35.420000 0.220000 202 217 207 0
30.360000 35.420000 0.220000 202 217 207 0
30.580000 35.420000 0.220000 203 218 208 0
30.800000 35.420000 0.220000 202 217 207 0
31.020000 35.420000 0.220000 202 217 207 0
31.240000 35.420000 0.440000 202 217 207 0
31.460000 35.420000 0.440000 202 217 207 0
31.680000 35.420000 1.760000 203 218 208 0
31.900000 35.420000 1.760000 202 217 207 0
32.120000 35.420000 1.980000 203 218 208 0
32.340000 35.420000 1.980000 203 218 208 0
32.560000 35.420000 1.980000 203 218 208 0
32.780000 35.420000 1.980000 203 218 208 0
33.000000 35.420000 2.200000 203 218 208 0
33.220000 35.420000 2.200000 202 217 207 0
33.440000 35.420000 2.200000 203 218 208 0
33.660000 35.420000 2.420000 202 217 207 0
33.880000 35.420000 2.420000 203 218 208 0
34.100000 35.420000 2.420000 202 217 207 0
34.320000 35.420000 3.960000 203 218 208 0
34.540000 35.420000 3.960000 202 217 207 0
34.760000 35.420000 3.960000 202 217 207 0
34.980000 35.420000 3.960000 202 217 205 0
35.200000 35.420000 5.060000 202 217 205 0
35.420000 35.420000 7.260000 201 218 207 0
35.640000 35.420000 8.360000 201 218 207 0
35.860000 35.420000 8.360000 203 218 208 0
36.080000 35.420000 8.580000 202 217 207 0
36.300000 35.420000 8.580000 203 218 206 0
36.520000 35.420000 8.580000 203 218 206 0
36.740000 35.420000 8.800000 202 217 205 0
36.960000 35.420000 8.800000 202 217 205 0
37.180000 35.420000 8.800000 201 218 207 0
0.000000 35.640000 8.800000 216 219 221 0
0.220000 35.640000 8.800000 212 217 216 0
0.440000 35.640000 8.800000 214 219 218 0
0.660000 35.640000 9.020000 214 219 218 0
0.880000 35.640000 9.020000 214 219 218 0
1.100000 35.640000 9.020000 227 231 229 0
1.320000 35.640000 9.020000 233 237 235 0
1.540000 35.640000 9.020000 212 217 216 0
1.760000 35.640000 10.560000 209 214 213 0
1.980000 35.640000 10.560000 210 215 214 0
2.200000 35.640000 10.560000 207 212 211 0
2.420000 35.640000 10.560000 202 206 202 0
2.640000 35.640000 10.780000 195 199 195 0
2.860000 35.640000 10.780000 195 194 187 0
3.080000 35.640000 10.780000 197 196 189 0
3.300000 35.640000 10.780000 195 197 189 0
3.520000 35.640000 10.780000 197 199 191 0
3.740000 35.640000 10.780000 197 199 193 0
3.960000 35.640000 10.780000 199 201 195 0
4.180000 35.640000 10.780000 200 206 203 0
4.400000 35.640000 10.780000 205 211 208 0
4.620000 35.640000 10.780000 207 213 210 0
4.840000 35.640000 12.100000 205 211 208 0
5.060000 35.640000 12.100000 203 211 208 0
5.280000 35.640000 12.100000 204 212 209 0
5.500000 35.640000 13.200000 206 212 209 0
5.720000 35.640000 14.080000 206 212 209 0
5.940000 35.640000 15.180000 204 212 209 0
6.160000 35.640000 15.400000 204 212 209 0
6.380000 35.640000 15.400000 204 212 209 0
6.600000 35.640000 15.400000 204 212 209 0
6.820000 35.640000 15.400000 203 211 208 0
7.040000 35.640000 15.620000 204 212 209 0
7.260000 35.640000 15.620000 203 211 208 0
7.480000 35.640000 15.620000 204 212 209 0
7.700000 35.640000 15.620000 205 213 210 0
7.920000 35.640000 15.620000 204 212 209 0
8.140000 35.640000 15.840000 205 213 210 0
8.360000 35.640000 15.840000 204 212 209 0
8.580000 35.640000 15.840000 204 212 209 0
8.800000 35.640000 15.840000 204 212 209 0
9.020000 35.640000 16.060000 204 212 209 0
9.240000 35.640000 16.060000 205 213 210 0
9.460000 35.640000 16.060000 205 213 210 0
9.680000 35.640000 16.060000 206 214 211 0
9.900000 35.640000 17.600000 204 214 210 0
10.120000 35.640000 17.600000 204 214 210 0
10.340000 35.640000 17.600000 203 213 209 0
10.560000 35.640000 17.820000 204 214 210 0
10.780000 35.640000 17.820000 205 213 210 0
11.000000 35.640000 17.820000 205 213 210 0
11.220000 35.640000 19.140000 204 214 208 0
11.440000 35.640000 20.020000 205 215 209 0
11.660000 35.640000 20.900000 205 215 211 0
11.880000 35.640000 22.220000 205 215 211 0
12.100000 35.640000 22.220000 205 215 209 0
12.320000 35.640000 22.220000 204 214 208 0
12.540000 35.640000 22.440000 204 214 208 0
12.760000 35.640000 23.760000 205 215 209 0
12.980000 35.640000 23.980000 205 215 209 0
13.200000 35.640000 23.980000 205 215 209 0
13.420000 35.640000 23.980000 205 215 209 0
13.640000 35.640000 23.980000 205 215 209 0
13.860000 35.640000 23.980000 205 215 209 0
14.080000 35.640000 24.200000 205 215 209 0
14.300000 35.640000 24.200000 205 215 209 0
14.520000 35.640000 24.200000 204 214 208 0
14.740000 35.640000 24.420000 205 215 209 0
14.960000 35.640000 24.420000 205 215 209 0
15.180000 35.640000 25.740000 205 215 209 0
15.400000 35.640000 25.740000 205 215 209 0
15.620000 35.640000 25.960000 205 215 209 0
15.840000 35.640000 25.960000 205 215 209 0
16.060000 35.640000 25.960000 205 215 209 0
16.280000 35.640000 26.180000 205 215 209 0
16.500000 35.640000 26.180000 205 215 209 0
16.720000 35.640000 26.180000 205 215 209 0
16.940000 35.640000 27.280000 204 216 209 0
17.160000 35.640000 27.940000 204 216 209 0
17.380000 35.640000 29.040000 205 215 209 0
17.600000 35.640000 29.040000 205 215 209 0
17.820000 35.640000 29.260000 205 215 209 0
18.040000 35.640000 29.260000 205 215 209 0
18.260000 35.640000 29.260000 204 216 209 0
18.480000 35.640000 29.480000 204 216 209 0
18.700000 35.640000 29.480000 204 216 209 0
18.920000 35.640000 29.480000 203 215 208 0
19.140000 35.640000 29.480000 204 214 208 0
19.360000 35.640000 30.800000 203 213 207 0
19.580000 35.640000 31.020000 202 212 206 0
19.800000 35.640000 31.240000 202 212 206 0
20.020000 35.640000 31.460000 203 215 208 0
20.240000 35.640000 31.680000 205 217 210 0
20.460000 35.640000 32.780000 206 218 211 0
20.680000 35.640000 34.980000 208 220 213 0
20.900000 35.640000 36.080000 209 221 214 0
21.120000 35.640000 36.080000 207 219 212 0
21.340000 35.640000 37.400000 207 219 212 0
21.560000 35.640000 37.620000 206 218 211 0
21.780000 35.640000 37.620000 206 218 211 0
22.000000 35.640000 37.620000 206 218 211 0
22.220000 35.640000 37.840000 208 220 213 0
22.440000 35.640000 37.840000 207 219 212 0
22.660000 35.640000 37.840000 207 219 212 0
22.880000 35.640000 37.840000 206 218 211 0
23.100000 35.640000 37.840000 207 219 210 0
23.320000 35.640000 38.060000 207 219 210 0
23.540000 35.640000 38.060000 207 219 210 0
23.760000 35.640000 39.600000 207 219 210 0
23.980000 35.640000 39.600000 207 219 210 0
24.200000 35.640000 39.600000 206 218 209 0
24.420000 35.640000 39.600000 206 218 209 0
24.640000 35.640000 39.600000 205 217 208 0
24.860000 35.640000 39.820000 203 215 206 0
25.080000 35.640000 39.820000 203 215 206 0
25.300000 35.640000 39.820000 200 212 203 0
25.520000 35.640000 39.820000 197 209 200 0
25.740000 35.640000 39.820000 191 202 183 0
25.960000 35.640000 39.820000 186 197 178 0
26.180000 35.640000 39.820000 187 198 179 0
26.400000 35.640000 39.820000 188 199 180 0
26.620000 35.640000 38.280000 191 199 183 0
26.840000 35.640000 38.280000 192 200 184 0
27.060000 35.640000 38.280000 191 202 191 0
27.280000 35.640000 38.500000 193 204 193 0
27.500000 35.640000 38.500000 194 209 199 0
27.720000 35.640000 38.720000 196 211 201 0
27.940000 35.640000 38.720000 198 213 203 0
28.160000 35.640000 40.040000 199 214 204 0
28.380000 35.640000 41.140000 200 215 205 0
28.600000 35.640000 32.120000 201 216 206 0
28.820000 35.640000 11.000000 202 217 207 0
29.260000 35.640000 0.220000 202 217 207 0
29.480000 35.640000 0.220000 202 217 207 0
29.700000 35.640000 0.220000 202 217 207 0
29.920000 35.640000 0.220000 202 217 207 0
30.140000 35.640000 0.220000 202 217 207 0
30.360000 35.640000 0.220000 202 217 207 0
30.580000 35.640000 0.220000 202 217 207 0
30.800000 35.640000 0.220000 203 218 208 0
31.020000 35.640000 0.220000 202 217 207 0
31.240000 35.640000 0.440000 202 217 207 0
31.460000 35.640000 0.440000 202 217 207 0
31.680000 35.640000 0.440000 202 217 207 0
31.900000 35.640000 1.760000 202 217 207 0
32.120000 35.640000 1.980000 203 218 208 0
32.340000 35.640000 1.980000 202 217 207 0
32.560000 35.640000 1.980000 203 218 208 0
32.780000 35.640000 1.980000 202 217 207 0
33.000000 35.640000 2.200000 203 218 208 0
33.220000 35.640000 2.200000 203 218 208 0
33.440000 35.640000 2.200000 203 218 208 0
33.660000 35.640000 2.420000 202 217 207 0
33.880000 35.640000 2.420000 203 218 208 0
34.100000 35.640000 2.420000 203 218 208 0
34.320000 35.640000 3.960000 202 217 207 0
34.540000 35.640000 3.960000 202 217 207 0
34.760000 35.640000 3.960000 202 217 207 0
34.980000 35.640000 4.180000 202 217 205 0
35.200000 35.640000 5.060000 202 217 205 0
35.420000 35.640000 7.260000 202 219 208 0
35.640000 35.640000 8.360000 201 218 207 0
35.860000 35.640000 8.360000 202 217 207 0
36.080000 35.640000 8.580000 202 217 207 0
36.300000 35.640000 8.580000 202 217 205 0
36.520000 35.640000 8.580000 202 217 205 0
36.740000 35.640000 8.800000 202 217 205 0
36.960000 35.640000 8.800000 202 217 205 0
37.180000 35.640000 8.800000 201 218 207 0
0.000000 35.860000 8.800000 226 229 229 0
0.220000 35.860000 8.800000 212 217 216 0
0.440000 35.860000 8.800000 212 217 216 0
0.660000 35.860000 9.020000 216 221 220 0
0.880000 35.860000 9.020000 215 220 219 0
1.100000 35.860000 9.020000 215 218 218 0
1.320000 35.860000 9.020000 223 226 226 0
1.540000 35.860000 10.560000 216 221 220 0
1.760000 35.860000 10.560000 212 217 216 0
1.980000 35.860000 10.560000 210 215 214 0
2.200000 35.860000 10.560000 214 219 218 0
2.420000 35.860000 10.780000 215 220 219 0
2.640000 35.860000 10.780000 205 210 209 0
2.860000 35.860000 10.780000 198 202 200 0
3.080000 35.860000 10.780000 195 199 197 0
3.300000 35.860000 10.780000 195 199 195 0
3.520000 35.860000 11.000000 196 200 196 0
3.740000 35.860000 10.780000 196 200 198 0
3.960000 35.860000 10.780000 199 203 201 0
4.180000 35.860000 12.100000 200 204 202 0
4.400000 35.860000 12.100000 201 205 203 0
4.620000 35.860000 12.100000 203 207 205 0
4.840000 35.860000 13.200000 202 206 204 0
5.060000 35.860000 12.980000 203 207 205 0
5.280000 35.860000 14.300000 203 207 205 0
5.500000 35.860000 14.300000 204 208 204 0
5.720000 35.860000 15.400000 203 207 203 0
5.940000 35.860000 15.400000 203 207 205 0
6.160000 35.860000 15.400000 204 208 206 0
6.380000 35.860000 15.400000 204 208 206 0
6.600000 35.860000 15.620000 204 208 206 0
6.820000 35.860000 15.620000 203 209 204 0
7.040000 35.860000 15.620000 203 209 204 0
7.260000 35.860000 15.620000 205 209 205 0
7.480000 35.860000 15.620000 205 209 205 0
7.700000 35.860000 15.840000 203 209 206 0
7.920000 35.860000 15.840000 203 209 206 0
8.140000 35.860000 15.840000 205 211 208 0
8.360000 35.860000 15.840000 204 210 207 0
8.580000 35.860000 15.840000 204 210 205 0
8.800000 35.860000 16.060000 205 211 206 0
9.020000 35.860000 16.060000 204 210 205 0
9.240000 35.860000 16.060000 205 211 206 0
9.460000 35.860000 17.600000 206 212 207 0
9.680000 35.860000 17.600000 206 212 207 0
9.900000 35.860000 17.600000 205 211 208 0
10.120000 35.860000 17.600000 206 212 209 0
10.340000 35.860000 17.600000 203 212 206 0
10.560000 35.860000 17.820000 203 212 206 0
10.780000 35.860000 17.820000 204 213 207 0
11.000000 35.860000 19.140000 203 212 206 0
11.220000 35.860000 18.920000 204 213 207 0
11.440000 35.860000 21.120000 203 212 206 0
11.660000 35.860000 22.220000 205 214 208 0
11.880000 35.860000 22.220000 206 215 209 0
12.100000 35.860000 22.220000 204 213 207 0
12.320000 35.860000 22.220000 203 212 206 0
12.540000 35.860000 23.760000 204 213 207 0
12.760000 35.860000 23.760000 203 212 206 0
12.980000 35.860000 23.980000 204 213 207 0
13.200000 35.860000 23.980000 204 213 207 0
13.420000 35.860000 23.980000 204 213 207 0
13.640000 35.860000 23.980000 203 212 206 0
13.860000 35.860000 23.980000 204 213 207 0
14.080000 35.860000 24.200000 204 213 207 0
14.300000 35.860000 24.200000 204 213 207 0
14.520000 35.860000 24.200000 204 213 207 0
14.740000 35.860000 24.420000 204 213 207 0
14.960000 35.860000 24.420000 203 212 206 0
15.180000 35.860000 25.740000 204 213 207 0
15.400000 35.860000 25.740000 205 214 208 0
15.620000 35.860000 25.960000 203 213 207 0
15.840000 35.860000 25.960000 203 213 207 0
16.060000 35.860000 25.960000 204 213 207 0
16.280000 35.860000 26.180000 204 213 207 0
16.500000 35.860000 26.180000 203 213 207 0
16.720000 35.860000 26.180000 204 214 208 0
16.940000 35.860000 27.280000 203 213 207 0
17.160000 35.860000 27.940000 204 214 208 0
17.380000 35.860000 29.040000 204 214 208 0
17.600000 35.860000 29.040000 204 214 208 0
17.820000 35.860000 29.260000 204 214 208 0
18.040000 35.860000 29.260000 205 215 209 0
18.260000 35.860000 29.260000 204 214 208 0
18.480000 35.860000 29.480000 203 213 207 0
18.700000 35.860000 29.480000 204 214 208 0
18.920000 35.860000 29.480000 203 213 207 0
19.140000 35.860000 29.480000 202 212 206 0
19.360000 35.860000 30.800000 202 212 206 0
19.580000 35.860000 31.020000 202 212 206 0
19.800000 35.860000 31.240000 201 211 205 0
20.020000 35.860000 31.460000 204 214 208 0
20.240000 35.860000 31.680000 207 217 211 0
20.460000 35.860000 32.780000 206 218 211 0
20.680000 35.860000 34.980000 206 218 211 0
20.900000 35.860000 36.080000 208 218 212 0
21.120000 35.860000 36.080000 208 218 212 0
21.340000 35.860000 37.400000 207 218 209 0
21.560000 35.860000 37.620000 206 217 208 0
21.780000 35.860000 37.620000 206 218 211 0
22.000000 35.860000 37.620000 205 217 210 0
22.220000 35.860000 37.840000 206 218 211 0
22.440000 35.860000 37.840000 207 219 212 0
22.660000 35.860000 37.840000 206 218 211 0
22.880000 35.860000 37.840000 205 217 210 0
23.100000 35.860000 37.840000 207 218 209 0
23.320000 35.860000 38.060000 208 219 210 0
23.540000 35.860000 38.060000 206 218 211 0
23.760000 35.860000 38.060000 207 219 212 0
23.980000 35.860000 39.600000 207 219 210 0
24.200000 35.860000 39.600000 207 219 210 0
24.420000 35.860000 39.600000 205 217 208 0
24.640000 35.860000 39.600000 205 217 208 0
24.860000 35.860000 39.820000 204 216 207 0
25.080000 35.860000 39.820000 203 215 206 0
25.300000 35.860000 39.820000 205 217 208 0
25.520000 35.860000 39.820000 200 212 203 0
25.740000 35.860000 39.820000 189 201 184 0
25.960000 35.860000 39.820000 186 198 181 0
26.180000 35.860000 39.820000 186 198 179 0
26.400000 35.860000 39.820000 186 198 179 0
26.620000 35.860000 38.280000 190 198 182 0
26.840000 35.860000 38.280000 192 200 184 0
27.060000 35.860000 38.280000 191 201 188 0
27.280000 35.860000 38.500000 194 204 191 0
27.500000 35.860000 38.500000 197 209 200 0
27.720000 35.860000 38.720000 198 210 201 0
27.940000 35.860000 38.720000 200 212 203 0
28.160000 35.860000 40.040000 201 213 204 0
28.380000 35.860000 41.140000 200 215 205 0
28.600000 35.860000 32.120000 200 215 205 0
28.820000 35.860000 11.220000 201 216 206 0
29.260000 35.860000 0.220000 201 216 206 0
29.480000 35.860000 0.220000 201 216 206 0
29.700000 35.860000 0.220000 201 216 206 0
30.140000 35.860000 0.220000 201 216 206 0
30.360000 35.860000 0.220000 201 216 206 0
30.580000 35.860000 0.220000 202 217 207 0
30.800000 35.860000 0.220000 202 217 207 0
31.020000 35.860000 0.220000 202 217 207 0
31.240000 35.860000 0.220000 202 217 207 0
31.460000 35.860000 0.440000 202 217 207 0
31.680000 35.860000 0.440000 201 216 206 0
31.900000 35.860000 1.760000 202 217 207 0
32.120000 35.860000 1.980000 202 217 207 0
32.340000 35.860000 1.980000 202 217 207 0
32.560000 35.860000 1.980000 202 217 207 0
32.780000 35.860000 1.980000 202 217 207 0
33.000000 35.860000 2.200000 202 217 207 0
33.220000 35.860000 2.200000 202 217 207 0
33.440000 35.860000 2.200000 202 217 207 0
33.660000 35.860000 2.420000 202 217 207 0
33.880000 35.860000 2.420000 202 217 207 0
34.100000 35.860000 2.420000 203 218 208 0
34.320000 35.860000 3.960000 202 217 207 0
34.540000 35.860000 3.960000 202 217 207 0
34.760000 35.860000 3.960000 202 217 207 0
34.980000 35.860000 4.180000 202 217 207 0
35.200000 35.860000 5.060000 202 217 207 0
35.420000 35.860000 7.260000 202 217 205 0
35.640000 35.860000 8.360000 202 217 205 0
35.860000 35.860000 8.360000 201 218 207 0
36.080000 35.860000 8.580000 201 218 207 0
36.300000 35.860000 8.580000 202 217 207 0
36.520000 35.860000 8.580000 202 217 207 0
36.740000 35.860000 8.800000 202 217 207 0
36.960000 35.860000 8.800000 202 217 207 0
37.180000 35.860000 8.800000 202 217 205 0
0.000000 36.080000 8.800000 226 229 229 0
0.220000 36.080000 8.800000 231 236 235 0
0.440000 36.080000 8.800000 212 217 216 0
0.660000 36.080000 9.020000 214 219 218 0
0.880000 36.080000 9.020000 217 222 221 0
1.100000 36.080000 9.020000 215 218 218 0
1.320000 36.080000 9.020000 214 217 217 0
1.540000 36.080000 10.560000 217 222 221 0
1.760000 36.080000 10.560000 215 220 219 0
1.980000 36.080000 10.560000 211 216 215 0
2.200000 36.080000 10.560000 213 218 217 0
2.420000 36.080000 10.780000 217 222 221 0
2.640000 36.080000 10.780000 209 214 213 0
2.860000 36.080000 10.780000 205 209 207 0
3.080000 36.080000 10.780000 201 205 203 0
3.300000 36.080000 11.000000 200 204 200 0
3.520000 36.080000 10.780000 199 203 199 0
3.740000 36.080000 11.880000 200 204 202 0
3.960000 36.080000 12.980000 203 207 205 0
4.180000 36.080000 14.300000 204 208 206 0
4.400000 36.080000 14.300000 201 205 203 0
4.620000 36.080000 14.300000 201 205 203 0
4.840000 36.080000 14.300000 201 205 203 0
5.060000 36.080000 14.080000 201 205 203 0
5.280000 36.080000 15.400000 201 205 203 0
5.500000 36.080000 15.400000 200 204 200 0
5.720000 36.080000 15.620000 200 204 200 0
5.940000 36.080000 15.620000 200 204 202 0
6.160000 36.080000 15.620000 200 204 202 0
6.380000 36.080000 15.620000 201 205 203 0
6.600000 36.080000 15.620000 201 205 203 0
6.820000 36.080000 15.840000 200 206 201 0
7.040000 36.080000 15.840000 200 206 201 0
7.260000 36.080000 15.840000 201 205 201 0
7.480000 36.080000 15.840000 200 204 200 0
7.700000 36.080000 15.840000 200 206 203 0
7.920000 36.080000 16.060000 201 207 204 0
8.140000 36.080000 16.060000 201 207 204 0
8.360000 36.080000 16.060000 200 206 203 0
8.580000 36.080000 17.600000 200 206 201 0
8.800000 36.080000 17.600000 200 206 201 0
9.020000 36.080000 17.600000 201 207 202 0
9.240000 36.080000 17.600000 201 207 202 0
9.460000 36.080000 17.600000 201 207 202 0
9.680000 36.080000 18.920000 201 207 202 0
9.900000 36.080000 18.700000 201 207 204 0
10.120000 36.080000 18.920000 202 208 205 0
10.340000 36.080000 18.920000 201 210 204 0
10.560000 36.080000 18.920000 199 208 202 0
10.780000 36.080000 18.920000 199 208 202 0
11.000000 36.080000 20.240000 200 209 203 0
11.220000 36.080000 21.340000 200 209 203 0
11.440000 36.080000 22.220000 200 209 203 0
11.660000 36.080000 22.220000 203 212 206 0
11.880000 36.080000 22.220000 203 212 206 0
12.100000 36.080000 22.440000 201 210 204 0
12.320000 36.080000 23.760000 202 211 205 0
12.540000 36.080000 23.760000 202 211 205 0
12.760000 36.080000 23.980000 202 211 205 0
12.980000 36.080000 23.980000 202 211 205 0
13.200000 36.080000 23.980000 202 211 205 0
13.420000 36.080000 23.980000 202 211 205 0
13.640000 36.080000 23.980000 201 210 204 0
13.860000 36.080000 24.200000 202 211 205 0
14.080000 36.080000 24.200000 202 211 205 0
14.300000 36.080000 24.200000 203 212 206 0
14.520000 36.080000 24.420000 201 210 204 0
14.740000 36.080000 24.420000 203 212 206 0
14.960000 36.080000 25.740000 203 212 206 0
15.180000 36.080000 25.740000 202 211 205 0
15.400000 36.080000 25.960000 201 210 204 0
15.620000 36.080000 25.960000 201 211 205 0
15.840000 36.080000 25.960000 202 212 206 0
16.060000 36.080000 25.960000 203 212 206 0
16.280000 36.080000 26.180000 202 211 205 0
16.500000 36.080000 26.180000 202 212 206 0
16.720000 36.080000 25.960000 202 212 206 0
16.940000 36.080000 27.060000 202 212 206 0
17.160000 36.080000 27.940000 203 213 207 0
17.380000 36.080000 29.040000 202 212 206 0
17.600000 36.080000 29.260000 202 212 206 0
17.820000 36.080000 29.260000 202 212 206 0
18.040000 36.080000 29.260000 202 212 206 0
18.260000 36.080000 29.260000 202 212 206 0
18.480000 36.080000 29.480000 202 212 206 0
18.700000 36.080000 29.480000 203 213 207 0
18.920000 36.080000 29.480000 202 212 206 0
19.140000 36.080000 30.800000 202 212 206 0
19.360000 36.080000 31.020000 202 212 206 0
19.580000 36.080000 31.020000 201 211 205 0
19.800000 36.080000 31.240000 201 211 205 0
20.020000 36.080000 31.460000 205 215 209 0
20.240000 36.080000 31.680000 206 216 210 0
20.460000 36.080000 32.780000 205 217 210 0
20.680000 36.080000 34.980000 205 217 210 0
20.900000 36.080000 36.080000 207 217 211 0
21.120000 36.080000 36.080000 206 216 210 0
21.340000 36.080000 36.080000 206 217 208 0
21.560000 36.080000 37.620000 207 218 209 0
21.780000 36.080000 37.620000 205 217 210 0
22.000000 36.080000 37.620000 206 218 211 0
22.220000 36.080000 37.840000 205 217 210 0
22.440000 36.080000 37.840000 205 217 210 0
22.660000 36.080000 37.840000 206 218 211 0
22.880000 36.080000 37.840000 206 218 211 0
23.100000 36.080000 38.060000 207 218 209 0
23.320000 36.080000 38.060000 207 218 209 0
23.540000 36.080000 38.060000 206 218 211 0
23.760000 36.080000 38.060000 206 218 211 0
23.980000 36.080000 39.600000 206 218 209 0
24.200000 36.080000 39.600000 206 218 209 0
24.420000 36.080000 39.600000 206 218 209 0
24.640000 36.080000 39.600000 205 217 208 0
24.860000 36.080000 39.820000 204 216 207 0
25.080000 36.080000 39.820000 204 216 207 0
25.300000 36.080000 39.820000 205 217 208 0
25.520000 36.080000 39.820000 204 216 207 0
25.740000 36.080000 39.820000 192 204 187 0
25.960000 36.080000 39.820000 187 199 182 0
26.180000 36.080000 39.820000 186 198 179 0
26.400000 36.080000 39.820000 186 198 179 0
26.620000 36.080000 38.500000 190 198 182 0
26.840000 36.080000 38.280000 191 199 183 0
27.060000 36.080000 38.500000 190 200 187 0
27.280000 36.080000 38.500000 193 203 190 0
27.500000 36.080000 38.500000 194 206 197 0
27.720000 36.080000 38.720000 197 209 200 0
27.940000 36.080000 38.720000 198 210 201 0
28.160000 36.080000 40.040000 200 212 203 0
28.380000 36.080000 38.500000 199 214 204 0
28.600000 36.080000 25.520000 200 215 205 0
28.820000 36.080000 8.360000 200 215 205 0
29.260000 36.080000 0.220000 201 216 206 0
29.480000 36.080000 0.220000 200 215 205 0
29.700000 36.080000 0.220000 200 215 205 0
30.140000 36.080000 0.220000 200 215 205 0
30.360000 36.080000 0.220000 201 216 206 0
30.580000 36.080000 0.220000 202 217 207 0
30.800000 36.080000 0.220000 201 216 206 0
31.020000 36.080000 0.220000 201 216 206 0
31.240000 36.080000 0.220000 201 216 206 0
31.460000 36.080000 0.440000 200 215 205 0
31.680000 36.080000 1.760000 201 216 206 0
31.900000 36.080000 1.760000 201 216 206 0
32.120000 36.080000 1.980000 202 217 207 0
32.340000 36.080000 1.980000 202 217 207 0
32.560000 36.080000 1.980000 201 216 206 0
32.780000 36.080000 1.980000 201 216 206 0
33.000000 36.080000 2.200000 201 216 206 0
33.220000 36.080000 2.200000 201 216 206 0
33.440000 36.080000 2.200000 201 216 206 0
33.660000 36.080000 2.420000 202 217 207 0
33.880000 36.080000 2.420000 202 217 207 0
34.100000 36.080000 2.420000 201 216 206 0
34.320000 36.080000 3.960000 201 216 206 0
34.540000 36.080000 3.960000 201 216 206 0
34.760000 36.080000 3.960000 202 217 207 0
34.980000 36.080000 4.180000 201 216 206 0
35.200000 36.080000 5.060000 202 217 207 0
35.420000 36.080000 7.260000 202 217 205 0
35.640000 36.080000 8.360000 202 217 205 0
35.860000 36.080000 8.360000 201 218 207 0
36.080000 36.080000 8.580000 200 217 206 0
36.300000 36.080000 8.580000 201 216 206 0
36.520000 36.080000 8.580000 201 216 206 0
36.740000 36.080000 8.580000 202 217 207 0
36.960000 36.080000 8.800000 201 216 206 0
37.180000 36.080000 8.800000 202 217 205 0
0.000000 36.300000 8.800000 212 215 215 0
0.220000 36.300000 8.800000 229 234 233 0
0.440000 36.300000 8.800000 227 232 231 0
0.660000 36.300000 9.020000 213 218 217 0
0.880000 36.300000 9.020000 214 219 218 0
1.100000 36.300000 9.020000 215 218 218 0
1.320000 36.300000 10.560000 214 217 217 0
1.540000 36.300000 10.560000 214 217 217 0
1.760000 36.300000 10.560000 215 218 218 0
1.980000 36.300000 10.560000 214 219 218 0
2.200000 36.300000 10.560000 210 215 214 0
2.420000 36.300000 10.780000 209 214 213 0
2.640000 36.300000 10.780000 208 213 212 0
2.860000 36.300000 10.780000 207 212 211 0
3.080000 36.300000 10.780000 206 211 210 0
3.300000 36.300000 11.000000 205 210 209 0
3.520000 36.300000 12.100000 206 211 210 0
3.740000 36.300000 12.980000 206 211 210 0
3.960000 36.300000 13.860000 209 214 213 0
4.180000 36.300000 13.860000 213 218 217 0
4.400000 36.300000 13.860000 208 213 212 0
4.620000 36.300000 15.400000 204 209 208 0
4.840000 36.300000 15.400000 209 214 213 0
5.060000 36.300000 15.400000 205 213 211 0
5.280000 36.300000 15.620000 202 210 208 0
5.500000 36.300000 15.620000 203 211 208 0
5.720000 36.300000 15.620000 202 210 207 0
5.940000 36.300000 15.620000 202 207 206 0
6.160000 36.300000 15.840000 200 205 204 0
6.380000 36.300000 15.840000 202 210 207 0
6.600000 36.300000 15.840000 203 211 208 0
6.820000 36.300000 15.840000 201 209 207 0
7.040000 36.300000 16.060000 199 207 205 0
7.260000 36.300000 16.060000 197 205 202 0
7.480000 36.300000 16.060000 198 206 203 0
7.700000 36.300000 16.060000 198 206 203 0
7.920000 36.300000 16.060000 199 207 204 0
8.140000 36.300000 17.600000 200 208 205 0
8.360000 36.300000 17.600000 200 208 205 0
8.580000 36.300000 17.600000 199 207 204 0
8.800000 36.300000 17.820000 198 206 203 0
9.020000 36.300000 17.820000 198 206 203 0
9.240000 36.300000 17.820000 198 206 203 0
9.460000 36.300000 18.920000 198 206 203 0
9.680000 36.300000 19.800000 198 206 203 0
9.900000 36.300000 21.120000 198 207 201 0
10.120000 36.300000 21.120000 197 206 200 0
10.340000 36.300000 21.120000 197 205 202 0
10.560000 36.300000 21.120000 196 204 201 0
10.780000 36.300000 21.340000 196 205 199 0
11.000000 36.300000 22.660000 198 207 201 0
11.220000 36.300000 22.440000 198 206 203 0
11.440000 36.300000 22.440000 197 205 202 0
11.660000 36.300000 22.440000 198 207 201 0
11.880000 36.300000 23.980000 198 207 201 0
12.100000 36.300000 23.980000 200 206 201 0
12.320000 36.300000 23.980000 201 207 202 0
12.540000 36.300000 23.980000 198 207 201 0
12.760000 36.300000 24.200000 198 207 201 0
12.980000 36.300000 24.200000 198 207 201 0
13.200000 36.300000 24.200000 198 207 201 0
13.420000 36.300000 24.200000 198 207 201 0
13.640000 36.300000 24.200000 198 207 201 0
13.860000 36.300000 24.420000 198 207 201 0
14.080000 36.300000 24.420000 198 207 201 0
14.300000 36.300000 24.420000 198 207 201 0
14.520000 36.300000 24.420000 199 208 202 0
14.740000 36.300000 24.420000 199 208 202 0
14.960000 36.300000 25.960000 199 208 202 0
15.180000 36.300000 25.960000 199 208 202 0
15.400000 36.300000 25.740000 199 208 202 0
15.620000 36.300000 27.060000 199 208 202 0
15.840000 36.300000 27.060000 199 208 202 0
16.060000 36.300000 27.280000 200 209 201 0
16.280000 36.300000 27.280000 200 209 201 0
16.500000 36.300000 27.060000 200 209 203 0
16.720000 36.300000 28.160000 200 209 203 0
16.940000 36.300000 27.940000 201 210 204 0
17.160000 36.300000 29.260000 200 209 203 0
17.380000 36.300000 29.260000 200 209 203 0
17.600000 36.300000 29.260000 201 210 204 0
17.820000 36.300000 29.260000 201 210 204 0
18.040000 36.300000 29.480000 203 212 206 0
18.260000 36.300000 29.480000 201 211 205 0
18.480000 36.300000 29.480000 202 212 206 0
18.700000 36.300000 29.480000 202 212 206 0
18.920000 36.300000 31.020000 201 211 205 0
19.140000 36.300000 31.020000 202 212 206 0
19.360000 36.300000 31.020000 202 212 206 0
19.580000 36.300000 31.240000 203 213 207 0
19.800000 36.300000 31.460000 205 215 209 0
20.020000 36.300000 31.680000 207 219 212 0
20.240000 36.300000 33.000000 205 217 210 0
20.460000 36.300000 32.780000 206 216 210 0
20.680000 36.300000 34.980000 206 216 210 0
20.900000 36.300000 36.080000 206 216 210 0
21.120000 36.300000 36.080000 206 216 210 0
21.340000 36.300000 36.080000 207 217 211 0
21.560000 36.300000 37.620000 207 217 211 0
21.780000 36.300000 37.620000 205 217 208 0
22.000000 36.300000 37.620000 205 217 208 0
22.220000 36.300000 37.840000 205 217 208 0
22.440000 36.300000 37.840000 204 216 207 0
22.660000 36.300000 37.840000 207 219 212 0
22.880000 36.300000 37.840000 208 220 213 0
23.100000 36.300000 38.060000 207 217 211 0
23.320000 36.300000 38.060000 207 217 211 0
23.540000 36.300000 38.060000 206 218 209 0
23.760000 36.300000 38.060000 206 218 209 0
23.980000 36.300000 39.600000 206 218 209 0
24.200000 36.300000 39.600000 206 218 209 0
24.420000 36.300000 39.600000 205 217 208 0
24.640000 36.300000 39.600000 204 216 207 0
24.860000 36.300000 39.820000 206 217 208 0
25.080000 36.300000 39.820000 205 216 207 0
25.300000 36.300000 39.820000 203 215 206 0
25.520000 36.300000 39.820000 200 212 203 0
25.740000 36.300000 39.820000 196 209 197 0
25.960000 36.300000 39.820000 187 200 188 0
26.180000 36.300000 39.820000 187 199 182 0
26.400000 36.300000 39.820000 186 198 181 0
26.620000 36.300000 39.820000 188 198 182 0
26.840000 36.300000 38.500000 189 199 183 0
27.060000 36.300000 38.500000 191 201 188 0
27.280000 36.300000 38.500000 192 202 189 0
27.500000 36.300000 38.500000 194 207 195 0
27.720000 36.300000 38.500000 198 211 199 0
27.940000 36.300000 40.040000 199 211 202 0
28.160000 36.300000 40.040000 199 211 202 0
28.380000 36.300000 33.000000 200 212 203 0
28.600000 36.300000 14.520000 201 213 204 0
28.820000 36.300000 3.080000 201 213 204 0
29.260000 36.300000 0.220000 201 213 204 0
29.480000 36.300000 0.220000 201 213 204 0
29.700000 36.300000 0.220000 201 213 204 0
29.920000 36.300000 0.220000 202 214 205 0
30.140000 36.300000 0.220000 201 213 204 0
30.360000 36.300000 0.220000 201 213 204 0
30.580000 36.300000 0.220000 202 214 205 0
30.800000 36.300000 0.220000 202 214 205 0
31.020000 36.300000 0.220000 202 214 205 0
31.240000 36.300000 0.220000 202 214 205 0
31.460000 36.300000 1.760000 200 215 205 0
31.680000 36.300000 1.760000 200 215 205 0
31.900000 36.300000 1.760000 200 215 205 0
32.120000 36.300000 1.980000 200 215 205 0
32.340000 36.300000 1.980000 200 215 205 0
32.560000 36.300000 1.980000 200 215 205 0
32.780000 36.300000 1.980000 200 215 205 0
33.000000 36.300000 2.200000 200 215 205 0
33.220000 36.300000 2.200000 200 215 205 0
33.440000 36.300000 2.200000 201 216 206 0
33.660000 36.300000 2.200000 200 215 205 0
33.880000 36.300000 2.420000 201 216 206 0
34.100000 36.300000 2.420000 201 216 206 0
34.320000 36.300000 3.960000 201 216 206 0
34.540000 36.300000 3.960000 200 215 205 0
34.760000 36.300000 3.960000 201 216 206 0
34.980000 36.300000 4.180000 201 216 206 0
35.200000 36.300000 5.060000 201 216 206 0
35.420000 36.300000 7.260000 201 216 206 0
35.640000 36.300000 8.360000 200 215 205 0
35.860000 36.300000 8.360000 201 216 206 0
36.080000 36.300000 8.580000 201 216 206 0
36.300000 36.300000 8.580000 201 216 206 0
36.520000 36.300000 8.580000 201 216 206 0
36.740000 36.300000 8.580000 201 216 206 0
36.960000 36.300000 8.800000 201 216 206 0
37.180000 36.300000 8.800000 201 216 206 0
0.000000 36.520000 8.800000 215 218 218 0
0.220000 36.520000 8.800000 211 216 215 0
0.440000 36.520000 8.800000 216 221 220 0
0.660000 36.520000 9.020000 215 220 219 0
0.880000 36.520000 9.020000 213 218 217 0
1.100000 36.520000 9.020000 214 217 217 0
1.320000 36.520000 9.020000 215 218 218 0
1.540000 36.520000 10.560000 214 217 217 0
1.760000 36.520000 10.560000 212 215 215 0
1.980000 36.520000 10.560000 218 223 222 0
2.200000 36.520000 10.560000 217 222 221 0
2.420000 36.520000 10.780000 210 215 214 0
2.640000 36.520000 10.780000 209 214 213 0
2.860000 36.520000 10.780000 210 215 214 0
3.080000 36.520000 10.780000 208 213 212 0
3.300000 36.520000 11.000000 208 213 212 0
3.520000 36.520000 12.100000 209 214 213 0
3.740000 36.520000 14.080000 208 213 212 0
3.960000 36.520000 13.860000 209 214 213 0
4.180000 36.520000 13.860000 211 216 215 0
4.400000 36.520000 15.400000 212 217 216 0
4.620000 36.520000 15.400000 209 214 213 0
4.840000 36.520000 15.400000 210 215 214 0
5.060000 36.520000 15.400000 215 223 221 0
5.280000 36.520000 15.620000 207 215 213 0
5.500000 36.520000 15.620000 205 213 210 0
5.720000 36.520000 15.620000 205 213 210 0
5.940000 36.520000 15.620000 208 213 212 0
6.160000 36.520000 15.840000 208 213 212 0
6.380000 36.520000 15.840000 206 214 211 0
6.600000 36.520000 15.840000 207 215 212 0
6.820000 36.520000 15.840000 206 214 212 0
7.040000 36.520000 16.060000 204 212 210 0
7.260000 36.520000 16.060000 203 211 208 0
7.480000 36.520000 16.060000 203 211 208 0
7.700000 36.520000 17.600000 203 211 208 0
7.920000 36.520000 17.600000 203 211 208 0
8.140000 36.520000 17.600000 204 212 209 0
8.360000 36.520000 17.600000 204 212 209 0
8.580000 36.520000 17.820000 203 211 208 0
8.800000 36.520000 17.820000 203 211 208 0
9.020000 36.520000 17.820000 203 211 208 0
9.240000 36.520000 17.820000 202 210 207 0
9.460000 36.520000 18.920000 204 212 209 0
9.680000 36.520000 21.120000 203 211 208 0
9.900000 36.520000 22.220000 203 212 206 0
10.120000 36.520000 22.220000 202 211 205 0
10.340000 36.520000 22.220000 200 208 205 0
10.560000 36.520000 22.440000 199 207 204 0
10.780000 36.520000 22.440000 198 207 201 0
11.000000 36.520000 22.440000 200 209 203 0
11.220000 36.520000 22.440000 201 209 206 0
11.440000 36.520000 22.660000 200 208 205 0
11.660000 36.520000 23.980000 199 208 202 0
11.880000 36.520000 23.980000 199 208 202 0
12.100000 36.520000 23.980000 201 207 202 0
12.320000 36.520000 24.200000 200 206 201 0
12.540000 36.520000 24.200000 198 207 201 0
12.760000 36.520000 24.200000 199 208 202 0
12.980000 36.520000 24.200000 199 208 202 0
13.200000 36.520000 24.420000 199 208 202 0
13.420000 36.520000 24.420000 198 207 201 0
13.640000 36.520000 24.420000 197 206 200 0
13.860000 36.520000 24.420000 198 207 201 0
14.080000 36.520000 24.640000 198 207 201 0
14.300000 36.520000 24.640000 198 207 201 0
14.520000 36.520000 24.640000 198 207 201 0
14.740000 36.520000 24.640000 197 206 200 0
14.960000 36.520000 25.960000 198 207 201 0
15.180000 36.520000 27.060000 198 207 201 0
15.400000 36.520000 28.160000 198 207 201 0
15.620000 36.520000 27.940000 198 207 201 0
15.840000 36.520000 27.940000 198 207 201 0
16.060000 36.520000 28.160000 199 208 200 0
16.280000 36.520000 28.160000 199 208 200 0
16.500000 36.520000 28.160000 199 208 202 0
16.720000 36.520000 29.480000 198 207 201 0
16.940000 36.520000 29.260000 199 208 202 0
17.160000 36.520000 29.480000 199 208 202 0
17.380000 36.520000 29.480000 199 208 202 0
17.600000 36.520000 29.480000 199 208 202 0
17.820000 36.520000 29.480000 200 209 203 0
18.040000 36.520000 29.700000 201 210 204 0
18.260000 36.520000 29.700000 201 211 205 0
18.480000 36.520000 29.700000 203 213 207 0
18.700000 36.520000 29.700000 204 214 208 0
18.920000 36.520000 31.240000 205 215 209 0
19.140000 36.520000 31.240000 204 214 208 0
19.360000 36.520000 31.240000 205 215 209 0
19.580000 36.520000 31.460000 206 216 210 0
19.800000 36.520000 31.460000 207 217 211 0
20.020000 36.520000 31.680000 214 226 219 0
20.240000 36.520000 33.000000 208 220 213 0
20.460000 36.520000 32.780000 206 216 210 0
20.680000 36.520000 34.980000 206 216 210 0
20.900000 36.520000 36.080000 206 216 210 0
21.120000 36.520000 36.080000 206 216 210 0
21.340000 36.520000 36.080000 206 216 210 0
21.560000 36.520000 37.620000 207 217 211 0
21.780000 36.520000 37.620000 205 217 208 0
22.000000 36.520000 37.620000 205 217 208 0
22.220000 36.520000 37.840000 205 217 208 0
22.440000 36.520000 37.840000 205 217 208 0
22.660000 36.520000 37.840000 207 219 212 0
22.880000 36.520000 37.840000 209 221 214 0
23.100000 36.520000 38.060000 210 220 214 0
23.320000 36.520000 38.060000 207 217 211 0
23.540000 36.520000 38.060000 206 218 209 0
23.760000 36.520000 38.060000 206 218 209 0
23.980000 36.520000 39.600000 205 217 208 0
24.200000 36.520000 39.600000 206 218 209 0
24.420000 36.520000 39.600000 205 217 208 0
24.640000 36.520000 39.600000 205 217 208 0
24.860000 36.520000 39.820000 205 216 207 0
25.080000 36.520000 39.820000 205 216 207 0
25.300000 36.520000 39.820000 203 215 206 0
25.520000 36.520000 39.820000 201 213 204 0
25.740000 36.520000 39.820000 199 212 200 0
25.960000 36.520000 39.820000 194 207 195 0
26.180000 36.520000 39.820000 188 200 183 0
26.400000 36.520000 39.820000 188 200 183 0
26.620000 36.520000 39.820000 189 199 183 0
26.840000 36.520000 39.820000 190 200 184 0
27.060000 36.520000 38.500000 190 200 187 0
27.280000 36.520000 38.500000 192 202 189 0
27.500000 36.520000 38.500000 192 205 193 0
27.720000 36.520000 39.820000 196 209 197 0
27.940000 36.520000 39.820000 198 210 201 0
28.160000 36.520000 38.280000 198 210 201 0
28.380000 36.520000 25.740000 199 211 202 0
28.600000 36.520000 7.480000 199 211 202 0
28.820000 36.520000 0.220000 199 211 202 0
29.040000 36.520000 0.220000 198 210 201 0
29.260000 36.520000 0.220000 199 211 202 0
29.480000 36.520000 0.220000 200 212 203 0
29.700000 36.520000 0.220000 200 212 203 0
29.920000 36.520000 0.220000 200 212 203 0
30.140000 36.520000 0.220000 200 212 203 0
30.360000 36.520000 0.220000 200 212 203 0
30.580000 36.520000 0.220000 200 212 203 0
30.800000 36.520000 1.540000 200 212 203 0
31.020000 36.520000 1.760000 200 212 203 0
31.240000 36.520000 1.760000 200 212 203 0
31.460000 36.520000 1.760000 199 214 204 0
31.680000 36.520000 1.760000 199 214 204 0
31.900000 36.520000 1.760000 199 214 204 0
32.120000 36.520000 1.980000 199 214 204 0
32.340000 36.520000 1.980000 199 214 204 0
32.560000 36.520000 1.980000 199 214 204 0
32.780000 36.520000 1.980000 199 214 204 0
33.000000 36.520000 2.200000 198 213 203 0
33.220000 36.520000 2.200000 198 213 203 0
33.440000 36.520000 2.200000 199 214 204 0
33.660000 36.520000 2.200000 199 214 204 0
33.880000 36.520000 2.420000 198 213 203 0
34.100000 36.520000 3.740000 199 214 204 0
34.320000 36.520000 3.960000 199 214 204 0
34.540000 36.520000 3.960000 198 213 203 0
34.760000 36.520000 3.960000 199 214 204 0
34.980000 36.520000 4.180000 199 214 204 0
35.200000 36.520000 5.060000 200 215 205 0
35.420000 36.520000 7.260000 199 214 204 0
35.640000 36.520000 8.360000 200 215 205 0
35.860000 36.520000 8.360000 200 215 205 0
36.080000 36.520000 8.580000 200 215 205 0
36.300000 36.520000 8.580000 200 215 205 0
36.520000 36.520000 8.580000 199 214 204 0
36.740000 36.520000 8.580000 199 214 204 0
36.960000 36.520000 8.800000 200 215 205 0
37.180000 36.520000 8.800000 200 215 205 0
0.000000 36.740000 8.800000 228 231 231 0
0.220000 36.740000 8.800000 215 218 218 0
0.440000 36.740000 8.800000 214 217 217 0
0.660000 36.740000 9.020000 215 218 218 0
0.880000 36.740000 9.020000 214 217 217 0
1.100000 36.740000 9.020000 212 217 216 0
1.320000 36.740000 9.020000 213 218 217 0
1.540000 36.740000 10.560000 214 219 218 0
1.760000 36.740000 10.560000 212 217 216 0
1.980000 36.740000 10.560000 214 219 218 0
2.200000 36.740000 10.560000 222 227 226 0
2.420000 36.740000 10.780000 215 220 219 0
2.640000 36.740000 10.780000 210 215 214 0
2.860000 36.740000 10.780000 212 217 216 0
3.080000 36.740000 10.780000 211 216 215 0
3.300000 36.740000 11.000000 209 214 213 0
3.520000 36.740000 12.100000 209 214 213 0
3.740000 36.740000 14.080000 206 217 218 0
3.960000 36.740000 13.860000 205 216 217 0
4.180000 36.740000 13.860000 208 213 212 0
4.400000 36.740000 15.400000 211 216 215 0
4.620000 36.740000 15.400000 211 219 217 0
4.840000 36.740000 15.400000 210 218 216 0
5.060000 36.740000 15.400000 214 224 221 0
5.280000 36.740000 15.620000 219 229 226 0
5.500000 36.740000 15.620000 206 214 212 0
5.720000 36.740000 15.620000 207 215 213 0
5.940000 36.740000 15.620000 207 215 213 0
6.160000 36.740000 15.840000 207 215 213 0
6.380000 36.740000 15.840000 206 214 212 0
6.600000 36.740000 15.840000 206 214 212 0
6.820000 36.740000 15.840000 207 215 213 0
7.040000 36.740000 16.060000 207 215 213 0
7.260000 36.740000 16.060000 206 214 211 0
7.480000 36.740000 16.060000 207 215 212 0
7.700000 36.740000 17.600000 206 214 211 0
7.920000 36.740000 17.600000 206 214 211 0
8.140000 36.740000 17.600000 206 214 211 0
8.360000 36.740000 17.600000 206 214 211 0
8.580000 36.740000 17.820000 207 215 212 0
8.800000 36.740000 17.820000 207 215 212 0
9.020000 36.740000 17.820000 207 215 212 0
9.240000 36.740000 19.140000 206 214 211 0
9.460000 36.740000 20.020000 206 214 211 0
9.680000 36.740000 20.900000 206 214 211 0
9.900000 36.740000 22.220000 204 214 210 0
10.120000 36.740000 22.220000 203 213 209 0
10.340000 36.740000 22.220000 205 213 210 0
10.560000 36.740000 22.440000 203 211 208 0
10.780000 36.740000 22.440000 202 210 207 0
11.000000 36.740000 22.440000 203 211 208 0
11.220000 36.740000 22.440000 204 212 209 0
11.440000 36.740000 22.660000 205 213 210 0
11.660000 36.740000 23.980000 203 213 209 0
11.880000 36.740000 23.980000 204 214 210 0
12.100000 36.740000 24.200000 202 210 207 0
12.320000 36.740000 24.200000 202 210 207 0
12.540000 36.740000 24.200000 203 211 208 0
12.760000 36.740000 24.200000 203 211 208 0
12.980000 36.740000 24.420000 203 211 208 0
13.200000 36.740000 24.420000 202 210 207 0
13.420000 36.740000 24.420000 201 211 207 0
13.640000 36.740000 24.420000 202 212 208 0
13.860000 36.740000 24.640000 201 211 205 0
14.080000 36.740000 24.640000 201 211 205 0
14.300000 36.740000 24.640000 203 213 209 0
14.520000 36.740000 24.640000 203 213 209 0
14.740000 36.740000 24.860000 202 212 206 0
14.960000 36.740000 25.960000 200 210 204 0
15.180000 36.740000 26.840000 200 210 204 0
15.400000 36.740000 27.720000 200 210 204 0
15.620000 36.740000 29.040000 199 209 203 0
15.840000 36.740000 29.260000 201 211 205 0
16.060000 36.740000 29.260000 202 212 206 0
16.280000 36.740000 29.260000 201 211 205 0
16.500000 36.740000 29.260000 200 210 204 0
16.720000 36.740000 29.480000 199 209 203 0
16.940000 36.740000 29.480000 199 209 203 0
17.160000 36.740000 29.480000 200 210 204 0
17.380000 36.740000 29.480000 200 210 204 0
17.600000 36.740000 29.700000 202 212 206 0
17.820000 36.740000 29.700000 201 211 205 0
18.040000 36.740000 29.700000 202 212 206 0
18.260000 36.740000 29.920000 203 213 207 0
18.480000 36.740000 29.920000 205 215 209 0
18.700000 36.740000 31.240000 206 216 210 0
18.920000 36.740000 31.240000 206 216 210 0
19.140000 36.740000 31.460000 206 216 210 0
19.360000 36.740000 31.460000 206 216 210 0
19.580000 36.740000 31.460000 206 216 210 0
19.800000 36.740000 31.680000 207 217 211 0
20.020000 36.740000 33.000000 209 219 213 0
20.240000 36.740000 33.000000 210 220 214 0
20.460000 36.740000 34.100000 205 215 209 0
20.680000 36.740000 34.980000 206 216 210 0
20.900000 36.740000 36.080000 206 216 210 0
21.120000 36.740000 36.080000 206 216 210 0
21.340000 36.740000 36.080000 205 215 209 0
21.560000 36.740000 37.620000 205 215 209 0
21.780000 36.740000 37.620000 207 218 209 0
22.000000 36.740000 37.620000 206 217 208 0
22.220000 36.740000 37.840000 207 217 211 0
22.440000 36.740000 37.840000 206 216 210 0
22.660000 36.740000 37.840000 207 217 211 0
22.880000 36.740000 37.840000 209 219 213 0
23.100000 36.740000 37.840000 212 222 216 0
23.320000 36.740000 38.060000 207 217 211 0
23.540000 36.740000 38.060000 207 218 209 0
23.760000 36.740000 38.060000 207 218 209 0
23.980000 36.740000 39.600000 207 218 209 0
24.200000 36.740000 39.600000 207 218 209 0
24.420000 36.740000 39.600000 205 217 210 0
24.640000 36.740000 39.600000 205 217 210 0
24.860000 36.740000 39.820000 205 217 208 0
25.080000 36.740000 39.820000 204 216 207 0
25.300000 36.740000 39.820000 203 215 206 0
25.520000 36.740000 39.820000 203 215 206 0
25.740000 36.740000 39.820000 200 212 203 0
25.960000 36.740000 39.820000 198 210 201 0
26.180000 36.740000 39.820000 192 205 193 0
26.400000 36.740000 39.820000 188 201 189 0
26.620000 36.740000 39.820000 189 200 187 0
26.840000 36.740000 39.820000 189 200 187 0
27.060000 36.740000 39.820000 189 200 189 0
27.280000 36.740000 39.820000 191 202 191 0
27.500000 36.740000 36.960000 192 203 192 0
27.720000 36.740000 32.560000 195 206 195 0
27.940000 36.740000 31.020000 195 208 196 0
28.160000 36.740000 26.620000 196 209 197 0
28.380000 36.740000 12.760000 196 209 197 0
28.600000 36.740000 2.860000 196 209 197 0
28.820000 36.740000 0.220000 196 209 197 0
29.040000 36.740000 0.220000 197 210 198 0
29.260000 36.740000 0.220000 198 211 199 0
29.480000 36.740000 0.220000 197 210 198 0
29.700000 36.740000 0.220000 199 211 196 0
29.920000 36.740000 0.220000 199 211 196 0
30.140000 36.740000 0.220000 198 210 195 0
30.360000 36.740000 1.540000 198 210 195 0
30.580000 36.740000 1.540000 199 212 200 0
30.800000 36.740000 1.760000 198 211 199 0
31.020000 36.740000 1.760000 198 211 199 0
31.240000 36.740000 1.760000 200 213 201 0
31.460000 36.740000 1.760000 199 212 200 0
31.680000 36.740000 1.760000 199 212 200 0
31.900000 36.740000 1.980000 198 211 199 0
32.120000 36.740000 1.980000 199 212 200 0
32.340000 36.740000 1.980000 200 213 201 0
32.560000 36.740000 1.980000 199 212 200 0
32.780000 36.740000 2.200000 199 212 200 0
33.000000 36.740000 2.200000 199 212 200 0
33.220000 36.740000 2.200000 199 211 202 0
33.440000 36.740000 2.200000 199 211 202 0
33.660000 36.740000 2.420000 197 212 202 0
33.880000 36.740000 3.740000 197 212 202 0
34.100000 36.740000 3.740000 197 212 200 0
34.320000 36.740000 3.960000 197 212 200 0
34.540000 36.740000 3.960000 197 212 200 0
34.760000 36.740000 3.960000 197 212 200 0
34.980000 36.740000 3.960000 196 211 201 0
35.200000 36.740000 5.060000 197 212 202 0
35.420000 36.740000 7.260000 198 213 203 0
35.640000 36.740000 8.360000 199 214 204 0
35.860000 36.740000 8.360000 198 213 201 0
36.080000 36.740000 8.580000 198 213 201 0
36.300000 36.740000 8.580000 197 212 202 0
36.520000 36.740000 8.580000 198 213 203 0
36.740000 36.740000 8.800000 198 213 203 0
36.960000 36.740000 8.800000 198 213 203 0
37.180000 36.740000 8.800000 197 212 202 0
0.000000 36.960000 8.800000 221 224 224 0
0.220000 36.960000 8.800000 220 223 223 0
0.440000 36.960000 8.800000 214 217 217 0
0.660000 36.960000 9.020000 214 217 217 0
0.880000 36.960000 9.020000 222 225 225 0
1.100000 36.960000 9.020000 219 224 223 0
1.320000 36.960000 9.020000 211 216 215 0
1.540000 36.960000 10.560000 213 218 217 0
1.760000 36.960000 10.560000 213 218 217 0
1.980000 36.960000 10.560000 211 216 215 0
2.200000 36.960000 10.560000 214 219 218 0
2.420000 36.960000 10.780000 221 226 225 0
2.640000 36.960000 10.780000 212 217 216 0
2.860000 36.960000 10.780000 212 217 216 0
3.080000 36.960000 10.780000 213 218 217 0
3.300000 36.960000 11.000000 211 216 215 0
3.520000 36.960000 12.100000 210 215 214 0
3.740000 36.960000 14.080000 207 218 219 0
3.960000 36.960000 13.860000 219 230 231 0
4.180000 36.960000 13.860000 218 223 222 0
4.400000 36.960000 15.400000 211 216 215 0
4.620000 36.960000 15.400000 213 221 219 0
4.840000 36.960000 15.400000 215 223 221 0
5.060000 36.960000 15.400000 210 220 217 0
5.280000 36.960000 15.620000 218 228 225 0
5.500000 36.960000 15.620000 216 224 222 0
5.720000 36.960000 15.620000 207 215 213 0
5.940000 36.960000 15.620000 207 215 213 0
6.160000 36.960000 15.840000 207 215 213 0
6.380000 36.960000 15.840000 208 216 214 0
6.600000 36.960000 15.840000 207 215 213 0
6.820000 36.960000 15.840000 207 215 213 0
7.040000 36.960000 16.060000 212 220 218 0
