ply
format ascii 1.0
element vertex 1134
property float x
property float y
property float z
property uchar red
property uchar green
property uchar blue
property uchar alpha
end_header
33.440000 5.280000 37.620000 135 80 72 0
33.660000 5.280000 37.620000 137 82 74 0
33.880000 5.280000 37.620000 137 82 74 0
34.100000 5.280000 37.620000 136 81 73 0
34.320000 5.280000 37.620000 137 82 74 0
34.540000 5.280000 37.620000 139 84 76 0
34.760000 5.280000 39.160000 138 83 75 0
34.980000 5.280000 39.160000 139 84 76 0
35.200000 5.280000 37.620000 139 84 76 0
35.420000 5.280000 37.620000 141 83 76 0
35.640000 5.280000 37.620000 142 84 77 0
35.860000 5.280000 39.160000 141 83 77 0
36.080000 5.280000 39.160000 143 85 79 0
36.300000 5.280000 39.160000 140 85 78 0
36.520000 5.280000 39.160000 141 86 79 0
36.740000 5.280000 39.160000 143 85 79 0
36.960000 5.280000 39.160000 144 86 80 0
37.180000 5.280000 39.160000 143 85 79 0
0.000000 5.500000 25.520000 204 234 221 0
0.220000 5.500000 25.520000 204 234 219 0
0.440000 5.500000 25.520000 204 234 219 0
0.660000 5.500000 25.520000 203 234 221 0
0.880000 5.500000 25.740000 203 234 221 0
1.100000 5.500000 25.740000 203 233 220 0
1.320000 5.500000 25.740000 204 234 221 0
1.540000 5.500000 25.740000 203 233 220 0
1.760000 5.500000 25.960000 203 233 220 0
1.980000 5.500000 25.960000 201 232 219 0
2.200000 5.500000 25.960000 201 232 219 0
2.420000 5.500000 27.500000 200 231 218 0
2.640000 5.500000 27.500000 200 231 218 0
2.860000 5.500000 27.500000 201 231 218 0
3.080000 5.500000 28.820000 202 232 219 0
3.300000 5.500000 28.820000 202 233 220 0
3.520000 5.500000 28.820000 203 234 221 0
3.740000 5.500000 30.140000 204 235 222 0
3.960000 5.500000 30.140000 205 236 223 0
4.180000 5.500000 31.680000 206 237 226 0
4.400000 5.500000 31.680000 207 238 227 0
4.620000 5.500000 31.680000 207 238 227 0
4.840000 5.500000 31.680000 207 238 227 0
5.060000 5.500000 31.680000 207 238 227 0
5.280000 5.500000 32.780000 207 238 227 0
5.500000 5.500000 34.980000 207 238 227 0
5.720000 5.500000 36.080000 207 238 227 0
5.940000 5.500000 36.080000 207 238 227 0
6.160000 5.500000 36.080000 206 237 226 0
6.380000 5.500000 36.080000 206 237 226 0
6.600000 5.500000 36.300000 206 237 226 0
6.820000 5.500000 36.300000 206 237 226 0
7.040000 5.500000 36.300000 206 237 226 0
7.260000 5.500000 36.300000 206 237 226 0
7.480000 5.500000 36.520000 206 237 226 0
7.700000 5.500000 36.520000 205 236 225 0
7.920000 5.500000 36.520000 205 236 225 0
8.140000 5.500000 36.520000 204 235 224 0
8.360000 5.500000 38.060000 203 234 223 0
8.580000 5.500000 38.060000 201 232 221 0
8.800000 5.500000 38.060000 201 232 221 0
9.020000 5.500000 38.280000 199 228 218 0
9.240000 5.500000 38.280000 197 226 216 0
9.460000 5.500000 38.280000 196 223 213 0
9.680000 5.500000 38.280000 194 221 211 0
9.900000 5.500000 38.280000 193 214 202 0
10.120000 5.500000 38.280000 187 208 196 0
10.340000 5.500000 38.500000 185 207 189 0
10.560000 5.500000 36.960000 182 204 186 0
10.780000 5.500000 36.960000 180 198 179 0
11.000000 5.500000 37.180000 176 194 175 0
11.220000 5.500000 37.180000 174 192 175 0
11.440000 5.500000 35.640000 172 190 173 0
11.660000 5.500000 35.640000 166 187 167 0
11.880000 5.500000 35.640000 165 186 166 0
12.100000 5.500000 35.640000 168 186 167 0
12.320000 5.500000 35.860000 167 185 166 0
12.540000 5.500000 35.860000 168 186 167 0
12.760000 5.500000 35.860000 169 187 168 0
12.980000 5.500000 35.860000 167 188 170 0
13.200000 5.500000 35.860000 169 190 172 0
13.420000 5.500000 35.860000 170 192 175 0
13.640000 5.500000 35.860000 168 190 173 0
13.860000 5.500000 35.860000 168 189 171 0
14.080000 5.500000 35.860000 165 186 168 0
14.300000 5.500000 35.860000 167 181 161 0
14.520000 5.500000 35.860000 163 177 157 0
14.740000 5.500000 35.860000 162 171 147 0
14.960000 5.500000 35.640000 156 165 141 0
15.180000 5.500000 36.520000 159 160 137 0
15.400000 5.500000 37.620000 155 156 133 0
15.620000 5.500000 36.300000 158 152 131 0
15.840000 5.500000 36.520000 156 150 129 0
16.060000 5.500000 36.300000 156 151 127 0
16.280000 5.500000 37.400000 153 148 124 0
16.500000 5.500000 37.400000 150 147 123 0
16.720000 5.500000 36.080000 149 146 122 0
16.940000 5.500000 36.080000 150 145 121 0
17.160000 5.500000 36.080000 149 144 120 0
17.380000 5.500000 36.080000 150 143 120 0
17.600000 5.500000 36.080000 149 142 119 0
17.820000 5.500000 36.080000 151 140 117 0
18.040000 5.500000 36.080000 149 138 115 0
18.260000 5.500000 36.080000 149 138 113 0
18.480000 5.500000 36.080000 147 136 111 0
18.700000 5.500000 36.080000 147 136 111 0
18.920000 5.500000 36.080000 146 135 110 0
19.140000 5.500000 36.080000 146 133 109 0
19.360000 5.500000 36.080000 146 133 109 0
19.580000 5.500000 36.080000 146 133 111 0
19.800000 5.500000 36.080000 146 133 111 0
20.020000 5.500000 34.760000 145 132 110 0
20.240000 5.500000 34.760000 144 131 109 0
20.460000 5.500000 34.760000 144 129 105 0
20.680000 5.500000 34.760000 145 130 106 0
20.900000 5.500000 34.760000 143 127 106 0
21.120000 5.500000 34.760000 142 126 105 0
21.340000 5.500000 34.760000 143 126 103 0
21.560000 5.500000 34.760000 142 125 102 0
21.780000 5.500000 34.760000 141 124 101 0
22.000000 5.500000 34.760000 142 125 102 0
22.220000 5.500000 34.760000 141 124 103 0
22.440000 5.500000 34.760000 139 122 101 0
22.660000 5.500000 34.760000 139 122 101 0
22.880000 5.500000 34.760000 138 121 100 0
23.100000 5.500000 33.440000 139 120 100 0
23.320000 5.500000 33.440000 138 119 99 0
23.540000 5.500000 33.440000 138 119 99 0
23.760000 5.500000 33.440000 136 117 97 0
23.980000 5.500000 33.440000 138 116 97 0
24.200000 5.500000 34.760000 138 116 97 0
24.420000 5.500000 34.760000 136 114 95 0
24.640000 5.500000 34.760000 136 114 95 0
24.860000 5.500000 34.760000 136 114 95 0
25.080000 5.500000 34.760000 134 112 93 0
25.300000 5.500000 33.440000 135 112 93 0
25.520000 5.500000 34.760000 134 111 92 0
25.740000 5.500000 34.760000 133 110 91 0
25.960000 5.500000 34.760000 132 109 90 0
26.180000 5.500000 33.440000 133 110 91 0
26.400000 5.500000 33.440000 132 109 90 0
26.620000 5.500000 34.760000 135 109 92 0
26.840000 5.500000 34.760000 132 106 89 0
27.060000 5.500000 33.440000 132 104 87 0
27.280000 5.500000 33.440000 132 104 87 0
27.500000 5.500000 33.440000 132 102 87 0
27.720000 5.500000 33.440000 130 100 85 0
27.940000 5.500000 33.440000 129 99 84 0
28.160000 5.500000 33.440000 128 98 83 0
28.380000 5.500000 33.440000 130 97 83 0
28.600000 5.500000 33.440000 129 96 82 0
28.820000 5.500000 33.440000 131 94 81 0
29.040000 5.500000 33.440000 130 93 80 0
29.260000 5.500000 33.440000 134 89 78 0
29.480000 5.500000 33.440000 133 88 77 0
29.700000 5.500000 34.760000 135 86 74 0
29.920000 5.500000 34.760000 134 85 73 0
30.140000 5.500000 33.440000 135 82 71 0
30.360000 5.500000 34.980000 134 81 70 0
30.580000 5.500000 34.980000 134 81 70 0
30.800000 5.500000 34.980000 134 81 70 0
31.020000 5.500000 36.300000 135 80 70 0
31.240000 5.500000 36.300000 134 79 69 0
31.460000 5.500000 36.300000 134 81 70 0
31.680000 5.500000 36.300000 134 81 70 0
31.900000 5.500000 37.620000 134 79 69 0
32.120000 5.500000 37.620000 134 79 69 0
32.340000 5.500000 37.620000 134 79 71 0
32.560000 5.500000 37.620000 134 79 71 0
32.780000 5.500000 37.620000 134 79 69 0
33.000000 5.500000 37.620000 136 81 71 0
33.220000 5.500000 37.620000 136 81 73 0
33.440000 5.500000 37.620000 136 81 73 0
33.660000 5.500000 37.620000 135 80 70 0
33.880000 5.500000 37.620000 136 81 71 0
34.100000 5.500000 37.620000 139 81 74 0
34.320000 5.500000 37.620000 139 81 74 0
34.540000 5.500000 37.620000 140 82 75 0
34.760000 5.500000 37.620000 140 82 75 0
34.980000 5.500000 37.620000 141 83 76 0
35.200000 5.500000 37.620000 141 83 76 0
35.420000 5.500000 37.620000 141 83 76 0
35.640000 5.500000 37.620000 141 83 76 0
35.860000 5.500000 38.940000 142 84 78 0
36.080000 5.500000 39.160000 142 84 78 0
36.300000 5.500000 39.160000 142 84 77 0
36.520000 5.500000 39.160000 142 84 77 0
36.740000 5.500000 39.160000 143 85 79 0
36.960000 5.500000 39.160000 143 85 79 0
37.180000 5.500000 39.160000 144 86 80 0
0.000000 5.720000 25.520000 204 234 221 0
0.220000 5.720000 25.520000 204 234 219 0
0.440000 5.720000 25.520000 204 234 219 0
0.660000 5.720000 25.520000 202 233 220 0
0.880000 5.720000 25.740000 203 234 221 0
1.100000 5.720000 25.740000 204 234 221 0
1.320000 5.720000 25.740000 204 234 221 0
1.540000 5.720000 25.960000 203 233 220 0
1.760000 5.720000 25.960000 203 233 220 0
1.980000 5.720000 25.960000 201 232 219 0
2.200000 5.720000 25.960000 200 231 218 0
2.420000 5.720000 27.500000 200 231 218 0
2.640000 5.720000 27.500000 200 231 218 0
2.860000 5.720000 27.500000 201 231 218 0
3.080000 5.720000 27.500000 202 232 219 0
3.300000 5.720000 28.820000 202 233 220 0
3.520000 5.720000 28.820000 203 234 221 0
3.740000 5.720000 30.140000 204 235 222 0
3.960000 5.720000 30.140000 205 236 223 0
4.180000 5.720000 30.140000 205 236 225 0
4.400000 5.720000 31.680000 207 238 227 0
4.620000 5.720000 31.680000 207 238 227 0
4.840000 5.720000 31.680000 207 238 227 0
5.060000 5.720000 31.680000 207 238 227 0
5.280000 5.720000 32.780000 207 238 227 0
5.500000 5.720000 34.980000 207 238 227 0
5.720000 5.720000 36.080000 207 238 227 0
5.940000 5.720000 36.080000 207 238 227 0
6.160000 5.720000 36.080000 206 237 226 0
6.380000 5.720000 36.080000 206 237 226 0
6.600000 5.720000 36.300000 206 237 226 0
6.820000 5.720000 36.300000 207 238 227 0
7.040000 5.720000 36.300000 206 237 226 0
7.260000 5.720000 36.300000 206 237 226 0
7.480000 5.720000 36.520000 206 237 226 0
7.700000 5.720000 36.520000 206 237 226 0
7.920000 5.720000 36.520000 205 236 225 0
8.140000 5.720000 36.520000 204 235 224 0
8.360000 5.720000 38.060000 204 235 224 0
8.580000 5.720000 38.060000 202 233 222 0
8.800000 5.720000 38.060000 200 231 220 0
9.020000 5.720000 38.280000 198 227 217 0
9.240000 5.720000 38.280000 197 226 216 0
9.460000 5.720000 38.280000 196 223 213 0
9.680000 5.720000 38.280000 191 218 208 0
9.900000 5.720000 38.280000 191 212 200 0
10.120000 5.720000 38.280000 187 208 196 0
10.340000 5.720000 36.960000 184 206 188 0
10.560000 5.720000 36.960000 179 201 183 0
10.780000 5.720000 36.960000 177 195 176 0
11.000000 5.720000 36.960000 175 193 174 0
11.220000 5.720000 35.640000 172 190 173 0
11.440000 5.720000 35.640000 171 189 172 0
11.660000 5.720000 35.640000 167 188 168 0
11.880000 5.720000 35.640000 166 187 167 0
12.100000 5.720000 35.640000 168 186 167 0
12.320000 5.720000 35.860000 169 187 168 0
12.540000 5.720000 35.860000 171 189 170 0
12.760000 5.720000 35.860000 175 193 174 0
12.980000 5.720000 35.860000 173 194 176 0
13.200000 5.720000 35.860000 175 196 178 0
13.420000 5.720000 35.860000 174 196 179 0
13.640000 5.720000 35.860000 173 195 178 0
13.860000 5.720000 35.860000 173 194 176 0
14.080000 5.720000 35.860000 170 191 173 0
14.300000 5.720000 35.860000 174 188 168 0
14.520000 5.720000 35.860000 167 181 161 0
14.740000 5.720000 35.860000 167 176 152 0
14.960000 5.720000 35.860000 160 169 145 0
15.180000 5.720000 35.420000 162 163 140 0
15.400000 5.720000 36.520000 158 159 136 0
15.620000 5.720000 36.520000 160 154 133 0
15.840000 5.720000 35.200000 159 153 132 0
16.060000 5.720000 36.300000 157 152 128 0
16.280000 5.720000 37.400000 156 151 127 0
16.500000 5.720000 37.400000 153 150 126 0
16.720000 5.720000 37.400000 151 148 124 0
16.940000 5.720000 37.400000 152 147 123 0
17.160000 5.720000 36.080000 151 146 122 0
17.380000 5.720000 36.080000 152 145 122 0
17.600000 5.720000 36.080000 152 145 122 0
17.820000 5.720000 36.080000 153 142 119 0
18.040000 5.720000 36.080000 151 140 117 0
18.260000 5.720000 36.080000 150 139 114 0
18.480000 5.720000 36.080000 150 139 114 0
18.700000 5.720000 36.080000 150 139 114 0
18.920000 5.720000 36.080000 148 137 112 0
19.140000 5.720000 36.080000 149 136 112 0
19.360000 5.720000 36.080000 148 135 111 0
19.580000 5.720000 36.080000 148 135 113 0
19.800000 5.720000 36.080000 147 134 112 0
20.020000 5.720000 36.300000 146 133 111 0
20.240000 5.720000 36.300000 146 133 111 0
20.460000 5.720000 36.080000 147 132 108 0
20.680000 5.720000 36.080000 146 131 107 0
20.900000 5.720000 36.080000 146 130 109 0
21.120000 5.720000 34.760000 144 128 107 0
21.340000 5.720000 34.980000 145 128 105 0
21.560000 5.720000 34.980000 144 127 104 0
21.780000 5.720000 34.980000 144 127 104 0
22.000000 5.720000 34.980000 143 126 103 0
22.220000 5.720000 34.760000 143 126 105 0
22.440000 5.720000 34.760000 142 125 104 0
22.660000 5.720000 34.760000 142 125 104 0
22.880000 5.720000 34.760000 139 122 101 0
23.100000 5.720000 33.440000 140 121 101 0
23.320000 5.720000 34.760000 140 121 101 0
23.540000 5.720000 34.760000 140 121 101 0
23.760000 5.720000 34.760000 139 120 100 0
23.980000 5.720000 34.760000 140 118 99 0
24.200000 5.720000 34.760000 138 116 97 0
24.420000 5.720000 34.760000 138 116 97 0
24.640000 5.720000 34.760000 137 115 96 0
24.860000 5.720000 34.760000 136 114 95 0
25.080000 5.720000 33.440000 136 114 95 0
25.300000 5.720000 33.440000 136 113 94 0
25.520000 5.720000 34.760000 137 114 95 0
25.740000 5.720000 34.760000 135 112 93 0
25.960000 5.720000 33.440000 133 110 91 0
26.180000 5.720000 33.440000 134 111 92 0
26.400000 5.720000 33.440000 133 110 91 0
26.620000 5.720000 34.760000 134 108 91 0
26.840000 5.720000 34.760000 134 108 91 0
27.060000 5.720000 33.440000 134 106 89 0
27.280000 5.720000 33.440000 133 105 88 0
27.500000 5.720000 33.440000 132 102 87 0
27.720000 5.720000 33.440000 131 101 86 0
27.940000 5.720000 33.440000 132 102 87 0
28.160000 5.720000 33.440000 129 99 84 0
28.380000 5.720000 33.440000 131 98 84 0
28.600000 5.720000 33.440000 130 97 83 0
28.820000 5.720000 33.440000 132 95 82 0
29.040000 5.720000 33.440000 131 94 81 0
29.260000 5.720000 33.440000 134 89 78 0
29.480000 5.720000 34.760000 133 88 77 0
29.700000 5.720000 34.760000 134 85 73 0
29.920000 5.720000 33.440000 133 84 72 0
30.140000 5.720000 33.440000 136 83 72 0
30.360000 5.720000 34.760000 134 81 70 0
30.580000 5.720000 34.760000 133 80 69 0
30.800000 5.720000 34.760000 133 80 69 0
31.020000 5.720000 36.080000 135 80 70 0
31.240000 5.720000 36.080000 135 80 70 0
31.460000 5.720000 36.300000 133 80 69 0
31.680000 5.720000 36.300000 133 80 69 0
31.900000 5.720000 37.620000 133 78 68 0
32.120000 5.720000 37.620000 134 79 69 0
32.340000 5.720000 37.620000 135 80 72 0
32.560000 5.720000 37.620000 135 80 72 0
32.780000 5.720000 37.620000 134 79 69 0
33.000000 5.720000 37.620000 136 81 71 0
33.220000 5.720000 37.620000 135 80 72 0
33.440000 5.720000 37.620000 137 82 74 0
33.660000 5.720000 37.620000 136 81 71 0
33.880000 5.720000 37.620000 136 81 71 0
34.100000 5.720000 37.620000 138 80 73 0
34.320000 5.720000 37.620000 138 80 73 0
34.540000 5.720000 37.620000 139 81 74 0
34.760000 5.720000 37.620000 140 82 75 0
34.980000 5.720000 37.620000 140 82 75 0
35.200000 5.720000 37.620000 141 83 76 0
35.420000 5.720000 37.620000 142 84 77 0
35.640000 5.720000 38.940000 141 83 76 0
35.860000 5.720000 38.940000 142 84 78 0
36.080000 5.720000 38.940000 142 84 78 0
36.300000 5.720000 38.940000 142 84 77 0
36.520000 5.720000 38.940000 143 85 78 0
36.740000 5.720000 39.160000 143 85 79 0
36.960000 5.720000 39.160000 144 86 80 0
37.180000 5.720000 39.160000 144 86 80 0
0.000000 5.940000 25.520000 203 234 221 0
0.220000 5.940000 25.520000 203 234 221 0
0.440000 5.940000 25.520000 203 234 221 0
0.660000 5.940000 25.520000 203 234 221 0
0.880000 5.940000 25.740000 203 234 221 0
1.100000 5.940000 25.740000 203 234 221 0
1.320000 5.940000 25.740000 203 234 221 0
1.540000 5.940000 25.960000 203 234 221 0
1.760000 5.940000 25.960000 201 232 219 0
1.980000 5.940000 25.960000 202 233 220 0
2.200000 5.940000 25.960000 200 231 218 0
2.420000 5.940000 27.500000 200 231 218 0
2.640000 5.940000 27.500000 200 231 218 0
2.860000 5.940000 27.500000 200 231 218 0
3.080000 5.940000 27.500000 200 231 218 0
3.300000 5.940000 28.820000 202 233 222 0
3.520000 5.940000 28.820000 203 234 223 0
3.740000 5.940000 30.140000 204 235 224 0
3.960000 5.940000 30.140000 205 236 225 0
4.180000 5.940000 30.140000 206 237 226 0
4.400000 5.940000 31.680000 207 238 227 0
4.620000 5.940000 31.680000 207 238 227 0
4.840000 5.940000 31.680000 207 238 227 0
5.060000 5.940000 31.680000 207 238 227 0
5.280000 5.940000 32.560000 207 238 227 0
5.500000 5.940000 34.760000 207 238 227 0
5.720000 5.940000 36.080000 206 237 226 0
5.940000 5.940000 36.080000 206 237 226 0
6.160000 5.940000 36.080000 206 237 226 0
6.380000 5.940000 36.080000 206 237 227 0
6.600000 5.940000 36.300000 206 237 227 0
6.820000 5.940000 36.300000 206 237 226 0
7.040000 5.940000 36.300000 206 237 226 0
7.260000 5.940000 36.300000 206 237 226 0
7.480000 5.940000 36.520000 206 237 226 0
7.700000 5.940000 36.520000 205 236 225 0
7.920000 5.940000 36.520000 206 237 226 0
8.140000 5.940000 36.520000 203 235 225 0
8.360000 5.940000 38.060000 203 235 225 0
8.580000 5.940000 38.060000 201 232 221 0
8.800000 5.940000 38.060000 201 232 221 0
9.020000 5.940000 38.280000 199 228 218 0
9.240000 5.940000 38.280000 196 225 215 0
9.460000 5.940000 38.280000 197 220 209 0
9.680000 5.940000 38.280000 194 217 206 0
9.900000 5.940000 38.280000 190 211 199 0
10.120000 5.940000 36.960000 187 208 196 0
10.340000 5.940000 36.960000 182 203 185 0
10.560000 5.940000 36.960000 177 198 180 0
10.780000 5.940000 36.960000 175 193 174 0
11.000000 5.940000 35.640000 173 191 172 0
11.220000 5.940000 35.640000 169 190 170 0
11.440000 5.940000 35.640000 169 190 170 0
11.660000 5.940000 35.640000 166 188 170 0
11.880000 5.940000 35.640000 167 189 171 0
12.100000 5.940000 34.320000 167 188 168 0
12.320000 5.940000 34.320000 169 190 170 0
12.540000 5.940000 34.320000 171 193 175 0
12.760000 5.940000 35.860000 174 196 178 0
12.980000 5.940000 35.860000 173 198 187 0
13.200000 5.940000 35.860000 175 200 189 0
13.420000 5.940000 35.860000 178 200 185 0
13.640000 5.940000 35.860000 178 200 185 0
13.860000 5.940000 35.860000 177 198 180 0
14.080000 5.940000 35.860000 174 195 177 0
14.300000 5.940000 35.860000 173 191 172 0
14.520000 5.940000 35.860000 167 185 166 0
14.740000 5.940000 35.860000 168 176 156 0
14.960000 5.940000 34.540000 162 170 150 0
15.180000 5.940000 34.320000 162 165 143 0
15.400000 5.940000 35.640000 157 160 138 0
15.620000 5.940000 35.420000 159 156 132 0
15.840000 5.940000 36.520000 156 153 129 0
16.060000 5.940000 36.300000 158 153 129 0
16.280000 5.940000 37.400000 157 152 128 0
16.500000 5.940000 37.400000 156 150 123 0
16.720000 5.940000 37.400000 155 149 122 0
16.940000 5.940000 37.400000 155 147 123 0
17.160000 5.940000 36.080000 154 146 122 0
17.380000 5.940000 36.300000 153 146 123 0
17.600000 5.940000 36.080000 152 145 122 0
17.820000 5.940000 37.400000 152 144 118 0
18.040000 5.940000 37.620000 152 144 118 0
18.260000 5.940000 36.080000 151 143 117 0
18.480000 5.940000 36.080000 149 141 115 0
18.700000 5.940000 36.080000 152 139 115 0
18.920000 5.940000 36.080000 152 139 115 0
19.140000 5.940000 36.080000 152 139 115 0
19.360000 5.940000 36.080000 150 137 113 0
19.580000 5.940000 36.080000 149 139 111 0
19.800000 5.940000 36.080000 146 136 108 0
20.020000 5.940000 36.080000 148 135 111 0
20.240000 5.940000 36.300000 146 133 109 0
20.460000 5.940000 36.300000 146 133 109 0
20.680000 5.940000 36.080000 146 133 109 0
20.900000 5.940000 36.080000 144 131 107 0
21.120000 5.940000 36.300000 144 131 107 0
21.340000 5.940000 34.980000 143 130 106 0
21.560000 5.940000 34.980000 143 130 106 0
21.780000 5.940000 34.980000 145 130 106 0
22.000000 5.940000 34.760000 145 130 106 0
22.220000 5.940000 34.760000 144 127 104 0
22.440000 5.940000 34.760000 144 127 104 0
22.660000 5.940000 34.760000 143 126 103 0
22.880000 5.940000 34.760000 142 125 102 0
23.100000 5.940000 34.760000 141 124 103 0
23.320000 5.940000 34.760000 142 125 104 0
23.540000 5.940000 34.760000 141 124 101 0
23.760000 5.940000 34.760000 140 123 100 0
23.980000 5.940000 36.080000 140 121 99 0
24.200000 5.940000 34.760000 139 120 98 0
24.420000 5.940000 34.760000 138 119 99 0
24.640000 5.940000 34.760000 137 118 98 0
24.860000 5.940000 34.760000 140 117 96 0
25.080000 5.940000 34.760000 140 117 96 0
25.300000 5.940000 34.760000 137 115 96 0
25.520000 5.940000 34.760000 137 115 96 0
25.740000 5.940000 34.760000 137 114 95 0
25.960000 5.940000 34.760000 136 113 94 0
26.180000 5.940000 33.440000 137 111 93 0
26.400000 5.940000 33.440000 137 111 93 0
26.620000 5.940000 33.440000 136 110 90 0
26.840000 5.940000 34.760000 135 109 89 0
27.060000 5.940000 33.440000 135 107 90 0
27.280000 5.940000 33.440000 134 106 89 0
27.500000 5.940000 33.440000 135 105 89 0
27.720000 5.940000 33.440000 133 103 87 0
27.940000 5.940000 33.440000 132 102 86 0
28.160000 5.940000 33.440000 131 101 85 0
28.380000 5.940000 33.440000 132 100 84 0
28.600000 5.940000 33.440000 130 98 82 0
28.820000 5.940000 34.760000 131 97 83 0
29.040000 5.940000 34.760000 129 95 81 0
29.260000 5.940000 34.760000 134 91 79 0
29.480000 5.940000 33.440000 132 89 77 0
29.700000 5.940000 33.440000 135 86 74 0
29.920000 5.940000 33.440000 133 84 72 0
30.140000 5.940000 34.760000 136 83 72 0
30.360000 5.940000 34.760000 134 81 70 0
30.580000 5.940000 34.760000 133 80 69 0
30.800000 5.940000 34.760000 133 80 69 0
31.020000 5.940000 36.080000 133 80 69 0
31.240000 5.940000 36.080000 133 80 69 0
31.460000 5.940000 36.300000 134 81 70 0
31.680000 5.940000 36.300000 133 80 69 0
31.900000 5.940000 36.300000 134 79 69 0
32.120000 5.940000 37.620000 135 80 70 0
32.340000 5.940000 37.620000 135 80 72 0
32.560000 5.940000 37.620000 135 80 72 0
32.780000 5.940000 37.620000 135 80 72 0
33.000000 5.940000 37.620000 135 80 72 0
33.220000 5.940000 37.620000 135 80 70 0
33.440000 5.940000 37.620000 136 81 71 0
33.660000 5.940000 37.620000 136 81 71 0
33.880000 5.940000 37.620000 137 82 72 0
34.100000 5.940000 37.620000 137 82 74 0
34.320000 5.940000 39.160000 137 82 74 0
34.540000 5.940000 38.940000 139 81 74 0
34.760000 5.940000 37.620000 140 82 75 0
34.980000 5.940000 37.620000 140 82 75 0
35.200000 5.940000 37.620000 141 83 76 0
35.420000 5.940000 37.620000 140 85 77 0
35.640000 5.940000 38.940000 139 84 76 0
35.860000 5.940000 38.940000 142 84 78 0
36.080000 5.940000 38.940000 142 84 78 0
36.300000 5.940000 38.940000 142 84 78 0
36.520000 5.940000 38.940000 142 84 78 0
36.740000 5.940000 38.940000 144 86 80 0
36.960000 5.940000 38.940000 144 86 80 0
37.180000 5.940000 38.940000 142 87 80 0
0.000000 6.160000 25.520000 204 235 222 0
0.220000 6.160000 25.520000 204 235 222 0
0.440000 6.160000 25.520000 203 234 221 0
0.660000 6.160000 25.520000 204 235 222 0
0.880000 6.160000 25.740000 204 235 222 0
1.100000 6.160000 25.740000 204 235 222 0
1.320000 6.160000 25.740000 203 234 221 0
1.540000 6.160000 25.960000 203 234 221 0
1.760000 6.160000 25.960000 202 233 220 0
1.980000 6.160000 25.960000 202 233 220 0
2.200000 6.160000 25.960000 201 232 219 0
2.420000 6.160000 26.180000 200 231 218 0
2.640000 6.160000 27.500000 200 231 218 0
2.860000 6.160000 27.500000 200 231 218 0
3.080000 6.160000 27.500000 201 232 219 0
3.300000 6.160000 28.820000 202 233 222 0
3.520000 6.160000 28.820000 203 234 223 0
3.740000 6.160000 28.820000 204 235 224 0
3.960000 6.160000 30.140000 205 236 225 0
4.180000 6.160000 30.140000 205 236 225 0
4.400000 6.160000 30.360000 207 238 227 0
4.620000 6.160000 31.680000 208 239 228 0
4.840000 6.160000 31.680000 207 238 227 0
5.060000 6.160000 32.780000 207 238 227 0
5.280000 6.160000 33.660000 207 238 227 0
5.500000 6.160000 34.760000 207 238 227 0
5.720000 6.160000 34.540000 207 238 227 0
5.940000 6.160000 36.080000 207 238 227 0
6.160000 6.160000 36.080000 207 238 227 0
6.380000 6.160000 36.080000 206 237 227 0
6.600000 6.160000 36.300000 206 237 227 0
6.820000 6.160000 36.300000 206 237 226 0
7.040000 6.160000 36.300000 206 237 226 0
7.260000 6.160000 36.300000 206 237 226 0
7.480000 6.160000 36.520000 206 237 226 0
7.700000 6.160000 36.520000 206 237 226 0
7.920000 6.160000 36.520000 205 236 225 0
8.140000 6.160000 36.520000 203 235 225 0
8.360000 6.160000 36.740000 202 234 224 0
8.580000 6.160000 38.060000 202 233 222 0
8.800000 6.160000 38.060000 201 232 221 0
9.020000 6.160000 38.280000 199 228 218 0
9.240000 6.160000 38.280000 195 224 214 0
9.460000 6.160000 38.280000 198 221 210 0
9.680000 6.160000 38.280000 193 216 205 0
9.900000 6.160000 36.960000 190 211 199 0
10.120000 6.160000 36.960000 186 207 195 0
10.340000 6.160000 36.960000 181 202 184 0
10.560000 6.160000 36.960000 177 198 180 0
10.780000 6.160000 36.960000 175 193 174 0
11.000000 6.160000 35.640000 173 191 172 0
11.220000 6.160000 35.640000 169 190 170 0
11.440000 6.160000 35.640000 170 191 171 0
11.660000 6.160000 35.640000 168 190 172 0
11.880000 6.160000 34.320000 168 190 172 0
12.100000 6.160000 34.320000 172 193 173 0
12.320000 6.160000 34.320000 175 196 176 0
12.540000 6.160000 34.320000 175 197 179 0
12.760000 6.160000 34.320000 176 198 180 0
12.980000 6.160000 34.540000 173 198 187 0
13.200000 6.160000 35.860000 176 201 190 0
13.420000 6.160000 35.860000 180 202 187 0
13.640000 6.160000 35.860000 180 202 187 0
13.860000 6.160000 35.860000 180 201 183 0
14.080000 6.160000 35.860000 177 198 180 0
14.300000 6.160000 35.860000 173 191 172 0
14.520000 6.160000 35.860000 168 186 167 0
14.740000 6.160000 35.860000 169 177 157 0
14.960000 6.160000 34.540000 162 170 150 0
15.180000 6.160000 34.540000 162 165 143 0
15.400000 6.160000 35.640000 159 162 140 0
15.620000 6.160000 36.520000 160 157 133 0
15.840000 6.160000 36.300000 158 155 131 0
16.060000 6.160000 37.400000 158 153 129 0
16.280000 6.160000 37.400000 157 152 128 0
16.500000 6.160000 37.400000 157 151 124 0
16.720000 6.160000 37.400000 156 150 123 0
16.940000 6.160000 37.400000 156 148 124 0
17.160000 6.160000 36.080000 156 148 124 0
17.380000 6.160000 36.300000 154 147 124 0
17.600000 6.160000 36.080000 152 145 122 0
17.820000 6.160000 37.400000 153 145 119 0
18.040000 6.160000 37.400000 151 143 117 0
18.260000 6.160000 37.400000 151 143 117 0
18.480000 6.160000 37.400000 150 142 116 0
18.700000 6.160000 36.080000 154 141 117 0
18.920000 6.160000 36.080000 152 139 115 0
19.140000 6.160000 36.080000 152 139 115 0
19.360000 6.160000 36.080000 151 138 114 0
19.580000 6.160000 36.080000 150 140 112 0
19.800000 6.160000 36.080000 149 139 111 0
20.020000 6.160000 36.080000 149 136 112 0
20.240000 6.160000 36.300000 148 135 111 0
20.460000 6.160000 36.300000 148 135 111 0
20.680000 6.160000 36.300000 149 136 112 0
20.900000 6.160000 36.300000 147 134 110 0
21.120000 6.160000 36.300000 145 132 108 0
21.340000 6.160000 36.300000 145 132 108 0
21.560000 6.160000 36.300000 145 132 108 0
21.780000 6.160000 36.300000 147 132 108 0
22.000000 6.160000 34.760000 146 131 107 0
22.220000 6.160000 36.080000 146 129 106 0
22.440000 6.160000 34.760000 146 129 106 0
22.660000 6.160000 34.760000 144 127 104 0
22.880000 6.160000 34.760000 144 127 104 0
23.100000 6.160000 34.760000 143 126 105 0
23.320000 6.160000 34.760000 143 126 105 0
23.540000 6.160000 34.760000 143 126 103 0
23.760000 6.160000 36.080000 142 125 102 0
23.980000 6.160000 36.080000 143 124 102 0
24.200000 6.160000 34.760000 141 122 100 0
24.420000 6.160000 34.760000 141 122 102 0
24.640000 6.160000 34.760000 139 120 100 0
24.860000 6.160000 34.760000 142 119 98 0
25.080000 6.160000 34.760000 141 118 97 0
25.300000 6.160000 34.760000 139 117 98 0
25.520000 6.160000 34.760000 138 116 97 0
25.740000 6.160000 34.760000 139 116 97 0
25.960000 6.160000 34.760000 138 115 96 0
26.180000 6.160000 34.760000 138 112 94 0
26.400000 6.160000 34.760000 139 113 95 0
26.620000 6.160000 34.760000 139 113 93 0
26.840000 6.160000 34.760000 137 111 91 0
27.060000 6.160000 34.760000 136 108 91 0
27.280000 6.160000 33.440000 135 107 90 0
27.500000 6.160000 33.440000 136 106 90 0
27.720000 6.160000 33.440000 135 105 89 0
27.940000 6.160000 33.440000 134 104 88 0
28.160000 6.160000 33.440000 134 104 88 0
28.380000 6.160000 33.440000 134 102 86 0
28.600000 6.160000 33.440000 131 99 83 0
28.820000 6.160000 33.440000 133 99 85 0
29.040000 6.160000 34.760000 129 95 81 0
29.260000 6.160000 33.440000 134 91 79 0
29.480000 6.160000 33.440000 133 90 78 0
29.700000 6.160000 33.440000 135 86 74 0
29.920000 6.160000 33.440000 134 85 73 0
30.140000 6.160000 34.980000 135 82 71 0
30.360000 6.160000 34.980000 135 82 71 0
30.580000 6.160000 34.760000 134 81 70 0
30.800000 6.160000 34.760000 132 79 68 0
31.020000 6.160000 36.080000 132 79 68 0
31.240000 6.160000 36.300000 134 81 70 0
31.460000 6.160000 36.300000 133 80 69 0
31.680000 6.160000 36.300000 133 80 69 0
31.900000 6.160000 36.300000 135 80 70 0
32.120000 6.160000 37.620000 135 80 70 0
32.340000 6.160000 37.620000 135 80 72 0
32.560000 6.160000 37.620000 136 81 73 0
32.780000 6.160000 37.620000 136 81 73 0
33.000000 6.160000 37.620000 136 81 73 0
33.220000 6.160000 37.620000 135 80 70 0
33.440000 6.160000 37.620000 136 81 71 0
33.660000 6.160000 37.620000 136 81 71 0
33.880000 6.160000 37.620000 136 81 71 0
34.100000 6.160000 37.620000 137 82 74 0
34.320000 6.160000 38.940000 136 81 73 0
34.540000 6.160000 38.940000 139 81 74 0
34.760000 6.160000 38.940000 140 82 75 0
34.980000 6.160000 37.620000 140 82 75 0
35.200000 6.160000 37.620000 141 83 76 0
35.420000 6.160000 38.940000 139 84 76 0
35.640000 6.160000 38.940000 140 85 77 0
35.860000 6.160000 38.940000 142 84 78 0
36.080000 6.160000 38.940000 142 84 78 0
36.300000 6.160000 38.940000 143 85 79 0
36.520000 6.160000 38.940000 143 85 79 0
36.740000 6.160000 38.940000 144 86 80 0
36.960000 6.160000 38.940000 145 87 81 0
37.180000 6.160000 38.940000 142 87 80 0
0.000000 6.380000 23.980000 204 236 220 0
0.220000 6.380000 25.520000 204 235 222 0
0.440000 6.380000 25.520000 204 235 222 0
0.660000 6.380000 25.520000 204 235 222 0
0.880000 6.380000 25.740000 203 234 221 0
1.100000 6.380000 25.740000 204 235 222 0
1.320000 6.380000 25.740000 203 234 221 0
1.540000 6.380000 25.960000 203 234 221 0
1.760000 6.380000 25.960000 203 234 221 0
1.980000 6.380000 25.960000 202 233 220 0
2.200000 6.380000 25.960000 201 232 219 0
2.420000 6.380000 26.180000 200 231 218 0
2.640000 6.380000 27.500000 199 230 217 0
2.860000 6.380000 27.500000 199 230 217 0
3.080000 6.380000 27.500000 200 231 218 0
3.300000 6.380000 28.820000 202 233 220 0
3.520000 6.380000 28.820000 203 234 221 0
3.740000 6.380000 28.820000 204 235 222 0
3.960000 6.380000 30.140000 205 236 223 0
4.180000 6.380000 30.140000 206 237 224 0
4.400000 6.380000 30.360000 207 238 225 0
4.620000 6.380000 31.680000 207 238 227 0
4.840000 6.380000 31.680000 208 239 228 0
5.060000 6.380000 32.780000 207 238 227 0
5.280000 6.380000 33.440000 207 238 227 0
5.500000 6.380000 34.540000 208 239 228 0
5.720000 6.380000 34.540000 207 238 227 0
5.940000 6.380000 34.760000 207 238 227 0
6.160000 6.380000 36.080000 206 237 226 0
6.380000 6.380000 36.080000 206 237 226 0
6.600000 6.380000 36.300000 207 238 227 0
6.820000 6.380000 36.300000 206 237 226 0
7.040000 6.380000 36.300000 206 237 226 0
7.260000 6.380000 36.300000 206 237 226 0
7.480000 6.380000 36.520000 206 237 226 0
7.700000 6.380000 36.520000 205 236 225 0
7.920000 6.380000 36.520000 205 236 225 0
8.140000 6.380000 36.520000 204 235 224 0
8.360000 6.380000 36.740000 203 234 223 0
8.580000 6.380000 36.740000 202 233 222 0
8.800000 6.380000 36.740000 202 233 222 0
9.020000 6.380000 38.280000 197 228 217 0
9.240000 6.380000 38.280000 196 227 216 0
9.460000 6.380000 36.960000 194 221 211 0
9.680000 6.380000 36.960000 190 217 207 0
9.900000 6.380000 36.960000 185 211 197 0
10.120000 6.380000 36.960000 181 207 193 0
10.340000 6.380000 36.960000 181 201 185 0
10.560000 6.380000 36.960000 176 196 180 0
10.780000 6.380000 35.640000 175 193 172 0
11.000000 6.380000 35.640000 173 191 170 0
11.220000 6.380000 35.640000 169 192 171 0
11.440000 6.380000 35.640000 168 191 170 0
11.660000 6.380000 34.320000 169 191 174 0
11.880000 6.380000 34.320000 170 192 175 0
12.100000 6.380000 34.320000 173 193 177 0
12.320000 6.380000 34.320000 176 196 180 0
12.540000 6.380000 34.320000 174 200 186 0
12.760000 6.380000 34.540000 175 201 187 0
12.980000 6.380000 34.540000 178 201 188 0
13.200000 6.380000 34.540000 178 201 188 0
13.420000 6.380000 35.860000 177 203 187 0
13.640000 6.380000 35.860000 176 202 186 0
13.860000 6.380000 35.860000 179 199 183 0
14.080000 6.380000 35.860000 177 197 181 0
14.300000 6.380000 35.860000 172 189 168 0
14.520000 6.380000 35.860000 168 185 164 0
14.740000 6.380000 35.860000 170 174 154 0
14.960000 6.380000 35.640000 165 169 149 0
15.180000 6.380000 35.640000 161 162 139 0
15.400000 6.380000 35.420000 158 159 136 0
15.620000 6.380000 36.300000 161 154 130 0
15.840000 6.380000 37.400000 160 153 129 0
16.060000 6.380000 37.400000 158 151 127 0
16.280000 6.380000 37.400000 156 149 125 0
16.500000 6.380000 37.400000 156 149 125 0
16.720000 6.380000 37.400000 155 148 124 0
16.940000 6.380000 37.400000 154 146 120 0
17.160000 6.380000 37.400000 155 147 121 0
17.380000 6.380000 36.080000 154 146 122 0
17.600000 6.380000 37.400000 153 145 121 0
17.820000 6.380000 37.400000 152 144 120 0
18.040000 6.380000 37.400000 151 143 119 0
18.260000 6.380000 37.400000 150 143 119 0
18.480000 6.380000 37.400000 149 142 118 0
18.700000 6.380000 37.400000 151 140 115 0
18.920000 6.380000 36.080000 151 140 115 0
19.140000 6.380000 36.080000 151 138 114 0
19.360000 6.380000 36.080000 152 139 115 0
19.580000 6.380000 36.080000 151 138 114 0
19.800000 6.380000 36.080000 150 137 113 0
20.020000 6.380000 36.080000 150 137 115 0
20.240000 6.380000 36.300000 149 136 114 0
20.460000 6.380000 36.300000 149 136 112 0
20.680000 6.380000 36.080000 149 136 112 0
20.900000 6.380000 36.080000 149 134 110 0
21.120000 6.380000 36.300000 149 134 110 0
21.340000 6.380000 36.300000 149 134 110 0
21.560000 6.380000 36.300000 149 134 110 0
21.780000 6.380000 36.080000 147 132 108 0
22.000000 6.380000 36.080000 147 132 108 0
22.220000 6.380000 36.080000 148 131 110 0
22.440000 6.380000 36.300000 147 130 109 0
22.660000 6.380000 36.080000 147 130 107 0
22.880000 6.380000 34.760000 146 129 106 0
23.100000 6.380000 34.760000 145 128 105 0
23.320000 6.380000 34.760000 144 127 104 0
23.540000 6.380000 34.760000 143 126 105 0
23.760000 6.380000 34.760000 143 126 105 0
23.980000 6.380000 36.080000 143 126 105 0
24.200000 6.380000 34.760000 142 125 104 0
24.420000 6.380000 34.760000 141 122 100 0
24.640000 6.380000 34.760000 141 122 100 0
24.860000 6.380000 34.760000 140 121 101 0
25.080000 6.380000 34.760000 139 120 100 0
25.300000 6.380000 34.760000 140 119 97 0
25.520000 6.380000 34.760000 140 119 97 0
25.740000 6.380000 34.760000 139 118 96 0
25.960000 6.380000 34.760000 139 118 96 0
26.180000 6.380000 34.760000 140 117 96 0
26.400000 6.380000 34.760000 139 116 95 0
26.620000 6.380000 34.760000 137 114 93 0
26.840000 6.380000 34.760000 137 114 93 0
27.060000 6.380000 34.760000 138 112 92 0
27.280000 6.380000 34.760000 137 111 91 0
27.500000 6.380000 34.760000 138 112 92 0
27.720000 6.380000 33.440000 134 108 88 0
27.940000 6.380000 33.440000 136 106 90 0
28.160000 6.380000 33.440000 136 106 90 0
28.380000 6.380000 33.440000 135 105 89 0
28.600000 6.380000 33.440000 133 103 87 0
28.820000 6.380000 33.440000 133 101 85 0
29.040000 6.380000 33.440000 131 99 83 0
29.260000 6.380000 33.440000 134 94 81 0
29.480000 6.380000 34.760000 132 92 79 0
29.700000 6.380000 34.760000 135 86 74 0
29.920000 6.380000 34.760000 133 84 72 0
30.140000 6.380000 34.980000 135 82 71 0
30.360000 6.380000 34.980000 134 81 70 0
30.580000 6.380000 34.980000 134 79 69 0
30.800000 6.380000 34.760000 134 79 69 0
31.020000 6.380000 36.300000 134 79 69 0
31.240000 6.380000 36.300000 134 79 69 0
31.460000 6.380000 36.300000 134 79 69 0
31.680000 6.380000 36.300000 134 79 69 0
31.900000 6.380000 37.620000 134 79 69 0
32.120000 6.380000 37.620000 136 81 71 0
32.340000 6.380000 37.620000 136 81 71 0
32.560000 6.380000 37.620000 135 80 70 0
32.780000 6.380000 37.620000 135 80 70 0
33.000000 6.380000 37.620000 136 81 71 0
33.220000 6.380000 37.620000 136 81 71 0
33.440000 6.380000 37.620000 135 80 70 0
33.660000 6.380000 37.620000 136 81 71 0
33.880000 6.380000 37.620000 136 81 71 0
34.100000 6.380000 37.620000 139 81 74 0
34.320000 6.380000 37.620000 138 80 73 0
34.540000 6.380000 38.940000 136 81 73 0
34.760000 6.380000 37.620000 138 83 75 0
34.980000 6.380000 37.620000 140 82 75 0
35.200000 6.380000 38.940000 141 83 76 0
35.420000 6.380000 38.940000 142 84 77 0
35.640000 6.380000 38.940000 142 84 77 0
35.860000 6.380000 38.940000 142 84 77 0
36.080000 6.380000 38.940000 142 84 77 0
36.300000 6.380000 38.940000 142 84 78 0
36.520000 6.380000 38.940000 143 85 79 0
36.740000 6.380000 38.940000 144 86 80 0
36.960000 6.380000 38.940000 144 86 80 0
37.180000 6.380000 38.940000 144 86 80 0
0.000000 6.600000 23.980000 204 236 220 0
0.220000 6.600000 23.980000 204 235 222 0
0.440000 6.600000 25.520000 204 235 222 0
0.660000 6.600000 25.520000 204 235 222 0
0.880000 6.600000 25.740000 204 235 222 0
1.100000 6.600000 25.740000 203 234 221 0
1.320000 6.600000 25.740000 203 234 221 0
1.540000 6.600000 25.960000 203 234 221 0
1.760000 6.600000 25.960000 203 234 221 0
1.980000 6.600000 25.960000 202 233 220 0
2.200000 6.600000 25.960000 201 232 219 0
2.420000 6.600000 26.180000 200 231 218 0
2.640000 6.600000 27.500000 199 230 217 0
2.860000 6.600000 27.500000 199 230 217 0
3.080000 6.600000 27.500000 199 230 217 0
3.300000 6.600000 28.820000 201 232 219 0
3.520000 6.600000 28.820000 203 234 221 0
3.740000 6.600000 28.820000 204 235 222 0
3.960000 6.600000 30.140000 205 236 223 0
4.180000 6.600000 30.140000 206 237 224 0
4.400000 6.600000 30.360000 207 238 225 0
4.620000 6.600000 31.680000 207 238 227 0
4.840000 6.600000 31.680000 207 238 227 0
5.060000 6.600000 32.780000 207 238 227 0
5.280000 6.600000 33.440000 207 238 227 0
5.500000 6.600000 34.540000 208 239 228 0
5.720000 6.600000 34.760000 207 238 227 0
5.940000 6.600000 34.760000 207 238 227 0
6.160000 6.600000 36.080000 206 237 226 0
6.380000 6.600000 36.080000 206 237 226 0
6.600000 6.600000 36.300000 207 238 227 0
6.820000 6.600000 36.300000 207 238 227 0
7.040000 6.600000 36.300000 207 238 227 0
7.260000 6.600000 36.300000 206 237 226 0
7.480000 6.600000 36.520000 206 237 226 0
7.700000 6.600000 36.520000 205 236 225 0
7.920000 6.600000 36.520000 205 236 225 0
8.140000 6.600000 36.520000 205 236 225 0
8.360000 6.600000 36.740000 204 235 224 0
8.580000 6.600000 36.740000 202 233 222 0
8.800000 6.600000 36.740000 202 233 222 0
9.020000 6.600000 36.740000 198 229 218 0
9.240000 6.600000 36.740000 194 225 214 0
9.460000 6.600000 36.960000 194 221 211 0
9.680000 6.600000 36.960000 189 216 206 0
9.900000 6.600000 36.960000 184 210 196 0
10.120000 6.600000 36.960000 181 207 193 0
10.340000 6.600000 36.960000 180 200 184 0
10.560000 6.600000 35.640000 176 196 180 0
10.780000 6.600000 35.640000 175 193 172 0
11.000000 6.600000 35.640000 173 191 170 0
11.220000 6.600000 35.640000 168 191 170 0
11.440000 6.600000 34.320000 169 192 171 0
11.660000 6.600000 34.320000 170 192 175 0
11.880000 6.600000 34.320000 171 193 176 0
12.100000 6.600000 34.320000 172 192 176 0
12.320000 6.600000 34.320000 176 196 180 0
12.540000 6.600000 34.540000 174 200 186 0
12.760000 6.600000 34.540000 175 201 187 0
12.980000 6.600000 34.540000 178 201 188 0
13.200000 6.600000 34.540000 178 201 188 0
13.420000 6.600000 34.540000 176 202 186 0
13.640000 6.600000 34.540000 176 202 186 0
13.860000 6.600000 35.860000 177 197 181 0
14.080000 6.600000 35.860000 173 193 177 0
14.300000 6.600000 34.540000 169 186 165 0
14.520000 6.600000 34.540000 165 182 161 0
14.740000 6.600000 35.640000 167 171 151 0
14.960000 6.600000 36.520000 160 164 144 0
15.180000 6.600000 36.300000 159 160 137 0
15.400000 6.600000 36.300000 157 158 135 0
15.620000 6.600000 37.400000 159 152 128 0
15.840000 6.600000 37.400000 157 150 126 0
16.060000 6.600000 37.400000 157 150 126 0
16.280000 6.600000 37.400000 155 148 124 0
16.500000 6.600000 37.400000 154 147 123 0
16.720000 6.600000 37.400000 153 146 122 0
16.940000 6.600000 37.400000 154 146 120 0
17.160000 6.600000 37.400000 152 144 118 0
17.380000 6.600000 37.400000 151 143 119 0
17.600000 6.600000 37.400000 151 143 119 0
17.820000 6.600000 37.400000 151 143 119 0
18.040000 6.600000 37.400000 151 143 119 0
18.260000 6.600000 37.400000 149 142 118 0
18.480000 6.600000 37.400000 149 142 118 0
18.700000 6.600000 37.400000 151 140 115 0
18.920000 6.600000 36.080000 150 139 114 0
19.140000 6.600000 36.080000 151 138 114 0
19.360000 6.600000 36.080000 150 137 113 0
19.580000 6.600000 36.080000 151 138 114 0
19.800000 6.600000 37.400000 150 137 113 0
20.020000 6.600000 36.080000 149 136 114 0
20.240000 6.600000 36.300000 149 136 114 0
20.460000 6.600000 36.300000 149 136 112 0
20.680000 6.600000 36.080000 149 136 112 0
20.900000 6.600000 36.080000 150 135 111 0
21.120000 6.600000 36.080000 150 135 111 0
21.340000 6.600000 36.080000 150 135 111 0
21.560000 6.600000 36.080000 149 134 110 0
21.780000 6.600000 36.080000 148 133 109 0
22.000000 6.600000 36.080000 147 132 108 0
22.220000 6.600000 36.080000 149 132 111 0
22.440000 6.600000 36.080000 147 130 109 0
22.660000 6.600000 36.080000 147 130 107 0
22.880000 6.600000 36.080000 147 130 107 0
23.100000 6.600000 36.080000 146 129 106 0
23.320000 6.600000 36.080000 145 128 105 0
23.540000 6.600000 34.760000 143 126 105 0
23.760000 6.600000 34.760000 143 126 105 0
23.980000 6.600000 34.760000 143 126 105 0
24.200000 6.600000 34.760000 143 126 105 0
24.420000 6.600000 34.760000 143 124 102 0
24.640000 6.600000 34.760000 142 123 101 0
24.860000 6.600000 34.760000 141 122 102 0
25.080000 6.600000 34.760000 141 122 102 0
25.300000 6.600000 34.760000 142 121 99 0
25.520000 6.600000 34.760000 141 120 98 0
25.740000 6.600000 34.760000 141 120 98 0
25.960000 6.600000 34.760000 140 119 97 0
26.180000 6.600000 34.760000 140 117 96 0
26.400000 6.600000 34.760000 140 117 96 0
26.620000 6.600000 34.760000 139 116 95 0
26.840000 6.600000 34.760000 138 115 94 0
27.060000 6.600000 34.760000 140 114 94 0
27.280000 6.600000 34.760000 138 112 92 0
27.500000 6.600000 34.760000 138 112 92 0
27.720000 6.600000 34.760000 137 111 91 0
27.940000 6.600000 34.760000 138 108 92 0
28.160000 6.600000 34.760000 137 107 91 0
28.380000 6.600000 34.760000 135 105 89 0
28.600000 6.600000 34.760000 134 104 88 0
28.820000 6.600000 33.440000 135 103 87 0
29.040000 6.600000 33.440000 133 101 85 0
29.260000 6.600000 34.760000 134 94 81 0
29.480000 6.600000 34.760000 132 92 79 0
29.700000 6.600000 34.760000 136 87 75 0
29.920000 6.600000 34.760000 135 86 74 0
30.140000 6.600000 34.760000 136 83 72 0
30.360000 6.600000 34.980000 134 81 70 0
30.580000 6.600000 34.980000 134 79 69 0
30.800000 6.600000 36.300000 134 79 69 0
31.020000 6.600000 36.300000 134 79 69 0
31.240000 6.600000 36.300000 134 79 69 0
31.460000 6.600000 36.300000 134 79 69 0
31.680000 6.600000 36.300000 135 80 70 0
31.900000 6.600000 37.620000 135 80 70 0
32.120000 6.600000 37.620000 135 80 70 0
32.340000 6.600000 37.620000 135 80 70 0
32.560000 6.600000 37.620000 135 80 70 0
32.780000 6.600000 37.620000 134 79 69 0
33.000000 6.600000 37.620000 134 79 69 0
33.220000 6.600000 37.620000 135 80 70 0
33.440000 6.600000 37.620000 135 80 70 0
33.660000 6.600000 37.620000 137 82 72 0
33.880000 6.600000 37.620000 136 81 71 0
34.100000 6.600000 37.620000 139 81 74 0
34.320000 6.600000 38.940000 138 80 73 0
34.540000 6.600000 38.940000 137 82 74 0
34.760000 6.600000 38.940000 137 82 74 0
34.980000 6.600000 38.940000 140 82 75 0
35.200000 6.600000 38.940000 141 83 76 0
35.420000 6.600000 38.940000 141 83 76 0
35.640000 6.600000 38.940000 141 83 76 0
35.860000 6.600000 38.940000 141 83 76 0
36.080000 6.600000 38.940000 141 83 76 0
36.300000 6.600000 38.940000 142 84 78 0
36.520000 6.600000 38.940000 142 84 78 0
36.740000 6.600000 38.940000 144 86 80 0
36.960000 6.600000 38.940000 143 85 79 0
37.180000 6.600000 38.940000 144 86 80 0
0.000000 6.820000 23.980000 204 236 220 0
0.220000 6.820000 23.980000 205 237 221 0
0.440000 6.820000 25.520000 204 236 220 0
0.660000 6.820000 25.520000 204 236 220 0
0.880000 6.820000 25.740000 203 235 219 0
1.100000 6.820000 25.740000 203 234 221 0
1.320000 6.820000 25.740000 203 234 221 0
1.540000 6.820000 25.960000 203 234 221 0
1.760000 6.820000 25.960000 202 233 220 0
1.980000 6.820000 25.960000 202 233 220 0
2.200000 6.820000 25.960000 201 232 219 0
2.420000 6.820000 26.180000 200 231 218 0
2.640000 6.820000 27.500000 199 230 217 0
2.860000 6.820000 27.500000 198 229 216 0
3.080000 6.820000 27.500000 200 231 218 0
3.300000 6.820000 28.820000 201 232 219 0
3.520000 6.820000 28.820000 202 233 220 0
3.740000 6.820000 28.820000 204 235 222 0
3.960000 6.820000 30.140000 206 237 224 0
4.180000 6.820000 30.140000 207 238 225 0
4.400000 6.820000 30.360000 208 239 226 0
4.620000 6.820000 31.680000 208 239 226 0
4.840000 6.820000 31.680000 207 238 225 0
5.060000 6.820000 32.780000 208 239 228 0
5.280000 6.820000 33.440000 208 239 228 0
5.500000 6.820000 34.540000 207 238 225 0
5.720000 6.820000 34.540000 208 239 226 0
5.940000 6.820000 34.760000 207 238 227 0
6.160000 6.820000 36.080000 206 237 226 0
6.380000 6.820000 36.080000 207 238 227 0
6.600000 6.820000 36.300000 207 238 227 0
6.820000 6.820000 36.300000 208 239 228 0
7.040000 6.820000 36.300000 207 238 227 0
7.260000 6.820000 36.300000 207 238 227 0
7.480000 6.820000 36.520000 206 237 226 0
7.700000 6.820000 36.520000 206 237 226 0
7.920000 6.820000 36.520000 205 236 225 0
8.140000 6.820000 36.520000 205 236 225 0
8.360000 6.820000 36.740000 203 234 223 0
8.580000 6.820000 36.740000 203 234 223 0
8.800000 6.820000 36.740000 202 233 222 0
9.020000 6.820000 36.740000 198 229 218 0
9.240000 6.820000 36.740000 194 225 214 0
9.460000 6.820000 36.740000 195 220 211 0
9.680000 6.820000 36.960000 191 216 207 0
9.900000 6.820000 36.960000 184 211 197 0
10.120000 6.820000 36.960000 179 206 192 0
10.340000 6.820000 36.960000 180 201 181 0
10.560000 6.820000 35.640000 176 197 177 0
10.780000 6.820000 35.640000 174 192 173 0
11.000000 6.820000 35.640000 172 190 171 0
11.220000 6.820000 35.640000 170 191 171 0
11.440000 6.820000 34.100000 169 190 170 0
11.660000 6.820000 34.320000 169 191 173 0
11.880000 6.820000 34.320000 172 194 176 0
12.100000 6.820000 34.100000 175 196 176 0
12.320000 6.820000 34.100000 175 196 176 0
12.540000 6.820000 34.320000 176 198 181 0
12.760000 6.820000 34.540000 177 199 182 0
12.980000 6.820000 34.540000 177 201 183 0
13.200000 6.820000 34.540000 177 201 183 0
13.420000 6.820000 34.540000 174 200 184 0
13.640000 6.820000 34.540000 173 199 183 0
13.860000 6.820000 34.540000 176 194 175 0
14.080000 6.820000 34.540000 171 189 170 0
14.300000 6.820000 34.320000 173 182 160 0
14.520000 6.820000 35.640000 168 177 155 0
14.740000 6.820000 35.420000 163 166 142 0
14.960000 6.820000 36.300000 159 162 138 0
15.180000 6.820000 36.080000 164 157 134 0
15.400000 6.820000 37.400000 160 153 130 0
15.620000 6.820000 37.400000 156 149 125 0
15.840000 6.820000 37.400000 155 148 124 0
16.060000 6.820000 37.400000 155 147 123 0
16.280000 6.820000 37.400000 154 146 122 0
16.500000 6.820000 37.400000 156 145 120 0
16.720000 6.820000 37.400000 155 144 119 0
16.940000 6.820000 37.400000 153 142 117 0
17.160000 6.820000 36.080000 152 141 116 0
17.380000 6.820000 36.080000 152 141 118 0
17.600000 6.820000 36.080000 153 142 119 0
17.820000 6.820000 36.080000 152 141 116 0
18.040000 6.820000 37.400000 151 140 115 0
18.260000 6.820000 37.400000 152 139 115 0
18.480000 6.820000 36.080000 150 137 113 0
18.700000 6.820000 36.080000 151 138 114 0
18.920000 6.820000 36.080000 150 137 113 0
19.140000 6.820000 36.080000 151 136 112 0
19.360000 6.820000 36.080000 151 136 112 0
19.580000 6.820000 37.400000 150 137 113 0
19.800000 6.820000 37.400000 149 136 112 0
20.020000 6.820000 36.080000 151 136 112 0
20.240000 6.820000 36.080000 150 135 111 0
20.460000 6.820000 36.080000 150 135 111 0
20.680000 6.820000 36.080000 150 135 111 0
20.900000 6.820000 36.080000 150 133 110 0
