ply
format ascii 1.0
element vertex 1151
property float x
property float y
property float z
property uchar red
property uchar green
property uchar blue
property uchar alpha
end_header
34.540000 25.080000 0.770000 138 70 66 0
34.760000 25.080000 0.770000 138 70 66 0
34.980000 25.080000 1.430000 140 72 68 0
35.200000 25.080000 4.180000 137 71 67 0
35.420000 25.080000 4.180000 138 72 68 0
35.640000 25.080000 2.090000 139 73 69 0
35.860000 25.080000 0.770000 139 73 69 0
36.080000 25.080000 0.770000 139 73 69 0
36.300000 25.080000 1.540000 140 74 70 0
36.520000 25.080000 0.880000 139 73 69 0
36.740000 25.080000 0.110000 141 75 71 0
37.180000 25.080000 0.660000 140 76 71 0
0.000000 25.300000 16.060000 138 75 61 0
0.220000 25.300000 16.060000 139 76 62 0
0.440000 25.300000 16.060000 139 76 62 0
0.660000 25.300000 16.060000 138 75 61 0
0.880000 25.300000 16.060000 138 75 61 0
1.100000 25.300000 16.060000 141 78 64 0
1.320000 25.300000 16.060000 140 77 63 0
1.540000 25.300000 16.060000 141 78 64 0
1.760000 25.300000 16.060000 141 78 64 0
1.980000 25.300000 16.060000 141 78 64 0
2.200000 25.300000 16.060000 142 79 65 0
2.420000 25.300000 16.060000 141 78 64 0
2.640000 25.300000 16.060000 141 78 64 0
2.860000 25.300000 16.060000 141 78 64 0
3.080000 25.300000 16.060000 143 80 66 0
3.300000 25.300000 16.060000 143 80 66 0
3.520000 25.300000 16.060000 143 80 66 0
3.740000 25.300000 16.060000 143 80 66 0
3.960000 25.300000 16.060000 143 80 68 0
4.180000 25.300000 16.060000 145 82 70 0
4.400000 25.300000 16.060000 145 82 68 0
4.620000 25.300000 16.060000 145 82 68 0
4.840000 25.300000 16.060000 145 82 68 0
5.060000 25.300000 16.060000 145 82 68 0
5.280000 25.300000 16.060000 145 82 70 0
5.500000 25.300000 16.060000 146 83 71 0
5.720000 25.300000 16.060000 146 83 71 0
5.940000 25.300000 16.060000 147 84 72 0
6.160000 25.300000 16.060000 148 85 73 0
6.380000 25.300000 16.060000 147 84 72 0
6.600000 25.300000 16.060000 148 85 73 0
6.820000 25.300000 16.060000 147 84 72 0
7.040000 25.300000 16.060000 146 86 73 0
7.260000 25.300000 16.060000 146 86 73 0
7.480000 25.300000 16.170000 149 86 74 0
7.700000 25.300000 16.170000 149 86 74 0
7.920000 25.300000 16.170000 147 86 76 0
8.140000 25.300000 16.170000 148 87 77 0
8.360000 25.300000 16.170000 149 86 74 0
8.580000 25.300000 16.170000 150 87 75 0
8.800000 25.300000 16.940000 148 87 77 0
9.020000 25.300000 16.940000 149 88 78 0
9.240000 25.300000 16.940000 149 88 78 0
9.460000 25.300000 16.940000 149 88 78 0
9.680000 25.300000 16.940000 151 90 80 0
9.900000 25.300000 16.940000 152 91 81 0
10.120000 25.300000 17.600000 152 93 82 0
10.340000 25.300000 17.600000 152 93 82 0
10.560000 25.300000 17.600000 151 92 83 0
10.780000 25.300000 17.600000 151 92 83 0
11.000000 25.300000 18.260000 152 92 86 0
11.220000 25.300000 18.260000 155 95 89 0
11.440000 25.300000 18.260000 154 101 92 0
11.660000 25.300000 19.030000 157 104 95 0
11.880000 25.300000 19.030000 160 105 97 0
12.100000 25.300000 19.030000 159 104 96 0
12.320000 25.300000 19.030000 161 103 97 0
12.540000 25.300000 19.030000 160 102 96 0
12.760000 25.300000 19.030000 159 99 93 0
12.980000 25.300000 19.030000 155 95 89 0
13.200000 25.300000 19.030000 152 93 84 0
13.420000 25.300000 19.030000 149 90 81 0
13.640000 25.300000 19.030000 145 84 76 0
13.860000 25.300000 19.030000 140 79 71 0
14.080000 25.300000 19.030000 142 73 65 0
14.300000 25.300000 19.030000 140 71 63 0
14.520000 25.300000 19.030000 139 67 63 0
14.740000 25.300000 19.030000 138 66 62 0
14.960000 25.300000 19.030000 140 64 59 0
15.180000 25.300000 19.030000 138 62 57 0
15.400000 25.300000 19.030000 138 62 57 0
15.620000 25.300000 19.030000 138 62 57 0
15.840000 25.300000 19.030000 138 60 55 0
16.060000 25.300000 19.030000 138 60 55 0
16.280000 25.300000 19.030000 138 60 55 0
16.500000 25.300000 19.030000 137 59 54 0
16.720000 25.300000 19.030000 139 59 55 0
16.940000 25.300000 19.030000 138 58 54 0
17.160000 25.300000 19.030000 137 57 53 0
17.380000 25.300000 19.030000 136 56 52 0
17.600000 25.300000 19.030000 135 55 51 0
17.820000 25.300000 19.030000 136 56 52 0
18.040000 25.300000 19.030000 134 54 50 0
18.260000 25.300000 19.030000 133 53 49 0
18.480000 25.300000 19.030000 137 53 50 0
18.700000 25.300000 19.030000 137 53 50 0
18.920000 25.300000 19.030000 136 52 49 0
19.140000 25.300000 19.030000 134 50 47 0
19.360000 25.300000 19.030000 135 51 48 0
19.580000 25.300000 19.030000 136 52 49 0
19.800000 25.300000 19.030000 136 52 49 0
20.020000 25.300000 18.370000 137 53 50 0
20.240000 25.300000 19.030000 138 52 50 0
20.460000 25.300000 19.030000 136 50 48 0
20.680000 25.300000 19.030000 138 49 50 0
20.900000 25.300000 18.370000 136 47 48 0
21.120000 25.300000 18.370000 135 49 47 0
21.340000 25.300000 18.370000 135 49 47 0
21.560000 25.300000 18.370000 134 48 46 0
21.780000 25.300000 18.370000 135 49 47 0
22.000000 25.300000 18.370000 135 49 47 0
22.220000 25.300000 18.370000 137 51 49 0
22.440000 25.300000 18.370000 138 49 50 0
22.660000 25.300000 18.370000 136 47 48 0
22.880000 25.300000 18.370000 135 48 49 0
23.100000 25.300000 18.370000 136 49 50 0
23.320000 25.300000 18.260000 135 51 48 0
23.540000 25.300000 18.260000 136 52 49 0
23.760000 25.300000 18.260000 136 49 50 0
23.980000 25.300000 18.260000 135 48 49 0
24.200000 25.300000 17.710000 137 50 51 0
24.420000 25.300000 18.370000 136 49 50 0
24.640000 25.300000 18.370000 137 48 49 0
24.860000 25.300000 18.260000 137 48 49 0
25.080000 25.300000 17.600000 136 51 51 0
25.300000 25.300000 17.600000 135 50 50 0
25.520000 25.300000 18.260000 135 50 50 0
25.740000 25.300000 18.260000 135 50 50 0
25.960000 25.300000 18.920000 138 48 52 0
26.180000 25.300000 19.580000 138 48 52 0
26.400000 25.300000 19.030000 136 49 52 0
26.620000 25.300000 18.920000 137 50 53 0
26.840000 25.300000 18.810000 132 52 50 0
27.060000 25.300000 16.830000 135 55 53 0
27.280000 25.300000 11.330000 135 55 53 0
27.500000 25.300000 4.400000 137 57 55 0
27.720000 25.300000 0.880000 138 57 58 0
27.940000 25.300000 0.990000 141 60 61 0
28.160000 25.300000 1.100000 138 59 59 0
28.380000 25.300000 1.100000 138 59 59 0
28.600000 25.300000 1.100000 137 57 55 0
28.820000 25.300000 0.330000 137 57 55 0
29.040000 25.300000 0.330000 137 57 55 0
29.260000 25.300000 0.220000 136 56 54 0
29.480000 25.300000 5.060000 134 53 54 0
29.700000 25.300000 14.850000 134 53 54 0
29.920000 25.300000 19.690000 135 54 55 0
30.140000 25.300000 19.030000 137 56 57 0
30.360000 25.300000 19.030000 134 58 57 0
30.580000 25.300000 18.260000 135 59 58 0
30.800000 25.300000 17.600000 135 60 59 0
31.020000 25.300000 15.510000 138 63 62 0
31.240000 25.300000 13.970000 137 67 64 0
31.460000 25.300000 11.880000 139 69 66 0
31.680000 25.300000 9.790000 139 71 67 0
31.900000 25.300000 7.810000 140 72 68 0
32.120000 25.300000 7.150000 140 72 68 0
32.340000 25.300000 6.490000 140 72 68 0
32.560000 25.300000 5.060000 140 72 68 0
32.780000 25.300000 4.290000 142 74 70 0
33.000000 25.300000 3.630000 141 73 69 0
33.220000 25.300000 3.630000 140 72 68 0
33.440000 25.300000 2.200000 139 71 67 0
33.660000 25.300000 1.540000 138 70 66 0
33.880000 25.300000 3.630000 138 70 66 0
34.100000 25.300000 5.610000 138 70 66 0
34.320000 25.300000 2.860000 139 71 67 0
34.540000 25.300000 0.110000 137 69 65 0
34.760000 25.300000 1.540000 138 70 66 0
34.980000 25.300000 6.380000 138 70 66 0
35.200000 25.300000 9.130000 135 69 65 0
35.420000 25.300000 4.950000 137 71 67 0
35.640000 25.300000 0.880000 137 71 67 0
35.860000 25.300000 0.880000 138 72 68 0
36.080000 25.300000 1.540000 139 73 69 0
36.300000 25.300000 1.430000 139 73 69 0
36.520000 25.300000 0.770000 139 73 69 0
36.740000 25.300000 0.770000 140 74 70 0
36.960000 25.300000 0.770000 140 76 71 0
37.180000 25.300000 0.660000 140 76 71 0
0.000000 25.520000 15.400000 138 75 61 0
0.220000 25.520000 16.060000 137 74 60 0
0.440000 25.520000 16.060000 137 74 60 0
0.660000 25.520000 16.060000 138 75 61 0
0.880000 25.520000 16.060000 139 76 62 0
1.100000 25.520000 16.060000 140 77 63 0
1.320000 25.520000 16.060000 140 77 63 0
1.540000 25.520000 16.060000 141 78 64 0
1.760000 25.520000 16.060000 140 77 63 0
1.980000 25.520000 16.060000 141 78 64 0
2.200000 25.520000 16.060000 142 79 65 0
2.420000 25.520000 16.060000 141 78 64 0
2.640000 25.520000 16.060000 142 79 65 0
2.860000 25.520000 16.060000 142 79 65 0
3.080000 25.520000 16.060000 144 81 67 0
3.300000 25.520000 16.060000 144 81 67 0
3.520000 25.520000 16.060000 143 80 66 0
3.740000 25.520000 16.060000 143 80 66 0
3.960000 25.520000 16.060000 144 81 69 0
4.180000 25.520000 16.060000 144 81 69 0
4.400000 25.520000 16.060000 145 82 68 0
4.620000 25.520000 16.060000 145 82 68 0
4.840000 25.520000 16.060000 145 82 68 0
5.060000 25.520000 16.060000 146 83 69 0
5.280000 25.520000 16.060000 146 83 71 0
5.500000 25.520000 16.060000 146 83 71 0
5.720000 25.520000 16.060000 146 83 71 0
5.940000 25.520000 16.060000 146 83 71 0
6.160000 25.520000 16.060000 146 83 71 0
6.380000 25.520000 16.060000 147 84 72 0
6.600000 25.520000 16.060000 147 84 72 0
6.820000 25.520000 16.060000 147 84 72 0
7.040000 25.520000 16.060000 146 86 73 0
7.260000 25.520000 16.170000 146 86 73 0
7.480000 25.520000 16.170000 149 86 74 0
7.700000 25.520000 16.170000 149 86 74 0
7.920000 25.520000 16.170000 147 86 76 0
8.140000 25.520000 16.170000 147 86 76 0
8.360000 25.520000 16.170000 150 87 75 0
8.580000 25.520000 16.170000 149 86 74 0
8.800000 25.520000 16.170000 149 88 78 0
9.020000 25.520000 16.940000 149 88 78 0
9.240000 25.520000 16.940000 150 89 79 0
9.460000 25.520000 16.940000 150 89 79 0
9.680000 25.520000 16.940000 151 90 80 0
9.900000 25.520000 16.940000 152 91 81 0
10.120000 25.520000 17.600000 152 93 82 0
10.340000 25.520000 17.600000 152 93 82 0
10.560000 25.520000 17.600000 151 92 83 0
10.780000 25.520000 17.600000 151 92 83 0
11.000000 25.520000 18.260000 152 92 86 0
11.220000 25.520000 18.260000 155 95 89 0
11.440000 25.520000 18.260000 154 101 92 0
11.660000 25.520000 19.030000 156 103 94 0
11.880000 25.520000 19.030000 158 103 95 0
12.100000 25.520000 19.030000 157 102 94 0
12.320000 25.520000 19.030000 159 101 95 0
12.540000 25.520000 19.030000 158 100 94 0
12.760000 25.520000 19.030000 157 97 91 0
12.980000 25.520000 19.030000 154 94 88 0
13.200000 25.520000 19.030000 150 91 82 0
13.420000 25.520000 19.030000 146 87 78 0
13.640000 25.520000 19.030000 144 83 75 0
13.860000 25.520000 19.030000 140 79 71 0
14.080000 25.520000 19.030000 143 74 66 0
14.300000 25.520000 19.030000 141 72 64 0
14.520000 25.520000 19.030000 138 66 62 0
14.740000 25.520000 19.030000 138 66 62 0
14.960000 25.520000 19.030000 139 63 58 0
15.180000 25.520000 19.030000 138 62 57 0
15.400000 25.520000 19.030000 137 61 56 0
15.620000 25.520000 19.030000 137 61 56 0
15.840000 25.520000 19.030000 138 60 55 0
16.060000 25.520000 19.030000 139 61 56 0
16.280000 25.520000 19.030000 136 58 53 0
16.500000 25.520000 19.030000 137 59 54 0
16.720000 25.520000 19.030000 138 58 54 0
16.940000 25.520000 19.030000 136 56 52 0
17.160000 25.520000 19.030000 136 56 52 0
17.380000 25.520000 19.030000 135 55 51 0
17.600000 25.520000 19.030000 136 56 52 0
17.820000 25.520000 19.030000 135 55 51 0
18.040000 25.520000 19.030000 133 53 49 0
18.260000 25.520000 19.030000 134 54 50 0
18.480000 25.520000 19.030000 136 52 49 0
18.700000 25.520000 19.030000 137 53 50 0
18.920000 25.520000 19.030000 135 51 48 0
19.140000 25.520000 19.030000 136 52 49 0
19.360000 25.520000 19.030000 136 52 49 0
19.580000 25.520000 19.030000 136 52 49 0
19.800000 25.520000 19.030000 137 53 50 0
20.020000 25.520000 19.030000 135 51 48 0
20.240000 25.520000 19.030000 137 51 49 0
20.460000 25.520000 19.030000 135 49 47 0
20.680000 25.520000 19.030000 136 47 48 0
20.900000 25.520000 19.030000 136 47 48 0
21.120000 25.520000 19.030000 135 49 47 0
21.340000 25.520000 19.030000 135 49 47 0
21.560000 25.520000 18.370000 135 49 47 0
21.780000 25.520000 18.370000 135 49 47 0
22.000000 25.520000 18.370000 134 48 46 0
22.220000 25.520000 18.370000 134 48 46 0
22.440000 25.520000 18.370000 137 48 49 0
22.660000 25.520000 18.370000 137 48 49 0
22.880000 25.520000 19.030000 134 47 48 0
23.100000 25.520000 18.370000 134 47 48 0
23.320000 25.520000 18.370000 134 50 47 0
23.540000 25.520000 18.370000 136 52 49 0
23.760000 25.520000 18.370000 137 50 51 0
23.980000 25.520000 17.710000 135 48 49 0
24.200000 25.520000 17.710000 137 50 51 0
24.420000 25.520000 17.710000 136 49 50 0
24.640000 25.520000 18.370000 138 49 50 0
24.860000 25.520000 18.370000 135 46 47 0
25.080000 25.520000 18.260000 133 48 48 0
25.300000 25.520000 18.260000 135 50 50 0
25.520000 25.520000 18.260000 137 52 52 0
25.740000 25.520000 18.260000 136 51 51 0
25.960000 25.520000 18.920000 138 48 52 0
26.180000 25.520000 19.580000 137 47 51 0
26.400000 25.520000 19.690000 136 49 52 0
26.620000 25.520000 19.030000 135 48 51 0
26.840000 25.520000 16.940000 135 55 53 0
27.060000 25.520000 11.330000 135 55 53 0
27.280000 25.520000 5.060000 136 56 54 0
27.500000 25.520000 1.650000 137 57 55 0
27.720000 25.520000 0.880000 138 57 58 0
27.940000 25.520000 1.650000 138 57 58 0
28.160000 25.520000 1.650000 137 58 58 0
28.380000 25.520000 1.100000 138 59 59 0
28.600000 25.520000 0.990000 138 58 56 0
28.820000 25.520000 0.990000 137 57 55 0
29.040000 25.520000 0.330000 137 57 55 0
29.260000 25.520000 0.990000 136 56 54 0
29.480000 25.520000 7.150000 134 53 54 0
29.700000 25.520000 16.170000 134 53 54 0
29.920000 25.520000 19.030000 135 54 55 0
30.140000 25.520000 18.370000 136 55 56 0
30.360000 25.520000 18.370000 133 57 56 0
30.580000 25.520000 17.600000 136 60 59 0
30.800000 25.520000 16.170000 137 62 61 0
31.020000 25.520000 14.080000 138 63 62 0
31.240000 25.520000 12.760000 138 68 65 0
31.460000 25.520000 10.670000 139 69 66 0
31.680000 25.520000 8.470000 139 71 67 0
31.900000 25.520000 7.810000 141 73 69 0
32.120000 25.520000 7.150000 141 73 69 0
32.340000 25.520000 6.490000 141 73 69 0
32.560000 25.520000 5.720000 141 73 69 0
32.780000 25.520000 4.290000 141 73 69 0
33.000000 25.520000 3.630000 139 71 67 0
33.220000 25.520000 2.970000 139 71 67 0
33.440000 25.520000 2.310000 139 71 67 0
33.660000 25.520000 1.540000 138 70 66 0
33.880000 25.520000 2.200000 138 70 66 0
34.100000 25.520000 2.970000 138 70 66 0
34.320000 25.520000 1.540000 137 69 65 0
34.540000 25.520000 0.220000 138 70 66 0
34.760000 25.520000 3.740000 137 69 65 0
34.980000 25.520000 11.220000 138 70 66 0
35.200000 25.520000 11.880000 135 69 65 0
35.420000 25.520000 4.950000 137 71 67 0
35.640000 25.520000 1.540000 138 72 68 0
35.860000 25.520000 0.990000 138 72 68 0
36.080000 25.520000 2.310000 138 72 68 0
36.300000 25.520000 4.180000 139 73 69 0
36.520000 25.520000 2.750000 140 74 70 0
36.740000 25.520000 0.770000 140 74 70 0
36.960000 25.520000 0.770000 139 75 70 0
37.180000 25.520000 0.770000 140 76 71 0
0.000000 25.740000 15.400000 137 74 60 0
0.220000 25.740000 15.400000 138 75 61 0
0.440000 25.740000 16.060000 139 76 62 0
0.660000 25.740000 16.060000 139 76 62 0
0.880000 25.740000 16.060000 139 76 62 0
1.100000 25.740000 16.060000 140 77 63 0
1.320000 25.740000 16.060000 141 77 63 0
1.540000 25.740000 16.060000 141 77 63 0
1.760000 25.740000 16.060000 140 77 63 0
1.980000 25.740000 16.060000 141 78 64 0
2.200000 25.740000 16.060000 141 78 64 0
2.420000 25.740000 16.060000 141 78 64 0
2.640000 25.740000 16.060000 142 79 65 0
2.860000 25.740000 16.060000 142 79 65 0
3.080000 25.740000 16.060000 143 80 66 0
3.300000 25.740000 16.060000 143 80 66 0
3.520000 25.740000 16.060000 144 81 67 0
3.740000 25.740000 16.060000 143 80 66 0
3.960000 25.740000 16.060000 145 82 68 0
4.180000 25.740000 16.060000 145 82 68 0
4.400000 25.740000 16.060000 143 80 68 0
4.620000 25.740000 16.060000 145 82 70 0
4.840000 25.740000 16.060000 145 82 70 0
5.060000 25.740000 16.060000 146 83 71 0
5.280000 25.740000 16.060000 146 83 71 0
5.500000 25.740000 16.060000 146 83 71 0
5.720000 25.740000 16.060000 146 83 71 0
5.940000 25.740000 16.060000 146 83 71 0
6.160000 25.740000 16.060000 146 83 71 0
6.380000 25.740000 16.060000 146 83 71 0
6.600000 25.740000 16.060000 147 84 72 0
6.820000 25.740000 16.060000 147 84 72 0
7.040000 25.740000 16.170000 147 84 72 0
7.260000 25.740000 16.170000 148 85 73 0
7.480000 25.740000 16.170000 148 85 73 0
7.700000 25.740000 16.170000 148 85 73 0
7.920000 25.740000 16.170000 149 86 76 0
8.140000 25.740000 16.170000 150 87 77 0
8.360000 25.740000 16.170000 148 87 77 0
8.580000 25.740000 16.170000 148 87 77 0
8.800000 25.740000 16.170000 148 87 77 0
9.020000 25.740000 16.940000 148 87 77 0
9.240000 25.740000 16.940000 149 90 81 0
9.460000 25.740000 16.940000 150 91 82 0
9.680000 25.740000 16.940000 151 90 80 0
9.900000 25.740000 16.940000 151 90 80 0
10.120000 25.740000 16.940000 152 91 81 0
10.340000 25.740000 17.600000 152 91 81 0
10.560000 25.740000 17.600000 152 91 83 0
10.780000 25.740000 17.600000 151 90 82 0
11.000000 25.740000 18.260000 150 92 85 0
11.220000 25.740000 18.260000 153 95 88 0
11.440000 25.740000 18.260000 157 99 92 0
11.660000 25.740000 19.030000 158 100 93 0
11.880000 25.740000 19.030000 158 100 91 0
12.100000 25.740000 19.030000 158 100 91 0
12.320000 25.740000 19.030000 158 99 90 0
12.540000 25.740000 19.030000 156 97 88 0
12.760000 25.740000 19.030000 155 95 89 0
12.980000 25.740000 19.030000 152 92 86 0
13.200000 25.740000 19.030000 150 89 79 0
13.420000 25.740000 19.030000 146 85 75 0
13.640000 25.740000 19.030000 149 81 75 0
13.860000 25.740000 19.030000 144 76 70 0
14.080000 25.740000 19.030000 142 72 67 0
14.300000 25.740000 19.030000 140 70 65 0
14.520000 25.740000 19.030000 140 66 60 0
14.740000 25.740000 19.030000 139 65 59 0
14.960000 25.740000 19.030000 139 63 58 0
15.180000 25.740000 19.030000 137 61 56 0
15.400000 25.740000 19.030000 138 60 55 0
15.620000 25.740000 19.030000 137 59 54 0
15.840000 25.740000 19.030000 137 59 54 0
16.060000 25.740000 19.030000 136 58 53 0
16.280000 25.740000 19.030000 137 59 54 0
16.500000 25.740000 19.030000 135 57 52 0
16.720000 25.740000 19.030000 136 56 52 0
16.940000 25.740000 19.030000 135 55 51 0
17.160000 25.740000 19.030000 135 53 50 0
17.380000 25.740000 19.030000 136 54 51 0
17.600000 25.740000 19.030000 136 54 51 0
17.820000 25.740000 19.030000 133 51 48 0
18.040000 25.740000 19.030000 134 52 49 0
18.260000 25.740000 19.030000 135 53 50 0
18.480000 25.740000 18.370000 136 52 49 0
18.700000 25.740000 18.370000 135 51 48 0
18.920000 25.740000 19.030000 136 50 48 0
19.140000 25.740000 19.030000 137 51 49 0
19.360000 25.740000 19.030000 135 51 48 0
19.580000 25.740000 19.030000 135 51 48 0
19.800000 25.740000 19.030000 137 51 49 0
20.020000 25.740000 19.030000 136 50 48 0
20.240000 25.740000 19.030000 134 48 46 0
20.460000 25.740000 19.030000 136 50 48 0
20.680000 25.740000 18.370000 134 48 46 0
20.900000 25.740000 18.370000 135 49 47 0
21.120000 25.740000 19.030000 132 48 45 0
21.340000 25.740000 19.030000 136 52 49 0
21.560000 25.740000 19.030000 136 50 48 0
21.780000 25.740000 18.370000 133 47 45 0
22.000000 25.740000 18.370000 134 48 46 0
22.220000 25.740000 18.370000 134 48 46 0
22.440000 25.740000 18.370000 135 49 47 0
22.660000 25.740000 18.370000 137 51 49 0
22.880000 25.740000 19.030000 136 49 50 0
23.100000 25.740000 18.370000 135 48 49 0
23.320000 25.740000 18.370000 134 47 48 0
23.540000 25.740000 18.260000 136 49 50 0
23.760000 25.740000 18.370000 136 49 50 0
23.980000 25.740000 17.710000 136 49 50 0
24.200000 25.740000 17.710000 135 50 50 0
24.420000 25.740000 17.710000 136 51 51 0
24.640000 25.740000 18.370000 136 49 50 0
24.860000 25.740000 18.260000 136 49 50 0
25.080000 25.740000 18.260000 135 48 49 0
25.300000 25.740000 18.260000 135 48 49 0
25.520000 25.740000 18.260000 132 50 49 0
25.740000 25.740000 18.370000 132 50 49 0
25.960000 25.740000 19.030000 136 51 51 0
26.180000 25.740000 19.690000 135 50 50 0
26.400000 25.740000 18.260000 134 49 49 0
26.620000 25.740000 16.170000 136 51 51 0
26.840000 25.740000 14.850000 133 52 53 0
27.060000 25.740000 11.220000 136 55 56 0
27.280000 25.740000 4.290000 138 57 58 0
27.500000 25.740000 0.880000 137 56 57 0
27.720000 25.740000 0.990000 138 59 59 0
27.940000 25.740000 1.650000 137 58 58 0
28.160000 25.740000 1.650000 139 59 57 0
28.380000 25.740000 1.650000 138 58 56 0
28.600000 25.740000 0.990000 137 58 58 0
28.820000 25.740000 0.880000 136 57 57 0
29.040000 25.740000 0.880000 137 56 57 0
29.260000 25.740000 3.740000 136 55 56 0
29.480000 25.740000 12.760000 135 55 53 0
29.700000 25.740000 18.920000 135 55 53 0
29.920000 25.740000 19.580000 134 55 55 0
30.140000 25.740000 18.920000 135 56 56 0
30.360000 25.740000 17.600000 135 59 58 0
30.580000 25.740000 16.280000 137 61 60 0
30.800000 25.740000 14.850000 135 63 61 0
31.020000 25.740000 12.760000 137 65 63 0
31.240000 25.740000 11.440000 136 68 64 0
31.460000 25.740000 9.350000 139 71 67 0
31.680000 25.740000 8.580000 140 72 68 0
31.900000 25.740000 7.700000 140 72 68 0
32.120000 25.740000 7.040000 140 72 68 0
32.340000 25.740000 6.490000 140 72 68 0
32.560000 25.740000 5.060000 140 72 68 0
32.780000 25.740000 3.740000 140 72 68 0
33.000000 25.740000 2.970000 139 71 67 0
33.220000 25.740000 2.970000 138 70 66 0
33.440000 25.740000 2.310000 138 68 65 0
33.660000 25.740000 1.650000 138 68 65 0
33.880000 25.740000 0.770000 138 68 66 0
34.100000 25.740000 0.110000 138 68 66 0
34.320000 25.740000 0.220000 137 69 65 0
34.760000 25.740000 3.850000 137 69 65 0
34.980000 25.740000 8.580000 138 70 66 0
35.200000 25.740000 6.380000 137 71 67 0
35.420000 25.740000 2.200000 136 70 66 0
35.640000 25.740000 1.540000 137 71 67 0
35.860000 25.740000 0.990000 139 73 69 0
36.080000 25.740000 3.740000 139 73 69 0
36.300000 25.740000 5.610000 139 73 69 0
36.520000 25.740000 3.520000 140 74 70 0
36.740000 25.740000 0.770000 140 74 70 0
36.960000 25.740000 0.220000 139 75 70 0
37.180000 25.740000 0.220000 139 75 70 0
0.000000 25.960000 15.400000 138 75 61 0
0.220000 25.960000 15.400000 139 76 62 0
0.440000 25.960000 16.060000 139 76 62 0
0.660000 25.960000 16.060000 138 75 61 0
0.880000 25.960000 16.060000 140 77 63 0
1.100000 25.960000 16.060000 140 77 63 0
1.320000 25.960000 16.060000 140 76 62 0
1.540000 25.960000 16.060000 142 78 64 0
1.760000 25.960000 16.060000 141 78 64 0
1.980000 25.960000 16.060000 141 78 64 0
2.200000 25.960000 16.060000 141 78 64 0
2.420000 25.960000 16.060000 142 79 65 0
2.640000 25.960000 16.060000 142 79 65 0
2.860000 25.960000 16.060000 143 80 66 0
3.080000 25.960000 16.060000 143 80 66 0
3.300000 25.960000 16.060000 143 80 66 0
3.520000 25.960000 16.060000 143 80 66 0
3.740000 25.960000 16.060000 143 80 66 0
3.960000 25.960000 16.060000 144 81 67 0
4.180000 25.960000 16.060000 144 81 67 0
4.400000 25.960000 16.060000 144 81 69 0
4.620000 25.960000 16.060000 144 81 69 0
4.840000 25.960000 16.060000 146 83 71 0
5.060000 25.960000 16.060000 145 82 70 0
5.280000 25.960000 16.060000 145 82 70 0
5.500000 25.960000 16.060000 145 82 70 0
5.720000 25.960000 16.060000 146 83 71 0
5.940000 25.960000 16.060000 146 83 71 0
6.160000 25.960000 16.060000 147 84 72 0
6.380000 25.960000 16.060000 146 83 71 0
6.600000 25.960000 16.060000 147 84 72 0
6.820000 25.960000 16.170000 147 84 72 0
7.040000 25.960000 16.170000 147 84 72 0
7.260000 25.960000 16.170000 148 85 73 0
7.480000 25.960000 16.170000 148 85 73 0
7.700000 25.960000 16.170000 148 85 73 0
7.920000 25.960000 16.170000 150 87 77 0
8.140000 25.960000 16.170000 149 86 76 0
8.360000 25.960000 16.170000 147 86 76 0
8.580000 25.960000 16.170000 147 86 76 0
8.800000 25.960000 16.170000 148 87 77 0
9.020000 25.960000 16.940000 149 88 78 0
9.240000 25.960000 16.940000 148 89 80 0
9.460000 25.960000 16.940000 150 91 82 0
9.680000 25.960000 16.940000 152 91 81 0
9.900000 25.960000 16.940000 152 91 81 0
10.120000 25.960000 16.940000 152 91 81 0
10.340000 25.960000 17.600000 152 91 81 0
10.560000 25.960000 17.600000 152 91 83 0
10.780000 25.960000 17.600000 152 91 83 0
11.000000 25.960000 18.260000 151 93 86 0
11.220000 25.960000 18.260000 154 96 89 0
11.440000 25.960000 18.260000 155 97 90 0
11.660000 25.960000 19.030000 156 98 91 0
11.880000 25.960000 19.030000 156 98 89 0
12.100000 25.960000 19.030000 156 98 89 0
12.320000 25.960000 19.030000 157 98 89 0
12.540000 25.960000 19.030000 154 95 86 0
12.760000 25.960000 19.030000 153 93 87 0
12.980000 25.960000 19.030000 150 90 84 0
13.200000 25.960000 19.030000 149 88 78 0
13.420000 25.960000 19.030000 145 84 74 0
13.640000 25.960000 19.030000 147 79 73 0
13.860000 25.960000 19.030000 142 74 68 0
14.080000 25.960000 19.030000 141 71 66 0
14.300000 25.960000 19.030000 139 69 64 0
14.520000 25.960000 19.030000 139 65 59 0
14.740000 25.960000 19.030000 138 64 58 0
14.960000 25.960000 19.030000 139 63 58 0
15.180000 25.960000 19.030000 136 60 55 0
15.400000 25.960000 19.030000 138 60 55 0
15.620000 25.960000 19.030000 138 60 55 0
15.840000 25.960000 19.030000 136 58 53 0
16.060000 25.960000 19.030000 137 59 54 0
16.280000 25.960000 19.030000 137 59 54 0
16.500000 25.960000 19.030000 136 58 53 0
16.720000 25.960000 19.030000 136 56 52 0
16.940000 25.960000 19.030000 135 55 51 0
17.160000 25.960000 19.030000 134 52 49 0
17.380000 25.960000 19.030000 135 53 50 0
17.600000 25.960000 19.030000 136 54 51 0
17.820000 25.960000 19.030000 134 52 49 0
18.040000 25.960000 19.030000 134 52 49 0
18.260000 25.960000 19.030000 135 53 50 0
18.480000 25.960000 18.370000 137 53 50 0
18.700000 25.960000 18.370000 136 52 49 0
18.920000 25.960000 18.370000 136 50 48 0
19.140000 25.960000 19.030000 137 51 49 0
19.360000 25.960000 19.030000 135 51 48 0
19.580000 25.960000 19.030000 135 51 48 0
19.800000 25.960000 19.030000 138 52 50 0
20.020000 25.960000 19.030000 135 49 47 0
20.240000 25.960000 19.030000 134 48 46 0
20.460000 25.960000 18.370000 134 48 46 0
20.680000 25.960000 18.370000 135 49 47 0
20.900000 25.960000 18.370000 134 48 46 0
21.120000 25.960000 18.370000 133 49 46 0
21.340000 25.960000 19.030000 136 52 49 0
21.560000 25.960000 19.030000 134 48 46 0
21.780000 25.960000 18.370000 134 48 46 0
22.000000 25.960000 18.370000 134 48 46 0
22.220000 25.960000 18.370000 135 49 47 0
22.440000 25.960000 18.370000 137 51 49 0
22.660000 25.960000 18.370000 135 49 47 0
22.880000 25.960000 18.370000 136 49 50 0
23.100000 25.960000 19.030000 134 47 48 0
23.320000 25.960000 18.920000 134 47 48 0
23.540000 25.960000 18.920000 135 48 49 0
23.760000 25.960000 18.260000 136 49 50 0
23.980000 25.960000 18.370000 137 50 51 0
24.200000 25.960000 18.370000 137 52 52 0
24.420000 25.960000 18.370000 136 51 51 0
24.640000 25.960000 18.370000 135 48 49 0
24.860000 25.960000 18.920000 135 48 49 0
25.080000 25.960000 18.260000 134 47 48 0
25.300000 25.960000 18.260000 135 48 49 0
25.520000 25.960000 18.260000 132 50 49 0
25.740000 25.960000 18.920000 134 52 51 0
25.960000 25.960000 19.690000 137 52 52 0
26.180000 25.960000 20.350000 136 51 51 0
26.400000 25.960000 16.060000 135 50 50 0
26.620000 25.960000 9.900000 136 51 51 0
26.840000 25.960000 10.560000 133 52 53 0
27.060000 25.960000 10.450000 135 54 55 0
27.280000 25.960000 4.950000 138 57 58 0
27.500000 25.960000 0.880000 138 57 58 0
27.720000 25.960000 1.650000 137 58 58 0
27.940000 25.960000 1.650000 138 59 59 0
28.160000 25.960000 1.650000 139 59 57 0
28.380000 25.960000 1.650000 137 57 55 0
28.600000 25.960000 0.880000 137 58 58 0
28.820000 25.960000 1.540000 137 58 58 0
29.040000 25.960000 0.880000 136 55 56 0
29.260000 25.960000 5.060000 135 54 55 0
29.480000 25.960000 14.190000 135 55 53 0
29.700000 25.960000 17.490000 134 54 52 0
29.920000 25.960000 18.920000 134 55 55 0
30.140000 25.960000 18.920000 136 57 57 0
30.360000 25.960000 17.600000 134 58 57 0
30.580000 25.960000 14.960000 138 62 61 0
30.800000 25.960000 12.210000 137 65 63 0
31.020000 25.960000 11.440000 137 65 63 0
31.240000 25.960000 10.010000 138 70 66 0
31.460000 25.960000 7.920000 139 71 67 0
31.680000 25.960000 7.150000 141 73 69 0
31.900000 25.960000 7.040000 141 73 69 0
32.120000 25.960000 7.040000 141 73 69 0
32.340000 25.960000 5.720000 140 72 68 0
32.560000 25.960000 4.400000 140 72 68 0
32.780000 25.960000 3.080000 140 72 68 0
33.000000 25.960000 2.420000 138 70 66 0
33.220000 25.960000 2.420000 137 69 65 0
33.440000 25.960000 1.650000 137 67 64 0
33.660000 25.960000 1.650000 137 67 64 0
33.880000 25.960000 1.540000 137 67 65 0
34.100000 25.960000 0.880000 139 69 67 0
34.320000 25.960000 0.220000 137 69 65 0
34.540000 25.960000 0.330000 137 69 65 0
34.760000 25.960000 0.990000 137 69 65 0
34.980000 25.960000 2.310000 138 70 66 0
35.200000 25.960000 1.650000 135 69 65 0
35.420000 25.960000 0.880000 138 72 68 0
35.640000 25.960000 0.770000 139 73 69 0
35.860000 25.960000 0.990000 138 72 68 0
36.080000 25.960000 3.630000 140 74 70 0
36.300000 25.960000 6.270000 139 73 69 0
36.520000 25.960000 3.520000 140 74 70 0
36.740000 25.960000 0.770000 140 74 70 0
36.960000 25.960000 0.220000 138 74 69 0
37.180000 25.960000 0.220000 140 76 71 0
0.000000 26.180000 15.400000 138 75 61 0
0.220000 26.180000 15.400000 139 76 62 0
0.440000 26.180000 15.400000 139 76 62 0
0.660000 26.180000 16.060000 139 76 62 0
0.880000 26.180000 16.060000 139 76 62 0
1.100000 26.180000 16.060000 139 76 62 0
1.320000 26.180000 16.060000 141 77 63 0
1.540000 26.180000 16.060000 141 77 63 0
1.760000 26.180000 16.060000 140 77 63 0
1.980000 26.180000 16.060000 141 78 64 0
2.200000 26.180000 16.060000 142 79 65 0
2.420000 26.180000 16.060000 142 79 65 0
2.640000 26.180000 16.060000 142 79 65 0
2.860000 26.180000 16.060000 142 79 65 0
3.080000 26.180000 16.060000 144 79 68 0
3.300000 26.180000 16.060000 144 79 68 0
3.520000 26.180000 16.060000 144 81 67 0
3.740000 26.180000 16.060000 143 80 66 0
3.960000 26.180000 16.060000 143 80 68 0
4.180000 26.180000 16.060000 144 81 69 0
4.400000 26.180000 16.060000 144 81 69 0
4.620000 26.180000 16.060000 144 81 69 0
4.840000 26.180000 16.060000 145 82 70 0
5.060000 26.180000 16.060000 145 82 70 0
5.280000 26.180000 16.060000 145 82 70 0
5.500000 26.180000 16.060000 145 82 70 0
5.720000 26.180000 16.060000 146 83 71 0
5.940000 26.180000 16.060000 145 82 70 0
6.160000 26.180000 16.060000 146 83 71 0
6.380000 26.180000 16.060000 147 84 72 0
6.600000 26.180000 16.170000 147 84 72 0
6.820000 26.180000 16.170000 146 83 71 0
7.040000 26.180000 16.170000 147 84 72 0
7.260000 26.180000 16.170000 147 84 72 0
7.480000 26.180000 16.170000 148 85 73 0
7.700000 26.180000 16.170000 148 85 73 0
7.920000 26.180000 16.170000 147 86 76 0
8.140000 26.180000 16.170000 147 86 76 0
8.360000 26.180000 16.170000 150 87 77 0
8.580000 26.180000 16.170000 149 86 76 0
8.800000 26.180000 16.170000 148 87 77 0
9.020000 26.180000 16.170000 149 88 78 0
9.240000 26.180000 16.940000 151 90 82 0
9.460000 26.180000 16.940000 151 90 82 0
9.680000 26.180000 16.940000 151 90 80 0
9.900000 26.180000 16.940000 153 92 82 0
10.120000 26.180000 16.940000 152 91 81 0
10.340000 26.180000 16.940000 152 91 81 0
10.560000 26.180000 17.600000 152 91 83 0
10.780000 26.180000 17.600000 153 92 84 0
11.000000 26.180000 18.260000 151 93 86 0
11.220000 26.180000 18.260000 153 95 88 0
11.440000 26.180000 18.260000 156 97 88 0
11.660000 26.180000 19.030000 157 98 89 0
11.880000 26.180000 19.030000 156 97 88 0
12.100000 26.180000 19.030000 156 97 88 0
12.320000 26.180000 19.030000 154 95 86 0
12.540000 26.180000 19.030000 152 93 84 0
12.760000 26.180000 19.030000 152 93 84 0
12.980000 26.180000 19.030000 149 90 81 0
13.200000 26.180000 19.030000 147 86 78 0
13.420000 26.180000 19.030000 143 82 74 0
13.640000 26.180000 19.030000 145 77 69 0
13.860000 26.180000 19.030000 142 74 66 0
14.080000 26.180000 19.030000 143 69 63 0
14.300000 26.180000 19.030000 141 67 61 0
14.520000 26.180000 19.030000 140 64 61 0
14.740000 26.180000 19.030000 139 63 60 0
14.960000 26.180000 19.030000 141 62 60 0
15.180000 26.180000 19.030000 139 60 58 0
15.400000 26.180000 19.030000 139 59 55 0
15.620000 26.180000 19.030000 138 58 54 0
15.840000 26.180000 19.030000 138 58 54 0
16.060000 26.180000 19.030000 137 57 53 0
16.280000 26.180000 19.030000 138 56 53 0
16.500000 26.180000 18.370000 138 56 53 0
16.720000 26.180000 18.370000 137 55 52 0
16.940000 26.180000 19.030000 136 54 51 0
17.160000 26.180000 19.030000 135 53 50 0
17.380000 26.180000 19.030000 135 53 50 0
17.600000 26.180000 19.030000 136 52 49 0
17.820000 26.180000 19.030000 137 53 50 0
18.040000 26.180000 19.030000 136 52 49 0
18.260000 26.180000 19.030000 136 52 49 0
18.480000 26.180000 18.370000 137 53 50 0
18.700000 26.180000 18.370000 136 52 49 0
18.920000 26.180000 18.370000 136 52 49 0
19.140000 26.180000 19.030000 136 52 49 0
19.360000 26.180000 19.030000 134 50 47 0
19.580000 26.180000 19.030000 136 52 49 0
19.800000 26.180000 19.030000 135 48 49 0
20.020000 26.180000 19.030000 136 49 50 0
20.240000 26.180000 18.370000 135 49 47 0
20.460000 26.180000 18.370000 136 50 48 0
20.680000 26.180000 18.370000 134 48 46 0
20.900000 26.180000 18.370000 135 49 47 0
21.120000 26.180000 18.370000 133 48 48 0
21.340000 26.180000 18.370000 134 49 49 0
21.560000 26.180000 18.370000 135 48 49 0
21.780000 26.180000 18.370000 135 48 49 0
22.000000 26.180000 18.370000 136 50 48 0
22.220000 26.180000 18.370000 135 49 47 0
22.440000 26.180000 18.370000 135 48 49 0
22.660000 26.180000 18.370000 135 48 49 0
22.880000 26.180000 18.370000 135 50 50 0
23.100000 26.180000 18.920000 135 50 50 0
23.320000 26.180000 18.920000 134 49 49 0
23.540000 26.180000 18.920000 136 51 51 0
23.760000 26.180000 18.370000 135 50 50 0
23.980000 26.180000 18.370000 136 51 51 0
24.200000 26.180000 18.370000 136 51 51 0
24.420000 26.180000 18.370000 136 51 51 0
24.640000 26.180000 18.370000 135 50 50 0
24.860000 26.180000 18.260000 135 50 50 0
25.080000 26.180000 18.920000 134 49 49 0
25.300000 26.180000 18.920000 136 51 51 0
25.520000 26.180000 18.920000 135 50 50 0
25.740000 26.180000 18.920000 136 51 51 0
25.960000 26.180000 19.580000 134 52 53 0
26.180000 26.180000 20.240000 134 52 53 0
26.400000 26.180000 16.720000 135 53 52 0
26.620000 26.180000 9.790000 135 53 52 0
26.840000 26.180000 9.130000 135 55 53 0
27.060000 26.180000 8.360000 135 55 53 0
27.280000 26.180000 3.520000 136 57 55 0
27.500000 26.180000 0.880000 137 58 56 0
27.720000 26.180000 0.990000 136 60 57 0
27.940000 26.180000 1.650000 136 60 57 0
28.160000 26.180000 1.650000 137 57 55 0
28.380000 26.180000 1.650000 137 57 55 0
28.600000 26.180000 0.990000 136 56 54 0
28.820000 26.180000 1.650000 137 57 55 0
29.040000 26.180000 0.880000 134 55 53 0
29.260000 26.180000 3.740000 134 55 53 0
29.480000 26.180000 10.010000 132 53 51 0
29.700000 26.180000 13.420000 134 55 53 0
29.920000 26.180000 16.940000 136 57 55 0
30.140000 26.180000 18.260000 137 58 56 0
30.360000 26.180000 16.170000 135 60 59 0
30.580000 26.180000 13.530000 137 62 61 0
30.800000 26.180000 10.780000 136 66 63 0
31.020000 26.180000 9.350000 138 68 65 0
31.240000 26.180000 8.580000 139 71 67 0
31.460000 26.180000 7.150000 139 71 67 0
31.680000 26.180000 6.490000 141 73 69 0
31.900000 26.180000 6.380000 140 72 68 0
32.120000 26.180000 5.720000 141 71 68 0
32.340000 26.180000 5.060000 140 70 67 0
32.560000 26.180000 4.290000 139 69 66 0
32.780000 26.180000 3.630000 140 70 67 0
33.000000 26.180000 2.970000 139 69 66 0
33.220000 26.180000 2.200000 137 67 64 0
33.440000 26.180000 1.540000 138 68 65 0
33.660000 26.180000 1.540000 137 67 64 0
33.880000 26.180000 0.880000 137 69 65 0
34.100000 26.180000 0.330000 137 69 65 0
34.540000 26.180000 0.220000 136 68 64 0
34.760000 26.180000 0.220000 136 70 66 0
34.980000 26.180000 0.220000 136 70 66 0
35.200000 26.180000 0.880000 138 70 66 0
35.420000 26.180000 0.770000 139 71 67 0
35.640000 26.180000 1.430000 138 72 68 0
35.860000 26.180000 0.770000 139 73 69 0
36.080000 26.180000 3.630000 139 73 69 0
36.300000 26.180000 5.610000 140 74 70 0
36.520000 26.180000 4.180000 140 74 70 0
36.740000 26.180000 2.860000 141 75 71 0
36.960000 26.180000 1.650000 139 73 69 0
37.180000 26.180000 0.330000 140 74 70 0
0.000000 26.400000 16.060000 138 75 61 0
0.220000 26.400000 15.290000 139 76 62 0
0.440000 26.400000 15.400000 139 76 62 0
0.660000 26.400000 15.400000 140 77 63 0
0.880000 26.400000 16.060000 139 76 62 0
1.100000 26.400000 16.060000 140 77 63 0
1.320000 26.400000 16.060000 141 77 63 0
1.540000 26.400000 16.060000 141 77 63 0
1.760000 26.400000 16.060000 140 77 63 0
1.980000 26.400000 16.060000 141 78 64 0
2.200000 26.400000 16.060000 141 78 64 0
2.420000 26.400000 16.060000 142 79 65 0
2.640000 26.400000 16.060000 142 79 65 0
2.860000 26.400000 16.060000 142 79 65 0
3.080000 26.400000 16.060000 144 79 68 0
3.300000 26.400000 16.060000 144 79 68 0
3.520000 26.400000 16.060000 144 81 67 0
3.740000 26.400000 16.060000 143 80 66 0
3.960000 26.400000 16.060000 144 81 69 0
4.180000 26.400000 16.060000 144 81 69 0
4.400000 26.400000 16.060000 145 82 70 0
4.620000 26.400000 16.060000 145 82 70 0
4.840000 26.400000 16.060000 145 82 70 0
5.060000 26.400000 16.060000 146 83 71 0
5.280000 26.400000 16.060000 146 83 71 0
5.500000 26.400000 16.060000 146 83 71 0
5.720000 26.400000 16.060000 146 83 71 0
5.940000 26.400000 16.060000 147 84 72 0
6.160000 26.400000 16.060000 146 83 71 0
6.380000 26.400000 16.060000 147 84 72 0
6.600000 26.400000 16.170000 147 84 72 0
6.820000 26.400000 16.170000 147 84 72 0
7.040000 26.400000 16.170000 147 84 72 0
7.260000 26.400000 16.170000 147 84 72 0
7.480000 26.400000 16.170000 147 84 72 0
7.700000 26.400000 16.170000 148 85 73 0
7.920000 26.400000 16.170000 147 86 76 0
8.140000 26.400000 16.170000 147 86 76 0
8.360000 26.400000 16.170000 150 87 77 0
8.580000 26.400000 16.170000 150 87 77 0
8.800000 26.400000 16.170000 149 88 78 0
9.020000 26.400000 16.170000 149 88 78 0
9.240000 26.400000 16.940000 150 89 81 0
9.460000 26.400000 16.940000 151 90 82 0
9.680000 26.400000 16.940000 151 90 80 0
9.900000 26.400000 16.940000 152 91 81 0
10.120000 26.400000 16.940000 153 92 82 0
10.340000 26.400000 16.940000 152 91 81 0
10.560000 26.400000 17.600000 152 91 83 0
10.780000 26.400000 17.600000 153 92 84 0
11.000000 26.400000 18.260000 151 93 86 0
11.220000 26.400000 18.260000 154 96 89 0
11.440000 26.400000 18.260000 156 97 88 0
11.660000 26.400000 19.030000 155 96 87 0
11.880000 26.400000 19.030000 155 96 87 0
12.100000 26.400000 19.030000 155 96 87 0
12.320000 26.400000 19.030000 153 94 85 0
12.540000 26.400000 19.030000 152 93 84 0
12.760000 26.400000 19.030000 150 91 82 0
12.980000 26.400000 19.030000 148 89 80 0
13.200000 26.400000 19.030000 146 85 77 0
13.420000 26.400000 19.030000 143 82 74 0
13.640000 26.400000 19.030000 144 76 68 0
13.860000 26.400000 19.030000 142 74 66 0
14.080000 26.400000 19.030000 143 69 63 0
14.300000 26.400000 19.030000 141 67 61 0
14.520000 26.400000 19.030000 141 65 62 0
14.740000 26.400000 19.030000 139 63 60 0
14.960000 26.400000 19.030000 141 62 60 0
15.180000 26.400000 19.030000 138 59 57 0
15.400000 26.400000 19.030000 139 59 55 0
15.620000 26.400000 19.030000 137 57 53 0
15.840000 26.400000 19.030000 137 57 53 0
16.060000 26.400000 19.030000 136 56 52 0
16.280000 26.400000 19.030000 137 55 52 0
16.500000 26.400000 18.370000 137 55 52 0
16.720000 26.400000 18.370000 136 54 51 0
16.940000 26.400000 18.370000 136 54 51 0
17.160000 26.400000 19.030000 135 53 50 0
17.380000 26.400000 19.030000 134 52 49 0
17.600000 26.400000 19.030000 137 53 50 0
17.820000 26.400000 19.030000 136 52 49 0
18.040000 26.400000 18.370000 137 53 50 0
18.260000 26.400000 18.370000 136 52 49 0
18.480000 26.400000 18.370000 137 53 50 0
18.700000 26.400000 18.370000 135 51 48 0
18.920000 26.400000 18.370000 135 51 48 0
19.140000 26.400000 19.030000 136 52 49 0
19.360000 26.400000 18.370000 135 51 48 0
19.580000 26.400000 18.370000 135 51 48 0
19.800000 26.400000 19.030000 136 49 50 0
20.020000 26.400000 18.370000 135 48 49 0
20.240000 26.400000 18.370000 135 49 47 0
20.460000 26.400000 18.370000 135 49 47 0
20.680000 26.400000 18.370000 134 48 46 0
20.900000 26.400000 18.370000 134 48 46 0
21.120000 26.400000 18.370000 135 50 50 0
21.340000 26.400000 18.370000 133 48 48 0
21.560000 26.400000 18.370000 134 47 48 0
21.780000 26.400000 19.140000 136 49 50 0
22.000000 26.400000 18.370000 136 50 48 0
22.220000 26.400000 18.370000 135 49 47 0
22.440000 26.400000 18.370000 136 49 50 0
22.660000 26.400000 18.370000 134 47 48 0
22.880000 26.400000 18.370000 135 50 50 0
23.100000 26.400000 18.920000 136 51 51 0
23.320000 26.400000 18.920000 135 50 50 0
23.540000 26.400000 19.030000 136 51 51 0
23.760000 26.400000 19.030000 136 51 51 0
23.980000 26.400000 18.370000 136 51 51 0
24.200000 26.400000 18.370000 137 52 52 0
24.420000 26.400000 18.370000 136 51 51 0
24.640000 26.400000 18.370000 136 51 51 0
24.860000 26.400000 19.030000 134 49 49 0
25.080000 26.400000 18.920000 135 50 50 0
25.300000 26.400000 18.920000 135 50 50 0
25.520000 26.400000 18.920000 136 51 51 0
25.740000 26.400000 19.580000 136 51 51 0
25.960000 26.400000 19.580000 135 53 54 0
26.180000 26.400000 20.240000 135 53 54 0
26.400000 26.400000 18.150000 136 54 53 0
26.620000 26.400000 11.220000 136 54 53 0
26.840000 26.400000 7.810000 135 55 53 0
27.060000 26.400000 6.490000 136 56 54 0
27.280000 26.400000 2.970000 137 58 56 0
27.500000 26.400000 0.220000 137 58 56 0
27.720000 26.400000 0.990000 134 58 55 0
27.940000 26.400000 0.990000 134 58 55 0
28.160000 26.400000 0.880000 137 57 55 0
28.380000 26.400000 1.650000 137 57 55 0
28.600000 26.400000 1.650000 136 56 54 0
28.820000 26.400000 1.650000 136 56 54 0
29.040000 26.400000 1.650000 134 55 53 0
29.260000 26.400000 4.510000 135 56 54 0
29.480000 26.400000 9.460000 134 55 53 0
29.700000 26.400000 14.190000 135 56 54 0
29.920000 26.400000 17.710000 136 57 55 0
30.140000 26.400000 17.050000 137 58 56 0
30.360000 26.400000 14.190000 135 60 59 0
30.580000 26.400000 11.330000 138 63 62 0
30.800000 26.400000 9.350000 137 67 64 0
31.020000 26.400000 8.580000 139 69 66 0
31.240000 26.400000 7.150000 139 71 67 0
31.460000 26.400000 7.040000 140 72 68 0
31.680000 26.400000 6.380000 141 73 69 0
31.900000 26.400000 6.380000 141 73 69 0
32.120000 26.400000 5.720000 141 71 68 0
32.340000 26.400000 5.060000 140 70 67 0
32.560000 26.400000 4.290000 139 69 66 0
32.780000 26.400000 3.630000 139 69 66 0
33.000000 26.400000 2.200000 139 69 66 0
33.220000 26.400000 2.200000 137 67 64 0
33.440000 26.400000 1.430000 136 66 63 0
33.660000 26.400000 1.540000 137 67 64 0
33.880000 26.400000 0.990000 135 67 63 0
34.540000 26.400000 0.330000 137 69 65 0
34.760000 26.400000 0.330000 135 69 65 0
34.980000 26.400000 0.440000 135 69 65 0
35.200000 26.400000 0.440000 139 71 67 0
35.420000 26.400000 0.990000 138 70 66 0
35.640000 26.400000 0.880000 136 70 66 0
35.860000 26.400000 0.880000 137 71 67 0
36.080000 26.400000 1.650000 138 72 68 0
36.300000 26.400000 2.200000 139 73 69 0
36.520000 26.400000 3.630000 141 75 71 0
36.740000 26.400000 5.060000 140 74 70 0
36.960000 26.400000 2.530000 139 73 69 0
0.000000 26.620000 16.060000 138 75 61 0
0.220000 26.620000 15.290000 139 76 62 0
0.440000 26.620000 15.290000 139 76 62 0
0.660000 26.620000 16.060000 139 76 62 0
0.880000 26.620000 16.060000 140 76 62 0
1.100000 26.620000 16.060000 141 77 63 0
1.320000 26.620000 16.060000 140 77 63 0
1.540000 26.620000 16.060000 140 77 63 0
1.760000 26.620000 16.060000 142 79 67 0
1.980000 26.620000 16.060000 142 79 67 0
2.200000 26.620000 16.060000 142 79 67 0
2.420000 26.620000 16.060000 142 79 67 0
2.640000 26.620000 16.060000 142 79 65 0
2.860000 26.620000 16.060000 143 80 66 0
3.080000 26.620000 16.060000 143 80 66 0
3.300000 26.620000 16.060000 143 80 66 0
3.520000 26.620000 16.060000 143 80 68 0
3.740000 26.620000 16.060000 144 81 69 0
3.960000 26.620000 16.060000 144 81 69 0
4.180000 26.620000 16.060000 144 81 69 0
4.400000 26.620000 16.060000 144 81 69 0
4.620000 26.620000 16.060000 145 82 70 0
4.840000 26.620000 16.060000 145 82 70 0
5.060000 26.620000 16.060000 145 82 70 0
5.280000 26.620000 16.060000 146 83 71 0
5.500000 26.620000 16.060000 145 82 70 0
5.720000 26.620000 16.060000 146 83 71 0
5.940000 26.620000 16.060000 146 83 71 0
6.160000 26.620000 16.060000 146 83 71 0
6.380000 26.620000 16.060000 146 83 71 0
6.600000 26.620000 16.170000 147 84 72 0
6.820000 26.620000 16.170000 148 85 73 0
7.040000 26.620000 16.170000 145 84 74 0
7.260000 26.620000 16.170000 145 84 74 0
7.480000 26.620000 16.170000 148 85 75 0
7.700000 26.620000 16.170000 148 85 75 0
7.920000 26.620000 16.170000 146 86 73 0
8.140000 26.620000 16.170000 146 86 73 0
8.360000 26.620000 16.170000 147 86 76 0
8.580000 26.620000 16.170000 148 87 77 0
8.800000 26.620000 16.170000 149 88 78 0
9.020000 26.620000 16.170000 148 87 77 0
9.240000 26.620000 16.940000 150 89 79 0
9.460000 26.620000 16.940000 150 89 79 0
9.680000 26.620000 16.940000 152 91 81 0
9.900000 26.620000 16.940000 152 91 81 0
10.120000 26.620000 16.940000 153 92 84 0
10.340000 26.620000 16.940000 153 92 84 0
10.560000 26.620000 17.600000 152 91 81 0
10.780000 26.620000 17.600000 153 92 82 0
11.000000 26.620000 18.260000 152 93 84 0
11.220000 26.620000 18.260000 155 96 87 0
11.440000 26.620000 18.260000 155 96 87 0
11.660000 26.620000 18.260000 156 97 88 0
11.880000 26.620000 19.030000 155 96 87 0
12.100000 26.620000 19.030000 153 94 85 0
12.320000 26.620000 19.030000 153 92 84 0
12.540000 26.620000 19.030000 153 92 84 0
12.760000 26.620000 19.030000 150 89 81 0
12.980000 26.620000 19.030000 149 88 80 0
13.200000 26.620000 19.030000 148 85 75 0
13.420000 26.620000 19.030000 144 81 71 0
13.640000 26.620000 19.030000 144 74 69 0
13.860000 26.620000 19.030000 141 71 66 0
14.080000 26.620000 19.030000 141 69 65 0
14.300000 26.620000 19.030000 139 67 63 0
14.520000 26.620000 19.030000 140 64 59 0
14.740000 26.620000 19.030000 139 63 58 0
14.960000 26.620000 19.030000 138 63 55 0
15.180000 26.620000 19.030000 136 61 53 0
15.400000 26.620000 18.370000 137 59 52 0
15.620000 26.620000 18.370000 136 58 51 0
15.840000 26.620000 19.030000 137 57 53 0
16.060000 26.620000 19.030000 137 57 53 0
16.280000 26.620000 18.370000 138 56 53 0
16.500000 26.620000 18.370000 138 56 53 0
16.720000 26.620000 18.370000 136 55 49 0
16.940000 26.620000 18.370000 135 54 48 0
17.160000 26.620000 19.030000 134 53 47 0
17.380000 26.620000 19.030000 134 53 47 0
17.600000 26.620000 19.030000 135 53 50 0
17.820000 26.620000 18.370000 134 52 49 0
18.040000 26.620000 18.370000 135 51 48 0
18.260000 26.620000 18.370000 135 51 48 0
18.480000 26.620000 18.370000 135 51 46 0
18.700000 26.620000 18.370000 135 51 46 0
18.920000 26.620000 18.370000 137 51 49 0
19.140000 26.620000 18.370000 137 51 49 0
19.360000 26.620000 18.370000 136 52 49 0
19.580000 26.620000 18.370000 136 52 49 0
19.800000 26.620000 18.370000 136 52 49 0
20.020000 26.620000 18.370000 136 52 49 0
20.240000 26.620000 18.370000 135 49 47 0
20.460000 26.620000 18.370000 135 49 47 0
20.680000 26.620000 18.370000 135 48 49 0
20.900000 26.620000 18.370000 134 47 48 0
21.120000 26.620000 18.370000 137 48 49 0
21.340000 26.620000 18.370000 136 47 48 0
21.560000 26.620000 18.370000 135 49 47 0
21.780000 26.620000 19.030000 136 50 48 0
22.000000 26.620000 19.030000 134 48 46 0
22.220000 26.620000 19.030000 135 49 47 0
22.440000 26.620000 18.370000 136 49 50 0
22.660000 26.620000 18.480000 136 49 50 0
22.880000 26.620000 18.370000 136 49 50 0
23.100000 26.620000 18.920000 137 50 51 0
23.320000 26.620000 19.580000 136 52 49 0
23.540000 26.620000 19.580000 135 51 48 0
23.760000 26.620000 18.920000 135 49 47 0
23.980000 26.620000 19.030000 137 51 49 0
24.200000 26.620000 18.370000 136 51 51 0
24.420000 26.620000 18.370000 136 51 51 0
24.640000 26.620000 18.370000 137 50 51 0
24.860000 26.620000 19.030000 136 49 50 0
25.080000 26.620000 19.030000 134 49 49 0
25.300000 26.620000 19.030000 136 51 51 0
25.520000 26.620000 19.690000 133 51 50 0
25.740000 26.620000 19.580000 133 51 50 0
25.960000 26.620000 19.580000 133 53 51 0
26.180000 26.620000 18.810000 135 55 53 0
26.400000 26.620000 15.400000 136 57 57 0
26.620000 26.620000 8.580000 136 57 57 0
26.840000 26.620000 3.740000 136 56 54 0
27.060000 26.620000 2.420000 138 58 56 0
