ply
format ascii 1.0
element vertex 1113
property float x
property float y
property float z
property uchar red
property uchar green
property uchar blue
property uchar alpha
end_header
30.140000 29.480000 31.900000 136 72 67 0
30.360000 29.480000 32.120000 138 74 69 0
30.580000 29.480000 31.020000 138 74 69 0
30.800000 29.480000 30.800000 138 74 69 0
31.020000 29.480000 32.120000 135 71 66 0
31.240000 29.480000 32.340000 135 71 66 0
31.460000 29.480000 31.020000 137 73 68 0
31.680000 29.480000 32.120000 137 73 68 0
31.900000 29.480000 31.900000 139 73 70 0
32.120000 29.480000 32.120000 140 74 71 0
32.340000 29.480000 31.020000 138 74 70 0
32.560000 29.480000 32.340000 137 73 69 0
32.780000 29.480000 31.240000 138 74 70 0
33.000000 29.480000 31.020000 138 74 70 0
33.220000 29.480000 32.120000 139 73 70 0
33.440000 29.480000 32.120000 140 74 71 0
33.660000 29.480000 32.340000 141 75 72 0
33.880000 29.480000 31.240000 140 74 71 0
34.100000 29.480000 31.460000 141 75 72 0
34.320000 29.480000 31.460000 141 75 72 0
34.540000 29.480000 32.340000 141 75 72 0
34.760000 29.480000 32.340000 142 76 73 0
34.980000 29.480000 32.560000 142 76 73 0
35.200000 29.480000 32.340000 142 76 73 0
35.420000 29.480000 32.120000 142 76 73 0
35.640000 29.480000 32.560000 142 76 73 0
35.860000 29.480000 31.460000 142 76 73 0
36.080000 29.480000 31.240000 144 78 75 0
36.300000 29.480000 31.240000 146 80 77 0
36.520000 29.480000 32.560000 145 79 76 0
36.740000 29.480000 33.660000 145 79 78 0
36.960000 29.480000 33.660000 144 78 77 0
37.180000 29.480000 33.880000 145 79 78 0
0.000000 29.700000 22.880000 217 233 225 0
0.220000 29.700000 22.880000 217 233 225 0
0.440000 29.700000 22.880000 216 232 224 0
0.660000 29.700000 22.880000 216 232 224 0
0.880000 29.700000 22.880000 217 233 225 0
1.100000 29.700000 24.420000 217 233 225 0
1.320000 29.700000 24.420000 217 233 225 0
1.540000 29.700000 24.640000 217 233 225 0
1.760000 29.700000 24.640000 217 233 225 0
1.980000 29.700000 24.640000 217 233 225 0
2.200000 29.700000 24.640000 217 233 225 0
2.420000 29.700000 24.640000 217 233 225 0
2.640000 29.700000 24.860000 217 233 225 0
2.860000 29.700000 25.960000 217 233 225 0
3.080000 29.700000 27.940000 216 232 224 0
3.300000 29.700000 29.040000 216 232 224 0
3.520000 29.700000 29.260000 216 232 224 0
3.740000 29.700000 29.260000 216 232 224 0
3.960000 29.700000 29.260000 217 233 225 0
4.180000 29.700000 29.260000 216 232 224 0
4.400000 29.700000 29.260000 215 231 223 0
4.620000 29.700000 29.480000 215 231 225 0
4.840000 29.700000 30.800000 216 232 226 0
5.060000 29.700000 30.800000 215 231 225 0
5.280000 29.700000 31.020000 215 231 225 0
5.500000 29.700000 31.020000 215 231 225 0
5.720000 29.700000 31.020000 214 230 224 0
5.940000 29.700000 31.020000 215 231 225 0
6.160000 29.700000 31.240000 215 231 225 0
6.380000 29.700000 31.240000 215 231 223 0
6.600000 29.700000 31.240000 215 231 223 0
6.820000 29.700000 31.460000 216 230 225 0
7.040000 29.700000 31.460000 215 229 224 0
7.260000 29.700000 31.460000 215 229 224 0
7.480000 29.700000 33.000000 214 228 223 0
7.700000 29.700000 33.000000 213 227 222 0
7.920000 29.700000 33.000000 213 227 222 0
8.140000 29.700000 33.000000 212 226 221 0
8.360000 29.700000 33.000000 211 225 220 0
8.580000 29.700000 32.780000 210 224 219 0
8.800000 29.700000 34.980000 209 223 218 0
9.020000 29.700000 36.080000 207 221 217 0
9.240000 29.700000 36.080000 205 219 215 0
9.460000 29.700000 36.080000 206 217 214 0
9.680000 29.700000 36.080000 201 212 209 0
9.900000 29.700000 36.080000 200 208 206 0
10.120000 29.700000 36.080000 196 204 202 0
10.340000 29.700000 36.300000 193 197 191 0
10.560000 29.700000 36.300000 184 188 182 0
10.780000 29.700000 36.300000 181 176 168 0
11.000000 29.700000 36.300000 172 167 159 0
11.220000 29.700000 34.760000 167 154 141 0
11.440000 29.700000 34.760000 163 150 137 0
11.660000 29.700000 34.760000 159 140 129 0
11.880000 29.700000 34.760000 155 136 125 0
12.100000 29.700000 34.760000 152 131 121 0
12.320000 29.700000 33.440000 148 127 117 0
12.540000 29.700000 33.440000 147 122 112 0
12.760000 29.700000 33.440000 145 120 110 0
12.980000 29.700000 33.440000 143 118 108 0
13.200000 29.700000 33.440000 140 115 105 0
13.420000 29.700000 33.220000 140 115 105 0
13.640000 29.700000 33.220000 139 114 104 0
13.860000 29.700000 31.900000 138 114 101 0
14.080000 29.700000 31.900000 138 114 101 0
14.300000 29.700000 31.900000 138 114 101 0
14.520000 29.700000 31.900000 137 113 100 0
14.740000 29.700000 31.900000 137 112 102 0
14.960000 29.700000 31.900000 137 112 102 0
15.180000 29.700000 31.900000 137 112 102 0
15.400000 29.700000 31.900000 136 111 101 0
15.620000 29.700000 31.900000 136 112 99 0
15.840000 29.700000 31.900000 136 112 99 0
16.060000 29.700000 30.580000 136 112 99 0
16.280000 29.700000 30.580000 135 111 98 0
16.500000 29.700000 30.580000 135 110 100 0
16.720000 29.700000 30.580000 136 111 101 0
16.940000 29.700000 30.580000 134 111 100 0
17.160000 29.700000 30.580000 134 111 100 0
17.380000 29.700000 30.580000 135 111 98 0
17.600000 29.700000 30.580000 134 110 97 0
17.820000 29.700000 30.580000 135 111 98 0
18.040000 29.700000 30.580000 135 111 98 0
18.260000 29.700000 30.580000 135 110 100 0
18.480000 29.700000 30.580000 135 110 100 0
18.700000 29.700000 30.580000 135 110 100 0
18.920000 29.700000 30.580000 136 111 101 0
19.140000 29.700000 30.580000 136 112 99 0
19.360000 29.700000 30.580000 136 112 99 0
19.580000 29.700000 30.580000 136 112 99 0
19.800000 29.700000 30.580000 136 112 99 0
20.020000 29.700000 30.580000 137 112 102 0
20.240000 29.700000 30.580000 138 113 103 0
20.460000 29.700000 30.580000 136 113 102 0
20.680000 29.700000 30.580000 136 113 102 0
20.900000 29.700000 30.580000 138 113 103 0
21.120000 29.700000 30.580000 139 114 104 0
21.340000 29.700000 30.580000 139 114 104 0
21.560000 29.700000 30.580000 140 115 105 0
21.780000 29.700000 30.580000 140 115 105 0
22.000000 29.700000 30.580000 140 115 105 0
22.220000 29.700000 30.580000 138 113 103 0
22.440000 29.700000 30.580000 137 112 102 0
22.660000 29.700000 30.580000 138 111 99 0
22.880000 29.700000 30.580000 137 110 98 0
23.100000 29.700000 30.580000 136 105 95 0
23.320000 29.700000 30.580000 135 104 94 0
23.540000 29.700000 30.580000 136 101 92 0
23.760000 29.700000 30.580000 136 101 92 0
23.980000 29.700000 30.580000 137 98 90 0
24.200000 29.700000 30.580000 137 98 90 0
24.420000 29.700000 30.580000 135 97 89 0
24.640000 29.700000 30.580000 134 96 88 0
24.860000 29.700000 30.580000 133 94 86 0
25.080000 29.700000 30.580000 132 93 85 0
25.300000 29.700000 30.580000 132 91 82 0
25.520000 29.700000 30.580000 132 91 82 0
25.740000 29.700000 30.580000 133 89 81 0
25.960000 29.700000 30.580000 131 87 79 0
26.180000 29.700000 30.580000 130 86 80 0
26.400000 29.700000 30.580000 130 86 80 0
26.620000 29.700000 30.580000 134 83 77 0
26.840000 29.700000 30.580000 132 81 75 0
27.060000 29.700000 30.580000 136 78 71 0
27.280000 29.700000 31.900000 135 77 70 0
27.500000 29.700000 30.580000 135 75 70 0
27.720000 29.700000 30.800000 135 75 70 0
27.940000 29.700000 30.580000 134 74 68 0
28.160000 29.700000 31.900000 134 74 68 0
28.380000 29.700000 31.900000 135 74 68 0
28.600000 29.700000 30.800000 135 74 68 0
28.820000 29.700000 31.020000 134 73 67 0
29.040000 29.700000 31.240000 135 74 68 0
29.260000 29.700000 31.240000 135 73 69 0
29.480000 29.700000 31.020000 136 74 70 0
29.700000 29.700000 31.020000 135 74 68 0
29.920000 29.700000 32.120000 134 73 67 0
30.140000 29.700000 31.900000 134 73 67 0
30.360000 29.700000 31.900000 135 74 68 0
30.580000 29.700000 32.120000 135 74 68 0
30.800000 29.700000 31.900000 135 74 68 0
31.020000 29.700000 32.120000 138 74 70 0
31.240000 29.700000 32.340000 137 73 69 0
31.460000 29.700000 32.340000 137 73 68 0
31.680000 29.700000 32.340000 138 74 69 0
31.900000 29.700000 32.120000 137 73 69 0
32.120000 29.700000 32.120000 139 75 71 0
32.340000 29.700000 32.340000 139 75 71 0
32.560000 29.700000 32.120000 139 75 71 0
32.780000 29.700000 32.120000 140 74 71 0
33.000000 29.700000 32.120000 139 73 70 0
33.220000 29.700000 32.120000 140 74 71 0
33.440000 29.700000 32.560000 141 75 72 0
33.660000 29.700000 31.240000 140 76 72 0
33.880000 29.700000 31.240000 140 76 72 0
34.100000 29.700000 31.240000 141 75 72 0
34.320000 29.700000 32.560000 142 76 73 0
34.540000 29.700000 33.660000 143 77 76 0
34.760000 29.700000 33.660000 142 76 75 0
34.980000 29.700000 32.560000 142 76 73 0
35.200000 29.700000 32.340000 143 77 74 0
35.420000 29.700000 33.440000 142 76 73 0
35.640000 29.700000 32.560000 143 77 74 0
35.860000 29.700000 31.460000 143 77 74 0
36.080000 29.700000 31.460000 143 77 74 0
36.300000 29.700000 31.460000 145 79 78 0
36.520000 29.700000 31.460000 145 79 78 0
36.740000 29.700000 32.560000 145 79 78 0
36.960000 29.700000 32.780000 145 79 78 0
37.180000 29.700000 33.000000 146 80 77 0
0.000000 29.920000 22.880000 217 233 225 0
0.220000 29.920000 22.880000 218 234 226 0
0.440000 29.920000 22.880000 217 233 225 0
0.660000 29.920000 22.880000 217 233 225 0
0.880000 29.920000 22.880000 218 234 226 0
1.100000 29.920000 24.420000 218 234 226 0
1.320000 29.920000 24.420000 217 233 225 0
1.540000 29.920000 24.640000 217 233 225 0
1.760000 29.920000 24.640000 218 234 226 0
1.980000 29.920000 24.640000 217 233 225 0
2.200000 29.920000 24.640000 218 234 226 0
2.420000 29.920000 24.640000 218 234 226 0
2.640000 29.920000 26.180000 217 233 225 0
2.860000 29.920000 25.960000 217 233 225 0
3.080000 29.920000 27.940000 217 233 225 0
3.300000 29.920000 29.040000 217 233 225 0
3.520000 29.920000 29.260000 217 233 225 0
3.740000 29.920000 29.260000 217 233 225 0
3.960000 29.920000 29.260000 216 232 224 0
4.180000 29.920000 29.260000 217 233 225 0
4.400000 29.920000 29.260000 217 233 225 0
4.620000 29.920000 29.480000 216 232 226 0
4.840000 29.920000 30.800000 215 231 225 0
5.060000 29.920000 30.800000 216 232 226 0
5.280000 29.920000 31.020000 215 231 225 0
5.500000 29.920000 31.020000 215 231 225 0
5.720000 29.920000 31.020000 215 231 225 0
5.940000 29.920000 31.020000 215 231 225 0
6.160000 29.920000 31.240000 215 231 225 0
6.380000 29.920000 31.240000 215 231 223 0
6.600000 29.920000 31.240000 216 232 224 0
6.820000 29.920000 31.460000 216 230 225 0
7.040000 29.920000 31.460000 215 229 224 0
7.260000 29.920000 31.460000 215 229 224 0
7.480000 29.920000 33.000000 215 229 224 0
7.700000 29.920000 33.000000 214 228 223 0
7.920000 29.920000 33.000000 213 227 222 0
8.140000 29.920000 33.000000 212 226 221 0
8.360000 29.920000 33.000000 211 225 220 0
8.580000 29.920000 32.780000 211 225 220 0
8.800000 29.920000 34.980000 209 223 218 0
9.020000 29.920000 36.080000 208 222 218 0
9.240000 29.920000 36.080000 206 220 216 0
9.460000 29.920000 36.080000 207 218 215 0
9.680000 29.920000 36.080000 203 214 211 0
9.900000 29.920000 36.080000 201 209 207 0
10.120000 29.920000 36.300000 196 204 202 0
10.340000 29.920000 36.300000 194 198 192 0
10.560000 29.920000 36.300000 188 192 186 0
10.780000 29.920000 36.300000 184 179 171 0
11.000000 29.920000 36.300000 174 169 161 0
11.220000 29.920000 36.300000 169 156 143 0
11.440000 29.920000 34.760000 163 150 137 0
11.660000 29.920000 34.760000 162 143 132 0
11.880000 29.920000 34.760000 156 137 126 0
12.100000 29.920000 34.760000 152 131 121 0
12.320000 29.920000 34.760000 149 128 118 0
12.540000 29.920000 33.440000 148 123 113 0
12.760000 29.920000 33.440000 145 120 110 0
12.980000 29.920000 33.440000 143 118 108 0
13.200000 29.920000 33.440000 142 117 107 0
13.420000 29.920000 33.220000 139 114 104 0
13.640000 29.920000 33.220000 138 113 103 0
13.860000 29.920000 31.900000 138 114 101 0
14.080000 29.920000 31.900000 138 114 101 0
14.300000 29.920000 31.900000 138 114 101 0
14.520000 29.920000 31.900000 138 114 101 0
14.740000 29.920000 31.900000 137 112 102 0
14.960000 29.920000 31.900000 137 112 102 0
15.180000 29.920000 31.900000 136 111 101 0
15.400000 29.920000 31.900000 137 112 102 0
15.620000 29.920000 31.900000 137 113 100 0
15.840000 29.920000 31.900000 136 112 99 0
16.060000 29.920000 31.900000 136 112 99 0
16.280000 29.920000 30.580000 135 111 98 0
16.500000 29.920000 30.580000 135 110 100 0
16.720000 29.920000 30.580000 137 112 102 0
16.940000 29.920000 30.580000 134 111 100 0
17.160000 29.920000 30.580000 134 111 100 0
17.380000 29.920000 30.580000 135 111 98 0
17.600000 29.920000 30.580000 135 111 98 0
17.820000 29.920000 30.580000 135 111 98 0
18.040000 29.920000 30.580000 136 112 99 0
18.260000 29.920000 30.580000 136 111 101 0
18.480000 29.920000 30.580000 136 111 101 0
18.700000 29.920000 30.580000 135 110 100 0
18.920000 29.920000 30.580000 136 111 101 0
19.140000 29.920000 30.580000 137 113 100 0
19.360000 29.920000 30.580000 137 113 100 0
19.580000 29.920000 30.580000 137 113 100 0
19.800000 29.920000 30.580000 137 113 100 0
20.020000 29.920000 30.580000 138 113 103 0
20.240000 29.920000 30.580000 138 113 103 0
20.460000 29.920000 30.580000 137 114 103 0
20.680000 29.920000 30.580000 138 115 104 0
20.900000 29.920000 30.580000 138 113 103 0
21.120000 29.920000 30.580000 139 114 104 0
21.340000 29.920000 30.580000 140 115 105 0
21.560000 29.920000 31.900000 139 114 104 0
21.780000 29.920000 30.580000 140 115 105 0
22.000000 29.920000 30.580000 140 115 105 0
22.220000 29.920000 30.580000 140 115 105 0
22.440000 29.920000 30.580000 136 111 101 0
22.660000 29.920000 30.580000 139 112 100 0
22.880000 29.920000 30.580000 137 110 98 0
23.100000 29.920000 30.580000 137 106 96 0
23.320000 29.920000 30.580000 136 105 95 0
23.540000 29.920000 30.580000 137 102 93 0
23.760000 29.920000 30.580000 136 101 92 0
23.980000 29.920000 30.580000 138 99 91 0
24.200000 29.920000 30.580000 137 98 90 0
24.420000 29.920000 30.580000 135 97 89 0
24.640000 29.920000 30.580000 134 96 88 0
24.860000 29.920000 30.580000 134 95 87 0
25.080000 29.920000 30.580000 132 93 85 0
25.300000 29.920000 30.580000 133 92 83 0
25.520000 29.920000 30.580000 133 92 83 0
25.740000 29.920000 30.580000 133 89 81 0
25.960000 29.920000 30.580000 132 88 80 0
26.180000 29.920000 29.040000 131 87 81 0
26.400000 29.920000 30.580000 130 86 80 0
26.620000 29.920000 30.580000 134 83 77 0
26.840000 29.920000 30.360000 132 81 75 0
27.060000 29.920000 31.900000 136 78 71 0
27.280000 29.920000 30.580000 135 77 70 0
27.500000 29.920000 30.800000 136 76 71 0
27.720000 29.920000 30.800000 134 74 69 0
27.940000 29.920000 30.580000 134 74 68 0
28.160000 29.920000 31.900000 134 74 68 0
28.380000 29.920000 30.580000 135 74 68 0
28.600000 29.920000 30.800000 135 74 68 0
28.820000 29.920000 32.120000 135 74 68 0
29.040000 29.920000 32.120000 135 74 68 0
29.260000 29.920000 31.240000 135 73 69 0
29.480000 29.920000 31.240000 136 74 70 0
29.700000 29.920000 32.340000 135 74 68 0
29.920000 29.920000 31.900000 135 74 68 0
30.140000 29.920000 33.220000 135 74 68 0
30.360000 29.920000 33.220000 135 74 68 0
30.580000 29.920000 33.220000 136 75 69 0
30.800000 29.920000 33.220000 134 73 67 0
31.020000 29.920000 33.440000 138 74 70 0
31.240000 29.920000 33.440000 137 73 69 0
31.460000 29.920000 33.440000 138 74 69 0
31.680000 29.920000 32.120000 138 74 69 0
31.900000 29.920000 32.120000 138 74 70 0
32.120000 29.920000 32.340000 137 73 69 0
32.340000 29.920000 32.340000 138 74 70 0
32.560000 29.920000 33.440000 139 75 71 0
32.780000 29.920000 33.220000 141 75 72 0
33.000000 29.920000 33.220000 140 74 71 0
33.220000 29.920000 32.120000 140 74 71 0
33.440000 29.920000 32.560000 140 74 71 0
33.660000 29.920000 31.240000 140 76 72 0
33.880000 29.920000 31.460000 140 76 72 0
34.100000 29.920000 31.240000 141 75 72 0
34.320000 29.920000 32.340000 142 76 73 0
34.540000 29.920000 33.440000 141 75 74 0
34.760000 29.920000 33.660000 143 77 76 0
34.980000 29.920000 32.560000 142 76 73 0
35.200000 29.920000 33.660000 144 78 75 0
35.420000 29.920000 32.340000 144 78 75 0
35.640000 29.920000 32.780000 144 78 75 0
35.860000 29.920000 32.780000 142 76 73 0
36.080000 29.920000 32.560000 142 76 73 0
36.300000 29.920000 32.560000 144 78 77 0
36.520000 29.920000 32.780000 144 78 77 0
36.740000 29.920000 32.780000 144 78 77 0
36.960000 29.920000 32.780000 145 79 78 0
37.180000 29.920000 33.000000 146 80 77 0
0.000000 30.140000 22.880000 216 232 226 0
0.220000 30.140000 22.880000 217 231 226 0
0.440000 30.140000 22.880000 218 232 227 0
0.660000 30.140000 22.880000 217 231 226 0
0.880000 30.140000 22.880000 217 231 226 0
1.100000 30.140000 24.420000 216 230 225 0
1.320000 30.140000 24.420000 218 232 227 0
1.540000 30.140000 24.640000 216 232 226 0
1.760000 30.140000 24.640000 217 233 227 0
1.980000 30.140000 24.640000 217 231 226 0
2.200000 30.140000 24.640000 218 232 227 0
2.420000 30.140000 24.640000 218 232 227 0
2.640000 30.140000 26.180000 217 231 226 0
2.860000 30.140000 25.960000 216 230 225 0
3.080000 30.140000 27.940000 217 231 226 0
3.300000 30.140000 29.040000 216 230 225 0
3.520000 30.140000 29.260000 216 230 225 0
3.740000 30.140000 29.260000 216 230 225 0
3.960000 30.140000 29.260000 216 230 225 0
4.180000 30.140000 29.260000 216 230 225 0
4.400000 30.140000 29.260000 215 229 224 0
4.620000 30.140000 29.480000 216 230 225 0
4.840000 30.140000 30.800000 216 230 225 0
5.060000 30.140000 30.800000 215 229 224 0
5.280000 30.140000 31.020000 215 229 224 0
5.500000 30.140000 31.020000 216 230 225 0
5.720000 30.140000 31.020000 216 230 225 0
5.940000 30.140000 31.020000 216 230 225 0
6.160000 30.140000 31.240000 216 230 225 0
6.380000 30.140000 31.240000 216 230 225 0
6.600000 30.140000 31.240000 216 230 225 0
6.820000 30.140000 31.460000 215 229 224 0
7.040000 30.140000 31.460000 214 228 223 0
7.260000 30.140000 31.460000 214 228 223 0
7.480000 30.140000 33.000000 214 228 223 0
7.700000 30.140000 33.000000 214 228 223 0
7.920000 30.140000 33.000000 212 226 221 0
8.140000 30.140000 33.000000 212 226 222 0
8.360000 30.140000 33.000000 211 225 221 0
8.580000 30.140000 32.780000 210 224 219 0
8.800000 30.140000 34.980000 210 224 219 0
9.020000 30.140000 36.080000 209 221 216 0
9.240000 30.140000 36.080000 209 221 216 0
9.460000 30.140000 36.080000 207 218 215 0
9.680000 30.140000 36.080000 204 215 212 0
9.900000 30.140000 36.080000 201 209 206 0
10.120000 30.140000 36.300000 196 204 201 0
10.340000 30.140000 36.300000 196 198 190 0
10.560000 30.140000 36.300000 189 191 183 0
10.780000 30.140000 36.300000 188 180 173 0
11.000000 30.140000 36.300000 175 167 160 0
11.220000 30.140000 36.300000 172 157 147 0
11.440000 30.140000 36.300000 164 149 139 0
11.660000 30.140000 34.760000 161 140 132 0
11.880000 30.140000 34.760000 159 138 130 0
12.100000 30.140000 34.760000 154 131 121 0
12.320000 30.140000 34.760000 150 127 117 0
12.540000 30.140000 33.440000 149 124 114 0
12.760000 30.140000 33.440000 146 121 111 0
12.980000 30.140000 33.440000 144 119 109 0
13.200000 30.140000 33.440000 142 117 107 0
13.420000 30.140000 33.440000 140 115 105 0
13.640000 30.140000 33.440000 139 114 104 0
13.860000 30.140000 31.900000 139 114 104 0
14.080000 30.140000 31.900000 139 114 104 0
14.300000 30.140000 31.900000 140 115 105 0
14.520000 30.140000 31.900000 138 113 103 0
14.740000 30.140000 31.900000 137 112 102 0
14.960000 30.140000 31.900000 137 112 102 0
15.180000 30.140000 31.900000 138 114 101 0
15.400000 30.140000 31.900000 138 114 101 0
15.620000 30.140000 31.900000 137 112 102 0
15.840000 30.140000 31.900000 136 111 101 0
16.060000 30.140000 30.580000 137 112 102 0
16.280000 30.140000 30.580000 136 111 101 0
16.500000 30.140000 31.900000 136 111 101 0
16.720000 30.140000 31.900000 135 110 100 0
16.940000 30.140000 30.580000 135 110 100 0
17.160000 30.140000 30.580000 135 110 100 0
17.380000 30.140000 30.580000 135 110 100 0
17.600000 30.140000 31.900000 136 111 101 0
17.820000 30.140000 30.580000 136 111 101 0
18.040000 30.140000 30.580000 136 111 101 0
18.260000 30.140000 30.580000 135 110 100 0
18.480000 30.140000 30.580000 136 111 101 0
18.700000 30.140000 30.580000 135 111 98 0
18.920000 30.140000 30.580000 136 112 99 0
19.140000 30.140000 30.580000 137 112 102 0
19.360000 30.140000 30.580000 137 112 102 0
19.580000 30.140000 30.580000 138 113 103 0
19.800000 30.140000 30.580000 137 112 102 0
20.020000 30.140000 30.580000 139 114 104 0
20.240000 30.140000 30.580000 138 113 103 0
20.460000 30.140000 30.580000 139 114 104 0
20.680000 30.140000 31.900000 138 113 103 0
20.900000 30.140000 31.900000 139 114 104 0
21.120000 30.140000 31.900000 139 114 104 0
21.340000 30.140000 31.900000 139 116 105 0
21.560000 30.140000 31.900000 139 116 105 0
21.780000 30.140000 31.900000 139 114 104 0
22.000000 30.140000 31.900000 140 115 105 0
22.220000 30.140000 31.900000 139 114 104 0
22.440000 30.140000 31.900000 137 112 102 0
22.660000 30.140000 30.580000 138 110 101 0
22.880000 30.140000 30.580000 137 109 100 0
23.100000 30.140000 30.580000 136 107 98 0
23.320000 30.140000 30.580000 135 106 97 0
23.540000 30.140000 30.580000 137 104 94 0
23.760000 30.140000 30.580000 135 102 92 0
23.980000 30.140000 30.580000 137 99 91 0
24.200000 30.140000 30.580000 136 98 90 0
24.420000 30.140000 30.580000 137 98 88 0
24.640000 30.140000 30.580000 135 96 86 0
24.860000 30.140000 30.580000 134 95 87 0
25.080000 30.140000 30.580000 133 94 86 0
25.300000 30.140000 30.580000 132 91 84 0
25.520000 30.140000 30.580000 133 92 85 0
25.740000 30.140000 30.580000 131 90 81 0
25.960000 30.140000 30.580000 131 90 81 0
26.180000 30.140000 30.580000 132 88 80 0
26.400000 30.140000 30.580000 131 87 79 0
26.620000 30.140000 30.580000 133 83 77 0
26.840000 30.140000 30.580000 132 82 76 0
27.060000 30.140000 31.900000 136 78 71 0
27.280000 30.140000 30.580000 135 77 70 0
27.500000 30.140000 30.800000 134 76 69 0
27.720000 30.140000 30.800000 134 76 69 0
27.940000 30.140000 31.900000 134 74 69 0
28.160000 30.140000 31.900000 134 74 69 0
28.380000 30.140000 32.120000 134 72 68 0
28.600000 30.140000 32.120000 135 73 69 0
28.820000 30.140000 32.120000 135 74 68 0
29.040000 30.140000 32.120000 134 73 67 0
29.260000 30.140000 32.120000 134 73 67 0
29.480000 30.140000 32.120000 135 74 68 0
29.700000 30.140000 33.440000 136 74 70 0
29.920000 30.140000 33.220000 134 72 68 0
30.140000 30.140000 33.220000 137 73 69 0
30.360000 30.140000 33.220000 137 73 69 0
30.580000 30.140000 33.220000 136 75 69 0
30.800000 30.140000 33.220000 135 74 68 0
31.020000 30.140000 33.220000 135 73 69 0
31.240000 30.140000 33.220000 136 74 70 0
31.460000 30.140000 33.220000 138 74 70 0
31.680000 30.140000 33.440000 139 75 71 0
31.900000 30.140000 32.340000 138 74 70 0
32.120000 30.140000 31.240000 138 74 70 0
32.340000 30.140000 31.240000 138 74 69 0
32.560000 30.140000 32.120000 139 75 70 0
32.780000 30.140000 33.220000 140 74 71 0
33.000000 30.140000 33.440000 139 73 70 0
33.220000 30.140000 32.340000 139 75 71 0
33.440000 30.140000 32.560000 141 77 73 0
33.660000 30.140000 31.240000 141 75 72 0
33.880000 30.140000 31.460000 141 75 72 0
34.100000 30.140000 31.460000 141 75 72 0
34.320000 30.140000 32.780000 142 76 73 0
34.540000 30.140000 32.560000 142 76 73 0
34.760000 30.140000 32.560000 142 76 73 0
34.980000 30.140000 32.560000 143 77 74 0
35.200000 30.140000 33.660000 144 78 75 0
35.420000 30.140000 33.660000 142 76 73 0
35.640000 30.140000 32.780000 143 77 74 0
35.860000 30.140000 32.780000 143 77 74 0
36.080000 30.140000 33.880000 145 79 76 0
36.300000 30.140000 33.660000 144 78 75 0
36.520000 30.140000 33.880000 144 78 75 0
36.740000 30.140000 34.100000 144 78 77 0
36.960000 30.140000 33.880000 145 79 78 0
37.180000 30.140000 33.880000 145 79 76 0
0.000000 30.360000 22.880000 215 231 225 0
0.220000 30.360000 22.880000 216 230 225 0
0.440000 30.360000 22.880000 218 232 227 0
0.660000 30.360000 22.880000 218 232 227 0
0.880000 30.360000 24.420000 217 231 226 0
1.100000 30.360000 24.420000 217 231 226 0
1.320000 30.360000 24.420000 217 231 226 0
1.540000 30.360000 24.640000 216 232 226 0
1.760000 30.360000 24.640000 216 232 226 0
1.980000 30.360000 24.640000 218 232 227 0
2.200000 30.360000 24.640000 218 232 227 0
2.420000 30.360000 24.640000 217 231 226 0
2.640000 30.360000 26.180000 217 231 226 0
2.860000 30.360000 25.960000 217 231 226 0
3.080000 30.360000 27.940000 217 231 226 0
3.300000 30.360000 29.040000 217 231 226 0
3.520000 30.360000 29.260000 217 231 226 0
3.740000 30.360000 29.260000 216 230 225 0
3.960000 30.360000 29.260000 216 230 225 0
4.180000 30.360000 29.260000 216 230 225 0
4.400000 30.360000 29.260000 216 230 225 0
4.620000 30.360000 30.800000 215 229 224 0
4.840000 30.360000 30.800000 216 230 225 0
5.060000 30.360000 30.800000 215 229 224 0
5.280000 30.360000 31.020000 215 229 224 0
5.500000 30.360000 31.020000 216 230 225 0
5.720000 30.360000 31.020000 215 229 224 0
5.940000 30.360000 31.020000 216 230 225 0
6.160000 30.360000 31.240000 216 230 225 0
6.380000 30.360000 31.240000 215 229 224 0
6.600000 30.360000 31.240000 215 229 224 0
6.820000 30.360000 31.460000 215 229 224 0
7.040000 30.360000 31.460000 214 228 223 0
7.260000 30.360000 31.460000 214 228 223 0
7.480000 30.360000 33.000000 213 227 222 0
7.700000 30.360000 33.000000 214 228 223 0
7.920000 30.360000 33.000000 213 227 222 0
8.140000 30.360000 33.000000 212 226 222 0
8.360000 30.360000 33.000000 211 225 221 0
8.580000 30.360000 32.780000 210 224 219 0
8.800000 30.360000 34.980000 209 223 218 0
9.020000 30.360000 36.080000 209 221 216 0
9.240000 30.360000 36.080000 208 220 215 0
9.460000 30.360000 36.080000 206 217 214 0
9.680000 30.360000 36.080000 203 214 211 0
9.900000 30.360000 36.080000 202 210 207 0
10.120000 30.360000 36.300000 198 206 203 0
10.340000 30.360000 36.300000 198 200 192 0
10.560000 30.360000 36.300000 190 192 184 0
10.780000 30.360000 36.300000 188 180 173 0
11.000000 30.360000 36.300000 177 169 162 0
11.220000 30.360000 36.300000 175 160 150 0
11.440000 30.360000 36.300000 166 151 141 0
11.660000 30.360000 34.980000 164 143 135 0
11.880000 30.360000 34.760000 157 136 128 0
12.100000 30.360000 34.760000 156 133 123 0
12.320000 30.360000 34.760000 151 128 118 0
12.540000 30.360000 33.440000 149 124 114 0
12.760000 30.360000 33.440000 147 122 112 0
12.980000 30.360000 33.440000 145 120 110 0
13.200000 30.360000 33.440000 141 116 106 0
13.420000 30.360000 33.440000 139 114 104 0
13.640000 30.360000 33.440000 139 114 104 0
13.860000 30.360000 33.440000 139 114 104 0
14.080000 30.360000 31.900000 138 113 103 0
14.300000 30.360000 31.900000 139 114 104 0
14.520000 30.360000 31.900000 138 113 103 0
14.740000 30.360000 31.900000 139 114 104 0
14.960000 30.360000 31.900000 137 112 102 0
15.180000 30.360000 31.900000 138 114 101 0
15.400000 30.360000 31.900000 138 114 101 0
15.620000 30.360000 31.900000 137 112 102 0
15.840000 30.360000 31.900000 136 111 101 0
16.060000 30.360000 30.580000 136 111 101 0
16.280000 30.360000 30.580000 136 111 101 0
16.500000 30.360000 31.900000 136 111 101 0
16.720000 30.360000 31.900000 135 110 100 0
16.940000 30.360000 31.900000 136 111 101 0
17.160000 30.360000 31.900000 136 111 101 0
17.380000 30.360000 31.900000 136 111 101 0
17.600000 30.360000 31.900000 136 111 101 0
17.820000 30.360000 31.900000 136 111 101 0
18.040000 30.360000 30.580000 135 110 100 0
18.260000 30.360000 30.580000 135 110 100 0
18.480000 30.360000 30.580000 135 110 100 0
18.700000 30.360000 30.580000 135 111 98 0
18.920000 30.360000 30.580000 136 112 99 0
19.140000 30.360000 30.580000 136 111 101 0
19.360000 30.360000 30.580000 137 112 102 0
19.580000 30.360000 30.580000 137 112 102 0
19.800000 30.360000 30.580000 138 113 103 0
20.020000 30.360000 30.580000 138 113 103 0
20.240000 30.360000 30.580000 138 113 103 0
20.460000 30.360000 30.580000 138 113 103 0
20.680000 30.360000 31.900000 139 114 104 0
20.900000 30.360000 31.900000 140 115 105 0
21.120000 30.360000 31.900000 140 115 105 0
21.340000 30.360000 31.900000 139 116 105 0
21.560000 30.360000 31.900000 138 115 104 0
21.780000 30.360000 31.900000 140 115 105 0
22.000000 30.360000 31.900000 140 115 105 0
22.220000 30.360000 31.900000 139 114 104 0
22.440000 30.360000 31.900000 137 112 102 0
22.660000 30.360000 31.900000 138 110 101 0
22.880000 30.360000 30.580000 137 109 100 0
23.100000 30.360000 30.580000 136 107 98 0
23.320000 30.360000 30.580000 135 106 97 0
23.540000 30.360000 30.580000 137 104 94 0
23.760000 30.360000 31.900000 135 102 92 0
23.980000 30.360000 30.580000 138 100 92 0
24.200000 30.360000 31.900000 136 98 90 0
24.420000 30.360000 31.900000 136 97 87 0
24.640000 30.360000 31.900000 134 95 85 0
24.860000 30.360000 30.580000 133 94 86 0
25.080000 30.360000 30.580000 132 93 85 0
25.300000 30.360000 30.580000 133 92 85 0
25.520000 30.360000 30.580000 132 91 84 0
25.740000 30.360000 30.580000 132 91 82 0
25.960000 30.360000 30.580000 132 91 82 0
26.180000 30.360000 30.580000 132 88 80 0
26.400000 30.360000 30.580000 131 87 79 0
26.620000 30.360000 30.580000 134 84 78 0
26.840000 30.360000 30.580000 132 82 76 0
27.060000 30.360000 30.580000 137 79 72 0
27.280000 30.360000 30.580000 135 77 70 0
27.500000 30.360000 30.580000 135 77 70 0
27.720000 30.360000 31.900000 133 75 68 0
27.940000 30.360000 31.900000 134 74 69 0
28.160000 30.360000 31.900000 134 74 69 0
28.380000 30.360000 31.900000 134 72 68 0
28.600000 30.360000 32.120000 135 73 69 0
28.820000 30.360000 32.120000 134 73 67 0
29.040000 30.360000 32.340000 134 73 67 0
29.260000 30.360000 32.120000 135 74 68 0
29.480000 30.360000 33.440000 134 73 67 0
29.700000 30.360000 33.220000 135 73 69 0
29.920000 30.360000 33.220000 134 72 68 0
30.140000 30.360000 33.220000 137 73 69 0
30.360000 30.360000 33.220000 137 73 69 0
30.580000 30.360000 33.220000 135 74 68 0
30.800000 30.360000 33.440000 136 75 69 0
31.020000 30.360000 33.220000 135 73 69 0
31.240000 30.360000 33.220000 136 74 70 0
31.460000 30.360000 33.220000 138 74 70 0
31.680000 30.360000 33.220000 138 74 70 0
31.900000 30.360000 32.340000 138 74 70 0
32.120000 30.360000 31.460000 137 73 69 0
32.340000 30.360000 31.460000 137 73 68 0
32.560000 30.360000 32.340000 139 75 70 0
32.780000 30.360000 33.440000 140 74 71 0
33.000000 30.360000 33.440000 141 75 72 0
33.220000 30.360000 32.560000 139 75 71 0
33.440000 30.360000 32.780000 140 76 72 0
33.660000 30.360000 32.340000 141 75 72 0
33.880000 30.360000 32.340000 141 75 72 0
34.100000 30.360000 32.560000 142 76 73 0
34.320000 30.360000 32.780000 141 75 72 0
34.540000 30.360000 31.460000 142 76 73 0
34.760000 30.360000 32.780000 142 76 73 0
34.980000 30.360000 32.560000 142 76 73 0
35.200000 30.360000 33.660000 142 76 73 0
35.420000 30.360000 34.980000 142 76 73 0
35.640000 30.360000 33.660000 142 76 73 0
35.860000 30.360000 34.980000 143 77 74 0
36.080000 30.360000 34.760000 143 77 74 0
36.300000 30.360000 34.760000 145 79 76 0
36.520000 30.360000 33.660000 144 78 75 0
36.740000 30.360000 33.880000 143 77 76 0
36.960000 30.360000 33.880000 143 77 76 0
37.180000 30.360000 33.880000 144 78 75 0
0.000000 30.580000 22.880000 216 230 225 0
0.220000 30.580000 22.880000 217 231 226 0
0.440000 30.580000 22.880000 216 230 225 0
0.660000 30.580000 22.880000 217 231 226 0
0.880000 30.580000 24.420000 216 230 225 0
1.100000 30.580000 24.420000 216 230 225 0
1.320000 30.580000 24.420000 217 231 226 0
1.540000 30.580000 24.640000 217 231 226 0
1.760000 30.580000 24.640000 217 231 226 0
1.980000 30.580000 24.640000 216 230 225 0
2.200000 30.580000 24.640000 217 231 226 0
2.420000 30.580000 24.640000 216 230 225 0
2.640000 30.580000 26.180000 217 231 226 0
2.860000 30.580000 25.960000 216 230 225 0
3.080000 30.580000 27.940000 216 230 225 0
3.300000 30.580000 29.040000 216 230 225 0
3.520000 30.580000 29.260000 216 230 225 0
3.740000 30.580000 29.260000 216 230 225 0
3.960000 30.580000 29.260000 216 230 225 0
4.180000 30.580000 29.260000 215 229 224 0
4.400000 30.580000 29.260000 215 229 224 0
4.620000 30.580000 30.800000 216 230 225 0
4.840000 30.580000 30.800000 215 229 224 0
5.060000 30.580000 30.800000 215 229 224 0
5.280000 30.580000 31.020000 215 229 224 0
5.500000 30.580000 31.020000 216 230 225 0
5.720000 30.580000 31.020000 215 229 224 0
5.940000 30.580000 31.020000 215 229 224 0
6.160000 30.580000 31.240000 215 229 224 0
6.380000 30.580000 31.240000 215 229 224 0
6.600000 30.580000 31.240000 215 229 224 0
6.820000 30.580000 31.460000 217 229 224 0
7.040000 30.580000 31.460000 216 228 223 0
7.260000 30.580000 31.460000 213 227 222 0
7.480000 30.580000 33.000000 213 227 222 0
7.700000 30.580000 33.000000 212 226 221 0
7.920000 30.580000 33.000000 211 225 220 0
8.140000 30.580000 33.000000 211 225 220 0
8.360000 30.580000 33.000000 210 224 219 0
8.580000 30.580000 32.780000 211 223 218 0
8.800000 30.580000 34.980000 211 223 218 0
9.020000 30.580000 36.080000 210 221 218 0
9.240000 30.580000 36.080000 208 219 216 0
9.460000 30.580000 36.080000 206 216 213 0
9.680000 30.580000 36.080000 204 214 211 0
9.900000 30.580000 36.080000 202 210 207 0
10.120000 30.580000 36.300000 199 207 204 0
10.340000 30.580000 36.300000 196 200 196 0
10.560000 30.580000 36.300000 190 194 190 0
10.780000 30.580000 36.300000 187 183 177 0
11.000000 30.580000 36.300000 178 174 168 0
11.220000 30.580000 36.300000 177 162 150 0
11.440000 30.580000 36.300000 169 154 142 0
11.660000 30.580000 34.980000 164 145 136 0
11.880000 30.580000 34.980000 157 138 129 0
12.100000 30.580000 34.760000 156 133 123 0
12.320000 30.580000 34.760000 152 129 119 0
12.540000 30.580000 34.760000 150 125 115 0
12.760000 30.580000 33.440000 147 122 112 0
12.980000 30.580000 33.440000 144 119 109 0
13.200000 30.580000 33.440000 142 117 107 0
13.420000 30.580000 33.440000 141 116 106 0
13.640000 30.580000 33.440000 140 115 105 0
13.860000 30.580000 33.440000 140 116 103 0
14.080000 30.580000 31.900000 139 115 102 0
14.300000 30.580000 31.900000 139 114 104 0
14.520000 30.580000 31.900000 139 114 104 0
14.740000 30.580000 31.900000 138 113 103 0
14.960000 30.580000 31.900000 138 113 103 0
15.180000 30.580000 31.900000 138 113 103 0
15.400000 30.580000 31.900000 137 112 102 0
15.620000 30.580000 31.900000 137 113 100 0
15.840000 30.580000 31.900000 137 113 100 0
16.060000 30.580000 30.580000 136 111 101 0
16.280000 30.580000 30.580000 136 111 101 0
16.500000 30.580000 30.580000 136 111 101 0
16.720000 30.580000 31.900000 136 111 101 0
16.940000 30.580000 31.900000 136 111 101 0
17.160000 30.580000 31.900000 136 111 101 0
17.380000 30.580000 31.900000 135 110 100 0
17.600000 30.580000 31.900000 135 110 100 0
17.820000 30.580000 30.580000 135 110 100 0
18.040000 30.580000 30.580000 135 110 100 0
18.260000 30.580000 30.580000 135 110 100 0
18.480000 30.580000 30.580000 135 110 100 0
18.700000 30.580000 30.580000 136 111 101 0
18.920000 30.580000 30.580000 135 110 100 0
19.140000 30.580000 30.580000 136 111 101 0
19.360000 30.580000 30.580000 136 111 101 0
19.580000 30.580000 31.900000 137 112 102 0
19.800000 30.580000 31.900000 138 113 103 0
20.020000 30.580000 30.580000 136 113 102 0
20.240000 30.580000 30.580000 137 114 103 0
20.460000 30.580000 30.580000 137 112 102 0
20.680000 30.580000 31.900000 138 113 103 0
20.900000 30.580000 31.900000 138 115 104 0
21.120000 30.580000 31.900000 138 115 104 0
21.340000 30.580000 31.900000 138 115 104 0
21.560000 30.580000 31.900000 140 117 106 0
21.780000 30.580000 31.900000 139 116 105 0
22.000000 30.580000 31.900000 138 115 104 0
22.220000 30.580000 31.900000 139 114 104 0
22.440000 30.580000 31.900000 137 112 102 0
22.660000 30.580000 31.900000 136 111 101 0
22.880000 30.580000 30.580000 134 109 99 0
23.100000 30.580000 30.580000 136 107 96 0
23.320000 30.580000 30.580000 135 106 95 0
23.540000 30.580000 31.900000 136 103 93 0
23.760000 30.580000 31.900000 136 103 93 0
23.980000 30.580000 31.900000 135 100 91 0
24.200000 30.580000 31.900000 134 99 90 0
24.420000 30.580000 31.900000 136 97 89 0
24.640000 30.580000 31.900000 134 95 87 0
24.860000 30.580000 31.900000 133 95 87 0
25.080000 30.580000 30.580000 132 94 86 0
25.300000 30.580000 30.580000 133 92 85 0
25.520000 30.580000 30.580000 133 92 85 0
25.740000 30.580000 30.580000 133 92 85 0
25.960000 30.580000 30.580000 131 90 83 0
26.180000 30.580000 30.580000 134 88 83 0
26.400000 30.580000 30.580000 133 87 82 0
26.620000 30.580000 30.580000 132 84 77 0
26.840000 30.580000 30.580000 132 84 77 0
27.060000 30.580000 30.580000 134 80 75 0
27.280000 30.580000 30.580000 133 79 74 0
27.500000 30.580000 31.900000 136 76 70 0
27.720000 30.580000 31.900000 134 74 68 0
27.940000 30.580000 31.900000 134 74 69 0
28.160000 30.580000 31.900000 135 75 70 0
28.380000 30.580000 31.900000 136 74 70 0
28.600000 30.580000 33.220000 135 73 69 0
28.820000 30.580000 33.220000 135 74 68 0
29.040000 30.580000 32.120000 135 74 68 0
29.260000 30.580000 32.340000 134 73 67 0
29.480000 30.580000 32.340000 134 73 67 0
29.700000 30.580000 33.440000 135 73 69 0
29.920000 30.580000 33.220000 135 73 69 0
30.140000 30.580000 33.220000 135 73 69 0
30.360000 30.580000 33.220000 134 72 68 0
30.580000 30.580000 33.440000 135 73 69 0
30.800000 30.580000 33.660000 136 74 70 0
31.020000 30.580000 33.440000 138 74 70 0
31.240000 30.580000 33.220000 137 73 69 0
31.460000 30.580000 33.220000 138 74 70 0
31.680000 30.580000 33.220000 138 74 70 0
31.900000 30.580000 33.440000 138 74 70 0
32.120000 30.580000 32.560000 137 73 69 0
32.340000 30.580000 32.340000 137 73 69 0
32.560000 30.580000 33.440000 138 74 70 0
32.780000 30.580000 33.220000 141 75 72 0
33.000000 30.580000 33.440000 141 75 72 0
33.220000 30.580000 33.880000 141 75 72 0
33.440000 30.580000 33.880000 140 74 71 0
33.660000 30.580000 33.440000 141 75 72 0
33.880000 30.580000 34.760000 141 75 72 0
34.100000 30.580000 34.760000 141 75 72 0
34.320000 30.580000 33.660000 141 75 72 0
34.540000 30.580000 32.560000 142 76 75 0
34.760000 30.580000 32.560000 142 76 75 0
34.980000 30.580000 33.660000 142 76 73 0
35.200000 30.580000 34.980000 142 76 73 0
35.420000 30.580000 34.760000 142 76 73 0
35.640000 30.580000 34.760000 141 75 72 0
35.860000 30.580000 36.080000 143 77 76 0
36.080000 30.580000 36.080000 144 78 77 0
36.300000 30.580000 34.760000 144 78 77 0
36.520000 30.580000 34.980000 144 78 77 0
36.740000 30.580000 35.200000 144 78 77 0
36.960000 30.580000 34.980000 144 78 77 0
37.180000 30.580000 34.980000 145 79 76 0
0.000000 30.800000 22.880000 216 230 225 0
0.220000 30.800000 22.880000 216 230 225 0
0.440000 30.800000 22.880000 216 230 225 0
0.660000 30.800000 22.880000 215 229 224 0
0.880000 30.800000 24.420000 216 230 225 0
1.100000 30.800000 24.420000 215 229 224 0
1.320000 30.800000 24.420000 215 229 224 0
1.540000 30.800000 24.640000 216 230 225 0
1.760000 30.800000 24.640000 216 230 225 0
1.980000 30.800000 24.640000 216 230 225 0
2.200000 30.800000 24.640000 215 229 224 0
2.420000 30.800000 24.640000 216 230 225 0
2.640000 30.800000 26.180000 216 230 225 0
2.860000 30.800000 25.960000 216 230 225 0
3.080000 30.800000 27.940000 216 230 225 0
3.300000 30.800000 29.040000 215 229 224 0
3.520000 30.800000 29.260000 216 230 225 0
3.740000 30.800000 29.260000 215 229 224 0
3.960000 30.800000 29.260000 215 229 224 0
4.180000 30.800000 29.260000 215 229 224 0
4.400000 30.800000 29.260000 215 229 224 0
4.620000 30.800000 29.480000 215 229 224 0
4.840000 30.800000 30.800000 214 228 223 0
5.060000 30.800000 30.800000 214 228 223 0
5.280000 30.800000 31.020000 215 229 224 0
5.500000 30.800000 31.020000 215 229 224 0
5.720000 30.800000 31.020000 215 229 224 0
5.940000 30.800000 31.020000 214 228 223 0
6.160000 30.800000 31.240000 214 228 223 0
6.380000 30.800000 31.240000 214 228 223 0
6.600000 30.800000 31.240000 215 229 224 0
6.820000 30.800000 31.460000 216 228 223 0
7.040000 30.800000 31.460000 215 227 222 0
7.260000 30.800000 31.460000 212 226 221 0
7.480000 30.800000 31.460000 212 226 221 0
7.700000 30.800000 33.000000 211 225 220 0
7.920000 30.800000 33.000000 212 226 221 0
8.140000 30.800000 33.000000 211 225 220 0
8.360000 30.800000 33.000000 210 224 219 0
8.580000 30.800000 34.100000 211 223 218 0
8.800000 30.800000 34.980000 210 222 217 0
9.020000 30.800000 36.080000 210 221 218 0
9.240000 30.800000 36.080000 208 219 216 0
9.460000 30.800000 36.080000 207 217 214 0
9.680000 30.800000 36.080000 205 215 212 0
9.900000 30.800000 36.080000 203 211 208 0
10.120000 30.800000 36.300000 199 207 204 0
10.340000 30.800000 36.300000 197 201 197 0
10.560000 30.800000 36.300000 192 196 192 0
10.780000 30.800000 36.300000 188 184 178 0
11.000000 30.800000 36.300000 179 175 169 0
11.220000 30.800000 36.300000 177 162 150 0
11.440000 30.800000 36.300000 170 155 143 0
11.660000 30.800000 36.300000 165 146 137 0
11.880000 30.800000 34.980000 159 140 131 0
12.100000 30.800000 34.980000 157 134 124 0
12.320000 30.800000 34.760000 152 129 119 0
12.540000 30.800000 34.760000 150 125 115 0
12.760000 30.800000 33.440000 148 123 113 0
12.980000 30.800000 33.440000 145 120 110 0
13.200000 30.800000 33.440000 143 118 108 0
13.420000 30.800000 33.440000 141 116 106 0
13.640000 30.800000 33.440000 141 116 106 0
13.860000 30.800000 33.440000 140 116 103 0
14.080000 30.800000 33.440000 140 116 103 0
14.300000 30.800000 31.900000 139 114 104 0
14.520000 30.800000 31.900000 138 113 103 0
14.740000 30.800000 31.900000 139 114 104 0
14.960000 30.800000 31.900000 137 112 102 0
15.180000 30.800000 31.900000 137 112 102 0
15.400000 30.800000 31.900000 137 112 102 0
15.620000 30.800000 31.900000 137 113 100 0
15.840000 30.800000 31.900000 137 113 100 0
16.060000 30.800000 31.900000 137 112 102 0
16.280000 30.800000 31.900000 137 112 102 0
16.500000 30.800000 30.580000 136 111 101 0
16.720000 30.800000 31.900000 136 111 101 0
16.940000 30.800000 31.900000 136 111 101 0
17.160000 30.800000 31.900000 135 110 100 0
17.380000 30.800000 31.900000 136 111 101 0
17.600000 30.800000 31.900000 136 111 101 0
17.820000 30.800000 31.900000 136 111 101 0
18.040000 30.800000 30.580000 135 110 100 0
18.260000 30.800000 30.580000 136 111 101 0
18.480000 30.800000 30.580000 136 111 101 0
18.700000 30.800000 30.580000 136 111 101 0
18.920000 30.800000 30.580000 136 111 101 0
19.140000 30.800000 30.580000 136 111 101 0
19.360000 30.800000 31.900000 137 112 102 0
19.580000 30.800000 31.900000 137 112 102 0
19.800000 30.800000 31.900000 137 112 102 0
20.020000 30.800000 30.580000 138 115 104 0
20.240000 30.800000 30.580000 137 114 103 0
20.460000 30.800000 30.580000 138 113 103 0
20.680000 30.800000 30.580000 137 112 102 0
20.900000 30.800000 31.900000 138 115 104 0
21.120000 30.800000 31.900000 138 115 104 0
21.340000 30.800000 31.900000 139 116 105 0
21.560000 30.800000 31.900000 139 116 105 0
21.780000 30.800000 31.900000 139 116 105 0
22.000000 30.800000 31.900000 139 116 105 0
22.220000 30.800000 31.900000 139 114 104 0
22.440000 30.800000 31.900000 138 113 103 0
22.660000 30.800000 30.580000 137 112 102 0
22.880000 30.800000 30.580000 136 111 101 0
23.100000 30.800000 30.580000 136 107 96 0
23.320000 30.800000 31.900000 135 106 95 0
23.540000 30.800000 31.900000 137 104 94 0
23.760000 30.800000 31.900000 136 103 93 0
23.980000 30.800000 31.900000 136 101 92 0
24.200000 30.800000 31.900000 135 100 91 0
24.420000 30.800000 31.900000 137 98 90 0
24.640000 30.800000 31.900000 135 96 88 0
24.860000 30.800000 31.900000 133 95 87 0
25.080000 30.800000 30.580000 132 94 86 0
25.300000 30.800000 30.580000 134 93 86 0
25.520000 30.800000 31.900000 133 92 85 0
25.740000 30.800000 30.580000 133 92 85 0
25.960000 30.800000 30.580000 133 92 85 0
26.180000 30.800000 30.580000 135 89 84 0
26.400000 30.800000 30.580000 132 86 81 0
26.620000 30.800000 30.580000 134 86 79 0
26.840000 30.800000 30.580000 133 85 78 0
27.060000 30.800000 30.580000 135 81 76 0
27.280000 30.800000 30.580000 134 80 75 0
27.500000 30.800000 30.580000 136 76 70 0
27.720000 30.800000 30.800000 136 76 70 0
27.940000 30.800000 32.120000 135 75 70 0
28.160000 30.800000 31.900000 134 74 69 0
28.380000 30.800000 31.900000 135 73 69 0
28.600000 30.800000 33.220000 134 72 68 0
28.820000 30.800000 33.220000 134 73 67 0
29.040000 30.800000 33.440000 134 73 67 0
29.260000 30.800000 33.440000 135 74 68 0
29.480000 30.800000 33.440000 136 75 69 0
29.700000 30.800000 33.440000 133 71 67 0
29.920000 30.800000 33.220000 134 72 68 0
30.140000 30.800000 33.220000 135 73 69 0
30.360000 30.800000 33.220000 134 72 68 0
30.580000 30.800000 33.220000 135 73 69 0
30.800000 30.800000 33.440000 136 74 70 0
31.020000 30.800000 33.220000 137 73 69 0
31.240000 30.800000 33.220000 137 73 69 0
31.460000 30.800000 33.220000 138 74 70 0
31.680000 30.800000 33.220000 138 74 70 0
31.900000 30.800000 33.660000 138 74 70 0
32.120000 30.800000 32.340000 137 73 69 0
32.340000 30.800000 33.660000 138 74 70 0
32.560000 30.800000 33.440000 139 75 71 0
32.780000 30.800000 33.220000 140 74 71 0
33.000000 30.800000 34.760000 139 73 70 0
33.220000 30.800000 34.760000 140 74 71 0
33.440000 30.800000 34.980000 140 74 71 0
33.660000 30.800000 34.760000 140 74 71 0
33.880000 30.800000 34.760000 141 75 72 0
34.100000 30.800000 34.760000 141 75 72 0
34.320000 30.800000 34.760000 141 75 72 0
34.540000 30.800000 34.980000 141 75 74 0
34.760000 30.800000 33.660000 142 76 75 0
34.980000 30.800000 34.980000 142 76 73 0
35.200000 30.800000 34.980000 142 76 73 0
35.420000 30.800000 34.980000 142 76 73 0
35.640000 30.800000 34.760000 142 76 73 0
35.860000 30.800000 36.080000 143 77 76 0
36.080000 30.800000 36.080000 144 78 77 0
36.300000 30.800000 36.080000 143 77 76 0
36.520000 30.800000 34.980000 143 77 76 0
36.740000 30.800000 35.200000 144 78 77 0
36.960000 30.800000 34.980000 145 79 78 0
37.180000 30.800000 34.760000 145 79 76 0
0.000000 31.020000 22.880000 214 230 224 0
0.220000 31.020000 22.880000 215 229 224 0
0.440000 31.020000 22.880000 216 230 225 0
0.660000 31.020000 22.880000 215 229 224 0
0.880000 31.020000 24.420000 215 229 224 0
1.100000 31.020000 24.420000 214 230 224 0
1.320000 31.020000 24.420000 213 229 223 0
1.540000 31.020000 24.640000 215 229 224 0
1.760000 31.020000 24.640000 215 229 224 0
1.980000 31.020000 24.640000 216 230 225 0
2.200000 31.020000 24.640000 216 230 225 0
2.420000 31.020000 24.640000 216 230 225 0
2.640000 31.020000 26.180000 216 230 225 0
2.860000 31.020000 25.960000 214 228 223 0
3.080000 31.020000 27.940000 215 229 224 0
3.300000 31.020000 29.040000 215 229 224 0
3.520000 31.020000 29.260000 215 229 224 0
3.740000 31.020000 29.260000 215 229 224 0
3.960000 31.020000 29.260000 214 228 223 0
4.180000 31.020000 29.260000 215 229 224 0
4.400000 31.020000 29.260000 214 228 223 0
4.620000 31.020000 29.480000 214 228 223 0
4.840000 31.020000 30.800000 213 227 222 0
5.060000 31.020000 30.800000 214 228 223 0
5.280000 31.020000 31.020000 214 228 223 0
5.500000 31.020000 31.020000 214 228 224 0
5.720000 31.020000 31.020000 214 228 224 0
5.940000 31.020000 31.020000 213 227 222 0
6.160000 31.020000 31.240000 213 227 222 0
6.380000 31.020000 31.240000 213 227 222 0
6.600000 31.020000 31.240000 214 228 223 0
6.820000 31.020000 31.460000 213 227 222 0
7.040000 31.020000 31.460000 213 227 222 0
7.260000 31.020000 31.460000 211 225 221 0
7.480000 31.020000 31.460000 211 225 221 0
7.700000 31.020000 31.680000 211 225 220 0
7.920000 31.020000 33.000000 211 225 220 0
8.140000 31.020000 33.000000 210 224 219 0
8.360000 31.020000 32.780000 210 224 219 0
8.580000 31.020000 34.980000 209 223 218 0
8.800000 31.020000 36.080000 208 222 217 0
9.020000 31.020000 36.080000 208 219 216 0
9.240000 31.020000 36.080000 207 218 215 0
9.460000 31.020000 36.080000 206 216 213 0
9.680000 31.020000 36.080000 205 215 212 0
9.900000 31.020000 36.300000 203 211 209 0
10.120000 31.020000 36.300000 200 208 206 0
10.340000 31.020000 36.300000 197 203 198 0
10.560000 31.020000 36.300000 191 197 192 0
10.780000 31.020000 36.300000 188 186 182 0
11.000000 31.020000 36.300000 180 178 174 0
11.220000 31.020000 36.300000 176 164 159 0
11.440000 31.020000 36.300000 170 158 153 0
11.660000 31.020000 36.300000 166 148 141 0
11.880000 31.020000 36.300000 159 141 134 0
12.100000 31.020000 34.980000 159 136 126 0
12.320000 31.020000 34.980000 155 132 122 0
12.540000 31.020000 34.760000 150 125 115 0
12.760000 31.020000 34.760000 147 122 112 0
12.980000 31.020000 33.440000 145 120 110 0
