ply
format ascii 1.0
element vertex 1179
property float x
property float y
property float z
property uchar red
property uchar green
property uchar blue
property uchar alpha
end_header
33.880000 3.300000 6.600000 139 64 63 0
34.100000 3.300000 7.920000 138 63 62 0
34.320000 3.300000 5.280000 139 64 63 0
34.540000 3.300000 3.960000 139 64 63 0
34.760000 3.300000 10.780000 138 63 62 0
34.980000 3.300000 21.780000 138 63 62 0
35.200000 3.300000 13.420000 139 64 63 0
35.420000 3.300000 1.100000 139 64 63 0
35.640000 3.300000 1.100000 139 64 63 0
35.860000 3.300000 3.740000 140 65 64 0
36.080000 3.300000 3.960000 139 64 63 0
36.300000 3.300000 2.420000 140 65 64 0
36.520000 3.300000 2.420000 140 65 65 0
36.740000 3.300000 10.780000 139 64 64 0
36.960000 3.300000 16.280000 140 65 65 0
37.180000 3.300000 13.640000 141 66 66 0
0.000000 3.520000 30.360000 138 73 62 0
0.220000 3.520000 30.360000 138 73 62 0
0.440000 3.520000 30.360000 138 75 65 0
0.660000 3.520000 30.580000 138 75 65 0
0.880000 3.520000 30.580000 138 75 63 0
1.100000 3.520000 30.580000 139 76 64 0
1.320000 3.520000 30.580000 138 75 63 0
1.540000 3.520000 30.360000 140 77 65 0
1.760000 3.520000 30.360000 139 76 66 0
1.980000 3.520000 30.580000 140 77 67 0
2.200000 3.520000 30.580000 140 77 67 0
2.420000 3.520000 30.580000 141 78 68 0
2.640000 3.520000 30.580000 141 78 68 0
2.860000 3.520000 30.580000 141 78 68 0
3.080000 3.520000 30.580000 141 78 68 0
3.300000 3.520000 30.580000 141 78 68 0
3.520000 3.520000 30.580000 142 79 69 0
3.740000 3.520000 30.580000 143 80 70 0
3.960000 3.520000 30.580000 143 80 70 0
4.180000 3.520000 30.580000 143 80 70 0
4.400000 3.520000 30.580000 144 80 73 0
4.620000 3.520000 30.580000 143 79 72 0
4.840000 3.520000 30.580000 144 81 71 0
5.060000 3.520000 29.260000 143 80 70 0
5.280000 3.520000 29.260000 144 81 71 0
5.500000 3.520000 30.580000 144 81 71 0
5.720000 3.520000 30.580000 144 83 73 0
5.940000 3.520000 29.260000 143 82 72 0
6.160000 3.520000 29.260000 144 83 75 0
6.380000 3.520000 29.260000 144 83 75 0
6.600000 3.520000 29.480000 146 82 75 0
6.820000 3.520000 29.480000 146 82 75 0
7.040000 3.520000 29.480000 144 83 75 0
7.260000 3.520000 29.480000 144 83 75 0
7.480000 3.520000 29.480000 145 84 76 0
7.700000 3.520000 30.800000 145 84 76 0
7.920000 3.520000 30.800000 145 84 76 0
8.140000 3.520000 30.800000 146 85 77 0
8.360000 3.520000 30.800000 146 85 79 0
8.580000 3.520000 31.020000 147 86 80 0
8.800000 3.520000 31.020000 148 87 79 0
9.020000 3.520000 32.340000 147 86 78 0
9.240000 3.520000 32.340000 149 88 82 0
9.460000 3.520000 32.340000 150 89 83 0
9.680000 3.520000 32.340000 151 90 82 0
9.900000 3.520000 32.340000 150 89 81 0
10.120000 3.520000 33.660000 150 89 83 0
10.340000 3.520000 33.660000 149 88 82 0
10.560000 3.520000 34.980000 150 86 79 0
10.780000 3.520000 34.980000 150 86 79 0
11.000000 3.520000 34.980000 150 86 79 0
11.220000 3.520000 36.520000 149 85 78 0
11.440000 3.520000 36.520000 146 85 79 0
11.660000 3.520000 36.520000 146 85 79 0
11.880000 3.520000 36.520000 145 84 78 0
12.100000 3.520000 36.520000 145 84 78 0
12.320000 3.520000 36.520000 147 82 75 0
12.540000 3.520000 36.520000 146 81 74 0
12.760000 3.520000 36.520000 148 78 73 0
12.980000 3.520000 36.520000 146 76 71 0
13.200000 3.520000 36.520000 145 77 71 0
13.420000 3.520000 36.520000 143 75 69 0
13.640000 3.520000 36.520000 146 72 68 0
13.860000 3.520000 36.520000 144 70 66 0
14.080000 3.520000 36.520000 144 68 65 0
14.300000 3.520000 36.740000 143 67 64 0
14.520000 3.520000 36.740000 144 64 60 0
14.740000 3.520000 36.520000 142 62 58 0
14.960000 3.520000 36.520000 142 62 58 0
15.180000 3.520000 36.740000 139 59 55 0
15.400000 3.520000 36.740000 140 58 55 0
15.620000 3.520000 36.520000 140 58 55 0
15.840000 3.520000 36.520000 138 56 53 0
16.060000 3.520000 36.520000 138 56 53 0
16.280000 3.520000 36.520000 139 55 52 0
16.500000 3.520000 35.200000 138 54 51 0
16.720000 3.520000 35.200000 139 55 50 0
16.940000 3.520000 35.200000 137 53 48 0
17.160000 3.520000 35.200000 138 52 50 0
17.380000 3.520000 36.520000 137 51 49 0
17.600000 3.520000 35.200000 136 52 49 0
17.820000 3.520000 35.200000 136 52 49 0
18.040000 3.520000 35.200000 135 51 48 0
18.260000 3.520000 35.200000 136 52 49 0
18.480000 3.520000 35.200000 135 49 47 0
18.700000 3.520000 35.200000 134 48 46 0
18.920000 3.520000 36.520000 136 50 48 0
19.140000 3.520000 36.520000 135 49 47 0
19.360000 3.520000 36.520000 134 47 48 0
19.580000 3.520000 35.200000 133 46 47 0
19.800000 3.520000 35.200000 135 48 49 0
20.020000 3.520000 35.200000 134 47 48 0
20.240000 3.520000 36.520000 134 48 46 0
20.460000 3.520000 36.520000 134 48 46 0
20.680000 3.520000 36.520000 133 47 45 0
20.900000 3.520000 36.520000 132 46 44 0
21.120000 3.520000 36.520000 132 45 46 0
21.340000 3.520000 35.200000 133 46 47 0
21.560000 3.520000 35.200000 136 47 48 0
21.780000 3.520000 36.520000 135 46 47 0
22.000000 3.520000 36.300000 134 48 46 0
22.220000 3.520000 36.520000 133 47 45 0
22.440000 3.520000 36.520000 133 47 45 0
22.660000 3.520000 36.520000 133 47 45 0
22.880000 3.520000 36.520000 134 49 49 0
23.100000 3.520000 36.520000 135 50 50 0
23.320000 3.520000 36.520000 135 50 50 0
23.540000 3.520000 37.840000 137 52 52 0
23.760000 3.520000 39.160000 135 50 50 0
23.980000 3.520000 40.480000 136 51 51 0
24.200000 3.520000 34.980000 133 51 50 0
24.420000 3.520000 22.660000 135 53 52 0
24.640000 3.520000 10.120000 136 55 56 0
24.860000 3.520000 1.760000 136 55 56 0
25.080000 3.520000 0.440000 138 57 59 0
25.300000 3.520000 3.080000 136 55 57 0
25.520000 3.520000 5.940000 138 57 58 0
25.740000 3.520000 3.080000 138 57 58 0
25.960000 3.520000 0.440000 137 58 58 0
26.180000 3.520000 5.940000 137 58 58 0
26.400000 3.520000 10.120000 137 58 58 0
26.620000 3.520000 11.880000 136 57 57 0
26.840000 3.520000 14.520000 136 57 57 0
27.060000 3.520000 12.760000 136 57 57 0
27.280000 3.520000 12.760000 136 57 57 0
27.500000 3.520000 11.220000 136 57 57 0
27.720000 3.520000 2.860000 137 58 58 0
27.940000 3.520000 0.220000 136 57 57 0
28.160000 3.520000 0.440000 134 58 57 0
28.380000 3.520000 0.440000 136 60 59 0
28.600000 3.520000 1.760000 135 60 59 0
28.820000 3.520000 0.880000 138 63 62 0
29.480000 3.520000 1.100000 140 65 64 0
29.700000 3.520000 1.980000 141 66 65 0
29.920000 3.520000 0.660000 141 66 65 0
30.140000 3.520000 0.880000 141 66 65 0
30.360000 3.520000 0.880000 141 66 65 0
31.020000 3.520000 1.980000 139 63 62 0
31.240000 3.520000 3.740000 140 64 63 0
31.460000 3.520000 3.740000 139 63 62 0
31.680000 3.520000 3.740000 140 65 64 0
31.900000 3.520000 6.380000 139 64 63 0
32.120000 3.520000 11.880000 138 63 62 0
32.340000 3.520000 9.240000 139 64 63 0
32.560000 3.520000 5.280000 141 66 65 0
32.780000 3.520000 10.780000 140 65 64 0
33.000000 3.520000 10.780000 141 66 65 0
33.220000 3.520000 7.920000 140 65 64 0
33.440000 3.520000 5.280000 140 65 64 0
33.660000 3.520000 1.100000 141 66 65 0
33.880000 3.520000 1.100000 140 65 64 0
34.100000 3.520000 2.420000 139 64 63 0
34.320000 3.520000 5.280000 139 64 63 0
34.540000 3.520000 8.140000 138 63 62 0
34.760000 3.520000 13.640000 138 63 62 0
34.980000 3.520000 24.640000 138 63 62 0
35.200000 3.520000 19.140000 138 63 62 0
35.420000 3.520000 6.600000 138 63 62 0
35.640000 3.520000 3.740000 139 64 63 0
35.860000 3.520000 1.100000 140 65 64 0
36.520000 3.520000 5.280000 140 65 65 0
36.740000 3.520000 21.780000 140 65 65 0
36.960000 3.520000 21.780000 140 65 65 0
37.180000 3.520000 13.640000 141 66 66 0
0.000000 3.740000 30.360000 138 75 63 0
0.220000 3.740000 30.360000 138 75 63 0
0.440000 3.740000 30.580000 139 74 65 0
0.660000 3.740000 30.580000 139 74 65 0
0.880000 3.740000 30.580000 139 74 65 0
1.100000 3.740000 30.580000 138 73 64 0
1.320000 3.740000 30.360000 139 76 66 0
1.540000 3.740000 30.360000 140 77 67 0
1.760000 3.740000 30.360000 139 76 66 0
1.980000 3.740000 30.360000 139 76 66 0
2.200000 3.740000 30.360000 139 76 66 0
2.420000 3.740000 30.580000 140 77 67 0
2.640000 3.740000 29.040000 140 77 67 0
2.860000 3.740000 30.580000 141 78 68 0
3.080000 3.740000 30.580000 141 78 68 0
3.300000 3.740000 30.360000 141 78 68 0
3.520000 3.740000 30.360000 141 78 68 0
3.740000 3.740000 30.580000 141 78 68 0
3.960000 3.740000 30.580000 143 80 70 0
4.180000 3.740000 30.580000 143 80 70 0
4.400000 3.740000 30.580000 144 81 71 0
4.620000 3.740000 30.580000 143 80 70 0
4.840000 3.740000 30.580000 145 81 74 0
5.060000 3.740000 29.260000 143 79 72 0
5.280000 3.740000 29.260000 144 80 73 0
5.500000 3.740000 30.580000 145 81 74 0
5.720000 3.740000 30.580000 146 83 73 0
5.940000 3.740000 29.260000 145 82 72 0
6.160000 3.740000 29.260000 144 83 75 0
6.380000 3.740000 29.260000 144 83 75 0
6.600000 3.740000 29.260000 144 83 75 0
6.820000 3.740000 29.480000 143 82 74 0
7.040000 3.740000 29.480000 145 81 74 0
7.260000 3.740000 29.480000 146 82 75 0
7.480000 3.740000 29.480000 145 84 76 0
7.700000 3.740000 30.800000 145 84 76 0
7.920000 3.740000 30.800000 145 84 76 0
8.140000 3.740000 30.800000 145 84 76 0
8.360000 3.740000 30.800000 147 86 80 0
8.580000 3.740000 31.020000 147 86 80 0
8.800000 3.740000 31.020000 149 85 78 0
9.020000 3.740000 32.340000 150 86 79 0
9.240000 3.740000 32.340000 148 87 79 0
9.460000 3.740000 32.340000 149 88 80 0
9.680000 3.740000 32.340000 150 89 81 0
9.900000 3.740000 32.340000 149 88 80 0
10.120000 3.740000 33.660000 149 88 82 0
10.340000 3.740000 33.660000 149 88 82 0
10.560000 3.740000 33.660000 150 86 81 0
10.780000 3.740000 34.980000 149 85 80 0
11.000000 3.740000 34.980000 148 87 79 0
11.220000 3.740000 36.520000 146 85 77 0
11.440000 3.740000 36.520000 146 85 77 0
11.660000 3.740000 36.520000 145 84 76 0
11.880000 3.740000 36.520000 147 83 76 0
12.100000 3.740000 36.520000 146 82 75 0
12.320000 3.740000 36.520000 147 81 77 0
12.540000 3.740000 36.520000 146 80 76 0
12.760000 3.740000 36.520000 145 80 73 0
12.980000 3.740000 36.520000 144 79 72 0
13.200000 3.740000 36.520000 145 77 71 0
13.420000 3.740000 36.520000 143 75 69 0
13.640000 3.740000 36.520000 145 71 67 0
13.860000 3.740000 36.520000 145 71 67 0
14.080000 3.740000 36.520000 144 68 65 0
14.300000 3.740000 36.520000 141 65 62 0
14.520000 3.740000 36.740000 143 65 60 0
14.740000 3.740000 36.520000 142 64 59 0
14.960000 3.740000 36.520000 143 62 56 0
15.180000 3.740000 36.520000 141 60 54 0
15.400000 3.740000 36.520000 140 58 55 0
15.620000 3.740000 36.520000 139 57 54 0
15.840000 3.740000 36.520000 141 57 54 0
16.060000 3.740000 36.520000 140 56 53 0
16.280000 3.740000 36.520000 139 53 51 0
16.500000 3.740000 36.520000 139 53 51 0
16.720000 3.740000 35.200000 137 53 48 0
16.940000 3.740000 35.200000 137 53 48 0
17.160000 3.740000 35.200000 138 52 50 0
17.380000 3.740000 35.200000 137 51 49 0
17.600000 3.740000 35.200000 137 53 50 0
17.820000 3.740000 35.200000 136 52 49 0
18.040000 3.740000 35.200000 139 50 49 0
18.260000 3.740000 35.200000 137 48 47 0
18.480000 3.740000 35.200000 136 50 48 0
18.700000 3.740000 35.200000 135 49 47 0
18.920000 3.740000 35.200000 139 50 51 0
19.140000 3.740000 36.520000 135 46 47 0
19.360000 3.740000 36.520000 134 47 48 0
19.580000 3.740000 36.520000 135 48 49 0
19.800000 3.740000 35.200000 135 46 47 0
20.020000 3.740000 35.200000 135 46 47 0
20.240000 3.740000 36.520000 134 48 46 0
20.460000 3.740000 36.520000 134 48 46 0
20.680000 3.740000 36.520000 132 46 44 0
20.900000 3.740000 36.520000 134 48 46 0
21.120000 3.740000 36.520000 134 47 48 0
21.340000 3.740000 36.520000 135 48 49 0
21.560000 3.740000 36.520000 135 48 49 0
21.780000 3.740000 37.840000 134 47 48 0
22.000000 3.740000 37.620000 133 47 45 0
22.220000 3.740000 37.620000 134 48 46 0
22.440000 3.740000 37.840000 134 47 48 0
22.660000 3.740000 36.520000 133 46 47 0
22.880000 3.740000 36.520000 134 47 50 0
23.100000 3.740000 37.840000 135 48 51 0
23.320000 3.740000 36.300000 135 50 50 0
23.540000 3.740000 37.840000 135 50 50 0
23.760000 3.740000 39.160000 136 51 51 0
23.980000 3.740000 40.480000 136 51 51 0
24.200000 3.740000 37.840000 135 53 52 0
24.420000 3.740000 30.800000 136 54 53 0
24.640000 3.740000 19.800000 135 54 55 0
24.860000 3.740000 10.120000 137 56 57 0
25.080000 3.740000 3.300000 136 55 56 0
25.300000 3.740000 4.620000 136 55 56 0
25.520000 3.740000 12.980000 137 56 57 0
25.740000 3.740000 14.080000 137 56 57 0
25.960000 3.740000 8.580000 138 57 58 0
26.180000 3.740000 5.940000 137 56 57 0
26.400000 3.740000 5.940000 136 57 57 0
26.620000 3.740000 7.480000 136 57 57 0
26.840000 3.740000 12.980000 136 57 57 0
27.060000 3.740000 18.260000 137 58 58 0
27.280000 3.740000 23.760000 137 58 58 0
27.500000 3.740000 18.040000 136 57 57 0
27.720000 3.740000 5.720000 136 57 57 0
27.940000 3.740000 0.220000 136 57 57 0
28.160000 3.740000 0.220000 136 57 57 0
28.380000 3.740000 1.540000 136 57 57 0
28.600000 3.740000 1.760000 138 62 61 0
28.820000 3.740000 1.980000 138 62 61 0
29.040000 3.740000 0.880000 139 64 63 0
29.480000 3.740000 1.100000 141 65 64 0
29.700000 3.740000 1.100000 141 65 64 0
30.360000 3.740000 0.660000 140 64 63 0
30.580000 3.740000 0.440000 139 63 62 0
30.800000 3.740000 1.760000 139 64 63 0
31.020000 3.740000 0.440000 138 63 62 0
31.460000 3.740000 6.380000 140 64 63 0
31.680000 3.740000 14.740000 139 63 62 0
31.900000 3.740000 14.520000 139 63 62 0
32.120000 3.740000 22.880000 141 65 64 0
32.340000 3.740000 21.780000 140 64 63 0
32.560000 3.740000 7.920000 140 65 64 0
32.780000 3.740000 2.420000 141 66 65 0
33.000000 3.740000 2.420000 140 65 64 0
33.220000 3.740000 5.280000 141 66 65 0
33.440000 3.740000 5.280000 141 64 65 0
33.660000 3.740000 3.960000 141 64 65 0
33.880000 3.740000 3.740000 140 64 63 0
34.100000 3.740000 2.420000 140 64 63 0
34.320000 3.740000 5.280000 139 63 62 0
34.540000 3.740000 5.280000 138 62 61 0
34.760000 3.740000 8.140000 138 61 62 0
34.980000 3.740000 16.280000 138 61 62 0
35.200000 3.740000 10.780000 140 63 64 0
35.420000 3.740000 9.460000 139 62 63 0
35.640000 3.740000 13.640000 140 64 63 0
35.860000 3.740000 5.280000 138 62 61 0
36.520000 3.740000 5.280000 140 65 65 0
36.740000 3.740000 16.280000 140 65 65 0
36.960000 3.740000 10.780000 139 64 64 0
37.180000 3.740000 2.420000 140 65 65 0
0.000000 3.960000 30.360000 137 74 62 0
0.220000 3.960000 30.580000 138 75 63 0
0.440000 3.960000 30.580000 141 76 67 0
0.660000 3.960000 30.580000 139 74 65 0
0.880000 3.960000 30.580000 139 74 65 0
1.100000 3.960000 30.360000 139 74 65 0
1.320000 3.960000 30.360000 140 77 67 0
1.540000 3.960000 30.360000 140 77 67 0
1.760000 3.960000 30.360000 139 76 66 0
1.980000 3.960000 30.360000 140 77 67 0
2.200000 3.960000 30.360000 139 76 66 0
2.420000 3.960000 30.360000 140 77 67 0
2.640000 3.960000 30.580000 140 77 67 0
2.860000 3.960000 30.580000 141 78 68 0
3.080000 3.960000 30.360000 141 78 68 0
3.300000 3.960000 30.360000 141 78 68 0
3.520000 3.960000 30.360000 142 79 69 0
3.740000 3.960000 30.580000 142 79 69 0
3.960000 3.960000 30.580000 142 79 69 0
4.180000 3.960000 30.580000 143 80 70 0
4.400000 3.960000 30.580000 144 81 71 0
4.620000 3.960000 30.580000 144 81 71 0
4.840000 3.960000 30.580000 144 80 73 0
5.060000 3.960000 30.580000 144 80 73 0
5.280000 3.960000 30.580000 144 80 73 0
5.500000 3.960000 29.260000 145 81 74 0
5.720000 3.960000 29.260000 144 81 71 0
5.940000 3.960000 29.260000 145 82 72 0
6.160000 3.960000 29.260000 143 82 74 0
6.380000 3.960000 29.260000 144 83 75 0
6.600000 3.960000 29.260000 144 83 75 0
6.820000 3.960000 29.260000 144 83 75 0
7.040000 3.960000 29.480000 146 82 75 0
7.260000 3.960000 29.480000 146 82 75 0
7.480000 3.960000 29.480000 145 84 76 0
7.700000 3.960000 30.800000 145 84 76 0
7.920000 3.960000 30.800000 145 84 76 0
8.140000 3.960000 30.800000 146 85 77 0
8.360000 3.960000 30.800000 146 85 79 0
8.580000 3.960000 30.800000 147 86 80 0
8.800000 3.960000 30.800000 150 86 79 0
9.020000 3.960000 32.340000 150 86 79 0
9.240000 3.960000 32.340000 148 87 79 0
9.460000 3.960000 32.340000 149 88 80 0
9.680000 3.960000 32.340000 150 89 81 0
9.900000 3.960000 32.340000 149 88 80 0
10.120000 3.960000 33.660000 149 88 82 0
10.340000 3.960000 33.660000 149 88 82 0
10.560000 3.960000 34.980000 150 86 81 0
10.780000 3.960000 34.980000 149 85 80 0
11.000000 3.960000 34.980000 147 86 78 0
11.220000 3.960000 36.520000 147 86 78 0
11.440000 3.960000 36.520000 147 86 78 0
11.660000 3.960000 36.520000 146 85 77 0
11.880000 3.960000 36.520000 147 83 76 0
12.100000 3.960000 36.520000 146 82 75 0
12.320000 3.960000 36.520000 147 81 77 0
12.540000 3.960000 36.520000 145 79 75 0
12.760000 3.960000 36.520000 145 80 73 0
12.980000 3.960000 36.520000 143 78 71 0
13.200000 3.960000 36.520000 146 78 72 0
13.420000 3.960000 36.520000 144 76 70 0
13.640000 3.960000 36.520000 145 71 67 0
13.860000 3.960000 36.520000 144 70 66 0
14.080000 3.960000 36.520000 144 68 65 0
14.300000 3.960000 36.520000 142 66 63 0
14.520000 3.960000 36.520000 143 65 60 0
14.740000 3.960000 36.520000 142 64 59 0
14.960000 3.960000 36.740000 142 61 55 0
15.180000 3.960000 36.520000 141 60 54 0
15.400000 3.960000 36.520000 141 59 56 0
15.620000 3.960000 36.520000 140 58 55 0
15.840000 3.960000 36.520000 140 56 53 0
16.060000 3.960000 36.520000 140 56 53 0
16.280000 3.960000 36.520000 141 55 53 0
16.500000 3.960000 36.520000 138 52 50 0
16.720000 3.960000 35.200000 137 53 48 0
16.940000 3.960000 35.200000 137 53 48 0
17.160000 3.960000 35.200000 137 51 49 0
17.380000 3.960000 35.200000 137 51 49 0
17.600000 3.960000 35.200000 137 53 50 0
17.820000 3.960000 35.200000 138 54 51 0
18.040000 3.960000 35.200000 139 50 49 0
18.260000 3.960000 35.200000 136 47 46 0
18.480000 3.960000 35.200000 135 49 47 0
18.700000 3.960000 35.200000 136 50 48 0
18.920000 3.960000 36.520000 137 48 49 0
19.140000 3.960000 36.520000 135 46 47 0
19.360000 3.960000 36.520000 133 46 47 0
19.580000 3.960000 36.520000 135 48 49 0
19.800000 3.960000 36.520000 136 47 48 0
20.020000 3.960000 36.520000 135 46 47 0
20.240000 3.960000 36.520000 134 48 46 0
20.460000 3.960000 36.520000 134 48 46 0
20.680000 3.960000 36.520000 133 47 45 0
20.900000 3.960000 36.300000 134 48 46 0
21.120000 3.960000 36.520000 133 46 47 0
21.340000 3.960000 36.520000 134 47 48 0
21.560000 3.960000 37.620000 135 48 49 0
21.780000 3.960000 37.620000 133 46 47 0
22.000000 3.960000 37.620000 134 48 46 0
22.220000 3.960000 37.840000 134 48 46 0
22.440000 3.960000 36.520000 134 47 48 0
22.660000 3.960000 36.520000 134 47 48 0
22.880000 3.960000 36.300000 134 47 50 0
23.100000 3.960000 37.620000 136 49 52 0
23.320000 3.960000 37.840000 134 49 49 0
23.540000 3.960000 37.840000 136 51 51 0
23.760000 3.960000 38.940000 136 51 51 0
23.980000 3.960000 40.260000 136 51 51 0
24.200000 3.960000 40.480000 135 53 52 0
24.420000 3.960000 34.980000 134 52 51 0
24.640000 3.960000 27.940000 133 52 53 0
24.860000 3.960000 21.120000 136 55 56 0
25.080000 3.960000 7.260000 135 54 55 0
25.300000 3.960000 1.980000 136 55 56 0
25.520000 3.960000 10.120000 137 56 57 0
25.740000 3.960000 18.260000 136 55 56 0
25.960000 3.960000 15.400000 137 56 57 0
26.180000 3.960000 5.720000 137 56 57 0
26.400000 3.960000 4.400000 136 57 57 0
26.620000 3.960000 9.900000 136 57 57 0
26.840000 3.960000 16.940000 137 58 58 0
27.060000 3.960000 22.440000 136 57 57 0
27.280000 3.960000 23.540000 136 57 57 0
27.500000 3.960000 15.400000 136 57 57 0
27.720000 3.960000 8.580000 136 57 57 0
27.940000 3.960000 3.080000 136 57 57 0
28.160000 3.960000 0.220000 137 58 58 0
28.380000 3.960000 1.540000 137 58 58 0
28.600000 3.960000 1.540000 137 61 60 0
28.820000 3.960000 1.760000 138 62 61 0
29.040000 3.960000 1.760000 139 64 63 0
29.260000 3.960000 0.880000 140 65 64 0
29.480000 3.960000 1.100000 140 64 63 0
30.140000 3.960000 0.880000 141 65 64 0
30.360000 3.960000 0.660000 140 64 63 0
30.580000 3.960000 0.440000 139 63 62 0
30.800000 3.960000 1.760000 138 63 62 0
31.020000 3.960000 0.440000 139 64 63 0
31.460000 3.960000 6.380000 140 64 63 0
31.680000 3.960000 14.740000 139 63 62 0
31.900000 3.960000 16.060000 139 63 62 0
32.120000 3.960000 29.920000 139 63 62 0
32.340000 3.960000 28.600000 139 63 62 0
32.560000 3.960000 8.140000 139 64 63 0
33.000000 3.960000 2.640000 140 65 64 0
33.220000 3.960000 16.280000 140 65 64 0
33.440000 3.960000 21.780000 140 63 64 0
33.660000 3.960000 16.280000 140 63 64 0
33.880000 3.960000 10.780000 139 63 62 0
34.100000 3.960000 10.780000 139 63 62 0
34.320000 3.960000 16.280000 138 62 61 0
34.540000 3.960000 10.780000 140 64 63 0
34.760000 3.960000 5.280000 139 62 63 0
34.980000 3.960000 8.140000 138 61 62 0
35.200000 3.960000 3.960000 138 61 62 0
35.420000 3.960000 6.600000 139 62 63 0
35.640000 3.960000 13.640000 140 64 63 0
35.860000 3.960000 8.140000 139 63 62 0
36.080000 3.960000 5.280000 138 63 62 0
36.300000 3.960000 8.140000 140 65 64 0
36.520000 3.960000 7.920000 140 65 65 0
36.740000 3.960000 5.280000 140 65 65 0
0.000000 4.180000 30.360000 139 74 65 0
0.220000 4.180000 30.580000 139 74 65 0
0.440000 4.180000 30.360000 139 75 68 0
0.660000 4.180000 30.360000 138 74 67 0
0.880000 4.180000 30.360000 138 75 65 0
1.100000 4.180000 30.360000 138 75 65 0
1.320000 4.180000 30.360000 140 77 67 0
1.540000 4.180000 30.360000 140 77 67 0
1.760000 4.180000 30.360000 141 76 67 0
1.980000 4.180000 30.360000 141 76 67 0
2.200000 4.180000 30.360000 141 77 70 0
2.420000 4.180000 30.580000 141 77 70 0
2.640000 4.180000 30.580000 141 78 68 0
2.860000 4.180000 30.360000 141 78 68 0
3.080000 4.180000 30.360000 140 76 69 0
3.300000 4.180000 30.360000 141 77 70 0
3.520000 4.180000 30.360000 143 80 70 0
3.740000 4.180000 30.360000 143 80 70 0
3.960000 4.180000 30.580000 142 78 71 0
4.180000 4.180000 30.580000 143 79 72 0
4.400000 4.180000 30.580000 144 80 73 0
4.620000 4.180000 30.580000 145 81 74 0
4.840000 4.180000 30.580000 144 80 73 0
5.060000 4.180000 30.580000 145 81 74 0
5.280000 4.180000 30.580000 145 81 74 0
5.500000 4.180000 29.260000 145 81 74 0
5.720000 4.180000 29.260000 142 81 73 0
5.940000 4.180000 29.260000 142 81 73 0
6.160000 4.180000 29.260000 145 81 74 0
6.380000 4.180000 29.260000 146 82 75 0
6.600000 4.180000 29.260000 143 82 74 0
6.820000 4.180000 29.260000 143 82 74 0
7.040000 4.180000 29.260000 146 82 75 0
7.260000 4.180000 29.480000 147 83 76 0
7.480000 4.180000 29.480000 144 83 75 0
7.700000 4.180000 30.800000 144 83 75 0
7.920000 4.180000 30.800000 148 84 79 0
8.140000 4.180000 30.800000 148 84 79 0
8.360000 4.180000 30.800000 146 85 79 0
8.580000 4.180000 30.800000 146 85 79 0
8.800000 4.180000 30.800000 147 86 78 0
9.020000 4.180000 30.800000 148 87 79 0
9.240000 4.180000 32.340000 148 87 81 0
9.460000 4.180000 32.340000 149 88 82 0
9.680000 4.180000 32.340000 151 87 82 0
9.900000 4.180000 32.340000 151 87 82 0
10.120000 4.180000 33.660000 149 88 82 0
10.340000 4.180000 33.660000 149 88 82 0
10.560000 4.180000 34.980000 149 88 82 0
10.780000 4.180000 34.980000 147 86 80 0
11.000000 4.180000 34.980000 147 86 78 0
11.220000 4.180000 36.520000 147 86 78 0
11.440000 4.180000 36.520000 148 84 79 0
11.660000 4.180000 36.520000 148 84 79 0
11.880000 4.180000 36.520000 147 83 78 0
12.100000 4.180000 36.520000 146 82 77 0
12.320000 4.180000 36.520000 145 81 74 0
12.540000 4.180000 36.520000 144 80 73 0
12.760000 4.180000 36.520000 146 78 72 0
12.980000 4.180000 36.520000 145 77 71 0
13.200000 4.180000 36.520000 145 75 70 0
13.420000 4.180000 36.520000 145 75 70 0
13.640000 4.180000 36.520000 144 72 68 0
13.860000 4.180000 36.520000 142 70 66 0
14.080000 4.180000 36.520000 144 68 65 0
14.300000 4.180000 36.520000 143 67 64 0
14.520000 4.180000 36.520000 145 67 62 0
14.740000 4.180000 36.520000 143 65 60 0
14.960000 4.180000 36.740000 142 62 60 0
15.180000 4.180000 36.740000 140 60 58 0
15.400000 4.180000 36.520000 140 58 55 0
15.620000 4.180000 36.520000 139 57 54 0
15.840000 4.180000 36.520000 141 57 54 0
16.060000 4.180000 36.520000 141 57 54 0
16.280000 4.180000 36.520000 140 56 53 0
16.500000 4.180000 35.200000 139 55 52 0
16.720000 4.180000 35.200000 138 54 51 0
16.940000 4.180000 35.200000 137 53 50 0
17.160000 4.180000 35.200000 137 51 49 0
17.380000 4.180000 35.200000 136 50 48 0
17.600000 4.180000 35.200000 138 52 50 0
17.820000 4.180000 35.200000 138 52 50 0
18.040000 4.180000 35.200000 135 49 47 0
18.260000 4.180000 35.200000 135 49 47 0
18.480000 4.180000 36.520000 135 50 50 0
18.700000 4.180000 36.520000 136 51 51 0
18.920000 4.180000 36.520000 136 50 48 0
19.140000 4.180000 36.520000 133 47 45 0
19.360000 4.180000 36.520000 133 47 45 0
19.580000 4.180000 36.520000 135 49 47 0
19.800000 4.180000 36.520000 133 49 46 0
20.020000 4.180000 36.520000 134 50 47 0
20.240000 4.180000 35.200000 135 50 50 0
20.460000 4.180000 35.200000 135 50 50 0
20.680000 4.180000 36.520000 135 49 47 0
20.900000 4.180000 36.300000 134 48 46 0
21.120000 4.180000 36.520000 134 47 48 0
21.340000 4.180000 36.520000 135 48 49 0
21.560000 4.180000 37.840000 132 47 47 0
21.780000 4.180000 37.620000 134 49 49 0
22.000000 4.180000 37.840000 134 49 49 0
22.220000 4.180000 36.520000 134 49 49 0
22.440000 4.180000 36.520000 136 49 50 0
22.660000 4.180000 36.300000 134 47 48 0
22.880000 4.180000 37.620000 134 49 49 0
23.100000 4.180000 37.840000 135 50 50 0
23.320000 4.180000 37.840000 136 51 51 0
23.540000 4.180000 37.840000 136 51 51 0
23.760000 4.180000 37.620000 137 52 52 0
23.980000 4.180000 38.940000 135 50 50 0
24.200000 4.180000 40.480000 134 53 54 0
24.420000 4.180000 37.620000 134 53 54 0
24.640000 4.180000 32.120000 134 52 51 0
24.860000 4.180000 22.440000 137 55 54 0
25.080000 4.180000 10.120000 137 57 55 0
25.300000 4.180000 7.260000 136 56 54 0
25.520000 4.180000 10.120000 136 55 56 0
25.740000 4.180000 11.440000 136 55 56 0
25.960000 4.180000 11.220000 135 56 56 0
26.180000 4.180000 11.220000 136 57 57 0
26.400000 4.180000 16.940000 137 58 58 0
26.620000 4.180000 22.440000 137 58 58 0
26.840000 4.180000 19.800000 135 56 56 0
27.060000 4.180000 12.760000 134 55 55 0
27.280000 4.180000 7.040000 135 56 56 0
27.500000 4.180000 8.360000 135 56 56 0
27.720000 4.180000 14.080000 135 56 56 0
27.940000 4.180000 9.900000 137 58 58 0
28.160000 4.180000 3.080000 135 59 58 0
28.380000 4.180000 0.220000 136 60 59 0
28.600000 4.180000 1.540000 136 61 60 0
28.820000 4.180000 1.760000 137 62 61 0
29.040000 4.180000 1.760000 139 63 62 0
29.260000 4.180000 1.980000 141 65 64 0
29.480000 4.180000 1.980000 138 63 62 0
29.700000 4.180000 1.980000 139 64 63 0
29.920000 4.180000 0.440000 138 63 62 0
30.140000 4.180000 0.440000 139 64 63 0
30.360000 4.180000 0.440000 139 64 63 0
30.580000 4.180000 0.440000 137 62 61 0
30.800000 4.180000 0.220000 138 62 61 0
31.020000 4.180000 3.080000 139 63 62 0
31.240000 4.180000 4.840000 139 63 62 0
31.460000 4.180000 7.700000 140 64 63 0
31.680000 4.180000 9.020000 138 63 62 0
31.900000 4.180000 10.780000 137 62 61 0
32.120000 4.180000 21.780000 139 64 63 0
32.340000 4.180000 21.780000 138 63 62 0
32.560000 4.180000 8.140000 138 63 62 0
32.780000 4.180000 5.280000 139 64 63 0
33.000000 4.180000 8.140000 138 63 62 0
33.220000 4.180000 16.280000 138 63 62 0
33.440000 4.180000 27.280000 138 63 62 0
33.660000 4.180000 21.780000 139 64 63 0
33.880000 4.180000 7.920000 137 62 61 0
34.100000 4.180000 8.140000 137 62 61 0
34.320000 4.180000 21.780000 138 63 62 0
34.540000 4.180000 24.640000 138 63 62 0
34.760000 4.180000 19.140000 138 63 62 0
34.980000 4.180000 16.280000 138 63 62 0
35.200000 4.180000 8.140000 139 64 63 0
35.420000 4.180000 6.600000 137 62 61 0
35.640000 4.180000 5.280000 139 64 63 0
35.860000 4.180000 8.140000 140 65 64 0
36.080000 4.180000 19.140000 139 64 63 0
36.300000 4.180000 21.780000 140 65 64 0
36.520000 4.180000 16.280000 140 65 65 0
36.740000 4.180000 7.920000 139 64 64 0
36.960000 4.180000 2.420000 140 65 64 0
37.180000 4.180000 2.640000 141 66 65 0
0.000000 4.400000 30.360000 139 74 65 0
0.220000 4.400000 30.360000 138 73 64 0
0.440000 4.400000 30.360000 138 74 67 0
0.660000 4.400000 30.360000 138 74 67 0
0.880000 4.400000 30.360000 138 75 65 0
1.100000 4.400000 30.360000 139 76 66 0
1.320000 4.400000 30.360000 140 77 67 0
1.540000 4.400000 30.360000 140 77 67 0
1.760000 4.400000 30.360000 140 75 66 0
1.980000 4.400000 30.360000 141 76 67 0
2.200000 4.400000 30.580000 140 76 69 0
2.420000 4.400000 29.040000 140 76 69 0
2.640000 4.400000 30.580000 141 78 68 0
2.860000 4.400000 30.580000 141 78 68 0
3.080000 4.400000 30.360000 141 77 70 0
3.300000 4.400000 30.360000 142 78 71 0
3.520000 4.400000 30.360000 141 78 68 0
3.740000 4.400000 30.360000 143 80 70 0
3.960000 4.400000 30.360000 143 79 72 0
4.180000 4.400000 30.360000 142 78 71 0
4.400000 4.400000 30.360000 144 80 73 0
4.620000 4.400000 30.580000 144 80 73 0
4.840000 4.400000 29.040000 145 81 74 0
5.060000 4.400000 29.040000 145 81 74 0
5.280000 4.400000 29.040000 144 80 73 0
5.500000 4.400000 29.260000 145 81 74 0
5.720000 4.400000 29.260000 143 82 74 0
5.940000 4.400000 29.260000 143 82 74 0
6.160000 4.400000 29.260000 145 81 74 0
6.380000 4.400000 29.260000 145 81 74 0
6.600000 4.400000 29.260000 143 82 74 0
6.820000 4.400000 29.260000 143 82 74 0
7.040000 4.400000 29.480000 145 81 74 0
7.260000 4.400000 29.480000 146 82 75 0
7.480000 4.400000 29.480000 145 84 76 0
7.700000 4.400000 30.800000 145 84 76 0
7.920000 4.400000 30.800000 147 83 78 0
8.140000 4.400000 30.800000 147 83 78 0
8.360000 4.400000 30.800000 146 85 79 0
8.580000 4.400000 30.800000 147 86 80 0
8.800000 4.400000 30.800000 147 86 78 0
9.020000 4.400000 30.800000 148 87 79 0
9.240000 4.400000 32.340000 148 87 81 0
9.460000 4.400000 32.340000 148 87 81 0
9.680000 4.400000 32.340000 151 87 82 0
9.900000 4.400000 32.340000 151 87 82 0
10.120000 4.400000 33.660000 149 88 82 0
10.340000 4.400000 33.660000 148 87 81 0
10.560000 4.400000 34.980000 148 87 81 0
10.780000 4.400000 34.980000 148 87 81 0
11.000000 4.400000 34.980000 147 86 78 0
11.220000 4.400000 36.520000 147 86 78 0
11.440000 4.400000 36.520000 148 84 79 0
11.660000 4.400000 36.520000 148 84 79 0
11.880000 4.400000 36.520000 147 83 78 0
12.100000 4.400000 36.520000 146 82 77 0
12.320000 4.400000 36.520000 145 81 74 0
12.540000 4.400000 36.520000 145 81 74 0
12.760000 4.400000 36.520000 148 80 74 0
12.980000 4.400000 36.520000 145 77 71 0
13.200000 4.400000 36.520000 144 74 69 0
13.420000 4.400000 36.520000 143 73 68 0
13.640000 4.400000 36.520000 144 72 68 0
13.860000 4.400000 36.520000 142 70 66 0
14.080000 4.400000 36.520000 144 68 65 0
14.300000 4.400000 36.520000 142 66 63 0
14.520000 4.400000 36.520000 143 65 60 0
14.740000 4.400000 36.740000 142 64 59 0
14.960000 4.400000 36.740000 142 62 60 0
15.180000 4.400000 36.740000 141 61 59 0
15.400000 4.400000 36.740000 139 57 54 0
15.620000 4.400000 36.520000 139 57 54 0
15.840000 4.400000 36.520000 141 57 54 0
16.060000 4.400000 36.520000 140 56 53 0
16.280000 4.400000 36.520000 139 55 52 0
16.500000 4.400000 36.520000 138 54 51 0
16.720000 4.400000 35.200000 139 55 52 0
16.940000 4.400000 35.200000 138 54 51 0
17.160000 4.400000 35.200000 138 52 50 0
17.380000 4.400000 35.200000 138 52 50 0
17.600000 4.400000 36.520000 138 52 50 0
17.820000 4.400000 36.520000 136 50 48 0
18.040000 4.400000 36.520000 136 50 48 0
18.260000 4.400000 35.200000 136 50 48 0
18.480000 4.400000 36.520000 136 51 51 0
18.700000 4.400000 36.520000 135 50 50 0
18.920000 4.400000 36.520000 134 48 46 0
19.140000 4.400000 36.520000 134 48 46 0
19.360000 4.400000 36.520000 134 48 46 0
19.580000 4.400000 36.520000 136 50 48 0
19.800000 4.400000 36.520000 134 50 47 0
20.020000 4.400000 34.980000 135 51 48 0
20.240000 4.400000 35.200000 134 49 49 0
20.460000 4.400000 35.200000 134 49 49 0
20.680000 4.400000 34.980000 133 47 45 0
20.900000 4.400000 36.520000 133 47 45 0
21.120000 4.400000 36.520000 134 47 48 0
21.340000 4.400000 36.520000 134 47 48 0
21.560000 4.400000 37.840000 133 48 48 0
21.780000 4.400000 37.840000 134 49 49 0
22.000000 4.400000 37.840000 133 48 48 0
22.220000 4.400000 37.840000 133 48 48 0
22.440000 4.400000 37.840000 133 46 47 0
22.660000 4.400000 37.840000 133 46 47 0
22.880000 4.400000 37.840000 133 48 48 0
23.100000 4.400000 37.840000 135 50 50 0
23.320000 4.400000 37.840000 135 50 50 0
23.540000 4.400000 37.840000 134 49 49 0
23.760000 4.400000 36.520000 134 49 49 0
23.980000 4.400000 33.660000 133 48 48 0
24.200000 4.400000 37.840000 133 52 53 0
24.420000 4.400000 40.480000 135 54 55 0
24.640000 4.400000 32.120000 135 53 52 0
24.860000 4.400000 14.300000 135 53 52 0
25.080000 4.400000 10.120000 135 55 53 0
25.300000 4.400000 21.120000 134 54 52 0
25.520000 4.400000 20.900000 136 55 56 0
25.740000 4.400000 9.900000 135 54 55 0
25.960000 4.400000 7.260000 134 55 55 0
26.180000 4.400000 15.620000 136 57 57 0
26.400000 4.400000 22.440000 137 58 58 0
26.620000 4.400000 27.940000 137 58 58 0
26.840000 4.400000 25.300000 135 56 56 0
27.060000 4.400000 12.760000 135 56 56 0
27.280000 4.400000 1.760000 136 57 57 0
27.500000 4.400000 2.860000 137 58 58 0
27.720000 4.400000 11.220000 136 57 57 0
27.940000 4.400000 13.860000 136 57 57 0
28.160000 4.400000 5.720000 134 58 57 0
28.380000 4.400000 0.220000 137 61 60 0
28.600000 4.400000 1.540000 136 61 60 0
28.820000 4.400000 0.660000 136 61 60 0
29.040000 4.400000 0.660000 139 63 62 0
29.260000 4.400000 1.980000 139 63 62 0
29.480000 4.400000 1.760000 139 64 63 0
29.700000 4.400000 1.540000 140 65 64 0
29.920000 4.400000 1.540000 138 63 62 0
30.140000 4.400000 1.540000 138 63 62 0
30.360000 4.400000 0.220000 138 63 62 0
30.580000 4.400000 0.440000 137 62 61 0
30.800000 4.400000 0.440000 139 63 62 0
31.020000 4.400000 4.620000 139 63 62 0
31.240000 4.400000 11.880000 138 62 61 0
31.460000 4.400000 15.620000 138 62 61 0
31.680000 4.400000 12.980000 138 63 62 0
31.900000 4.400000 6.380000 138 63 62 0
32.120000 4.400000 5.280000 139 64 63 0
32.340000 4.400000 5.280000 139 64 63 0
32.560000 4.400000 8.140000 138 63 62 0
32.780000 4.400000 19.140000 138 63 62 0
33.000000 4.400000 19.140000 138 63 62 0
33.220000 4.400000 19.140000 137 62 61 0
33.440000 4.400000 24.640000 137 62 61 0
33.660000 4.400000 13.640000 137 62 61 0
33.880000 4.400000 1.100000 137 62 61 0
34.100000 4.400000 1.100000 138 63 62 0
34.320000 4.400000 10.780000 138 63 62 0
34.540000 4.400000 24.640000 138 63 62 0
34.760000 4.400000 30.140000 138 63 62 0
34.980000 4.400000 21.780000 138 63 62 0
35.200000 4.400000 10.780000 138 63 62 0
35.420000 4.400000 8.140000 139 64 63 0
35.640000 4.400000 2.420000 138 63 62 0
35.860000 4.400000 8.140000 139 64 63 0
36.080000 4.400000 22.000000 139 64 63 0
36.300000 4.400000 19.140000 140 65 64 0
36.520000 4.400000 16.280000 139 64 64 0
36.740000 4.400000 16.280000 141 66 66 0
36.960000 4.400000 16.280000 141 66 65 0
37.180000 4.400000 19.140000 140 65 64 0
0.000000 4.620000 30.360000 137 74 64 0
0.220000 4.620000 30.360000 137 74 64 0
0.440000 4.620000 29.040000 138 74 67 0
0.660000 4.620000 30.360000 138 74 67 0
0.880000 4.620000 30.360000 139 76 66 0
1.100000 4.620000 30.360000 138 75 65 0
1.320000 4.620000 29.040000 139 75 68 0
1.540000 4.620000 29.260000 140 76 69 0
1.760000 4.620000 29.040000 139 75 68 0
1.980000 4.620000 30.360000 140 76 69 0
2.200000 4.620000 29.040000 140 76 69 0
2.420000 4.620000 29.040000 141 77 70 0
2.640000 4.620000 30.580000 141 77 70 0
2.860000 4.620000 30.360000 141 77 70 0
3.080000 4.620000 30.360000 141 77 70 0
3.300000 4.620000 29.040000 142 78 71 0
3.520000 4.620000 29.040000 141 77 70 0
3.740000 4.620000 30.360000 142 78 71 0
3.960000 4.620000 30.360000 143 79 72 0
4.180000 4.620000 29.040000 143 79 72 0
4.400000 4.620000 29.040000 143 79 72 0
4.620000 4.620000 29.040000 144 80 73 0
4.840000 4.620000 29.040000 142 81 73 0
5.060000 4.620000 30.580000 142 81 73 0
5.280000 4.620000 29.040000 144 80 73 0
5.500000 4.620000 29.260000 145 81 74 0
5.720000 4.620000 29.260000 143 82 74 0
5.940000 4.620000 29.260000 144 83 75 0
6.160000 4.620000 29.260000 145 81 74 0
6.380000 4.620000 29.260000 146 82 75 0
6.600000 4.620000 29.260000 142 81 75 0
6.820000 4.620000 29.260000 143 82 76 0
7.040000 4.620000 29.480000 144 83 77 0
7.260000 4.620000 29.480000 144 83 77 0
7.480000 4.620000 29.480000 144 83 75 0
7.700000 4.620000 29.480000 145 84 76 0
7.920000 4.620000 30.800000 145 84 78 0
8.140000 4.620000 30.800000 146 85 79 0
8.360000 4.620000 30.800000 146 85 79 0
8.580000 4.620000 30.800000 146 85 79 0
8.800000 4.620000 30.800000 147 86 80 0
9.020000 4.620000 30.800000 147 86 80 0
9.240000 4.620000 32.340000 148 87 81 0
9.460000 4.620000 32.340000 149 88 82 0
9.680000 4.620000 32.340000 150 89 83 0
9.900000 4.620000 32.340000 150 89 83 0
10.120000 4.620000 33.660000 149 88 82 0
10.340000 4.620000 33.660000 149 88 82 0
10.560000 4.620000 34.980000 148 87 81 0
10.780000 4.620000 34.980000 147 86 80 0
11.000000 4.620000 34.980000 149 85 78 0
11.220000 4.620000 34.980000 148 84 77 0
11.440000 4.620000 36.520000 146 85 79 0
11.660000 4.620000 36.520000 145 84 78 0
11.880000 4.620000 36.520000 146 82 77 0
12.100000 4.620000 36.520000 146 82 77 0
12.320000 4.620000 36.520000 146 80 76 0
12.540000 4.620000 36.520000 146 80 76 0
12.760000 4.620000 36.520000 147 79 73 0
12.980000 4.620000 36.520000 145 77 71 0
13.200000 4.620000 36.520000 146 76 73 0
13.420000 4.620000 36.520000 143 73 70 0
13.640000 4.620000 36.520000 143 71 67 0
13.860000 4.620000 36.520000 141 69 65 0
14.080000 4.620000 36.520000 143 67 64 0
14.300000 4.620000 36.520000 142 66 63 0
14.520000 4.620000 36.520000 143 64 62 0
14.740000 4.620000 36.740000 142 63 61 0
14.960000 4.620000 36.740000 142 62 60 0
15.180000 4.620000 36.740000 140 60 58 0
15.400000 4.620000 36.740000 140 58 55 0
15.620000 4.620000 36.520000 140 58 55 0
15.840000 4.620000 36.520000 140 55 55 0
16.060000 4.620000 36.520000 139 54 54 0
16.280000 4.620000 36.520000 140 56 53 0
16.500000 4.620000 36.520000 139 55 52 0
16.720000 4.620000 36.520000 137 52 52 0
16.940000 4.620000 36.520000 138 53 53 0
17.160000 4.620000 36.520000 137 52 52 0
17.380000 4.620000 36.520000 136 51 51 0
17.600000 4.620000 36.520000 137 52 52 0
17.820000 4.620000 36.520000 136 51 51 0
18.040000 4.620000 36.520000 136 49 50 0
18.260000 4.620000 36.520000 136 49 50 0
18.480000 4.620000 35.200000 137 50 51 0
18.700000 4.620000 36.520000 136 49 50 0
18.920000 4.620000 36.520000 135 48 49 0
19.140000 4.620000 36.520000 136 49 50 0
19.360000 4.620000 36.520000 134 47 48 0
19.580000 4.620000 36.520000 134 47 48 0
19.800000 4.620000 36.520000 135 48 49 0
20.020000 4.620000 36.520000 135 48 49 0
20.240000 4.620000 36.520000 134 47 48 0
20.460000 4.620000 35.200000 133 46 47 0
20.680000 4.620000 35.200000 133 48 48 0
20.900000 4.620000 34.980000 133 48 48 0
21.120000 4.620000 36.520000 134 49 51 0
21.340000 4.620000 37.840000 134 49 51 0
21.560000 4.620000 37.840000 135 48 49 0
21.780000 4.620000 37.840000 134 47 48 0
22.000000 4.620000 37.840000 133 46 49 0
22.220000 4.620000 37.840000 132 45 48 0
22.440000 4.620000 37.840000 133 48 50 0
22.660000 4.620000 37.840000 134 49 51 0
22.880000 4.620000 37.840000 133 48 50 0
23.100000 4.620000 37.840000 135 50 52 0
23.320000 4.620000 37.840000 136 49 50 0
23.540000 4.620000 37.840000 136 49 50 0
23.760000 4.620000 33.660000 133 48 50 0
23.980000 4.620000 28.160000 136 51 53 0
24.200000 4.620000 33.660000 135 53 54 0
24.420000 4.620000 39.160000 134 52 53 0
24.640000 4.620000 32.120000 135 53 54 0
24.860000 4.620000 16.940000 137 55 56 0
25.080000 4.620000 15.620000 135 54 55 0
25.300000 4.620000 22.440000 135 54 55 0
25.520000 4.620000 25.080000 136 55 56 0
25.740000 4.620000 20.900000 136 55 56 0
25.960000 4.620000 9.900000 136 57 57 0
26.180000 4.620000 10.120000 135 56 56 0
26.400000 4.620000 16.940000 138 57 58 0
26.620000 4.620000 25.300000 138 57 58 0
26.840000 4.620000 30.580000 136 57 57 0
27.060000 4.620000 20.900000 136 57 57 0
27.280000 4.620000 4.400000 136 57 58 0
27.500000 4.620000 0.220000 136 57 58 0
27.720000 4.620000 2.860000 134 58 57 0
27.940000 4.620000 5.720000 135 59 58 0
28.160000 4.620000 2.860000 136 59 60 0
28.600000 4.620000 0.220000 138 62 61 0
28.820000 4.620000 0.660000 137 61 60 0
29.040000 4.620000 0.660000 138 61 62 0
29.260000 4.620000 1.760000 138 61 62 0
29.480000 4.620000 1.540000 139 63 62 0
29.700000 4.620000 1.540000 139 63 62 0
29.920000 4.620000 1.320000 139 62 63 0
30.140000 4.620000 1.540000 138 61 62 0
30.360000 4.620000 0.440000 138 61 62 0
30.580000 4.620000 0.440000 138 61 62 0
31.020000 4.620000 2.200000 138 61 62 0
31.240000 4.620000 9.020000 137 61 60 0
31.460000 4.620000 15.620000 137 61 60 0
31.680000 4.620000 9.900000 137 62 62 0
31.900000 4.620000 0.880000 138 63 63 0
32.560000 4.620000 5.280000 137 62 62 0
32.780000 4.620000 19.140000 138 63 63 0
33.000000 4.620000 22.000000 138 62 61 0
33.220000 4.620000 24.640000 138 62 61 0
33.440000 4.620000 24.640000 136 59 60 0
33.660000 4.620000 8.140000 138 61 62 0
34.540000 4.620000 10.780000 138 63 63 0
34.760000 4.620000 19.140000 138 61 62 0
34.980000 4.620000 10.780000 139 62 63 0
35.200000 4.620000 3.960000 139 64 64 0
35.420000 4.620000 3.960000 138 63 63 0
35.640000 4.620000 2.420000 138 63 63 0
35.860000 4.620000 10.780000 139 64 64 0
36.080000 4.620000 19.140000 139 64 64 0
36.300000 4.620000 16.280000 140 65 65 0
36.520000 4.620000 13.640000 141 66 66 0
36.740000 4.620000 13.640000 140 65 65 0
36.960000 4.620000 19.140000 141 66 66 0
37.180000 4.620000 24.640000 141 66 66 0
0.000000 4.840000 30.360000 137 74 64 0
0.220000 4.840000 29.040000 138 75 65 0
0.440000 4.840000 29.260000 137 73 66 0
0.660000 4.840000 29.040000 138 74 67 0
0.880000 4.840000 30.360000 139 76 66 0
1.100000 4.840000 30.360000 138 75 65 0
1.320000 4.840000 29.260000 139 75 68 0
1.540000 4.840000 29.480000 138 74 67 0
1.760000 4.840000 29.260000 139 75 68 0
1.980000 4.840000 30.360000 140 76 69 0
2.200000 4.840000 29.040000 140 76 69 0
2.420000 4.840000 30.580000 139 75 68 0
2.640000 4.840000 30.360000 140 76 69 0
2.860000 4.840000 30.360000 141 77 70 0
3.080000 4.840000 29.040000 142 78 71 0
3.300000 4.840000 29.040000 141 77 70 0
3.520000 4.840000 29.040000 142 78 71 0
3.740000 4.840000 30.360000 142 78 71 0
3.960000 4.840000 30.360000 143 79 72 0
4.180000 4.840000 30.580000 144 80 73 0
4.400000 4.840000 29.040000 143 79 72 0
4.620000 4.840000 29.260000 144 80 73 0
4.840000 4.840000 29.260000 142 81 73 0
5.060000 4.840000 29.040000 143 82 74 0
5.280000 4.840000 30.580000 145 81 74 0
5.500000 4.840000 29.260000 145 81 74 0
5.720000 4.840000 29.260000 143 82 74 0
5.940000 4.840000 29.260000 144 83 75 0
6.160000 4.840000 29.260000 146 82 75 0
6.380000 4.840000 29.260000 145 81 74 0
6.600000 4.840000 29.260000 144 83 77 0
6.820000 4.840000 29.260000 144 83 77 0
7.040000 4.840000 29.260000 144 83 77 0
7.260000 4.840000 29.260000 144 83 77 0
7.480000 4.840000 29.480000 145 84 76 0
7.700000 4.840000 30.800000 145 84 76 0
7.920000 4.840000 30.800000 146 85 79 0
8.140000 4.840000 30.800000 146 85 79 0
8.360000 4.840000 30.800000 146 85 79 0
8.580000 4.840000 30.800000 146 85 79 0
8.800000 4.840000 30.800000 147 86 80 0
9.020000 4.840000 30.800000 147 86 80 0
9.240000 4.840000 32.340000 148 87 81 0
9.460000 4.840000 32.340000 150 89 83 0
9.680000 4.840000 32.340000 150 89 83 0
9.900000 4.840000 32.340000 150 89 83 0
10.120000 4.840000 33.660000 150 89 83 0
10.340000 4.840000 33.660000 148 87 81 0
10.560000 4.840000 34.980000 147 86 80 0
10.780000 4.840000 34.980000 148 87 81 0
11.000000 4.840000 34.980000 148 84 77 0
11.220000 4.840000 36.520000 148 84 77 0
11.440000 4.840000 36.520000 146 85 79 0
11.660000 4.840000 36.520000 145 84 78 0
11.880000 4.840000 36.520000 146 82 77 0
12.100000 4.840000 36.520000 146 82 77 0
12.320000 4.840000 36.520000 145 79 75 0
12.540000 4.840000 36.520000 145 79 75 0
12.760000 4.840000 36.520000 145 77 71 0
12.980000 4.840000 36.520000 145 77 71 0
13.200000 4.840000 36.520000 144 74 71 0
13.420000 4.840000 36.520000 143 73 70 0
13.640000 4.840000 36.520000 144 72 68 0
13.860000 4.840000 36.520000 142 70 66 0
14.080000 4.840000 36.520000 144 68 65 0
14.300000 4.840000 36.520000 142 66 63 0
14.520000 4.840000 36.520000 143 64 62 0
14.740000 4.840000 36.520000 142 63 61 0
14.960000 4.840000 36.740000 141 61 59 0
15.180000 4.840000 36.740000 140 60 58 0
15.400000 4.840000 36.740000 140 58 55 0
15.620000 4.840000 36.520000 140 58 55 0
15.840000 4.840000 36.520000 141 56 56 0
16.060000 4.840000 36.520000 140 55 55 0
16.280000 4.840000 36.520000 139 55 52 0
16.500000 4.840000 36.520000 138 54 51 0
16.720000 4.840000 36.520000 139 54 54 0
16.940000 4.840000 36.520000 137 52 52 0
17.160000 4.840000 36.520000 138 53 53 0
17.380000 4.840000 36.520000 136 51 51 0
17.600000 4.840000 36.520000 135 50 50 0
17.820000 4.840000 36.520000 136 51 51 0
18.040000 4.840000 36.520000 137 50 51 0
18.260000 4.840000 36.520000 135 48 49 0
18.480000 4.840000 35.200000 135 48 49 0
18.700000 4.840000 35.200000 136 49 50 0
18.920000 4.840000 36.520000 135 48 49 0
19.140000 4.840000 36.520000 135 48 49 0
19.360000 4.840000 36.520000 134 47 48 0
19.580000 4.840000 36.520000 134 47 48 0
19.800000 4.840000 36.520000 133 46 47 0
20.020000 4.840000 36.520000 134 47 48 0
20.240000 4.840000 36.520000 134 47 48 0
20.460000 4.840000 36.520000 134 47 48 0
20.680000 4.840000 36.520000 134 49 49 0
20.900000 4.840000 36.520000 134 49 49 0
21.120000 4.840000 36.520000 133 48 50 0
21.340000 4.840000 37.840000 134 49 51 0
21.560000 4.840000 37.840000 135 48 49 0
21.780000 4.840000 37.840000 135 48 49 0
22.000000 4.840000 37.840000 135 48 51 0
22.220000 4.840000 37.620000 134 47 50 0
22.440000 4.840000 37.840000 132 47 49 0
22.660000 4.840000 37.840000 133 48 50 0
22.880000 4.840000 37.840000 134 49 51 0
23.100000 4.840000 37.840000 134 49 51 0
23.320000 4.840000 37.840000 136 49 50 0
23.540000 4.840000 37.840000 135 48 49 0
23.760000 4.840000 36.300000 135 50 52 0
23.980000 4.840000 33.660000 136 51 53 0
24.200000 4.840000 34.980000 134 52 53 0
24.420000 4.840000 37.620000 134 52 53 0
24.640000 4.840000 36.300000 135 53 54 0
24.860000 4.840000 29.480000 135 53 54 0
25.080000 4.840000 19.800000 134 53 54 0
25.300000 4.840000 18.480000 136 55 56 0
25.520000 4.840000 25.080000 135 54 55 0
25.740000 4.840000 23.760000 136 55 56 0
25.960000 4.840000 7.260000 136 57 57 0
26.180000 4.840000 4.620000 137 58 58 0
26.400000 4.840000 14.300000 137 56 57 0
26.620000 4.840000 25.300000 137 56 57 0
26.840000 4.840000 27.940000 136 57 57 0
27.060000 4.840000 18.260000 136 57 57 0
27.280000 4.840000 7.040000 136 57 58 0
27.500000 4.840000 5.720000 136 57 58 0
27.720000 4.840000 5.720000 135 59 58 0
27.940000 4.840000 3.080000 136 60 59 0
28.160000 4.840000 0.220000 135 58 59 0
28.380000 4.840000 1.540000 136 59 60 0
28.600000 4.840000 0.220000 137 61 60 0
28.820000 4.840000 0.440000 137 61 60 0
29.040000 4.840000 0.440000 137 60 61 0
29.260000 4.840000 1.540000 138 61 62 0
29.480000 4.840000 2.860000 139 63 62 0
29.700000 4.840000 1.540000 139 63 62 0
29.920000 4.840000 1.540000 139 62 63 0
30.140000 4.840000 1.540000 138 61 62 0
30.360000 4.840000 2.860000 137 60 61 0
30.580000 4.840000 5.720000 138 61 62 0
30.800000 4.840000 3.080000 137 60 61 0
31.240000 4.840000 3.520000 137 61 60 0
31.460000 4.840000 10.120000 137 61 60 0
31.680000 4.840000 4.620000 136 61 61 0
31.900000 4.840000 1.980000 137 62 62 0
32.120000 4.840000 6.380000 138 61 62 0
32.340000 4.840000 6.600000 138 61 62 0
32.560000 4.840000 2.420000 137 62 62 0
32.780000 4.840000 8.140000 138 63 63 0
33.000000 4.840000 16.500000 138 62 61 0
33.220000 4.840000 22.000000 138 62 61 0
33.440000 4.840000 19.140000 137 60 61 0
33.660000 4.840000 5.280000 137 60 61 0
34.760000 4.840000 2.420000 138 61 62 0
34.980000 4.840000 1.100000 138 61 62 0
35.640000 4.840000 3.960000 139 64 64 0
35.860000 4.840000 10.780000 138 63 63 0
36.080000 4.840000 13.640000 139 64 64 0
36.300000 4.840000 13.640000 140 65 65 0
36.520000 4.840000 10.780000 140 65 65 0
36.740000 4.840000 8.140000 141 66 66 0
36.960000 4.840000 8.140000 141 66 66 0
37.180000 4.840000 8.140000 141 66 66 0
0.000000 5.060000 30.360000 137 74 64 0
0.220000 5.060000 29.260000 138 75 65 0
0.440000 5.060000 29.260000 138 75 65 0
0.660000 5.060000 29.260000 138 75 65 0
0.880000 5.060000 29.040000 138 75 65 0
