ply
format ascii 1.0
element vertex 1113
property float x
property float y
property float z
property uchar red
property uchar green
property uchar blue
property uchar alpha
end_header
25.300000 12.320000 3.960000 199 229 214 0
25.520000 12.320000 4.730000 198 228 213 0
25.740000 12.320000 4.730000 199 229 214 0
25.960000 12.320000 4.730000 198 228 213 0
26.180000 12.320000 5.390000 198 228 213 0
26.400000 12.320000 6.050000 198 228 213 0
26.620000 12.320000 7.040000 198 228 213 0
26.840000 12.320000 7.700000 198 228 213 0
27.060000 12.320000 7.700000 198 228 213 0
27.280000 12.320000 7.700000 197 227 212 0
27.500000 12.320000 7.700000 194 225 212 0
27.720000 12.320000 8.360000 193 224 211 0
27.940000 12.320000 8.360000 194 225 212 0
28.160000 12.320000 8.470000 192 223 210 0
28.380000 12.320000 8.470000 190 221 208 0
28.600000 12.320000 8.470000 189 220 207 0
28.820000 12.320000 8.470000 188 218 205 0
29.040000 12.320000 8.470000 184 214 201 0
29.260000 12.320000 8.580000 180 210 197 0
29.480000 12.320000 8.580000 173 203 190 0
29.700000 12.320000 8.580000 173 198 174 0
29.920000 12.320000 7.920000 167 192 168 0
30.140000 12.320000 7.920000 166 179 157 0
30.360000 12.320000 7.920000 159 172 150 0
30.580000 12.320000 7.920000 156 161 138 0
30.800000 12.320000 7.920000 152 157 134 0
31.020000 12.320000 7.920000 155 148 124 0
31.240000 12.320000 7.920000 151 144 120 0
31.460000 12.320000 7.920000 149 142 118 0
31.680000 12.320000 7.920000 146 139 115 0
31.900000 12.320000 7.810000 146 138 112 0
32.120000 12.320000 7.810000 145 137 111 0
32.340000 12.320000 7.810000 144 136 110 0
32.560000 12.320000 7.810000 142 134 108 0
32.780000 12.320000 7.810000 142 131 106 0
33.000000 12.320000 7.810000 142 131 106 0
33.220000 12.320000 7.810000 142 131 106 0
33.440000 12.320000 7.810000 140 129 104 0
33.660000 12.320000 7.810000 140 129 104 0
33.880000 12.320000 8.580000 139 128 103 0
34.100000 12.320000 8.580000 138 127 102 0
34.320000 12.320000 8.580000 138 127 102 0
34.540000 12.320000 8.580000 139 126 102 0
34.760000 12.320000 8.580000 139 126 102 0
34.980000 12.320000 8.580000 139 126 102 0
35.200000 12.320000 8.470000 137 124 100 0
35.420000 12.320000 8.470000 137 125 98 0
35.640000 12.320000 8.470000 136 124 97 0
35.860000 12.320000 9.240000 136 124 97 0
36.080000 12.320000 9.240000 136 124 97 0
36.300000 12.320000 9.240000 137 122 96 0
36.520000 12.320000 9.240000 137 122 96 0
36.740000 12.320000 9.240000 137 122 96 0
36.960000 12.320000 9.900000 137 122 96 0
37.180000 12.320000 9.900000 136 121 95 0
0.000000 12.540000 14.080000 135 117 108 0
0.220000 12.540000 14.740000 134 116 107 0
0.440000 12.540000 14.740000 135 117 108 0
0.660000 12.540000 14.740000 133 118 108 0
0.880000 12.540000 14.630000 132 117 107 0
1.100000 12.540000 14.740000 133 118 108 0
1.320000 12.540000 14.740000 133 118 108 0
1.540000 12.540000 14.740000 134 119 109 0
1.760000 12.540000 15.400000 134 119 109 0
1.980000 12.540000 15.400000 133 118 108 0
2.200000 12.540000 15.400000 134 119 109 0
2.420000 12.540000 16.060000 135 120 108 0
2.640000 12.540000 16.060000 134 119 107 0
2.860000 12.540000 16.060000 135 120 108 0
3.080000 12.540000 16.060000 136 121 109 0
3.300000 12.540000 16.830000 135 120 108 0
3.520000 12.540000 16.830000 136 121 109 0
3.740000 12.540000 17.490000 136 121 109 0
3.960000 12.540000 17.490000 138 123 111 0
4.180000 12.540000 18.150000 139 124 112 0
4.400000 12.540000 18.150000 140 125 113 0
4.620000 12.540000 18.810000 140 125 113 0
4.840000 12.540000 18.810000 141 126 114 0
5.060000 12.540000 18.810000 142 127 115 0
5.280000 12.540000 19.580000 143 128 116 0
5.500000 12.540000 19.580000 143 130 117 0
5.720000 12.540000 18.810000 145 132 119 0
5.940000 12.540000 15.400000 147 134 121 0
6.160000 12.540000 9.900000 147 134 121 0
6.380000 12.540000 6.380000 147 137 123 0
6.600000 12.540000 3.630000 149 139 125 0
6.820000 12.540000 0.880000 151 142 130 0
7.040000 12.540000 0.220000 155 146 134 0
7.260000 12.540000 0.220000 156 151 142 0
7.480000 12.540000 0.880000 161 156 147 0
7.700000 12.540000 3.630000 163 165 157 0
7.920000 12.540000 7.810000 168 170 162 0
8.140000 12.540000 14.630000 172 181 181 0
8.360000 12.540000 19.470000 182 191 191 0
8.580000 12.540000 20.900000 187 202 202 0
8.800000 12.540000 20.130000 196 211 211 0
9.020000 12.540000 20.130000 195 223 219 0
9.240000 12.540000 20.130000 203 231 227 0
9.460000 12.540000 20.130000 208 236 232 0
9.680000 12.540000 20.130000 211 239 235 0
9.900000 12.540000 20.130000 213 241 239 0
10.120000 12.540000 20.790000 213 241 239 0
10.340000 12.540000 20.790000 211 241 238 0
10.560000 12.540000 20.790000 210 240 237 0
10.780000 12.540000 20.790000 209 239 234 0
11.000000 12.540000 21.560000 207 237 232 0
11.220000 12.540000 15.950000 207 236 229 0
11.440000 12.540000 4.950000 203 232 225 0
11.660000 12.540000 0.110000 201 230 221 0
11.880000 12.540000 0.110000 199 228 219 0
12.100000 12.540000 0.110000 198 227 218 0
12.320000 12.540000 0.770000 196 225 216 0
12.540000 12.540000 0.770000 197 223 215 0
12.760000 12.540000 0.880000 197 223 215 0
12.980000 12.540000 0.880000 195 222 212 0
13.200000 12.540000 1.540000 196 223 213 0
13.420000 12.540000 1.650000 193 222 212 0
13.640000 12.540000 1.650000 191 220 210 0
13.860000 12.540000 1.650000 190 219 210 0
14.080000 12.540000 1.650000 188 217 208 0
14.300000 12.540000 1.650000 183 214 204 0
14.520000 12.540000 1.650000 181 212 202 0
14.740000 12.540000 1.650000 182 209 197 0
14.960000 12.540000 1.650000 177 204 192 0
15.180000 12.540000 1.760000 172 198 180 0
15.400000 12.540000 1.760000 167 193 175 0
15.620000 12.540000 1.760000 167 185 164 0
15.840000 12.540000 1.760000 162 180 159 0
16.060000 12.540000 1.650000 163 176 154 0
16.280000 12.540000 1.650000 161 174 152 0
16.500000 12.540000 1.650000 160 173 151 0
16.720000 12.540000 2.420000 161 174 152 0
16.940000 12.540000 2.420000 161 175 155 0
17.160000 12.540000 2.420000 163 177 157 0
17.380000 12.540000 1.760000 163 181 160 0
17.600000 12.540000 1.760000 168 186 165 0
17.820000 12.540000 1.870000 169 190 170 0
18.040000 12.540000 1.870000 174 195 175 0
18.260000 12.540000 1.870000 174 200 186 0
18.480000 12.540000 1.870000 178 204 190 0
18.700000 12.540000 1.870000 183 206 193 0
18.920000 12.540000 1.870000 185 208 195 0
19.140000 12.540000 1.980000 185 210 199 0
19.360000 12.540000 1.980000 189 214 203 0
19.580000 12.540000 1.980000 189 216 202 0
19.800000 12.540000 1.980000 190 217 203 0
20.020000 12.540000 1.980000 191 218 204 0
20.240000 12.540000 1.980000 191 218 204 0
20.460000 12.540000 1.980000 192 219 205 0
20.680000 12.540000 2.530000 192 219 205 0
20.900000 12.540000 2.970000 193 220 206 0
21.120000 12.540000 3.520000 195 222 208 0
21.340000 12.540000 3.520000 194 221 207 0
21.560000 12.540000 3.520000 196 223 209 0
21.780000 12.540000 3.520000 196 223 209 0
22.000000 12.540000 3.520000 196 223 209 0
22.220000 12.540000 3.630000 197 227 212 0
22.440000 12.540000 3.630000 196 226 211 0
22.660000 12.540000 3.630000 197 227 214 0
22.880000 12.540000 3.630000 197 227 214 0
23.100000 12.540000 3.740000 197 227 212 0
23.320000 12.540000 3.080000 198 228 213 0
23.540000 12.540000 3.080000 198 228 213 0
23.760000 12.540000 3.080000 198 228 213 0
23.980000 12.540000 3.850000 197 227 214 0
24.200000 12.540000 3.850000 199 229 216 0
24.420000 12.540000 3.850000 199 229 216 0
24.640000 12.540000 3.850000 199 229 216 0
24.860000 12.540000 3.960000 199 229 216 0
25.080000 12.540000 3.960000 199 229 216 0
25.300000 12.540000 3.960000 199 229 214 0
25.520000 12.540000 4.730000 199 229 214 0
25.740000 12.540000 4.730000 199 229 216 0
25.960000 12.540000 4.730000 198 228 215 0
26.180000 12.540000 5.390000 198 228 215 0
26.400000 12.540000 6.050000 198 228 215 0
26.620000 12.540000 6.490000 198 228 215 0
26.840000 12.540000 7.040000 197 227 214 0
27.060000 12.540000 7.700000 198 228 213 0
27.280000 12.540000 7.700000 196 226 211 0
27.500000 12.540000 7.700000 196 226 213 0
27.720000 12.540000 8.360000 194 224 211 0
27.940000 12.540000 8.360000 193 224 211 0
28.160000 12.540000 8.470000 193 224 211 0
28.380000 12.540000 8.470000 192 222 209 0
28.600000 12.540000 8.470000 190 220 207 0
28.820000 12.540000 8.470000 187 216 206 0
29.040000 12.540000 8.470000 184 213 203 0
29.260000 12.540000 8.580000 181 208 196 0
29.480000 12.540000 8.580000 175 202 190 0
29.700000 12.540000 8.580000 174 196 179 0
29.920000 12.540000 7.920000 168 190 173 0
30.140000 12.540000 7.920000 168 179 157 0
30.360000 12.540000 7.920000 159 170 148 0
30.580000 12.540000 7.920000 158 161 137 0
30.800000 12.540000 7.920000 152 155 131 0
31.020000 12.540000 7.920000 152 149 125 0
31.240000 12.540000 7.920000 149 146 122 0
31.460000 12.540000 7.920000 148 141 117 0
31.680000 12.540000 7.920000 146 139 115 0
31.900000 12.540000 7.810000 145 137 111 0
32.120000 12.540000 7.810000 144 136 110 0
32.340000 12.540000 7.810000 143 135 109 0
32.560000 12.540000 7.810000 142 134 108 0
32.780000 12.540000 7.810000 143 132 107 0
33.000000 12.540000 7.810000 142 131 106 0
33.220000 12.540000 7.810000 142 131 106 0
33.440000 12.540000 7.810000 141 130 105 0
33.660000 12.540000 7.810000 140 129 104 0
33.880000 12.540000 8.580000 139 128 103 0
34.100000 12.540000 8.580000 138 127 102 0
34.320000 12.540000 8.580000 139 128 103 0
34.540000 12.540000 8.580000 139 126 102 0
34.760000 12.540000 8.470000 139 126 102 0
34.980000 12.540000 8.470000 138 126 99 0
35.200000 12.540000 8.470000 137 125 98 0
35.420000 12.540000 8.580000 138 126 99 0
35.640000 12.540000 8.580000 137 125 98 0
35.860000 12.540000 9.240000 137 125 98 0
36.080000 12.540000 9.240000 135 123 96 0
36.300000 12.540000 9.240000 137 122 96 0
36.520000 12.540000 9.240000 138 123 97 0
36.740000 12.540000 9.240000 137 122 96 0
36.960000 12.540000 9.240000 137 122 96 0
37.180000 12.540000 9.240000 136 121 95 0
0.000000 12.760000 14.080000 133 115 106 0
0.220000 12.760000 14.080000 134 116 107 0
0.440000 12.760000 13.970000 134 116 107 0
0.660000 12.760000 14.740000 133 118 108 0
0.880000 12.760000 14.630000 133 118 108 0
1.100000 12.760000 14.740000 132 117 107 0
1.320000 12.760000 15.400000 133 118 108 0
1.540000 12.760000 15.400000 134 119 109 0
1.760000 12.760000 15.400000 134 119 109 0
1.980000 12.760000 15.400000 134 119 109 0
2.200000 12.760000 15.400000 134 119 109 0
2.420000 12.760000 15.400000 135 120 108 0
2.640000 12.760000 16.060000 135 120 108 0
2.860000 12.760000 16.060000 135 120 108 0
3.080000 12.760000 16.060000 134 119 107 0
3.300000 12.760000 16.830000 137 122 110 0
3.520000 12.760000 16.830000 136 121 109 0
3.740000 12.760000 17.490000 137 122 110 0
3.960000 12.760000 17.490000 137 122 110 0
4.180000 12.760000 18.150000 139 124 112 0
4.400000 12.760000 18.150000 139 124 112 0
4.620000 12.760000 18.810000 141 126 114 0
4.840000 12.760000 18.810000 141 126 114 0
5.060000 12.760000 18.810000 142 127 115 0
5.280000 12.760000 19.580000 144 129 117 0
5.500000 12.760000 19.580000 144 131 118 0
5.720000 12.760000 17.490000 145 132 119 0
5.940000 12.760000 13.970000 145 132 119 0
6.160000 12.760000 13.970000 147 134 121 0
6.380000 12.760000 11.990000 148 138 124 0
6.600000 12.760000 3.630000 150 140 126 0
7.040000 12.760000 0.220000 155 146 134 0
7.260000 12.760000 0.220000 157 152 143 0
7.480000 12.760000 0.220000 163 158 149 0
7.700000 12.760000 0.220000 163 165 157 0
7.920000 12.760000 2.200000 171 173 165 0
8.140000 12.760000 10.560000 171 180 180 0
8.360000 12.760000 18.150000 181 190 190 0
8.580000 12.760000 20.900000 188 203 203 0
8.800000 12.760000 20.900000 194 209 209 0
9.020000 12.760000 20.130000 195 223 219 0
9.240000 12.760000 20.130000 202 230 226 0
9.460000 12.760000 20.130000 208 236 232 0
9.680000 12.760000 20.130000 210 238 234 0
9.900000 12.760000 20.130000 212 240 238 0
10.120000 12.760000 20.790000 212 240 238 0
10.340000 12.760000 20.790000 211 241 238 0
10.560000 12.760000 20.790000 210 240 237 0
10.780000 12.760000 20.790000 209 239 234 0
11.000000 12.760000 21.560000 207 237 232 0
11.220000 12.760000 15.950000 206 235 228 0
11.440000 12.760000 5.610000 203 232 225 0
11.660000 12.760000 0.110000 200 229 220 0
11.880000 12.760000 0.110000 200 229 220 0
12.100000 12.760000 0.110000 199 228 219 0
12.320000 12.760000 0.770000 198 227 218 0
12.540000 12.760000 0.770000 197 223 215 0
12.760000 12.760000 0.880000 197 223 215 0
12.980000 12.760000 0.880000 197 224 214 0
13.200000 12.760000 1.540000 196 223 213 0
13.420000 12.760000 1.540000 194 223 213 0
13.640000 12.760000 1.650000 191 220 210 0
13.860000 12.760000 1.650000 191 220 211 0
14.080000 12.760000 1.650000 189 218 209 0
14.300000 12.760000 1.650000 185 216 206 0
14.520000 12.760000 1.650000 181 212 202 0
14.740000 12.760000 1.650000 182 209 197 0
14.960000 12.760000 1.760000 177 204 192 0
15.180000 12.760000 1.760000 172 198 180 0
15.400000 12.760000 1.760000 167 193 175 0
15.620000 12.760000 1.760000 166 184 163 0
15.840000 12.760000 1.760000 162 180 159 0
16.060000 12.760000 1.650000 161 174 152 0
16.280000 12.760000 1.650000 161 174 152 0
16.500000 12.760000 1.650000 161 174 152 0
16.720000 12.760000 2.420000 162 175 153 0
16.940000 12.760000 2.420000 161 175 155 0
17.160000 12.760000 2.420000 163 177 157 0
17.380000 12.760000 2.420000 165 183 162 0
17.600000 12.760000 1.760000 168 186 165 0
17.820000 12.760000 1.870000 170 191 171 0
18.040000 12.760000 1.870000 175 196 176 0
18.260000 12.760000 1.870000 176 202 188 0
18.480000 12.760000 1.870000 177 203 189 0
18.700000 12.760000 1.870000 183 206 193 0
18.920000 12.760000 1.870000 185 208 195 0
19.140000 12.760000 1.980000 186 211 200 0
19.360000 12.760000 1.980000 188 213 202 0
19.580000 12.760000 1.980000 189 216 202 0
19.800000 12.760000 1.980000 190 217 203 0
20.020000 12.760000 1.980000 191 218 204 0
20.240000 12.760000 1.980000 192 219 205 0
20.460000 12.760000 1.980000 192 219 205 0
20.680000 12.760000 2.530000 194 221 207 0
20.900000 12.760000 2.970000 194 221 207 0
21.120000 12.760000 3.520000 194 221 207 0
21.340000 12.760000 3.520000 195 222 208 0
21.560000 12.760000 3.520000 196 223 209 0
21.780000 12.760000 3.520000 197 224 210 0
22.000000 12.760000 3.520000 198 225 211 0
22.220000 12.760000 3.630000 196 226 211 0
22.440000 12.760000 3.630000 196 226 211 0
22.660000 12.760000 3.630000 196 226 213 0
22.880000 12.760000 3.630000 198 228 215 0
23.100000 12.760000 3.740000 198 228 213 0
23.320000 12.760000 3.080000 197 227 212 0
23.540000 12.760000 3.080000 198 228 213 0
23.760000 12.760000 3.080000 198 228 213 0
23.980000 12.760000 3.850000 198 228 215 0
24.200000 12.760000 3.850000 199 229 216 0
24.420000 12.760000 3.850000 199 229 216 0
24.640000 12.760000 3.850000 200 230 217 0
24.860000 12.760000 3.960000 199 229 216 0
25.080000 12.760000 3.960000 199 229 216 0
25.300000 12.760000 4.070000 199 229 214 0
25.520000 12.760000 4.730000 199 229 214 0
25.740000 12.760000 4.730000 199 229 216 0
25.960000 12.760000 4.730000 198 228 215 0
26.180000 12.760000 5.390000 198 228 215 0
26.400000 12.760000 5.390000 198 228 215 0
26.620000 12.760000 6.600000 198 228 215 0
26.840000 12.760000 7.040000 198 228 215 0
27.060000 12.760000 7.700000 197 227 212 0
27.280000 12.760000 7.700000 197 227 212 0
27.500000 12.760000 7.700000 196 226 213 0
27.720000 12.760000 8.360000 196 226 213 0
27.940000 12.760000 8.360000 193 224 211 0
28.160000 12.760000 8.470000 192 223 210 0
28.380000 12.760000 8.470000 193 223 210 0
28.600000 12.760000 8.470000 191 221 208 0
28.820000 12.760000 8.470000 188 217 207 0
29.040000 12.760000 8.470000 183 212 202 0
29.260000 12.760000 8.580000 181 208 196 0
29.480000 12.760000 8.580000 176 203 191 0
29.700000 12.760000 8.580000 176 198 181 0
29.920000 12.760000 7.920000 168 190 173 0
30.140000 12.760000 7.920000 167 178 156 0
30.360000 12.760000 7.920000 160 171 149 0
30.580000 12.760000 7.920000 158 161 137 0
30.800000 12.760000 7.920000 152 155 131 0
31.020000 12.760000 7.920000 152 149 125 0
31.240000 12.760000 7.920000 148 145 121 0
31.460000 12.760000 7.920000 149 142 118 0
31.680000 12.760000 7.920000 146 139 115 0
31.900000 12.760000 7.810000 144 136 110 0
32.120000 12.760000 7.810000 144 136 110 0
32.340000 12.760000 7.810000 143 135 109 0
32.560000 12.760000 7.810000 142 134 108 0
32.780000 12.760000 7.810000 144 133 108 0
33.000000 12.760000 7.810000 142 131 106 0
33.220000 12.760000 7.810000 142 131 106 0
33.440000 12.760000 7.810000 141 130 105 0
33.660000 12.760000 7.810000 140 129 104 0
33.880000 12.760000 7.810000 140 129 104 0
34.100000 12.760000 8.580000 139 128 103 0
34.320000 12.760000 8.580000 138 127 102 0
34.540000 12.760000 8.470000 139 126 102 0
34.760000 12.760000 8.470000 139 126 102 0
34.980000 12.760000 8.470000 138 126 99 0
35.200000 12.760000 8.470000 137 125 98 0
35.420000 12.760000 8.580000 137 125 98 0
35.640000 12.760000 8.580000 138 126 99 0
35.860000 12.760000 9.240000 136 124 97 0
36.080000 12.760000 9.240000 136 124 97 0
36.300000 12.760000 9.240000 138 123 97 0
36.520000 12.760000 9.240000 138 123 97 0
36.740000 12.760000 9.240000 137 122 96 0
36.960000 12.760000 9.240000 137 122 96 0
37.180000 12.760000 9.240000 137 122 96 0
0.000000 12.980000 13.970000 132 117 107 0
0.220000 12.980000 14.740000 133 118 108 0
0.440000 12.980000 14.740000 132 117 107 0
0.660000 12.980000 14.630000 134 119 109 0
0.880000 12.980000 14.630000 133 118 108 0
1.100000 12.980000 14.630000 133 118 108 0
1.320000 12.980000 15.400000 133 118 108 0
1.540000 12.980000 15.400000 134 119 109 0
1.760000 12.980000 15.400000 134 119 109 0
1.980000 12.980000 15.400000 134 119 109 0
2.200000 12.980000 15.400000 134 119 109 0
2.420000 12.980000 15.400000 134 121 108 0
2.640000 12.980000 16.060000 134 121 108 0
2.860000 12.980000 16.060000 135 120 110 0
3.080000 12.980000 16.720000 135 120 110 0
3.300000 12.980000 16.830000 136 121 111 0
3.520000 12.980000 16.830000 136 121 111 0
3.740000 12.980000 16.830000 137 122 110 0
3.960000 12.980000 17.490000 137 122 110 0
4.180000 12.980000 17.490000 138 125 112 0
4.400000 12.980000 18.150000 138 125 112 0
4.620000 12.980000 18.810000 141 126 114 0
4.840000 12.980000 18.810000 140 125 113 0
5.060000 12.980000 19.580000 143 128 116 0
5.280000 12.980000 19.580000 143 128 116 0
5.500000 12.980000 20.240000 144 129 117 0
5.720000 12.980000 18.810000 145 130 118 0
5.940000 12.980000 18.150000 146 133 120 0
6.160000 12.980000 19.580000 148 135 122 0
6.380000 12.980000 15.400000 149 136 125 0
6.600000 12.980000 5.060000 151 138 127 0
7.040000 12.980000 0.220000 153 144 134 0
7.260000 12.980000 0.220000 156 151 140 0
7.480000 12.980000 0.880000 162 157 146 0
7.700000 12.980000 3.630000 161 162 159 0
7.920000 12.980000 6.380000 169 170 167 0
8.140000 12.980000 11.880000 173 181 181 0
8.360000 12.980000 18.150000 183 191 191 0
8.580000 12.980000 20.900000 187 202 204 0
8.800000 12.980000 20.900000 195 210 212 0
9.020000 12.980000 20.130000 194 222 218 0
9.240000 12.980000 20.130000 201 229 225 0
9.460000 12.980000 20.130000 207 237 232 0
9.680000 12.980000 20.130000 209 239 234 0
9.900000 12.980000 20.130000 211 239 237 0
10.120000 12.980000 20.790000 212 240 238 0
10.340000 12.980000 20.790000 210 240 237 0
10.560000 12.980000 20.790000 209 239 236 0
10.780000 12.980000 20.790000 208 238 235 0
11.000000 12.980000 21.560000 207 237 234 0
11.220000 12.980000 15.950000 204 234 227 0
11.440000 12.980000 5.610000 202 232 225 0
11.660000 12.980000 0.110000 201 230 221 0
11.880000 12.980000 0.110000 199 228 219 0
12.100000 12.980000 0.110000 198 227 218 0
12.320000 12.980000 0.770000 198 227 218 0
12.540000 12.980000 0.770000 195 224 217 0
12.760000 12.980000 0.880000 194 223 216 0
12.980000 12.980000 0.880000 195 224 215 0
13.200000 12.980000 1.540000 195 224 215 0
13.420000 12.980000 1.540000 193 222 213 0
13.640000 12.980000 1.650000 191 220 211 0
13.860000 12.980000 1.650000 190 219 210 0
14.080000 12.980000 1.650000 189 218 209 0
14.300000 12.980000 1.650000 186 216 209 0
14.520000 12.980000 1.650000 181 211 204 0
14.740000 12.980000 1.650000 179 208 198 0
14.960000 12.980000 1.760000 174 203 193 0
15.180000 12.980000 1.760000 171 201 184 0
15.400000 12.980000 1.760000 164 194 177 0
15.620000 12.980000 1.760000 166 184 165 0
15.840000 12.980000 1.650000 161 179 160 0
16.060000 12.980000 1.650000 162 174 155 0
16.280000 12.980000 1.650000 160 172 153 0
16.500000 12.980000 1.650000 160 172 153 0
16.720000 12.980000 2.420000 160 172 153 0
16.940000 12.980000 2.420000 158 175 154 0
17.160000 12.980000 2.420000 162 179 158 0
17.380000 12.980000 2.420000 164 182 163 0
17.600000 12.980000 1.760000 167 185 166 0
17.820000 12.980000 1.870000 170 192 175 0
18.040000 12.980000 1.870000 172 194 177 0
18.260000 12.980000 1.870000 172 199 187 0
18.480000 12.980000 1.870000 176 203 191 0
18.700000 12.980000 1.870000 178 205 193 0
18.920000 12.980000 1.870000 183 210 198 0
19.140000 12.980000 1.980000 183 213 200 0
19.360000 12.980000 1.980000 185 215 202 0
19.580000 12.980000 1.980000 188 215 203 0
19.800000 12.980000 1.980000 190 217 205 0
20.020000 12.980000 1.980000 189 219 206 0
20.240000 12.980000 1.980000 189 219 206 0
20.460000 12.980000 1.980000 190 220 207 0
20.680000 12.980000 2.530000 191 221 208 0
20.900000 12.980000 2.970000 193 223 210 0
21.120000 12.980000 3.520000 192 222 209 0
21.340000 12.980000 3.520000 194 221 209 0
21.560000 12.980000 3.520000 196 223 211 0
21.780000 12.980000 3.520000 193 224 211 0
22.000000 12.980000 3.520000 194 225 212 0
22.220000 12.980000 3.630000 196 226 213 0
22.440000 12.980000 3.630000 196 226 213 0
22.660000 12.980000 3.630000 196 226 213 0
22.880000 12.980000 3.630000 197 227 214 0
23.100000 12.980000 3.740000 198 227 217 0
23.320000 12.980000 3.740000 198 227 217 0
23.540000 12.980000 3.080000 195 226 213 0
23.760000 12.980000 3.080000 196 227 214 0
23.980000 12.980000 3.850000 198 229 216 0
24.200000 12.980000 3.850000 198 229 216 0
24.420000 12.980000 3.850000 198 229 218 0
24.640000 12.980000 3.850000 198 229 218 0
24.860000 12.980000 3.960000 198 229 218 0
25.080000 12.980000 3.960000 198 229 218 0
25.300000 12.980000 4.070000 198 229 218 0
25.520000 12.980000 4.730000 198 229 218 0
25.740000 12.980000 4.730000 198 229 216 0
25.960000 12.980000 4.730000 197 228 215 0
26.180000 12.980000 5.390000 197 228 217 0
26.400000 12.980000 5.390000 197 228 217 0
26.620000 12.980000 6.600000 197 228 217 0
26.840000 12.980000 7.040000 196 227 216 0
27.060000 12.980000 7.700000 195 226 215 0
27.280000 12.980000 7.700000 196 227 216 0
27.500000 12.980000 7.700000 195 226 215 0
27.720000 12.980000 8.360000 194 225 214 0
27.940000 12.980000 8.360000 193 224 213 0
28.160000 12.980000 8.360000 191 222 211 0
28.380000 12.980000 8.470000 189 222 210 0
28.600000 12.980000 8.470000 188 221 209 0
28.820000 12.980000 8.470000 186 217 206 0
29.040000 12.980000 8.470000 181 212 201 0
29.260000 12.980000 8.580000 181 208 198 0
29.480000 12.980000 8.580000 176 203 193 0
29.700000 12.980000 8.580000 174 197 184 0
29.920000 12.980000 7.920000 168 191 178 0
30.140000 12.980000 7.920000 168 181 159 0
30.360000 12.980000 7.920000 162 175 153 0
30.580000 12.980000 7.920000 159 164 141 0
30.800000 12.980000 7.920000 152 157 134 0
31.020000 12.980000 7.920000 154 149 124 0
31.240000 12.980000 7.920000 151 146 121 0
31.460000 12.980000 7.920000 148 143 118 0
31.680000 12.980000 7.920000 145 140 115 0
31.900000 12.980000 7.810000 144 137 113 0
32.120000 12.980000 7.810000 143 136 112 0
32.340000 12.980000 7.810000 145 134 111 0
32.560000 12.980000 7.810000 144 133 110 0
32.780000 12.980000 7.810000 143 132 107 0
33.000000 12.980000 7.810000 143 132 107 0
33.220000 12.980000 7.810000 143 132 107 0
33.440000 12.980000 7.810000 141 130 105 0
33.660000 12.980000 7.810000 141 128 104 0
33.880000 12.980000 7.810000 140 127 103 0
34.100000 12.980000 7.810000 140 127 103 0
34.320000 12.980000 8.470000 139 126 102 0
34.540000 12.980000 8.470000 139 126 102 0
34.760000 12.980000 8.470000 138 125 101 0
34.980000 12.980000 8.470000 137 124 100 0
35.200000 12.980000 8.470000 137 124 100 0
35.420000 12.980000 8.470000 137 124 100 0
35.640000 12.980000 8.470000 137 124 100 0
35.860000 12.980000 9.240000 136 123 99 0
36.080000 12.980000 9.240000 135 122 98 0
36.300000 12.980000 9.240000 138 123 97 0
36.520000 12.980000 9.240000 137 122 96 0
36.740000 12.980000 9.240000 136 121 97 0
36.960000 12.980000 9.240000 136 121 97 0
37.180000 12.980000 9.240000 136 121 95 0
0.000000 13.200000 14.740000 133 118 108 0
0.220000 13.200000 14.740000 133 118 108 0
0.440000 13.200000 14.630000 132 117 107 0
0.660000 13.200000 14.630000 133 118 108 0
0.880000 13.200000 14.630000 133 118 108 0
1.100000 13.200000 14.740000 133 118 108 0
1.320000 13.200000 14.630000 133 118 108 0
1.540000 13.200000 15.400000 134 119 109 0
1.760000 13.200000 15.400000 134 119 109 0
1.980000 13.200000 15.400000 134 119 109 0
2.200000 13.200000 15.400000 134 119 109 0
2.420000 13.200000 15.400000 135 122 109 0
2.640000 13.200000 16.060000 135 122 109 0
2.860000 13.200000 16.060000 135 120 110 0
3.080000 13.200000 16.060000 136 121 111 0
3.300000 13.200000 16.060000 136 121 111 0
3.520000 13.200000 16.060000 137 122 112 0
3.740000 13.200000 16.830000 137 122 110 0
3.960000 13.200000 17.490000 139 124 112 0
4.180000 13.200000 17.490000 138 125 112 0
4.400000 13.200000 18.150000 139 126 113 0
4.620000 13.200000 18.810000 140 125 113 0
4.840000 13.200000 19.580000 141 126 114 0
5.060000 13.200000 19.580000 141 126 114 0
5.280000 13.200000 20.240000 144 129 117 0
5.500000 13.200000 20.240000 143 128 116 0
5.720000 13.200000 20.240000 144 129 117 0
5.940000 13.200000 19.580000 146 133 120 0
6.160000 13.200000 18.150000 148 135 122 0
6.380000 13.200000 15.400000 150 137 126 0
6.600000 13.200000 7.810000 152 139 128 0
6.820000 13.200000 0.880000 151 142 132 0
7.040000 13.200000 0.220000 153 144 134 0
7.260000 13.200000 0.220000 156 151 140 0
7.480000 13.200000 2.200000 160 155 144 0
7.700000 13.200000 7.810000 162 163 160 0
7.920000 13.200000 9.130000 168 169 166 0
8.140000 13.200000 10.560000 172 180 180 0
8.360000 13.200000 16.720000 182 190 190 0
8.580000 13.200000 20.900000 187 202 204 0
8.800000 13.200000 20.900000 194 209 211 0
9.020000 13.200000 20.130000 193 221 217 0
9.240000 13.200000 20.130000 201 229 225 0
9.460000 13.200000 20.130000 206 236 231 0
9.680000 13.200000 20.130000 209 239 234 0
9.900000 13.200000 20.790000 211 239 237 0
10.120000 13.200000 20.790000 212 240 238 0
10.340000 13.200000 20.790000 210 240 237 0
10.560000 13.200000 20.790000 209 239 236 0
10.780000 13.200000 20.790000 207 237 234 0
11.000000 13.200000 21.560000 207 237 234 0
11.220000 13.200000 15.950000 204 234 227 0
11.440000 13.200000 5.610000 201 231 224 0
11.660000 13.200000 0.110000 199 228 219 0
11.880000 13.200000 0.110000 199 228 219 0
12.100000 13.200000 0.110000 197 226 217 0
12.320000 13.200000 0.770000 197 226 217 0
12.540000 13.200000 0.770000 195 224 217 0
12.760000 13.200000 0.880000 194 223 216 0
12.980000 13.200000 0.880000 193 222 213 0
13.200000 13.200000 1.540000 193 222 213 0
13.420000 13.200000 1.540000 193 222 213 0
13.640000 13.200000 1.650000 191 220 211 0
13.860000 13.200000 1.650000 190 219 210 0
14.080000 13.200000 1.650000 188 217 208 0
14.300000 13.200000 1.650000 186 216 209 0
14.520000 13.200000 1.650000 181 211 204 0
14.740000 13.200000 1.650000 178 207 197 0
14.960000 13.200000 1.760000 173 202 192 0
15.180000 13.200000 1.760000 170 200 183 0
15.400000 13.200000 1.760000 164 194 177 0
15.620000 13.200000 1.760000 165 183 164 0
15.840000 13.200000 1.650000 162 180 161 0
16.060000 13.200000 1.650000 162 174 155 0
16.280000 13.200000 1.650000 160 172 153 0
16.500000 13.200000 1.650000 159 171 152 0
16.720000 13.200000 2.310000 161 173 154 0
16.940000 13.200000 2.310000 159 176 155 0
17.160000 13.200000 2.420000 162 179 158 0
17.380000 13.200000 2.420000 165 183 164 0
17.600000 13.200000 1.760000 166 184 165 0
17.820000 13.200000 1.870000 168 190 173 0
18.040000 13.200000 1.870000 172 194 177 0
18.260000 13.200000 1.870000 173 200 188 0
18.480000 13.200000 1.870000 176 203 191 0
18.700000 13.200000 1.870000 178 205 193 0
18.920000 13.200000 1.870000 181 208 196 0
19.140000 13.200000 1.980000 183 213 200 0
19.360000 13.200000 1.980000 184 214 201 0
19.580000 13.200000 1.980000 187 214 202 0
19.800000 13.200000 1.980000 190 217 205 0
20.020000 13.200000 1.980000 189 219 206 0
20.240000 13.200000 1.980000 189 219 206 0
20.460000 13.200000 1.980000 190 220 207 0
20.680000 13.200000 2.530000 191 221 208 0
20.900000 13.200000 2.970000 191 221 208 0
21.120000 13.200000 3.520000 192 222 209 0
21.340000 13.200000 3.520000 195 222 210 0
21.560000 13.200000 3.520000 195 222 210 0
21.780000 13.200000 3.520000 194 225 212 0
22.000000 13.200000 3.520000 193 224 211 0
22.220000 13.200000 3.520000 195 225 212 0
22.440000 13.200000 3.630000 195 225 212 0
22.660000 13.200000 3.630000 196 226 213 0
22.880000 13.200000 3.630000 196 226 213 0
23.100000 13.200000 3.740000 197 226 216 0
23.320000 13.200000 3.740000 197 226 216 0
23.540000 13.200000 3.080000 195 226 213 0
23.760000 13.200000 3.080000 196 227 214 0
23.980000 13.200000 3.850000 196 227 214 0
24.200000 13.200000 3.850000 197 228 215 0
24.420000 13.200000 3.850000 197 228 217 0
24.640000 13.200000 3.850000 198 229 218 0
24.860000 13.200000 3.960000 198 229 218 0
25.080000 13.200000 3.960000 198 229 218 0
25.300000 13.200000 4.070000 198 229 218 0
25.520000 13.200000 4.730000 198 229 218 0
25.740000 13.200000 4.730000 198 229 216 0
25.960000 13.200000 4.730000 198 229 216 0
26.180000 13.200000 5.390000 198 229 218 0
26.400000 13.200000 5.390000 196 227 216 0
26.620000 13.200000 5.940000 197 228 217 0
26.840000 13.200000 7.040000 197 228 217 0
27.060000 13.200000 7.700000 196 227 216 0
27.280000 13.200000 7.700000 195 226 215 0
27.500000 13.200000 7.700000 194 225 214 0
27.720000 13.200000 8.360000 192 223 212 0
27.940000 13.200000 8.360000 192 223 212 0
28.160000 13.200000 8.360000 191 222 211 0
28.380000 13.200000 8.470000 187 220 208 0
28.600000 13.200000 8.470000 186 219 207 0
28.820000 13.200000 8.470000 185 216 205 0
29.040000 13.200000 8.470000 182 213 202 0
29.260000 13.200000 8.580000 180 207 197 0
29.480000 13.200000 8.580000 177 204 194 0
29.700000 13.200000 8.580000 176 199 186 0
29.920000 13.200000 7.920000 168 191 178 0
30.140000 13.200000 7.920000 169 182 160 0
30.360000 13.200000 7.920000 160 173 151 0
30.580000 13.200000 7.920000 160 165 142 0
30.800000 13.200000 7.920000 152 157 134 0
31.020000 13.200000 7.920000 153 148 123 0
31.240000 13.200000 7.920000 150 145 120 0
31.460000 13.200000 7.920000 149 144 119 0
31.680000 13.200000 7.920000 146 141 116 0
31.900000 13.200000 7.810000 144 137 113 0
32.120000 13.200000 7.810000 143 136 112 0
32.340000 13.200000 7.810000 145 134 111 0
32.560000 13.200000 7.810000 144 133 110 0
32.780000 13.200000 7.810000 143 132 107 0
33.000000 13.200000 7.810000 142 131 106 0
33.220000 13.200000 7.810000 141 130 105 0
33.440000 13.200000 7.810000 140 129 104 0
33.660000 13.200000 7.810000 141 128 104 0
33.880000 13.200000 7.810000 140 127 103 0
34.100000 13.200000 7.810000 140 127 103 0
34.320000 13.200000 8.470000 139 126 102 0
34.540000 13.200000 8.470000 139 126 102 0
34.760000 13.200000 8.470000 137 124 100 0
34.980000 13.200000 8.470000 137 124 100 0
35.200000 13.200000 8.470000 137 124 100 0
35.420000 13.200000 8.470000 137 124 100 0
35.640000 13.200000 8.470000 137 124 100 0
35.860000 13.200000 9.240000 136 123 99 0
36.080000 13.200000 9.240000 136 123 99 0
36.300000 13.200000 9.240000 138 123 97 0
36.520000 13.200000 9.240000 137 122 96 0
36.740000 13.200000 9.240000 137 122 98 0
36.960000 13.200000 9.240000 136 121 97 0
37.180000 13.200000 9.240000 136 121 95 0
0.000000 13.420000 14.740000 131 116 106 0
0.220000 13.420000 14.740000 132 117 107 0
0.440000 13.420000 14.630000 132 117 107 0
0.660000 13.420000 14.630000 133 118 108 0
0.880000 13.420000 14.740000 133 118 108 0
1.100000 13.420000 14.740000 133 118 108 0
1.320000 13.420000 14.630000 133 118 108 0
1.540000 13.420000 15.400000 134 119 109 0
1.760000 13.420000 15.400000 134 119 109 0
1.980000 13.420000 15.400000 133 118 108 0
2.200000 13.420000 15.400000 135 120 110 0
2.420000 13.420000 15.400000 134 119 109 0
2.640000 13.420000 16.060000 135 120 110 0
2.860000 13.420000 16.060000 135 120 110 0
3.080000 13.420000 16.060000 135 120 110 0
3.300000 13.420000 16.060000 137 122 112 0
3.520000 13.420000 16.060000 136 121 111 0
3.740000 13.420000 16.830000 138 123 111 0
3.960000 13.420000 17.490000 139 124 112 0
4.180000 13.420000 18.150000 139 124 112 0
4.400000 13.420000 18.150000 139 124 112 0
4.620000 13.420000 18.810000 141 126 116 0
4.840000 13.420000 18.810000 141 126 116 0
5.060000 13.420000 19.580000 141 126 114 0
5.280000 13.420000 20.240000 143 128 116 0
5.500000 13.420000 20.240000 144 131 118 0
5.720000 13.420000 20.900000 143 130 117 0
5.940000 13.420000 16.720000 147 134 121 0
6.160000 13.420000 11.880000 149 136 123 0
6.380000 13.420000 11.880000 148 138 124 0
6.600000 13.420000 9.130000 150 140 126 0
6.820000 13.420000 2.310000 152 143 133 0
7.040000 13.420000 0.220000 155 146 136 0
7.260000 13.420000 0.220000 157 152 141 0
7.480000 13.420000 1.540000 160 155 144 0
7.700000 13.420000 4.950000 162 164 158 0
7.920000 13.420000 6.380000 169 171 165 0
8.140000 13.420000 7.700000 172 181 181 0
8.360000 13.420000 15.290000 181 190 190 0
8.580000 13.420000 20.900000 187 200 203 0
8.800000 13.420000 20.900000 195 208 211 0
9.020000 13.420000 20.900000 194 222 220 0
9.240000 13.420000 20.130000 201 229 227 0
9.460000 13.420000 20.130000 206 236 231 0
9.680000 13.420000 20.130000 209 239 234 0
9.900000 13.420000 20.790000 211 239 237 0
10.120000 13.420000 20.790000 212 240 238 0
10.340000 13.420000 20.790000 209 240 237 0
10.560000 13.420000 20.790000 208 239 236 0
10.780000 13.420000 20.790000 207 238 235 0
11.000000 13.420000 21.560000 205 236 233 0
11.220000 13.420000 15.950000 205 235 228 0
11.440000 13.420000 5.610000 201 231 224 0
11.660000 13.420000 0.110000 199 228 218 0
11.880000 13.420000 0.110000 198 227 217 0
12.100000 13.420000 0.110000 197 226 217 0
12.320000 13.420000 0.770000 196 225 216 0
12.540000 13.420000 0.770000 196 225 218 0
12.760000 13.420000 0.770000 193 222 215 0
12.980000 13.420000 0.880000 193 222 213 0
13.200000 13.420000 1.540000 192 221 212 0
13.420000 13.420000 1.540000 192 221 212 0
13.640000 13.420000 1.650000 192 221 212 0
13.860000 13.420000 1.650000 188 219 209 0
14.080000 13.420000 1.650000 187 218 208 0
14.300000 13.420000 1.650000 184 216 208 0
14.520000 13.420000 1.650000 181 213 205 0
14.740000 13.420000 1.650000 179 206 194 0
14.960000 13.420000 1.760000 175 202 190 0
15.180000 13.420000 1.760000 170 198 181 0
15.400000 13.420000 1.760000 166 194 177 0
15.620000 13.420000 1.760000 167 185 166 0
15.840000 13.420000 1.650000 161 179 160 0
16.060000 13.420000 1.650000 160 174 152 0
16.280000 13.420000 1.650000 160 174 152 0
16.500000 13.420000 1.650000 158 172 152 0
16.720000 13.420000 2.310000 158 172 152 0
16.940000 13.420000 2.310000 161 175 155 0
17.160000 13.420000 2.420000 163 177 157 0
17.380000 13.420000 2.420000 163 181 162 0
17.600000 13.420000 1.760000 167 185 166 0
17.820000 13.420000 1.870000 168 190 173 0
18.040000 13.420000 1.870000 173 195 178 0
18.260000 13.420000 1.870000 172 199 187 0
18.480000 13.420000 1.870000 176 203 191 0
18.700000 13.420000 1.870000 179 204 193 0
18.920000 13.420000 1.870000 183 208 197 0
19.140000 13.420000 1.980000 182 212 199 0
19.360000 13.420000 1.980000 183 213 200 0
19.580000 13.420000 1.980000 187 214 202 0
19.800000 13.420000 1.980000 189 216 204 0
20.020000 13.420000 1.980000 188 218 205 0
20.240000 13.420000 1.980000 189 219 206 0
20.460000 13.420000 1.980000 192 219 207 0
20.680000 13.420000 2.530000 192 219 207 0
20.900000 13.420000 2.970000 192 222 209 0
21.120000 13.420000 3.520000 192 222 209 0
21.340000 13.420000 3.520000 192 222 209 0
21.560000 13.420000 3.520000 194 224 211 0
21.780000 13.420000 3.520000 194 224 211 0
22.000000 13.420000 3.520000 195 225 212 0
22.220000 13.420000 3.520000 195 225 212 0
22.440000 13.420000 3.630000 196 226 213 0
22.660000 13.420000 3.630000 194 225 212 0
22.880000 13.420000 3.630000 195 226 213 0
23.100000 13.420000 3.740000 196 227 214 0
23.320000 13.420000 3.740000 196 227 214 0
23.540000 13.420000 3.080000 195 226 213 0
23.760000 13.420000 3.080000 196 227 214 0
23.980000 13.420000 3.850000 196 227 214 0
24.200000 13.420000 3.850000 195 226 213 0
24.420000 13.420000 3.850000 197 228 215 0
24.640000 13.420000 3.850000 197 228 215 0
24.860000 13.420000 3.960000 197 228 217 0
25.080000 13.420000 3.960000 198 229 218 0
25.300000 13.420000 4.070000 197 228 215 0
25.520000 13.420000 4.730000 198 229 216 0
25.740000 13.420000 4.730000 197 228 215 0
25.960000 13.420000 4.730000 197 228 215 0
26.180000 13.420000 5.390000 197 228 217 0
26.400000 13.420000 5.500000 196 227 216 0
26.620000 13.420000 6.050000 196 227 216 0
26.840000 13.420000 7.150000 196 227 216 0
27.060000 13.420000 7.700000 196 227 214 0
27.280000 13.420000 7.700000 195 226 213 0
27.500000 13.420000 7.700000 194 225 214 0
27.720000 13.420000 8.360000 193 224 213 0
27.940000 13.420000 8.360000 191 224 212 0
28.160000 13.420000 8.360000 190 223 211 0
28.380000 13.420000 8.470000 190 221 210 0
28.600000 13.420000 8.470000 189 220 209 0
28.820000 13.420000 8.470000 184 217 205 0
29.040000 13.420000 8.470000 181 214 202 0
29.260000 13.420000 8.580000 178 209 196 0
29.480000 13.420000 8.580000 173 204 191 0
29.700000 13.420000 8.580000 170 200 185 0
29.920000 13.420000 8.580000 164 194 179 0
30.140000 13.420000 7.920000 168 185 164 0
30.360000 13.420000 7.920000 159 176 155 0
30.580000 13.420000 7.920000 161 166 143 0
30.800000 13.420000 7.920000 153 158 135 0
31.020000 13.420000 7.920000 152 151 126 0
31.240000 13.420000 7.920000 146 145 120 0
31.460000 13.420000 7.920000 148 141 117 0
31.680000 13.420000 7.920000 146 139 115 0
31.900000 13.420000 7.920000 144 137 113 0
32.120000 13.420000 7.810000 143 136 112 0
32.340000 13.420000 7.810000 144 136 112 0
32.560000 13.420000 7.810000 142 134 110 0
32.780000 13.420000 7.810000 140 132 106 0
33.000000 13.420000 7.810000 139 131 105 0
33.220000 13.420000 7.810000 142 131 106 0
33.440000 13.420000 7.810000 141 130 105 0
33.660000 13.420000 7.810000 140 129 104 0
33.880000 13.420000 8.470000 139 128 103 0
34.100000 13.420000 8.470000 138 127 102 0
34.320000 13.420000 8.470000 139 128 103 0
34.540000 13.420000 8.470000 138 127 102 0
34.760000 13.420000 8.470000 137 126 101 0
34.980000 13.420000 8.470000 137 124 100 0
35.200000 13.420000 8.470000 136 123 99 0
35.420000 13.420000 8.470000 137 124 100 0
35.640000 13.420000 8.470000 136 123 99 0
35.860000 13.420000 8.470000 136 123 99 0
36.080000 13.420000 9.240000 136 123 99 0
36.300000 13.420000 9.240000 137 122 96 0
36.520000 13.420000 9.240000 137 122 96 0
36.740000 13.420000 9.240000 137 122 96 0
36.960000 13.420000 9.240000 136 121 95 0
37.180000 13.420000 9.240000 136 121 95 0
0.000000 13.640000 14.740000 132 117 107 0
0.220000 13.640000 14.740000 132 117 107 0
0.440000 13.640000 14.630000 133 118 108 0
0.660000 13.640000 14.630000 133 118 108 0
0.880000 13.640000 14.740000 133 118 108 0
1.100000 13.640000 14.740000 133 118 108 0
1.320000 13.640000 14.630000 133 118 108 0
1.540000 13.640000 15.400000 133 118 108 0
1.760000 13.640000 15.400000 134 119 109 0
1.980000 13.640000 15.400000 134 119 109 0
2.200000 13.640000 15.400000 135 120 110 0
2.420000 13.640000 16.060000 135 120 110 0
2.640000 13.640000 16.060000 135 120 110 0
2.860000 13.640000 16.060000 135 120 110 0
3.080000 13.640000 16.060000 136 121 111 0
3.300000 13.640000 16.060000 137 122 112 0
3.520000 13.640000 16.060000 137 122 112 0
3.740000 13.640000 16.830000 138 123 111 0
3.960000 13.640000 17.490000 138 123 111 0
4.180000 13.640000 18.150000 138 123 111 0
4.400000 13.640000 18.150000 140 125 113 0
4.620000 13.640000 18.150000 141 126 116 0
4.840000 13.640000 18.810000 140 125 115 0
5.060000 13.640000 19.580000 140 125 113 0
5.280000 13.640000 20.240000 142 127 115 0
5.500000 13.640000 20.240000 142 129 116 0
5.720000 13.640000 20.240000 144 131 118 0
5.940000 13.640000 15.400000 146 133 120 0
6.160000 13.640000 7.810000 147 134 121 0
6.380000 13.640000 6.380000 148 138 124 0
6.600000 13.640000 5.060000 151 141 127 0
6.820000 13.640000 0.880000 153 144 134 0
7.040000 13.640000 0.220000 156 147 137 0
7.260000 13.640000 0.220000 156 151 140 0
7.480000 13.640000 0.220000 161 156 145 0
7.700000 13.640000 2.200000 159 161 155 0
7.920000 13.640000 6.380000 169 171 165 0
8.140000 13.640000 10.560000 170 179 179 0
8.360000 13.640000 16.720000 180 189 189 0
8.580000 13.640000 20.900000 187 200 203 0
8.800000 13.640000 20.900000 196 209 212 0
9.020000 13.640000 20.790000 193 221 219 0
9.240000 13.640000 20.130000 201 229 227 0
9.460000 13.640000 20.130000 206 236 231 0
9.680000 13.640000 20.130000 210 240 235 0
9.900000 13.640000 20.130000 212 240 238 0
10.120000 13.640000 20.790000 211 239 237 0
10.340000 13.640000 20.790000 209 240 237 0
10.560000 13.640000 20.790000 208 239 236 0
10.780000 13.640000 20.790000 207 238 235 0
11.000000 13.640000 21.560000 206 237 234 0
11.220000 13.640000 15.950000 204 234 227 0
11.440000 13.640000 5.610000 201 231 224 0
11.660000 13.640000 0.110000 200 229 219 0
11.880000 13.640000 0.110000 199 228 218 0
12.100000 13.640000 0.110000 197 226 217 0
12.320000 13.640000 0.770000 196 225 216 0
12.540000 13.640000 0.770000 196 225 218 0
12.760000 13.640000 0.770000 196 225 218 0
12.980000 13.640000 1.540000 194 223 214 0
13.200000 13.640000 1.540000 193 222 213 0
13.420000 13.640000 1.540000 193 222 213 0
13.640000 13.640000 1.650000 192 221 212 0
13.860000 13.640000 1.650000 191 222 212 0
14.080000 13.640000 1.650000 188 219 209 0
14.300000 13.640000 1.650000 184 216 208 0
14.520000 13.640000 1.650000 182 214 206 0
14.740000 13.640000 1.650000 180 207 195 0
14.960000 13.640000 1.760000 176 203 191 0
15.180000 13.640000 1.760000 171 199 182 0
15.400000 13.640000 1.760000 165 193 176 0
15.620000 13.640000 1.650000 166 184 165 0
15.840000 13.640000 1.650000 161 179 160 0
16.060000 13.640000 1.650000 160 174 152 0
16.280000 13.640000 1.650000 159 173 151 0
16.500000 13.640000 2.420000 158 172 152 0
16.720000 13.640000 2.310000 159 173 153 0
16.940000 13.640000 2.310000 162 176 156 0
17.160000 13.640000 2.310000 164 178 158 0
17.380000 13.640000 2.420000 164 182 163 0
17.600000 13.640000 1.760000 169 187 168 0
17.820000 13.640000 1.870000 169 191 174 0
18.040000 13.640000 1.870000 173 195 178 0
18.260000 13.640000 1.870000 173 200 188 0
18.480000 13.640000 1.870000 175 202 190 0
18.700000 13.640000 1.870000 181 206 195 0
18.920000 13.640000 1.870000 182 207 196 0
19.140000 13.640000 1.980000 183 213 200 0
19.360000 13.640000 1.980000 184 214 201 0
19.580000 13.640000 1.980000 188 215 203 0
19.800000 13.640000 1.980000 189 216 204 0
20.020000 13.640000 1.980000 189 219 206 0
20.240000 13.640000 1.980000 190 220 207 0
20.460000 13.640000 1.980000 192 219 207 0
20.680000 13.640000 2.530000 194 221 209 0
20.900000 13.640000 2.970000 192 222 209 0
21.120000 13.640000 3.520000 191 221 208 0
21.340000 13.640000 3.520000 193 223 210 0
21.560000 13.640000 3.520000 194 224 211 0
21.780000 13.640000 3.520000 194 224 211 0
22.000000 13.640000 3.520000 195 225 212 0
22.220000 13.640000 3.520000 195 225 212 0
22.440000 13.640000 3.630000 196 226 213 0
22.660000 13.640000 3.630000 195 226 213 0
22.880000 13.640000 3.630000 197 228 215 0
23.100000 13.640000 3.740000 196 227 214 0
23.320000 13.640000 3.740000 197 228 215 0
23.540000 13.640000 3.080000 197 228 215 0
23.760000 13.640000 3.080000 197 228 215 0
23.980000 13.640000 3.850000 197 228 215 0
24.200000 13.640000 3.850000 197 228 215 0
24.420000 13.640000 3.850000 197 228 215 0
24.640000 13.640000 3.850000 198 229 216 0
24.860000 13.640000 3.960000 199 230 219 0
25.080000 13.640000 3.960000 199 230 219 0
25.300000 13.640000 4.070000 198 229 216 0
25.520000 13.640000 4.730000 198 229 216 0
25.740000 13.640000 4.730000 198 229 216 0
25.960000 13.640000 4.730000 197 228 215 0
26.180000 13.640000 5.390000 197 228 217 0
26.400000 13.640000 5.500000 197 228 217 0
26.620000 13.640000 6.050000 198 229 218 0
26.840000 13.640000 7.150000 197 228 217 0
27.060000 13.640000 7.700000 198 229 216 0
27.280000 13.640000 7.700000 196 227 214 0
27.500000 13.640000 7.700000 196 227 216 0
27.720000 13.640000 8.360000 193 224 213 0
27.940000 13.640000 8.360000 192 225 213 0
28.160000 13.640000 8.360000 190 223 211 0
28.380000 13.640000 8.470000 191 222 211 0
28.600000 13.640000 8.470000 188 219 208 0
28.820000 13.640000 8.470000 186 219 207 0
29.040000 13.640000 8.470000 181 214 202 0
29.260000 13.640000 8.580000 179 210 197 0
29.480000 13.640000 8.580000 175 206 193 0
29.700000 13.640000 8.580000 171 201 186 0
29.920000 13.640000 8.580000 165 195 180 0
30.140000 13.640000 8.580000 170 187 166 0
30.360000 13.640000 7.920000 161 178 157 0
30.580000 13.640000 7.920000 162 167 144 0
30.800000 13.640000 7.920000 155 160 137 0
31.020000 13.640000 7.920000 152 151 126 0
31.240000 13.640000 7.920000 149 148 123 0
31.460000 13.640000 7.920000 150 143 119 0
31.680000 13.640000 7.920000 147 140 116 0
31.900000 13.640000 7.920000 145 138 114 0
32.120000 13.640000 7.810000 144 137 113 0
32.340000 13.640000 7.810000 143 135 111 0
32.560000 13.640000 7.810000 141 133 109 0
32.780000 13.640000 7.810000 140 132 106 0
33.000000 13.640000 7.810000 140 132 106 0
33.220000 13.640000 7.810000 141 130 105 0
33.440000 13.640000 7.810000 140 129 104 0
33.660000 13.640000 7.810000 140 129 104 0
33.880000 13.640000 8.470000 140 129 104 0
34.100000 13.640000 8.470000 140 129 104 0
34.320000 13.640000 8.470000 139 128 103 0
34.540000 13.640000 8.470000 137 126 101 0
34.760000 13.640000 8.470000 137 126 101 0
34.980000 13.640000 8.470000 138 125 101 0
35.200000 13.640000 8.470000 137 124 100 0
35.420000 13.640000 8.470000 136 123 99 0
35.640000 13.640000 8.470000 136 123 99 0
35.860000 13.640000 8.470000 135 122 98 0
36.080000 13.640000 9.240000 135 122 98 0
36.300000 13.640000 9.240000 137 122 96 0
36.520000 13.640000 9.240000 136 121 95 0
36.740000 13.640000 9.240000 137 122 96 0
36.960000 13.640000 9.240000 136 121 95 0
37.180000 13.640000 9.240000 136 121 95 0
0.000000 13.860000 14.740000 133 118 108 0
0.220000 13.860000 14.740000 135 117 108 0
0.440000 13.860000 14.740000 135 117 108 0
0.660000 13.860000 14.740000 133 118 108 0
0.880000 13.860000 14.740000 133 118 108 0
1.100000 13.860000 14.740000 134 119 109 0
1.320000 13.860000 14.740000 132 117 107 0
1.540000 13.860000 15.400000 134 119 109 0
1.760000 13.860000 15.400000 135 120 110 0
1.980000 13.860000 15.400000 135 120 110 0
2.200000 13.860000 15.400000 134 119 109 0
2.420000 13.860000 15.400000 135 120 108 0
2.640000 13.860000 16.060000 135 120 108 0
2.860000 13.860000 16.060000 135 120 108 0
3.080000 13.860000 16.060000 135 120 108 0
3.300000 13.860000 16.060000 137 122 112 0
3.520000 13.860000 16.060000 137 122 112 0
3.740000 13.860000 16.720000 137 122 110 0
3.960000 13.860000 17.490000 138 123 111 0
4.180000 13.860000 17.490000 139 124 112 0
4.400000 13.860000 18.150000 139 124 112 0
4.620000 13.860000 18.150000 140 125 113 0
4.840000 13.860000 18.810000 141 126 114 0
5.060000 13.860000 19.580000 142 127 117 0
5.280000 13.860000 20.240000 143 128 118 0
5.500000 13.860000 20.240000 143 128 116 0
5.720000 13.860000 20.240000 146 131 119 0
5.940000 13.860000 16.720000 146 133 120 0
6.160000 13.860000 11.880000 147 134 121 0
6.380000 13.860000 9.130000 149 138 127 0
6.600000 13.860000 3.630000 151 140 129 0
6.820000 13.860000 0.220000 152 143 131 0
7.040000 13.860000 0.220000 155 146 134 0
7.260000 13.860000 0.220000 156 151 142 0
7.480000 13.860000 0.220000 160 155 146 0
7.700000 13.860000 0.880000 162 164 156 0
7.920000 13.860000 4.950000 169 171 163 0
8.140000 13.860000 11.880000 169 178 178 0
8.360000 13.860000 18.150000 182 191 191 0
8.580000 13.860000 20.900000 186 201 201 0
