ply
format ascii 1.0
element vertex 1120
property float x
property float y
property float z
property uchar red
property uchar green
property uchar blue
property uchar alpha
end_header
30.360000 15.620000 22.220000 228 231 231 0
30.580000 15.620000 22.220000 228 231 231 0
30.800000 15.620000 22.220000 232 233 233 0
31.020000 15.620000 22.220000 234 235 235 0
31.240000 15.620000 22.220000 234 235 235 0
31.460000 15.620000 22.220000 233 234 234 0
31.680000 15.620000 22.220000 233 234 234 0
31.900000 15.620000 22.220000 233 234 234 0
32.120000 15.620000 22.220000 232 233 233 0
32.340000 15.620000 22.220000 232 233 233 0
32.560000 15.620000 22.220000 231 232 232 0
32.780000 15.620000 23.540000 229 230 230 0
33.000000 15.620000 22.440000 228 227 228 0
33.220000 15.620000 22.880000 225 224 225 0
33.440000 15.620000 21.780000 223 221 221 0
33.660000 15.620000 21.780000 221 219 219 0
33.880000 15.620000 23.320000 222 213 215 0
34.100000 15.620000 23.320000 218 209 211 0
34.320000 15.620000 24.640000 216 205 206 0
34.540000 15.620000 24.640000 214 203 204 0
34.760000 15.620000 24.640000 210 199 198 0
34.980000 15.620000 24.860000 207 196 195 0
35.200000 15.620000 25.960000 207 195 194 0
35.420000 15.620000 27.940000 206 194 193 0
35.640000 15.620000 27.720000 204 193 192 0
35.860000 15.620000 27.720000 204 193 192 0
36.080000 15.620000 29.260000 205 194 193 0
36.300000 15.620000 29.260000 206 195 194 0
36.520000 15.620000 29.260000 208 197 196 0
36.740000 15.620000 29.260000 209 198 197 0
36.960000 15.620000 29.260000 209 198 197 0
37.180000 15.620000 29.260000 210 199 198 0
0.000000 15.840000 23.760000 127 66 58 0
0.220000 15.840000 23.760000 126 65 57 0
0.440000 15.840000 23.760000 130 66 61 0
0.660000 15.840000 23.760000 130 66 61 0
0.880000 15.840000 23.760000 131 65 61 0
1.100000 15.840000 23.760000 131 65 61 0
1.320000 15.840000 23.760000 132 67 60 0
1.540000 15.840000 23.760000 131 66 59 0
1.760000 15.840000 23.760000 130 65 58 0
1.980000 15.840000 23.760000 130 65 58 0
2.200000 15.840000 23.760000 129 63 59 0
2.420000 15.840000 23.760000 128 62 58 0
2.640000 15.840000 23.760000 129 61 57 0
2.860000 15.840000 23.760000 129 61 57 0
3.080000 15.840000 22.440000 129 61 55 0
3.300000 15.840000 23.760000 128 60 54 0
3.520000 15.840000 23.760000 129 61 55 0
3.740000 15.840000 23.760000 129 61 55 0
3.960000 15.840000 23.760000 130 62 58 0
4.180000 15.840000 23.760000 131 63 59 0
4.400000 15.840000 23.760000 131 61 58 0
4.620000 15.840000 22.440000 130 60 57 0
4.840000 15.840000 23.760000 130 62 58 0
5.060000 15.840000 23.760000 130 62 58 0
5.280000 15.840000 23.760000 131 61 56 0
5.500000 15.840000 23.760000 130 60 55 0
5.720000 15.840000 23.760000 130 60 57 0
5.940000 15.840000 23.760000 129 59 56 0
6.160000 15.840000 23.760000 129 59 56 0
6.380000 15.840000 23.760000 129 59 56 0
6.600000 15.840000 23.760000 128 58 55 0
6.820000 15.840000 23.760000 129 59 56 0
7.040000 15.840000 23.760000 128 58 55 0
7.260000 15.840000 23.760000 129 59 56 0
7.480000 15.840000 23.760000 130 60 57 0
7.700000 15.840000 23.760000 130 60 57 0
7.920000 15.840000 22.220000 131 63 59 0
8.140000 15.840000 20.900000 132 64 60 0
8.360000 15.840000 18.040000 131 65 62 0
8.580000 15.840000 16.720000 132 66 63 0
8.800000 15.840000 16.720000 133 67 63 0
9.020000 15.840000 16.720000 135 69 65 0
9.240000 15.840000 16.720000 134 68 64 0
9.460000 15.840000 16.720000 134 68 64 0
9.680000 15.840000 16.720000 135 69 65 0
9.900000 15.840000 18.040000 134 68 64 0
10.120000 15.840000 18.040000 134 68 65 0
10.340000 15.840000 19.580000 132 66 63 0
10.560000 15.840000 19.580000 131 65 61 0
10.780000 15.840000 19.580000 132 66 62 0
11.000000 15.840000 20.900000 131 65 61 0
11.220000 15.840000 22.220000 130 64 60 0
11.440000 15.840000 22.220000 130 64 60 0
11.660000 15.840000 23.760000 129 63 59 0
11.880000 15.840000 23.760000 130 64 61 0
12.100000 15.840000 23.760000 130 64 61 0
12.320000 15.840000 23.760000 129 65 60 0
12.540000 15.840000 23.760000 131 67 62 0
12.760000 15.840000 23.760000 131 67 62 0
12.980000 15.840000 23.760000 132 68 63 0
13.200000 15.840000 23.760000 131 69 65 0
13.420000 15.840000 22.220000 133 71 67 0
13.640000 15.840000 22.440000 134 74 69 0
13.860000 15.840000 22.440000 134 74 69 0
14.080000 15.840000 22.440000 135 75 70 0
14.300000 15.840000 22.440000 133 73 68 0
14.520000 15.840000 22.440000 136 74 70 0
14.740000 15.840000 22.440000 134 72 68 0
14.960000 15.840000 22.220000 134 72 68 0
15.180000 15.840000 23.760000 135 73 69 0
15.400000 15.840000 23.760000 135 74 68 0
15.620000 15.840000 23.760000 133 72 66 0
15.840000 15.840000 23.760000 133 72 66 0
16.060000 15.840000 23.760000 133 72 66 0
16.280000 15.840000 25.080000 131 70 64 0
16.500000 15.840000 25.080000 132 71 65 0
16.720000 15.840000 23.760000 132 70 66 0
16.940000 15.840000 23.760000 133 71 67 0
17.160000 15.840000 23.760000 131 73 66 0
17.380000 15.840000 23.760000 135 77 70 0
17.600000 15.840000 23.760000 134 78 74 0
17.820000 15.840000 23.760000 137 81 77 0
18.040000 15.840000 23.760000 131 92 84 0
18.260000 15.840000 23.760000 132 93 85 0
18.480000 15.840000 23.760000 131 97 90 0
18.700000 15.840000 23.760000 133 99 92 0
18.920000 15.840000 23.760000 127 107 95 0
19.140000 15.840000 23.760000 129 109 97 0
19.360000 15.840000 22.440000 130 109 99 0
19.580000 15.840000 22.440000 132 111 101 0
19.800000 15.840000 22.440000 133 112 102 0
20.020000 15.840000 22.440000 134 113 103 0
20.240000 15.840000 22.440000 134 115 104 0
20.460000 15.840000 21.120000 135 116 105 0
20.680000 15.840000 21.120000 137 118 106 0
20.900000 15.840000 21.120000 139 120 108 0
21.120000 15.840000 21.120000 140 121 110 0
21.340000 15.840000 21.120000 142 123 112 0
21.560000 15.840000 19.800000 142 123 112 0
21.780000 15.840000 19.800000 143 124 113 0
22.000000 15.840000 19.800000 144 125 114 0
22.220000 15.840000 19.800000 145 126 115 0
22.440000 15.840000 19.800000 148 128 116 0
22.660000 15.840000 18.480000 149 129 117 0
22.880000 15.840000 18.480000 151 133 118 0
23.100000 15.840000 18.480000 153 135 120 0
23.320000 15.840000 18.480000 154 137 124 0
23.540000 15.840000 18.480000 157 140 127 0
23.760000 15.840000 18.480000 158 148 133 0
23.980000 15.840000 18.480000 163 153 138 0
24.200000 15.840000 18.260000 167 160 147 0
24.420000 15.840000 18.260000 173 166 153 0
24.640000 15.840000 18.260000 177 173 165 0
24.860000 15.840000 18.480000 184 180 172 0
25.080000 15.840000 18.480000 186 186 181 0
25.300000 15.840000 18.480000 194 194 189 0
25.520000 15.840000 19.800000 199 200 197 0
25.740000 15.840000 19.800000 204 205 202 0
25.960000 15.840000 20.020000 208 213 212 0
26.180000 15.840000 20.020000 216 221 220 0
26.400000 15.840000 20.020000 218 223 222 0
26.620000 15.840000 20.020000 218 223 222 0
26.840000 15.840000 20.020000 220 223 223 0
27.060000 15.840000 20.020000 220 223 223 0
27.280000 15.840000 20.020000 218 223 224 0
27.500000 15.840000 20.020000 218 223 224 0
27.720000 15.840000 20.020000 219 222 222 0
27.940000 15.840000 20.020000 220 223 223 0
28.160000 15.840000 20.020000 219 222 222 0
28.380000 15.840000 20.240000 220 223 223 0
28.600000 15.840000 18.920000 219 220 220 0
28.820000 15.840000 19.140000 219 220 220 0
29.040000 15.840000 19.140000 218 221 221 0
29.260000 15.840000 19.140000 219 222 222 0
29.480000 15.840000 19.140000 222 223 223 0
29.700000 15.840000 19.140000 224 225 225 0
29.920000 15.840000 19.140000 225 226 226 0
30.140000 15.840000 20.020000 226 227 227 0
30.360000 15.840000 20.900000 226 229 229 0
30.580000 15.840000 22.220000 227 230 230 0
30.800000 15.840000 22.220000 231 232 232 0
31.020000 15.840000 22.220000 232 233 233 0
31.240000 15.840000 22.220000 233 234 234 0
31.460000 15.840000 22.220000 233 234 234 0
31.680000 15.840000 22.220000 233 234 234 0
31.900000 15.840000 22.220000 233 234 234 0
32.120000 15.840000 22.220000 233 234 234 0
32.340000 15.840000 22.220000 232 233 233 0
32.560000 15.840000 22.220000 231 232 232 0
32.780000 15.840000 22.220000 230 231 231 0
33.000000 15.840000 23.540000 228 227 228 0
33.220000 15.840000 22.440000 227 226 227 0
33.440000 15.840000 21.780000 225 223 223 0
33.660000 15.840000 21.780000 221 219 219 0
33.880000 15.840000 23.320000 221 212 214 0
34.100000 15.840000 23.320000 218 209 211 0
34.320000 15.840000 23.320000 217 206 207 0
34.540000 15.840000 24.640000 213 202 203 0
34.760000 15.840000 24.640000 209 198 197 0
34.980000 15.840000 24.860000 208 197 196 0
35.200000 15.840000 25.960000 207 195 194 0
35.420000 15.840000 27.940000 207 195 194 0
35.640000 15.840000 27.720000 204 193 192 0
35.860000 15.840000 27.720000 205 194 193 0
36.080000 15.840000 29.260000 206 195 194 0
36.300000 15.840000 29.260000 207 196 195 0
36.520000 15.840000 29.260000 208 197 196 0
36.740000 15.840000 29.260000 208 197 196 0
36.960000 15.840000 29.260000 209 198 197 0
37.180000 15.840000 29.260000 210 199 198 0
0.000000 16.060000 23.760000 128 67 59 0
0.220000 16.060000 23.760000 128 67 59 0
0.440000 16.060000 23.760000 130 66 59 0
0.660000 16.060000 23.760000 130 66 59 0
0.880000 16.060000 23.760000 131 67 62 0
1.100000 16.060000 23.760000 130 66 61 0
1.320000 16.060000 23.760000 129 65 58 0
1.540000 16.060000 23.760000 129 65 58 0
1.760000 16.060000 23.760000 131 66 59 0
1.980000 16.060000 23.760000 130 65 58 0
2.200000 16.060000 23.760000 130 65 58 0
2.420000 16.060000 23.760000 128 63 56 0
2.640000 16.060000 23.760000 130 62 58 0
2.860000 16.060000 23.760000 129 61 57 0
3.080000 16.060000 23.760000 129 61 55 0
3.300000 16.060000 23.760000 129 61 55 0
3.520000 16.060000 23.760000 130 60 55 0
3.740000 16.060000 23.760000 129 59 54 0
3.960000 16.060000 23.760000 129 61 57 0
4.180000 16.060000 23.760000 130 62 58 0
4.400000 16.060000 23.760000 130 62 58 0
4.620000 16.060000 23.760000 130 62 58 0
4.840000 16.060000 23.760000 130 62 58 0
5.060000 16.060000 23.760000 130 62 58 0
5.280000 16.060000 23.760000 131 61 56 0
5.500000 16.060000 23.760000 131 61 56 0
5.720000 16.060000 23.760000 130 60 57 0
5.940000 16.060000 23.760000 129 59 56 0
6.160000 16.060000 23.760000 128 58 55 0
6.380000 16.060000 23.760000 128 58 55 0
6.600000 16.060000 23.760000 130 60 55 0
6.820000 16.060000 23.760000 128 58 53 0
7.040000 16.060000 23.760000 128 58 55 0
7.260000 16.060000 23.760000 130 60 57 0
7.480000 16.060000 23.760000 130 62 58 0
7.700000 16.060000 23.760000 130 62 58 0
7.920000 16.060000 22.440000 130 62 58 0
8.140000 16.060000 19.580000 132 64 60 0
8.360000 16.060000 18.260000 134 66 62 0
8.580000 16.060000 16.720000 134 66 62 0
8.800000 16.060000 15.400000 134 68 65 0
9.020000 16.060000 15.180000 134 68 65 0
9.240000 16.060000 15.180000 135 69 65 0
9.460000 16.060000 16.720000 135 69 65 0
9.680000 16.060000 16.720000 135 69 66 0
9.900000 16.060000 16.720000 134 68 65 0
10.120000 16.060000 18.040000 134 68 65 0
10.340000 16.060000 18.260000 133 67 64 0
10.560000 16.060000 18.260000 132 66 63 0
10.780000 16.060000 19.580000 132 66 63 0
11.000000 16.060000 20.900000 132 66 63 0
11.220000 16.060000 22.220000 130 64 61 0
11.440000 16.060000 22.220000 130 64 60 0
11.660000 16.060000 23.760000 130 64 60 0
11.880000 16.060000 23.760000 130 64 61 0
12.100000 16.060000 23.760000 130 64 61 0
12.320000 16.060000 23.760000 130 66 61 0
12.540000 16.060000 23.760000 129 65 60 0
12.760000 16.060000 23.760000 130 66 61 0
12.980000 16.060000 23.760000 131 67 62 0
13.200000 16.060000 22.440000 131 69 65 0
13.420000 16.060000 22.220000 133 71 67 0
13.640000 16.060000 22.220000 135 73 69 0
13.860000 16.060000 22.440000 136 74 70 0
14.080000 16.060000 22.440000 135 74 68 0
14.300000 16.060000 22.440000 135 74 68 0
14.520000 16.060000 22.440000 135 73 69 0
14.740000 16.060000 22.440000 136 74 70 0
14.960000 16.060000 23.760000 135 73 69 0
15.180000 16.060000 23.760000 134 72 68 0
15.400000 16.060000 23.760000 134 73 67 0
15.620000 16.060000 23.760000 134 73 67 0
15.840000 16.060000 25.080000 133 72 66 0
16.060000 16.060000 23.760000 132 71 65 0
16.280000 16.060000 25.080000 133 69 64 0
16.500000 16.060000 25.080000 133 69 64 0
16.720000 16.060000 25.080000 132 70 66 0
16.940000 16.060000 25.080000 132 70 66 0
17.160000 16.060000 23.760000 133 75 69 0
17.380000 16.060000 23.760000 134 76 70 0
17.600000 16.060000 23.760000 131 83 78 0
17.820000 16.060000 23.760000 133 85 80 0
18.040000 16.060000 23.760000 130 93 82 0
18.260000 16.060000 23.760000 133 96 85 0
18.480000 16.060000 23.760000 128 100 91 0
18.700000 16.060000 23.760000 130 102 93 0
18.920000 16.060000 23.760000 130 107 97 0
19.140000 16.060000 22.440000 132 109 99 0
19.360000 16.060000 22.440000 130 111 100 0
19.580000 16.060000 22.440000 131 112 101 0
19.800000 16.060000 22.440000 132 113 104 0
20.020000 16.060000 22.440000 133 114 105 0
20.240000 16.060000 22.440000 134 115 106 0
20.460000 16.060000 21.120000 135 116 107 0
20.680000 16.060000 21.120000 137 118 107 0
20.900000 16.060000 21.120000 138 119 108 0
21.120000 16.060000 21.120000 139 122 110 0
21.340000 16.060000 19.800000 141 124 112 0
21.560000 16.060000 19.800000 143 124 112 0
21.780000 16.060000 19.800000 144 125 113 0
22.000000 16.060000 19.800000 145 126 115 0
22.220000 16.060000 19.800000 145 126 115 0
22.440000 16.060000 19.800000 147 128 116 0
22.660000 16.060000 19.800000 148 129 117 0
22.880000 16.060000 18.480000 152 132 118 0
23.100000 16.060000 18.480000 153 133 119 0
23.320000 16.060000 18.480000 156 137 125 0
23.540000 16.060000 18.480000 159 140 128 0
23.760000 16.060000 18.480000 159 146 132 0
23.980000 16.060000 18.480000 164 151 137 0
24.200000 16.060000 18.480000 166 159 146 0
24.420000 16.060000 18.480000 174 167 154 0
24.640000 16.060000 18.480000 174 173 164 0
24.860000 16.060000 18.480000 180 179 170 0
25.080000 16.060000 18.480000 184 186 178 0
25.300000 16.060000 18.480000 191 193 185 0
25.520000 16.060000 18.480000 198 199 198 0
25.740000 16.060000 19.800000 202 203 202 0
25.960000 16.060000 20.020000 209 212 212 0
26.180000 16.060000 20.020000 216 219 219 0
26.400000 16.060000 20.020000 219 222 222 0
26.620000 16.060000 20.020000 220 223 223 0
26.840000 16.060000 20.020000 220 223 225 0
27.060000 16.060000 20.020000 220 223 225 0
27.280000 16.060000 20.020000 221 224 224 0
27.500000 16.060000 20.020000 219 222 222 0
27.720000 16.060000 20.020000 220 221 221 0
27.940000 16.060000 20.020000 219 220 220 0
28.160000 16.060000 20.020000 219 220 220 0
28.380000 16.060000 20.240000 218 219 219 0
28.600000 16.060000 18.920000 217 218 217 0
28.820000 16.060000 19.140000 217 218 217 0
29.040000 16.060000 19.140000 218 219 219 0
29.260000 16.060000 19.140000 219 220 220 0
29.480000 16.060000 19.140000 222 223 223 0
29.700000 16.060000 19.140000 223 224 224 0
29.920000 16.060000 19.140000 224 225 225 0
30.140000 16.060000 20.240000 226 227 227 0
30.360000 16.060000 21.120000 228 229 229 0
30.580000 16.060000 22.220000 229 230 230 0
30.800000 16.060000 22.220000 231 232 231 0
31.020000 16.060000 22.220000 233 234 233 0
31.240000 16.060000 22.220000 234 235 235 0
31.460000 16.060000 22.220000 232 233 233 0
31.680000 16.060000 22.220000 233 234 234 0
31.900000 16.060000 22.220000 234 235 235 0
32.120000 16.060000 22.220000 232 233 233 0
32.340000 16.060000 22.220000 232 233 233 0
32.560000 16.060000 22.220000 232 231 231 0
32.780000 16.060000 22.220000 231 230 230 0
33.000000 16.060000 23.540000 228 227 228 0
33.220000 16.060000 22.440000 225 224 225 0
33.440000 16.060000 21.560000 226 221 222 0
33.660000 16.060000 21.780000 224 219 220 0
33.880000 16.060000 23.320000 220 214 213 0
34.100000 16.060000 23.320000 217 211 210 0
34.320000 16.060000 23.320000 215 204 205 0
34.540000 16.060000 24.640000 214 203 204 0
34.760000 16.060000 24.640000 210 199 198 0
34.980000 16.060000 24.860000 209 198 197 0
35.200000 16.060000 25.960000 208 196 195 0
35.420000 16.060000 27.940000 207 195 194 0
35.640000 16.060000 27.720000 206 195 194 0
35.860000 16.060000 27.720000 204 193 192 0
36.080000 16.060000 29.260000 206 195 196 0
36.300000 16.060000 29.260000 207 196 197 0
36.520000 16.060000 29.260000 208 197 196 0
36.740000 16.060000 29.260000 209 198 197 0
36.960000 16.060000 29.260000 209 198 199 0
37.180000 16.060000 29.260000 209 198 199 0
0.000000 16.280000 23.760000 127 66 58 0
0.220000 16.280000 23.760000 128 67 59 0
0.440000 16.280000 23.760000 130 66 59 0
0.660000 16.280000 23.760000 130 66 59 0
0.880000 16.280000 23.760000 130 66 61 0
1.100000 16.280000 23.760000 130 66 61 0
1.320000 16.280000 23.760000 131 67 60 0
1.540000 16.280000 23.760000 130 66 59 0
1.760000 16.280000 23.760000 131 66 59 0
1.980000 16.280000 23.760000 130 65 58 0
2.200000 16.280000 23.760000 130 65 58 0
2.420000 16.280000 23.760000 127 62 55 0
2.640000 16.280000 23.760000 130 62 58 0
2.860000 16.280000 23.760000 129 61 57 0
3.080000 16.280000 23.760000 129 61 55 0
3.300000 16.280000 23.760000 128 60 54 0
3.520000 16.280000 23.760000 129 59 54 0
3.740000 16.280000 23.760000 129 59 54 0
3.960000 16.280000 23.760000 130 62 58 0
4.180000 16.280000 23.760000 130 62 58 0
4.400000 16.280000 23.760000 130 62 58 0
4.620000 16.280000 23.760000 130 62 58 0
4.840000 16.280000 23.760000 130 62 58 0
5.060000 16.280000 23.760000 130 62 58 0
5.280000 16.280000 23.760000 131 61 56 0
5.500000 16.280000 23.760000 130 60 55 0
5.720000 16.280000 23.760000 130 60 57 0
5.940000 16.280000 23.760000 129 59 56 0
6.160000 16.280000 23.760000 129 59 56 0
6.380000 16.280000 23.760000 129 59 56 0
6.600000 16.280000 23.760000 129 59 54 0
6.820000 16.280000 23.760000 128 58 53 0
7.040000 16.280000 23.760000 129 59 56 0
7.260000 16.280000 23.760000 129 59 56 0
7.480000 16.280000 23.760000 129 61 57 0
7.700000 16.280000 23.760000 131 63 59 0
7.920000 16.280000 22.440000 131 63 59 0
8.140000 16.280000 19.580000 133 65 61 0
8.360000 16.280000 16.720000 133 65 61 0
8.580000 16.280000 16.720000 135 67 63 0
8.800000 16.280000 15.400000 134 68 65 0
9.020000 16.280000 15.400000 134 68 65 0
9.240000 16.280000 15.400000 134 68 64 0
9.460000 16.280000 15.400000 134 68 64 0
9.680000 16.280000 16.720000 135 69 66 0
9.900000 16.280000 16.720000 134 68 65 0
10.120000 16.280000 18.040000 134 68 65 0
10.340000 16.280000 18.040000 133 67 64 0
10.560000 16.280000 18.260000 132 66 63 0
10.780000 16.280000 19.580000 132 66 63 0
11.000000 16.280000 20.900000 131 65 62 0
11.220000 16.280000 22.220000 131 65 62 0
11.440000 16.280000 22.220000 131 65 61 0
11.660000 16.280000 22.220000 131 65 61 0
11.880000 16.280000 22.440000 130 64 61 0
12.100000 16.280000 22.440000 130 64 61 0
12.320000 16.280000 23.760000 130 66 61 0
12.540000 16.280000 23.760000 131 67 62 0
12.760000 16.280000 23.760000 131 67 62 0
12.980000 16.280000 22.440000 131 67 62 0
13.200000 16.280000 22.440000 132 70 66 0
13.420000 16.280000 22.220000 133 71 67 0
13.640000 16.280000 22.440000 134 72 68 0
13.860000 16.280000 22.440000 134 72 68 0
14.080000 16.280000 22.440000 136 75 69 0
14.300000 16.280000 22.440000 136 75 69 0
14.520000 16.280000 22.440000 134 72 68 0
14.740000 16.280000 22.440000 135 73 69 0
14.960000 16.280000 22.440000 135 73 69 0
15.180000 16.280000 23.760000 134 72 68 0
15.400000 16.280000 23.760000 135 74 68 0
15.620000 16.280000 23.760000 133 72 66 0
15.840000 16.280000 23.760000 132 71 65 0
16.060000 16.280000 23.760000 131 70 64 0
16.280000 16.280000 23.760000 133 69 64 0
16.500000 16.280000 25.080000 134 70 65 0
16.720000 16.280000 25.080000 132 70 66 0
16.940000 16.280000 25.080000 133 71 67 0
17.160000 16.280000 23.760000 133 75 69 0
17.380000 16.280000 23.760000 136 78 72 0
17.600000 16.280000 23.760000 132 84 79 0
17.820000 16.280000 23.760000 133 85 80 0
18.040000 16.280000 23.760000 130 93 82 0
18.260000 16.280000 23.760000 133 96 85 0
18.480000 16.280000 23.760000 129 101 92 0
18.700000 16.280000 23.760000 132 104 95 0
18.920000 16.280000 23.760000 130 107 97 0
19.140000 16.280000 23.760000 132 109 99 0
19.360000 16.280000 22.440000 130 111 100 0
19.580000 16.280000 22.440000 132 113 102 0
19.800000 16.280000 22.440000 132 113 104 0
20.020000 16.280000 22.440000 133 114 105 0
20.240000 16.280000 22.440000 134 115 106 0
20.460000 16.280000 21.120000 135 116 107 0
20.680000 16.280000 21.120000 137 118 107 0
20.900000 16.280000 21.120000 137 118 107 0
21.120000 16.280000 21.120000 138 121 109 0
21.340000 16.280000 19.800000 140 123 111 0
21.560000 16.280000 19.800000 142 123 111 0
21.780000 16.280000 19.800000 144 125 113 0
22.000000 16.280000 19.800000 144 125 114 0
22.220000 16.280000 19.800000 145 126 115 0
22.440000 16.280000 19.800000 147 128 116 0
22.660000 16.280000 18.480000 148 129 117 0
22.880000 16.280000 18.480000 150 130 116 0
23.100000 16.280000 18.480000 153 133 119 0
23.320000 16.280000 18.480000 156 137 125 0
23.540000 16.280000 18.480000 159 140 128 0
23.760000 16.280000 18.480000 159 146 132 0
23.980000 16.280000 18.480000 165 152 138 0
24.200000 16.280000 18.480000 165 158 145 0
24.420000 16.280000 18.480000 172 165 152 0
24.640000 16.280000 18.480000 176 175 166 0
24.860000 16.280000 18.480000 180 179 170 0
25.080000 16.280000 18.480000 183 185 177 0
25.300000 16.280000 18.480000 190 192 184 0
25.520000 16.280000 18.480000 197 198 197 0
25.740000 16.280000 19.800000 202 203 202 0
25.960000 16.280000 20.020000 208 211 211 0
26.180000 16.280000 20.020000 215 218 218 0
26.400000 16.280000 20.020000 219 222 222 0
26.620000 16.280000 20.020000 221 224 224 0
26.840000 16.280000 20.020000 220 223 225 0
27.060000 16.280000 20.020000 219 222 224 0
27.280000 16.280000 20.020000 219 222 222 0
27.500000 16.280000 20.020000 219 222 222 0
27.720000 16.280000 20.020000 221 222 222 0
27.940000 16.280000 20.020000 220 221 221 0
28.160000 16.280000 20.020000 217 218 218 0
28.380000 16.280000 20.240000 217 218 218 0
28.600000 16.280000 18.920000 215 216 215 0
28.820000 16.280000 19.140000 216 217 216 0
29.040000 16.280000 19.140000 217 218 218 0
29.260000 16.280000 19.140000 219 220 220 0
29.480000 16.280000 19.140000 221 222 222 0
29.700000 16.280000 19.140000 222 223 223 0
29.920000 16.280000 19.140000 223 224 224 0
30.140000 16.280000 20.240000 226 227 227 0
30.360000 16.280000 21.120000 228 229 229 0
30.580000 16.280000 22.220000 230 231 231 0
30.800000 16.280000 22.220000 231 232 231 0
31.020000 16.280000 22.220000 231 232 231 0
31.240000 16.280000 22.220000 233 234 234 0
31.460000 16.280000 22.220000 233 234 234 0
31.680000 16.280000 22.220000 233 234 234 0
31.900000 16.280000 22.220000 233 234 234 0
32.120000 16.280000 22.220000 233 234 234 0
32.340000 16.280000 22.220000 232 233 233 0
32.560000 16.280000 22.220000 232 231 231 0
32.780000 16.280000 22.220000 232 231 231 0
33.000000 16.280000 23.540000 229 228 229 0
33.220000 16.280000 22.440000 226 225 226 0
33.440000 16.280000 21.560000 228 223 224 0
33.660000 16.280000 21.780000 223 218 219 0
33.880000 16.280000 23.320000 221 215 214 0
34.100000 16.280000 23.320000 218 212 211 0
34.320000 16.280000 23.320000 218 207 208 0
34.540000 16.280000 24.640000 214 203 204 0
34.760000 16.280000 24.640000 212 201 200 0
34.980000 16.280000 24.860000 209 198 197 0
35.200000 16.280000 25.960000 208 196 195 0
35.420000 16.280000 27.940000 207 195 194 0
35.640000 16.280000 27.720000 205 194 193 0
35.860000 16.280000 27.720000 207 196 195 0
36.080000 16.280000 29.260000 207 196 197 0
36.300000 16.280000 29.260000 208 197 198 0
36.520000 16.280000 29.260000 208 197 196 0
36.740000 16.280000 29.260000 208 197 196 0
36.960000 16.280000 29.260000 208 197 198 0
37.180000 16.280000 29.260000 209 198 199 0
0.000000 16.500000 23.760000 129 65 58 0
0.220000 16.500000 23.760000 131 67 60 0
0.440000 16.500000 23.760000 130 66 59 0
0.660000 16.500000 23.760000 131 67 60 0
0.880000 16.500000 23.760000 131 67 62 0
1.100000 16.500000 23.760000 131 67 62 0
1.320000 16.500000 23.760000 131 67 60 0
1.540000 16.500000 23.760000 131 67 60 0
1.760000 16.500000 23.760000 130 64 60 0
1.980000 16.500000 23.760000 129 63 59 0
2.200000 16.500000 23.760000 130 65 58 0
2.420000 16.500000 23.760000 129 64 57 0
2.640000 16.500000 23.760000 130 62 58 0
2.860000 16.500000 23.760000 130 62 58 0
3.080000 16.500000 23.760000 130 62 56 0
3.300000 16.500000 23.760000 129 61 55 0
3.520000 16.500000 23.760000 128 58 55 0
3.740000 16.500000 23.760000 129 59 56 0
3.960000 16.500000 23.760000 129 61 57 0
4.180000 16.500000 23.760000 130 62 58 0
4.400000 16.500000 23.760000 131 61 58 0
4.620000 16.500000 23.760000 131 61 58 0
4.840000 16.500000 23.760000 130 60 55 0
5.060000 16.500000 23.760000 131 61 56 0
5.280000 16.500000 23.760000 129 59 56 0
5.500000 16.500000 23.760000 130 60 57 0
5.720000 16.500000 23.760000 129 59 56 0
5.940000 16.500000 23.760000 130 60 57 0
6.160000 16.500000 23.760000 129 59 56 0
6.380000 16.500000 23.760000 129 59 56 0
6.600000 16.500000 23.760000 129 59 54 0
6.820000 16.500000 23.760000 128 58 53 0
7.040000 16.500000 23.760000 128 58 55 0
7.260000 16.500000 23.760000 129 59 56 0
7.480000 16.500000 23.760000 130 60 57 0
7.700000 16.500000 23.760000 131 61 58 0
7.920000 16.500000 23.760000 131 63 59 0
8.140000 16.500000 20.900000 133 65 61 0
8.360000 16.500000 16.720000 134 66 62 0
8.580000 16.500000 16.720000 135 67 63 0
8.800000 16.500000 15.400000 136 68 64 0
9.020000 16.500000 15.400000 136 68 64 0
9.240000 16.500000 15.620000 135 69 65 0
9.460000 16.500000 15.400000 135 69 65 0
9.680000 16.500000 16.720000 134 70 66 0
9.900000 16.500000 16.720000 134 70 66 0
10.120000 16.500000 18.040000 134 68 65 0
10.340000 16.500000 18.040000 132 66 63 0
10.560000 16.500000 18.260000 134 66 62 0
10.780000 16.500000 19.800000 134 66 62 0
11.000000 16.500000 21.120000 131 65 61 0
11.220000 16.500000 20.900000 130 64 60 0
11.440000 16.500000 22.220000 131 65 62 0
11.660000 16.500000 22.440000 129 63 60 0
11.880000 16.500000 22.440000 131 65 61 0
12.100000 16.500000 22.440000 130 64 60 0
12.320000 16.500000 22.440000 132 66 62 0
12.540000 16.500000 22.440000 132 66 62 0
12.760000 16.500000 22.440000 132 66 62 0
12.980000 16.500000 22.440000 134 68 64 0
13.200000 16.500000 22.440000 131 69 65 0
13.420000 16.500000 22.440000 133 71 67 0
13.640000 16.500000 20.900000 134 72 68 0
13.860000 16.500000 20.900000 134 72 68 0
14.080000 16.500000 22.440000 136 74 70 0
14.300000 16.500000 22.440000 136 74 70 0
14.520000 16.500000 22.440000 135 74 68 0
14.740000 16.500000 22.440000 136 75 69 0
14.960000 16.500000 22.440000 136 74 70 0
15.180000 16.500000 23.760000 134 72 68 0
15.400000 16.500000 23.760000 133 72 66 0
15.620000 16.500000 23.760000 133 72 66 0
15.840000 16.500000 23.760000 133 69 64 0
16.060000 16.500000 23.760000 134 70 65 0
16.280000 16.500000 23.760000 133 69 64 0
16.500000 16.500000 23.760000 134 70 65 0
16.720000 16.500000 23.760000 132 70 66 0
16.940000 16.500000 23.760000 135 73 69 0
17.160000 16.500000 23.760000 132 77 70 0
17.380000 16.500000 23.760000 136 81 74 0
17.600000 16.500000 23.760000 127 86 77 0
17.820000 16.500000 23.760000 130 89 80 0
18.040000 16.500000 23.760000 127 96 88 0
18.260000 16.500000 23.760000 129 98 90 0
18.480000 16.500000 23.760000 129 101 92 0
18.700000 16.500000 23.760000 132 104 95 0
18.920000 16.500000 23.760000 130 107 97 0
19.140000 16.500000 23.760000 132 109 99 0
19.360000 16.500000 22.440000 132 111 101 0
19.580000 16.500000 22.440000 133 112 102 0
19.800000 16.500000 22.440000 132 113 104 0
20.020000 16.500000 22.440000 134 115 106 0
20.240000 16.500000 22.440000 134 115 106 0
20.460000 16.500000 21.120000 137 118 109 0
20.680000 16.500000 21.120000 137 118 107 0
20.900000 16.500000 21.120000 139 120 109 0
21.120000 16.500000 19.800000 140 121 110 0
21.340000 16.500000 19.800000 141 122 111 0
21.560000 16.500000 19.800000 141 124 112 0
21.780000 16.500000 19.800000 142 125 113 0
22.000000 16.500000 19.800000 145 126 115 0
22.220000 16.500000 19.800000 145 126 115 0
22.440000 16.500000 19.800000 147 128 116 0
22.660000 16.500000 18.480000 148 129 117 0
22.880000 16.500000 18.480000 151 132 120 0
23.100000 16.500000 18.480000 153 134 122 0
23.320000 16.500000 18.480000 154 137 124 0
23.540000 16.500000 18.480000 157 140 127 0
23.760000 16.500000 18.480000 160 145 133 0
23.980000 16.500000 18.480000 166 151 139 0
24.200000 16.500000 18.480000 165 158 147 0
24.420000 16.500000 18.480000 171 164 153 0
24.640000 16.500000 18.480000 173 172 163 0
24.860000 16.500000 18.480000 180 179 170 0
25.080000 16.500000 18.480000 186 186 181 0
25.300000 16.500000 18.480000 190 190 185 0
25.520000 16.500000 18.480000 195 196 193 0
25.740000 16.500000 19.800000 200 201 198 0
25.960000 16.500000 20.020000 206 207 206 0
26.180000 16.500000 20.020000 214 215 214 0
26.400000 16.500000 20.020000 220 223 223 0
26.620000 16.500000 20.020000 221 224 224 0
26.840000 16.500000 20.020000 221 226 227 0
27.060000 16.500000 20.020000 220 225 226 0
27.280000 16.500000 20.020000 220 223 223 0
27.500000 16.500000 20.020000 219 222 222 0
27.720000 16.500000 20.020000 222 223 223 0
27.940000 16.500000 20.020000 219 220 220 0
28.160000 16.500000 20.020000 217 216 216 0
28.380000 16.500000 20.240000 215 214 214 0
28.600000 16.500000 19.140000 214 215 214 0
28.820000 16.500000 19.140000 215 216 215 0
29.040000 16.500000 19.140000 216 217 217 0
29.260000 16.500000 19.140000 218 219 219 0
29.480000 16.500000 19.140000 219 220 220 0
29.700000 16.500000 19.140000 222 223 223 0
29.920000 16.500000 19.140000 223 224 224 0
30.140000 16.500000 20.240000 224 225 225 0
30.360000 16.500000 21.120000 228 229 229 0
30.580000 16.500000 22.220000 230 231 231 0
30.800000 16.500000 22.220000 232 231 232 0
31.020000 16.500000 20.900000 233 232 233 0
31.240000 16.500000 22.220000 233 232 233 0
31.460000 16.500000 22.220000 234 233 234 0
31.680000 16.500000 22.220000 233 232 233 0
31.900000 16.500000 22.220000 233 232 233 0
32.120000 16.500000 22.220000 233 234 234 0
32.340000 16.500000 22.220000 232 233 233 0
32.560000 16.500000 22.220000 233 232 233 0
32.780000 16.500000 22.220000 232 231 232 0
33.000000 16.500000 23.540000 229 228 229 0
33.220000 16.500000 22.440000 228 227 228 0
33.440000 16.500000 21.560000 226 224 224 0
33.660000 16.500000 21.780000 222 220 220 0
33.880000 16.500000 21.780000 222 215 217 0
34.100000 16.500000 23.320000 218 211 213 0
34.320000 16.500000 23.320000 217 208 208 0
34.540000 16.500000 24.640000 214 205 205 0
34.760000 16.500000 24.640000 212 201 202 0
34.980000 16.500000 24.640000 211 200 201 0
35.200000 16.500000 25.960000 208 197 196 0
35.420000 16.500000 26.840000 208 197 196 0
35.640000 16.500000 27.720000 208 195 197 0
35.860000 16.500000 27.720000 208 195 197 0
36.080000 16.500000 29.260000 207 196 195 0
36.300000 16.500000 29.260000 208 197 196 0
36.520000 16.500000 29.260000 209 196 198 0
36.740000 16.500000 29.260000 209 196 198 0
36.960000 16.500000 29.260000 209 197 196 0
37.180000 16.500000 29.260000 208 196 195 0
0.000000 16.720000 23.760000 129 65 58 0
0.220000 16.720000 23.760000 130 66 59 0
0.440000 16.720000 23.760000 130 66 59 0
0.660000 16.720000 23.760000 130 66 59 0
0.880000 16.720000 23.760000 130 66 61 0
1.100000 16.720000 23.760000 132 68 63 0
1.320000 16.720000 23.760000 131 67 60 0
1.540000 16.720000 23.760000 130 66 59 0
1.760000 16.720000 23.760000 130 64 60 0
1.980000 16.720000 23.760000 130 64 60 0
2.200000 16.720000 23.760000 129 64 57 0
2.420000 16.720000 23.760000 129 64 57 0
2.640000 16.720000 23.760000 130 62 58 0
2.860000 16.720000 22.440000 129 61 57 0
3.080000 16.720000 22.220000 130 62 56 0
3.300000 16.720000 23.760000 129 61 55 0
3.520000 16.720000 23.760000 129 59 56 0
3.740000 16.720000 23.760000 130 60 57 0
3.960000 16.720000 23.760000 129 61 57 0
4.180000 16.720000 23.760000 130 62 58 0
4.400000 16.720000 23.760000 131 61 58 0
4.620000 16.720000 23.760000 130 60 57 0
4.840000 16.720000 23.760000 130 60 55 0
5.060000 16.720000 23.760000 131 61 56 0
5.280000 16.720000 23.760000 130 60 57 0
5.500000 16.720000 23.760000 131 61 58 0
5.720000 16.720000 23.760000 130 60 57 0
5.940000 16.720000 23.760000 129 59 56 0
6.160000 16.720000 25.080000 129 59 56 0
6.380000 16.720000 25.080000 128 58 55 0
6.600000 16.720000 25.080000 128 58 53 0
6.820000 16.720000 23.760000 129 59 54 0
7.040000 16.720000 23.760000 128 58 55 0
7.260000 16.720000 23.760000 129 59 56 0
7.480000 16.720000 23.760000 130 60 57 0
7.700000 16.720000 23.760000 130 60 57 0
7.920000 16.720000 22.440000 132 64 60 0
8.140000 16.720000 20.900000 132 64 60 0
8.360000 16.720000 18.040000 134 66 62 0
8.580000 16.720000 16.720000 135 67 63 0
8.800000 16.720000 16.720000 137 69 65 0
9.020000 16.720000 15.400000 137 69 65 0
9.240000 16.720000 15.400000 136 70 66 0
9.460000 16.720000 15.400000 136 70 66 0
9.680000 16.720000 15.180000 134 70 66 0
9.900000 16.720000 16.720000 135 71 67 0
10.120000 16.720000 16.720000 134 68 65 0
10.340000 16.720000 18.040000 133 67 64 0
10.560000 16.720000 18.040000 134 66 62 0
10.780000 16.720000 19.580000 133 65 61 0
11.000000 16.720000 20.900000 131 65 61 0
11.220000 16.720000 20.900000 131 65 61 0
11.440000 16.720000 22.440000 130 64 61 0
11.660000 16.720000 22.440000 129 63 60 0
11.880000 16.720000 22.440000 130 64 60 0
12.100000 16.720000 22.440000 130 64 60 0
12.320000 16.720000 22.440000 133 67 63 0
12.540000 16.720000 22.440000 133 67 63 0
12.760000 16.720000 22.440000 133 67 63 0
12.980000 16.720000 22.440000 133 67 63 0
13.200000 16.720000 22.440000 133 71 67 0
13.420000 16.720000 22.440000 133 71 67 0
13.640000 16.720000 21.120000 135 73 69 0
13.860000 16.720000 20.900000 135 73 69 0
14.080000 16.720000 20.900000 136 74 70 0
14.300000 16.720000 22.440000 136 74 70 0
14.520000 16.720000 22.440000 136 75 69 0
14.740000 16.720000 22.440000 135 74 68 0
14.960000 16.720000 22.440000 136 74 70 0
15.180000 16.720000 22.440000 133 71 67 0
15.400000 16.720000 23.760000 133 72 66 0
15.620000 16.720000 23.760000 133 72 66 0
15.840000 16.720000 23.760000 134 70 65 0
16.060000 16.720000 23.760000 134 70 65 0
16.280000 16.720000 23.760000 133 69 64 0
16.500000 16.720000 23.760000 133 69 64 0
16.720000 16.720000 23.760000 132 70 66 0
16.940000 16.720000 23.760000 134 72 68 0
17.160000 16.720000 23.760000 134 79 72 0
17.380000 16.720000 23.760000 137 82 75 0
17.600000 16.720000 23.760000 130 89 80 0
17.820000 16.720000 23.760000 132 91 82 0
18.040000 16.720000 23.760000 127 96 88 0
18.260000 16.720000 23.760000 129 98 90 0
18.480000 16.720000 23.760000 130 102 93 0
18.700000 16.720000 23.760000 131 103 94 0
18.920000 16.720000 23.760000 131 108 98 0
19.140000 16.720000 22.440000 132 109 99 0
19.360000 16.720000 22.440000 131 110 100 0
19.580000 16.720000 22.440000 132 111 101 0
19.800000 16.720000 22.440000 132 113 104 0
20.020000 16.720000 22.440000 134 115 106 0
20.240000 16.720000 22.440000 135 116 107 0
20.460000 16.720000 21.120000 136 117 108 0
20.680000 16.720000 21.120000 137 118 107 0
20.900000 16.720000 21.120000 139 120 109 0
21.120000 16.720000 19.800000 141 122 111 0
21.340000 16.720000 19.800000 141 122 111 0
21.560000 16.720000 19.800000 141 124 112 0
21.780000 16.720000 19.800000 142 125 113 0
22.000000 16.720000 19.800000 145 126 115 0
22.220000 16.720000 19.800000 146 127 116 0
22.440000 16.720000 19.800000 147 128 116 0
22.660000 16.720000 19.800000 148 129 117 0
22.880000 16.720000 18.480000 151 132 120 0
23.100000 16.720000 18.480000 152 133 121 0
23.320000 16.720000 18.480000 152 135 122 0
23.540000 16.720000 18.480000 157 140 127 0
23.760000 16.720000 18.480000 159 144 132 0
23.980000 16.720000 18.480000 164 149 137 0
24.200000 16.720000 18.480000 166 159 148 0
24.420000 16.720000 18.480000 171 164 153 0
24.640000 16.720000 18.480000 171 170 161 0
24.860000 16.720000 18.480000 179 178 169 0
25.080000 16.720000 18.480000 185 185 180 0
25.300000 16.720000 18.480000 189 189 184 0
25.520000 16.720000 18.480000 194 195 192 0
25.740000 16.720000 18.480000 198 199 196 0
25.960000 16.720000 20.020000 203 204 203 0
26.180000 16.720000 20.020000 210 211 210 0
26.400000 16.720000 20.020000 217 220 220 0
26.620000 16.720000 20.020000 224 227 227 0
26.840000 16.720000 20.020000 223 228 229 0
27.060000 16.720000 20.020000 223 228 229 0
27.280000 16.720000 20.020000 224 227 227 0
27.500000 16.720000 20.020000 221 224 224 0
27.720000 16.720000 20.020000 219 220 220 0
27.940000 16.720000 20.020000 216 217 217 0
28.160000 16.720000 20.240000 214 213 213 0
28.380000 16.720000 20.240000 213 212 212 0
28.600000 16.720000 19.140000 213 214 213 0
28.820000 16.720000 19.140000 213 214 213 0
29.040000 16.720000 19.140000 216 217 217 0
29.260000 16.720000 19.140000 218 219 219 0
29.480000 16.720000 19.140000 219 220 220 0
29.700000 16.720000 19.140000 221 222 222 0
29.920000 16.720000 19.140000 222 223 223 0
30.140000 16.720000 20.240000 225 226 226 0
30.360000 16.720000 21.120000 227 228 228 0
30.580000 16.720000 22.220000 230 231 231 0
30.800000 16.720000 20.900000 232 231 232 0
31.020000 16.720000 20.900000 233 232 233 0
31.240000 16.720000 20.900000 232 231 232 0
31.460000 16.720000 22.220000 233 232 233 0
31.680000 16.720000 22.220000 233 232 233 0
31.900000 16.720000 22.220000 234 233 234 0
32.120000 16.720000 22.220000 232 233 233 0
32.340000 16.720000 22.220000 232 233 233 0
32.560000 16.720000 22.220000 233 232 233 0
32.780000 16.720000 22.220000 232 231 232 0
33.000000 16.720000 23.540000 229 228 229 0
33.220000 16.720000 22.440000 228 227 228 0
33.440000 16.720000 21.560000 227 225 225 0
33.660000 16.720000 21.780000 223 221 221 0
33.880000 16.720000 21.780000 222 215 217 0
34.100000 16.720000 23.320000 219 212 214 0
34.320000 16.720000 23.320000 218 209 209 0
34.540000 16.720000 24.640000 216 207 207 0
34.760000 16.720000 24.640000 213 202 203 0
34.980000 16.720000 24.640000 212 201 202 0
35.200000 16.720000 25.960000 210 199 198 0
35.420000 16.720000 26.840000 208 197 196 0
35.640000 16.720000 27.940000 209 196 198 0
35.860000 16.720000 27.720000 208 195 197 0
36.080000 16.720000 29.260000 207 196 195 0
36.300000 16.720000 29.260000 207 196 195 0
36.520000 16.720000 29.260000 208 195 197 0
36.740000 16.720000 29.260000 208 195 197 0
36.960000 16.720000 29.260000 208 196 195 0
37.180000 16.720000 29.260000 207 195 194 0
0.000000 16.940000 23.760000 127 66 60 0
0.220000 16.940000 23.760000 128 67 61 0
0.440000 16.940000 23.760000 130 66 61 0
0.660000 16.940000 23.760000 131 67 62 0
0.880000 16.940000 23.760000 129 68 62 0
1.100000 16.940000 23.760000 130 69 63 0
1.320000 16.940000 23.760000 131 67 62 0
1.540000 16.940000 23.760000 131 67 62 0
1.760000 16.940000 23.760000 131 65 61 0
1.980000 16.940000 23.760000 130 64 60 0
2.200000 16.940000 23.760000 129 63 59 0
2.420000 16.940000 23.760000 129 63 59 0
2.640000 16.940000 23.760000 130 62 58 0
2.860000 16.940000 23.760000 129 61 57 0
3.080000 16.940000 22.440000 130 62 56 0
3.300000 16.940000 22.440000 129 61 55 0
3.520000 16.940000 23.760000 130 62 58 0
3.740000 16.940000 23.760000 129 61 57 0
3.960000 16.940000 23.760000 130 60 57 0
4.180000 16.940000 23.760000 131 61 58 0
4.400000 16.940000 23.760000 131 61 58 0
4.620000 16.940000 23.760000 131 61 58 0
4.840000 16.940000 23.760000 131 61 58 0
5.060000 16.940000 23.760000 131 61 58 0
5.280000 16.940000 23.760000 130 60 57 0
5.500000 16.940000 23.760000 130 60 57 0
5.720000 16.940000 23.760000 129 59 56 0
5.940000 16.940000 23.760000 130 60 57 0
6.160000 16.940000 23.760000 130 60 57 0
6.380000 16.940000 25.080000 130 60 57 0
6.600000 16.940000 25.080000 130 60 57 0
6.820000 16.940000 25.080000 129 59 56 0
7.040000 16.940000 23.760000 128 58 55 0
7.260000 16.940000 23.760000 129 59 56 0
7.480000 16.940000 23.760000 130 60 57 0
7.700000 16.940000 23.760000 132 62 59 0
7.920000 16.940000 22.440000 130 62 58 0
8.140000 16.940000 20.900000 133 65 61 0
8.360000 16.940000 16.720000 133 64 62 0
8.580000 16.940000 16.720000 135 66 64 0
8.800000 16.940000 16.720000 134 68 64 0
9.020000 16.940000 15.180000 136 70 66 0
9.240000 16.940000 15.400000 136 72 68 0
9.460000 16.940000 15.400000 136 72 68 0
9.680000 16.940000 15.400000 135 69 65 0
9.900000 16.940000 15.400000 135 69 65 0
10.120000 16.940000 16.720000 134 68 65 0
10.340000 16.940000 18.040000 134 68 65 0
10.560000 16.940000 18.040000 132 66 62 0
10.780000 16.940000 19.360000 132 66 62 0
11.000000 16.940000 20.900000 131 65 61 0
11.220000 16.940000 20.900000 131 65 61 0
11.440000 16.940000 21.120000 131 65 62 0
11.660000 16.940000 21.120000 131 65 62 0
11.880000 16.940000 22.440000 130 64 61 0
12.100000 16.940000 22.440000 131 65 62 0
12.320000 16.940000 22.440000 130 66 61 0
12.540000 16.940000 21.120000 133 69 64 0
12.760000 16.940000 22.440000 131 69 65 0
12.980000 16.940000 22.440000 131 69 65 0
13.200000 16.940000 21.120000 134 72 68 0
13.420000 16.940000 21.120000 134 72 68 0
13.640000 16.940000 21.120000 135 75 70 0
13.860000 16.940000 21.120000 136 76 71 0
14.080000 16.940000 21.120000 136 76 71 0
14.300000 16.940000 21.120000 135 75 70 0
14.520000 16.940000 21.120000 134 74 69 0
14.740000 16.940000 21.120000 135 75 70 0
14.960000 16.940000 22.440000 136 75 69 0
15.180000 16.940000 22.440000 135 74 68 0
15.400000 16.940000 22.440000 133 71 67 0
15.620000 16.940000 23.760000 134 72 68 0
15.840000 16.940000 23.760000 133 72 66 0
16.060000 16.940000 25.080000 132 71 65 0
16.280000 16.940000 23.760000 132 70 66 0
16.500000 16.940000 23.760000 131 69 65 0
16.720000 16.940000 23.760000 133 73 68 0
16.940000 16.940000 23.760000 135 75 70 0
17.160000 16.940000 23.760000 134 78 74 0
17.380000 16.940000 23.760000 137 81 77 0
17.600000 16.940000 23.760000 130 89 82 0
17.820000 16.940000 23.760000 133 92 85 0
18.040000 16.940000 23.760000 128 97 89 0
18.260000 16.940000 23.760000 130 99 91 0
18.480000 16.940000 23.760000 127 104 94 0
18.700000 16.940000 23.760000 130 107 97 0
18.920000 16.940000 23.760000 131 110 100 0
19.140000 16.940000 22.440000 131 110 100 0
19.360000 16.940000 22.440000 132 111 101 0
19.580000 16.940000 22.440000 133 112 102 0
19.800000 16.940000 22.440000 133 114 105 0
20.020000 16.940000 22.440000 134 115 106 0
20.240000 16.940000 21.120000 136 117 106 0
20.460000 16.940000 21.120000 137 118 107 0
20.680000 16.940000 21.120000 136 119 107 0
20.900000 16.940000 21.120000 138 121 109 0
21.120000 16.940000 19.800000 139 122 110 0
21.340000 16.940000 19.800000 141 124 112 0
21.560000 16.940000 19.800000 142 125 113 0
21.780000 16.940000 19.800000 143 126 114 0
22.000000 16.940000 19.800000 145 126 115 0
22.220000 16.940000 19.800000 146 127 116 0
22.440000 16.940000 19.800000 146 127 116 0
22.660000 16.940000 19.800000 148 129 118 0
22.880000 16.940000 18.480000 150 131 119 0
23.100000 16.940000 18.480000 152 133 121 0
23.320000 16.940000 18.480000 154 137 124 0
23.540000 16.940000 18.480000 157 140 127 0
23.760000 16.940000 18.480000 158 145 132 0
23.980000 16.940000 18.480000 164 151 138 0
24.200000 16.940000 18.480000 163 159 145 0
24.420000 16.940000 18.480000 169 165 151 0
24.640000 16.940000 18.480000 174 171 161 0
24.860000 16.940000 18.480000 182 179 169 0
25.080000 16.940000 18.480000 185 185 178 0
25.300000 16.940000 18.480000 189 189 182 0
25.520000 16.940000 18.480000 192 193 192 0
25.740000 16.940000 18.480000 197 198 197 0
25.960000 16.940000 20.020000 202 203 202 0
26.180000 16.940000 20.020000 206 207 206 0
26.400000 16.940000 20.020000 213 214 213 0
26.620000 16.940000 20.020000 222 223 222 0
26.840000 16.940000 20.020000 226 225 225 0
27.060000 16.940000 20.020000 226 225 225 0
27.280000 16.940000 20.020000 223 222 222 0
27.500000 16.940000 20.020000 219 218 218 0
27.720000 16.940000 20.020000 216 215 215 0
27.940000 16.940000 20.020000 213 212 212 0
28.160000 16.940000 20.240000 213 212 212 0
28.380000 16.940000 18.920000 212 211 211 0
28.600000 16.940000 19.140000 213 212 212 0
28.820000 16.940000 19.140000 214 213 213 0
29.040000 16.940000 19.140000 216 215 215 0
29.260000 16.940000 19.140000 219 218 218 0
29.480000 16.940000 19.140000 220 221 221 0
29.700000 16.940000 19.140000 221 222 222 0
29.920000 16.940000 19.140000 223 224 224 0
30.140000 16.940000 20.240000 224 225 225 0
30.360000 16.940000 21.120000 224 227 227 0
30.580000 16.940000 20.900000 227 230 230 0
30.800000 16.940000 20.900000 227 230 230 0
31.020000 16.940000 20.900000 228 231 231 0
31.240000 16.940000 20.900000 231 232 232 0
31.460000 16.940000 22.220000 232 233 233 0
31.680000 16.940000 22.220000 232 233 233 0
31.900000 16.940000 22.220000 232 233 233 0
32.120000 16.940000 22.220000 231 232 232 0
32.340000 16.940000 22.220000 232 233 233 0
32.560000 16.940000 22.220000 231 232 232 0
32.780000 16.940000 22.220000 231 232 232 0
33.000000 16.940000 23.540000 231 230 231 0
33.220000 16.940000 22.440000 229 228 229 0
33.440000 16.940000 21.560000 226 225 226 0
33.660000 16.940000 21.780000 223 222 223 0
33.880000 16.940000 21.780000 223 218 217 0
34.100000 16.940000 23.320000 219 214 213 0
34.320000 16.940000 23.320000 219 210 210 0
34.540000 16.940000 24.640000 217 208 208 0
34.760000 16.940000 24.640000 216 205 206 0
34.980000 16.940000 24.640000 214 203 204 0
35.200000 16.940000 25.960000 211 200 201 0
35.420000 16.940000 26.840000 210 199 200 0
35.640000 16.940000 27.940000 208 197 196 0
35.860000 16.940000 29.040000 208 197 196 0
36.080000 16.940000 29.260000 208 197 196 0
36.300000 16.940000 29.260000 208 197 196 0
36.520000 16.940000 29.260000 207 196 195 0
36.740000 16.940000 29.260000 206 195 194 0
36.960000 16.940000 29.260000 206 194 193 0
37.180000 16.940000 29.260000 206 194 193 0
0.000000 17.160000 23.760000 127 66 60 0
0.220000 17.160000 23.760000 128 67 61 0
0.440000 17.160000 23.760000 130 66 61 0
0.660000 17.160000 22.440000 130 66 61 0
0.880000 17.160000 22.440000 128 67 61 0
1.100000 17.160000 22.440000 129 68 62 0
1.320000 17.160000 23.760000 130 66 61 0
1.540000 17.160000 23.760000 131 67 62 0
1.760000 17.160000 23.760000 130 64 60 0
1.980000 17.160000 23.760000 130 64 60 0
2.200000 17.160000 23.760000 129 63 59 0
2.420000 17.160000 23.760000 128 62 58 0
2.640000 17.160000 23.760000 131 63 59 0
2.860000 17.160000 23.760000 130 62 58 0
3.080000 17.160000 23.760000 129 61 55 0
3.300000 17.160000 23.760000 130 62 56 0
3.520000 17.160000 22.440000 130 62 58 0
3.740000 17.160000 23.760000 129 61 57 0
3.960000 17.160000 23.760000 131 61 58 0
4.180000 17.160000 23.760000 131 61 58 0
4.400000 17.160000 23.760000 132 62 59 0
4.620000 17.160000 23.760000 130 60 57 0
4.840000 17.160000 23.760000 131 61 58 0
5.060000 17.160000 23.760000 130 60 57 0
5.280000 17.160000 23.760000 130 60 57 0
5.500000 17.160000 23.760000 129 59 56 0
5.720000 17.160000 23.760000 130 60 57 0
5.940000 17.160000 23.760000 129 59 56 0
6.160000 17.160000 23.760000 129 59 56 0
6.380000 17.160000 23.760000 130 60 57 0
6.600000 17.160000 25.080000 128 58 55 0
6.820000 17.160000 25.080000 129 59 56 0
7.040000 17.160000 23.760000 128 58 55 0
7.260000 17.160000 23.760000 128 58 55 0
7.480000 17.160000 23.760000 131 61 58 0
7.700000 17.160000 23.760000 132 62 59 0
7.920000 17.160000 23.760000 131 63 59 0
8.140000 17.160000 20.900000 133 65 61 0
8.360000 17.160000 18.260000 133 64 62 0
8.580000 17.160000 16.720000 136 67 65 0
8.800000 17.160000 16.720000 134 68 64 0
9.020000 17.160000 15.400000 136 70 66 0
9.240000 17.160000 15.400000 135 71 67 0
9.460000 17.160000 14.300000 135 71 67 0
9.680000 17.160000 14.520000 136 70 66 0
9.900000 17.160000 15.400000 135 69 65 0
10.120000 17.160000 16.720000 135 69 66 0
10.340000 17.160000 16.720000 134 68 65 0
10.560000 17.160000 18.040000 133 67 63 0
10.780000 17.160000 19.580000 132 66 62 0
11.000000 17.160000 20.900000 132 66 62 0
11.220000 17.160000 20.900000 131 65 61 0
11.440000 17.160000 21.120000 131 65 62 0
11.660000 17.160000 21.120000 131 65 62 0
11.880000 17.160000 21.120000 131 65 62 0
12.100000 17.160000 21.120000 132 66 63 0
12.320000 17.160000 21.120000 132 68 63 0
12.540000 17.160000 21.120000 133 69 64 0
12.760000 17.160000 21.120000 133 71 67 0
12.980000 17.160000 21.120000 133 71 67 0
13.200000 17.160000 21.120000 135 73 69 0
13.420000 17.160000 21.120000 135 73 69 0
13.640000 17.160000 21.120000 136 76 71 0
13.860000 17.160000 21.120000 136 76 71 0
14.080000 17.160000 21.120000 136 76 71 0
14.300000 17.160000 21.120000 137 77 72 0
14.520000 17.160000 21.120000 137 77 72 0
14.740000 17.160000 21.120000 135 75 70 0
