ply
format ascii 1.0
element vertex 1178
property float x
property float y
property float z
property uchar red
property uchar green
property uchar blue
property uchar alpha
end_header
30.580000 0.220000 11.440000 112 160 177 0
30.800000 0.220000 11.660000 114 162 179 0
31.020000 0.220000 10.340000 110 165 190 0
31.240000 0.220000 11.440000 114 169 194 0
31.460000 0.220000 11.440000 103 181 204 0
31.680000 0.220000 11.440000 105 183 206 0
31.900000 0.220000 11.880000 97 190 219 0
32.120000 0.220000 12.980000 102 195 224 0
32.340000 0.220000 14.300000 98 202 236 0
32.560000 0.220000 14.080000 99 203 237 0
32.780000 0.220000 15.400000 93 207 238 0
33.000000 0.220000 16.940000 94 208 239 0
33.220000 0.220000 16.940000 95 210 238 0
33.440000 0.220000 17.160000 96 211 239 0
33.660000 0.220000 18.480000 94 214 236 0
33.880000 0.220000 19.800000 96 216 238 0
34.100000 0.220000 19.800000 97 215 236 0
34.320000 0.220000 21.120000 100 218 239 0
34.540000 0.220000 21.120000 100 219 238 0
34.760000 0.220000 22.440000 102 221 240 0
34.980000 0.220000 22.440000 101 221 240 0
35.200000 0.220000 22.660000 102 222 241 0
35.420000 0.220000 23.980000 102 222 241 0
35.640000 0.220000 23.980000 101 221 240 0
35.860000 0.220000 25.300000 102 224 242 0
36.080000 0.220000 25.300000 101 223 241 0
36.300000 0.220000 23.980000 104 225 239 0
36.520000 0.220000 23.980000 104 225 239 0
36.740000 0.220000 24.200000 105 226 240 0
36.960000 0.220000 24.200000 105 226 240 0
37.180000 0.220000 24.200000 109 226 239 0
0.000000 0.440000 6.380000 80 77 67 0
0.220000 0.440000 6.380000 81 76 65 0
0.440000 0.440000 10.560000 81 76 65 0
0.660000 0.440000 10.780000 82 78 64 0
0.880000 0.440000 7.920000 81 77 63 0
1.100000 0.440000 10.560000 81 76 65 0
1.320000 0.440000 9.020000 80 75 64 0
1.540000 0.440000 4.620000 80 75 64 0
1.760000 0.440000 3.520000 81 76 65 0
1.980000 0.440000 4.840000 81 76 65 0
2.200000 0.440000 7.260000 82 77 66 0
2.420000 0.440000 7.260000 84 77 64 0
2.640000 0.440000 5.940000 84 77 64 0
2.860000 0.440000 5.940000 84 77 66 0
3.080000 0.440000 7.480000 84 77 66 0
3.300000 0.440000 5.060000 82 77 66 0
3.520000 0.440000 2.420000 83 78 67 0
3.740000 0.440000 1.980000 85 78 67 0
3.960000 0.440000 5.940000 85 78 67 0
4.180000 0.440000 8.580000 85 78 67 0
4.400000 0.440000 7.260000 85 78 67 0
4.620000 0.440000 5.940000 85 78 67 0
4.840000 0.440000 4.620000 85 78 67 0
5.060000 0.440000 2.200000 86 79 68 0
5.280000 0.440000 1.980000 86 79 68 0
5.500000 0.440000 3.300000 85 78 67 0
5.720000 0.440000 3.300000 85 78 67 0
5.940000 0.440000 4.840000 86 79 68 0
6.160000 0.440000 4.840000 85 78 67 0
6.380000 0.440000 5.940000 86 79 68 0
6.600000 0.440000 5.940000 86 79 68 0
6.820000 0.440000 4.620000 85 78 67 0
7.040000 0.440000 3.300000 86 79 68 0
7.260000 0.440000 3.300000 86 79 68 0
7.480000 0.440000 3.520000 86 79 68 0
7.700000 0.440000 3.520000 86 79 68 0
7.920000 0.440000 3.520000 86 79 68 0
8.140000 0.440000 4.840000 86 79 68 0
8.360000 0.440000 5.940000 87 80 69 0
8.580000 0.440000 5.720000 86 79 68 0
8.800000 0.440000 5.720000 86 79 68 0
9.020000 0.440000 5.720000 85 80 69 0
9.240000 0.440000 4.400000 85 80 69 0
9.460000 0.440000 3.080000 88 80 72 0
9.680000 0.440000 4.400000 87 79 71 0
9.900000 0.440000 4.400000 86 81 70 0
10.120000 0.440000 4.400000 86 81 70 0
10.340000 0.440000 4.620000 85 80 71 0
10.560000 0.440000 5.940000 86 81 72 0
10.780000 0.440000 5.720000 86 81 72 0
11.000000 0.440000 5.720000 86 81 72 0
11.220000 0.440000 5.940000 86 81 73 0
11.440000 0.440000 4.840000 87 82 74 0
11.660000 0.440000 6.160000 87 82 73 0
11.880000 0.440000 7.260000 87 82 73 0
12.100000 0.440000 5.720000 88 83 75 0
12.320000 0.440000 4.620000 87 82 74 0
12.540000 0.440000 4.620000 88 83 74 0
12.760000 0.440000 4.400000 88 83 74 0
12.980000 0.440000 5.720000 89 84 76 0
13.200000 0.440000 5.940000 89 84 76 0
13.420000 0.440000 4.620000 88 84 76 0
13.640000 0.440000 4.400000 89 85 77 0
13.860000 0.440000 4.620000 90 86 80 0
14.080000 0.440000 4.620000 90 86 80 0
14.300000 0.440000 4.400000 89 88 81 0
14.520000 0.440000 4.400000 89 88 81 0
14.740000 0.440000 5.720000 93 89 83 0
14.960000 0.440000 5.720000 94 90 84 0
15.180000 0.440000 5.720000 91 90 90 0
15.400000 0.440000 4.400000 94 93 93 0
15.620000 0.440000 4.400000 90 94 100 0
15.840000 0.440000 4.400000 93 97 103 0
16.060000 0.440000 4.400000 91 101 106 0
16.280000 0.440000 4.400000 95 105 110 0
16.500000 0.440000 3.080000 90 108 125 0
16.720000 0.440000 3.080000 95 113 130 0
16.940000 0.440000 3.080000 87 121 143 0
17.160000 0.440000 3.080000 94 128 150 0
17.380000 0.440000 3.080000 92 135 165 0
17.600000 0.440000 3.080000 98 141 171 0
17.820000 0.440000 3.080000 90 149 184 0
18.040000 0.440000 3.080000 96 155 190 0
18.260000 0.440000 1.760000 94 164 197 0
18.480000 0.440000 3.080000 98 168 201 0
18.700000 0.440000 3.080000 91 171 203 0
18.920000 0.440000 3.080000 93 173 205 0
19.140000 0.440000 4.400000 91 177 211 0
19.360000 0.440000 4.400000 92 178 212 0
19.580000 0.440000 4.400000 91 179 212 0
19.800000 0.440000 4.400000 93 181 214 0
20.020000 0.440000 4.400000 95 181 215 0
20.240000 0.440000 5.940000 94 180 214 0
20.460000 0.440000 7.260000 93 181 214 0
20.680000 0.440000 7.260000 93 181 214 0
20.900000 0.440000 8.800000 96 182 216 0
21.120000 0.440000 10.120000 96 182 216 0
21.340000 0.440000 11.440000 96 184 217 0
21.560000 0.440000 11.440000 98 186 219 0
21.780000 0.440000 11.440000 91 194 230 0
22.000000 0.440000 11.440000 94 197 233 0
22.220000 0.440000 11.440000 85 203 236 0
22.440000 0.440000 11.440000 85 203 236 0
22.660000 0.440000 11.660000 84 206 238 0
22.880000 0.440000 11.660000 85 207 239 0
23.100000 0.440000 12.760000 88 204 240 0
23.320000 0.440000 12.540000 86 202 238 0
23.540000 0.440000 12.540000 99 192 228 0
23.760000 0.440000 12.760000 93 186 222 0
23.980000 0.440000 12.760000 101 174 210 0
24.200000 0.440000 12.540000 94 167 203 0
24.420000 0.440000 11.220000 106 153 178 0
24.640000 0.440000 11.440000 100 147 172 0
24.860000 0.440000 11.440000 105 140 155 0
25.080000 0.440000 11.440000 104 139 154 0
25.300000 0.440000 11.440000 102 135 147 0
25.520000 0.440000 12.760000 102 135 147 0
25.740000 0.440000 12.760000 101 133 141 0
25.960000 0.440000 12.760000 102 134 142 0
26.180000 0.440000 11.440000 107 134 146 0
26.400000 0.440000 11.660000 109 136 148 0
26.620000 0.440000 12.760000 108 141 155 0
26.840000 0.440000 11.440000 110 143 157 0
27.060000 0.440000 11.660000 109 146 160 0
27.280000 0.440000 11.660000 112 149 163 0
27.500000 0.440000 11.440000 113 150 166 0
27.720000 0.440000 12.540000 114 151 167 0
27.940000 0.440000 12.760000 113 153 173 0
28.160000 0.440000 11.660000 114 154 174 0
28.380000 0.440000 11.660000 115 156 173 0
28.600000 0.440000 11.440000 115 156 173 0
28.820000 0.440000 11.440000 114 155 172 0
29.040000 0.440000 11.440000 115 156 173 0
29.260000 0.440000 11.440000 117 155 173 0
29.480000 0.440000 10.340000 117 155 173 0
29.700000 0.440000 10.340000 115 155 175 0
29.920000 0.440000 10.340000 115 155 175 0
30.140000 0.440000 10.340000 114 156 173 0
30.360000 0.440000 10.120000 115 157 174 0
30.580000 0.440000 10.120000 115 160 178 0
30.800000 0.440000 10.120000 115 160 178 0
31.020000 0.440000 10.120000 108 166 191 0
31.240000 0.440000 10.120000 112 170 195 0
31.460000 0.440000 11.440000 107 176 204 0
31.680000 0.440000 11.440000 110 179 207 0
31.900000 0.440000 11.660000 103 187 219 0
32.120000 0.440000 11.660000 106 190 222 0
32.340000 0.440000 12.980000 94 200 234 0
32.560000 0.440000 12.760000 95 201 235 0
32.780000 0.440000 12.760000 94 204 236 0
33.000000 0.440000 15.620000 96 206 238 0
33.220000 0.440000 17.160000 92 209 239 0
33.440000 0.440000 18.480000 94 211 241 0
33.660000 0.440000 19.800000 97 212 238 0
33.880000 0.440000 21.340000 97 212 238 0
34.100000 0.440000 21.340000 96 216 238 0
34.320000 0.440000 21.120000 97 217 239 0
34.540000 0.440000 22.440000 99 217 240 0
34.760000 0.440000 23.980000 99 217 240 0
34.980000 0.440000 23.980000 99 217 240 0
35.200000 0.440000 23.980000 102 220 243 0
35.420000 0.440000 25.300000 101 219 242 0
35.640000 0.440000 26.620000 101 219 242 0
35.860000 0.440000 26.620000 100 220 240 0
36.080000 0.440000 26.620000 101 221 241 0
36.300000 0.440000 27.940000 102 222 241 0
36.520000 0.440000 26.620000 101 221 240 0
36.740000 0.440000 26.840000 102 222 241 0
36.960000 0.440000 26.840000 103 223 242 0
37.180000 0.440000 26.840000 104 223 242 0
0.000000 0.660000 6.160000 80 77 67 0
0.220000 0.660000 6.380000 81 76 65 0
0.440000 0.660000 6.380000 82 77 66 0
0.660000 0.660000 7.920000 81 77 63 0
0.880000 0.660000 11.880000 81 77 63 0
1.100000 0.660000 11.880000 81 76 65 0
1.320000 0.660000 7.700000 80 75 64 0
1.540000 0.660000 3.520000 81 76 65 0
1.760000 0.660000 2.200000 81 76 65 0
1.980000 0.660000 4.620000 81 76 65 0
2.200000 0.660000 7.040000 81 76 65 0
2.420000 0.660000 7.040000 83 76 63 0
2.640000 0.660000 4.620000 84 77 64 0
2.860000 0.660000 4.620000 83 76 65 0
3.080000 0.660000 4.620000 84 77 66 0
3.300000 0.660000 4.840000 82 77 66 0
3.520000 0.660000 2.200000 84 79 68 0
3.740000 0.660000 1.980000 84 77 66 0
3.960000 0.660000 3.080000 85 78 67 0
4.180000 0.660000 5.720000 84 77 66 0
4.400000 0.660000 7.040000 85 78 67 0
4.620000 0.660000 5.720000 85 78 67 0
4.840000 0.660000 4.620000 86 79 68 0
5.060000 0.660000 3.520000 86 79 68 0
5.280000 0.660000 3.300000 86 79 68 0
5.500000 0.660000 4.620000 85 78 67 0
5.720000 0.660000 3.300000 86 79 68 0
5.940000 0.660000 4.840000 86 79 68 0
6.160000 0.660000 6.160000 86 79 68 0
6.380000 0.660000 5.940000 85 78 67 0
6.600000 0.660000 4.620000 85 78 67 0
6.820000 0.660000 4.620000 85 78 67 0
7.040000 0.660000 4.400000 86 79 68 0
7.260000 0.660000 4.400000 86 79 68 0
7.480000 0.660000 4.620000 87 80 69 0
7.700000 0.660000 3.520000 86 79 68 0
7.920000 0.660000 3.300000 85 78 67 0
8.140000 0.660000 5.940000 87 80 69 0
8.360000 0.660000 5.720000 88 81 70 0
8.580000 0.660000 4.400000 86 79 68 0
8.800000 0.660000 4.400000 87 80 69 0
9.020000 0.660000 4.400000 84 79 68 0
9.240000 0.660000 4.620000 86 81 70 0
9.460000 0.660000 3.300000 88 80 72 0
9.680000 0.660000 3.080000 87 79 71 0
9.900000 0.660000 4.400000 86 81 70 0
10.120000 0.660000 4.620000 85 80 69 0
10.340000 0.660000 4.620000 86 81 72 0
10.560000 0.660000 5.940000 86 81 72 0
10.780000 0.660000 5.720000 87 82 73 0
11.000000 0.660000 4.400000 87 82 73 0
11.220000 0.660000 4.840000 87 82 74 0
11.440000 0.660000 3.740000 87 82 74 0
11.660000 0.660000 5.060000 87 82 73 0
11.880000 0.660000 4.620000 86 81 72 0
12.100000 0.660000 4.400000 87 82 74 0
12.320000 0.660000 4.620000 87 82 74 0
12.540000 0.660000 4.400000 88 83 74 0
12.760000 0.660000 4.400000 88 83 74 0
12.980000 0.660000 5.720000 88 83 75 0
13.200000 0.660000 5.720000 89 84 76 0
13.420000 0.660000 4.400000 89 85 77 0
13.640000 0.660000 4.400000 88 84 76 0
13.860000 0.660000 4.400000 89 85 79 0
14.080000 0.660000 4.400000 89 85 79 0
14.300000 0.660000 4.400000 89 88 81 0
14.520000 0.660000 4.400000 89 88 81 0
14.740000 0.660000 4.400000 93 89 83 0
14.960000 0.660000 4.400000 94 90 84 0
15.180000 0.660000 4.400000 92 91 91 0
15.400000 0.660000 4.400000 94 93 93 0
15.620000 0.660000 3.080000 91 95 101 0
15.840000 0.660000 4.400000 93 97 103 0
16.060000 0.660000 4.400000 91 101 106 0
16.280000 0.660000 3.080000 95 105 110 0
16.500000 0.660000 3.080000 92 110 127 0
16.720000 0.660000 3.080000 95 113 130 0
16.940000 0.660000 3.080000 88 122 144 0
17.160000 0.660000 1.760000 94 128 150 0
17.380000 0.660000 1.760000 91 134 164 0
17.600000 0.660000 3.080000 98 141 171 0
17.820000 0.660000 1.760000 91 150 185 0
18.040000 0.660000 0.440000 96 155 190 0
18.260000 0.660000 0.440000 92 162 195 0
18.480000 0.660000 1.760000 94 164 197 0
18.700000 0.660000 1.760000 90 170 202 0
18.920000 0.660000 1.760000 94 174 206 0
19.140000 0.660000 1.760000 89 175 209 0
19.360000 0.660000 3.080000 91 177 211 0
19.580000 0.660000 3.080000 91 179 212 0
19.800000 0.660000 3.080000 92 180 213 0
20.020000 0.660000 3.080000 95 181 215 0
20.240000 0.660000 4.620000 95 181 215 0
20.460000 0.660000 4.620000 94 182 215 0
20.680000 0.660000 5.940000 93 181 214 0
20.900000 0.660000 5.940000 94 180 214 0
21.120000 0.660000 7.260000 94 180 214 0
21.340000 0.660000 8.800000 96 184 217 0
21.560000 0.660000 10.120000 100 188 221 0
21.780000 0.660000 10.120000 92 195 231 0
22.000000 0.660000 10.120000 94 197 233 0
22.220000 0.660000 10.120000 86 204 237 0
22.440000 0.660000 10.120000 86 204 237 0
22.660000 0.660000 10.340000 83 205 237 0
22.880000 0.660000 10.340000 84 206 238 0
23.100000 0.660000 11.440000 88 204 240 0
23.320000 0.660000 11.220000 86 202 238 0
23.540000 0.660000 11.220000 99 192 228 0
23.760000 0.660000 11.440000 93 186 222 0
23.980000 0.660000 11.440000 100 173 209 0
24.200000 0.660000 11.220000 91 164 200 0
24.420000 0.660000 11.220000 106 153 178 0
24.640000 0.660000 10.120000 99 146 171 0
24.860000 0.660000 11.440000 106 141 156 0
25.080000 0.660000 11.440000 103 138 153 0
25.300000 0.660000 11.440000 103 136 148 0
25.520000 0.660000 11.440000 101 134 146 0
25.740000 0.660000 11.440000 101 133 141 0
25.960000 0.660000 11.440000 102 134 142 0
26.180000 0.660000 11.440000 107 134 146 0
26.400000 0.660000 11.440000 109 136 148 0
26.620000 0.660000 11.440000 106 139 153 0
26.840000 0.660000 11.440000 108 141 155 0
27.060000 0.660000 11.660000 108 145 159 0
27.280000 0.660000 11.660000 111 148 162 0
27.500000 0.660000 11.440000 113 150 166 0
27.720000 0.660000 11.220000 113 150 166 0
27.940000 0.660000 11.440000 113 153 173 0
28.160000 0.660000 10.340000 114 154 174 0
28.380000 0.660000 10.120000 115 156 173 0
28.600000 0.660000 11.440000 114 155 172 0
28.820000 0.660000 10.340000 113 154 171 0
29.040000 0.660000 10.340000 114 155 172 0
29.260000 0.660000 10.340000 116 154 172 0
29.480000 0.660000 10.340000 116 154 172 0
29.700000 0.660000 10.340000 115 155 175 0
29.920000 0.660000 9.020000 115 155 175 0
30.140000 0.660000 9.020000 114 156 173 0
30.360000 0.660000 9.020000 115 157 174 0
30.580000 0.660000 10.340000 114 159 177 0
30.800000 0.660000 10.120000 115 160 178 0
31.020000 0.660000 10.120000 107 165 190 0
31.240000 0.660000 10.120000 110 168 193 0
31.460000 0.660000 10.120000 105 174 202 0
31.680000 0.660000 10.120000 110 179 207 0
31.900000 0.660000 10.120000 103 187 219 0
32.120000 0.660000 10.340000 106 190 222 0
32.340000 0.660000 10.340000 93 199 233 0
32.560000 0.660000 10.120000 94 200 234 0
32.780000 0.660000 10.120000 95 205 237 0
33.000000 0.660000 11.440000 95 205 237 0
33.220000 0.660000 14.300000 92 209 239 0
33.440000 0.660000 17.160000 92 209 239 0
33.660000 0.660000 21.340000 96 211 237 0
33.880000 0.660000 22.660000 98 213 239 0
34.100000 0.660000 23.980000 94 214 236 0
34.320000 0.660000 23.980000 95 215 237 0
34.540000 0.660000 25.300000 96 214 237 0
34.760000 0.660000 26.840000 97 215 238 0
34.980000 0.660000 26.840000 99 217 240 0
35.200000 0.660000 26.840000 98 216 239 0
35.420000 0.660000 26.840000 100 218 241 0
35.640000 0.660000 26.840000 99 217 240 0
35.860000 0.660000 28.160000 99 219 239 0
36.080000 0.660000 28.160000 100 220 240 0
36.300000 0.660000 29.480000 101 221 240 0
36.520000 0.660000 29.480000 101 221 240 0
36.740000 0.660000 28.160000 100 220 239 0
36.960000 0.660000 29.480000 101 221 240 0
37.180000 0.660000 29.480000 103 222 241 0
0.000000 0.880000 11.660000 83 76 65 0
0.220000 0.880000 10.340000 83 76 65 0
0.440000 0.880000 7.700000 83 76 65 0
0.660000 0.880000 9.240000 83 76 65 0
0.880000 0.880000 16.060000 82 75 64 0
1.100000 0.880000 15.840000 82 75 64 0
1.320000 0.880000 7.700000 82 75 64 0
1.540000 0.880000 3.520000 83 76 65 0
1.760000 0.880000 4.840000 84 77 66 0
1.980000 0.880000 6.160000 84 77 66 0
2.200000 0.880000 7.480000 82 75 64 0
2.420000 0.880000 5.940000 83 76 65 0
2.640000 0.880000 4.620000 84 77 66 0
2.860000 0.880000 3.300000 85 78 67 0
3.080000 0.880000 4.620000 84 77 66 0
3.300000 0.880000 3.300000 86 77 65 0
3.520000 0.880000 1.980000 85 76 64 0
3.740000 0.880000 0.660000 85 78 67 0
3.960000 0.880000 1.980000 84 77 66 0
4.180000 0.880000 3.300000 84 77 66 0
4.400000 0.880000 5.940000 84 77 66 0
4.620000 0.880000 4.620000 85 78 67 0
4.840000 0.880000 3.300000 86 79 68 0
5.060000 0.880000 4.620000 88 79 69 0
5.280000 0.880000 4.620000 87 78 68 0
5.500000 0.880000 4.400000 86 79 68 0
5.720000 0.880000 4.400000 85 78 67 0
5.940000 0.880000 6.160000 86 79 68 0
6.160000 0.880000 5.940000 86 79 68 0
6.380000 0.880000 4.620000 88 81 70 0
6.600000 0.880000 4.400000 86 79 68 0
6.820000 0.880000 5.720000 86 79 68 0
7.040000 0.880000 5.720000 86 79 68 0
7.260000 0.880000 4.180000 86 78 70 0
7.480000 0.880000 4.400000 86 78 70 0
7.700000 0.880000 3.300000 86 78 70 0
7.920000 0.880000 4.620000 86 78 70 0
8.140000 0.880000 5.940000 87 79 71 0
8.360000 0.880000 5.720000 86 78 70 0
8.580000 0.880000 4.400000 87 80 69 0
8.800000 0.880000 4.620000 86 79 68 0
9.020000 0.880000 4.620000 87 79 71 0
9.240000 0.880000 4.840000 87 79 71 0
9.460000 0.880000 3.300000 86 81 72 0
9.680000 0.880000 3.300000 86 81 72 0
9.900000 0.880000 4.400000 87 82 73 0
10.120000 0.880000 4.400000 86 81 72 0
10.340000 0.880000 5.720000 88 80 72 0
10.560000 0.880000 5.720000 88 80 72 0
10.780000 0.880000 5.720000 86 81 73 0
11.000000 0.880000 5.720000 87 82 74 0
11.220000 0.880000 4.620000 86 81 73 0
11.440000 0.880000 4.840000 87 82 74 0
11.660000 0.880000 3.520000 86 81 73 0
11.880000 0.880000 4.620000 87 82 74 0
12.100000 0.880000 4.620000 87 82 74 0
12.320000 0.880000 4.620000 88 83 75 0
12.540000 0.880000 4.400000 88 82 77 0
12.760000 0.880000 4.400000 89 83 78 0
12.980000 0.880000 4.400000 89 84 76 0
13.200000 0.880000 4.400000 89 84 76 0
13.420000 0.880000 4.620000 88 84 78 0
13.640000 0.880000 4.620000 89 85 79 0
13.860000 0.880000 4.400000 90 84 79 0
14.080000 0.880000 4.400000 91 85 80 0
14.300000 0.880000 4.400000 90 86 82 0
14.520000 0.880000 4.400000 91 87 83 0
14.740000 0.880000 4.400000 93 89 85 0
14.960000 0.880000 4.400000 93 89 85 0
15.180000 0.880000 4.400000 92 91 91 0
15.400000 0.880000 3.080000 92 91 91 0
15.620000 0.880000 3.080000 92 95 95 0
15.840000 0.880000 4.400000 94 97 97 0
16.060000 0.880000 4.400000 94 101 104 0
16.280000 0.880000 3.080000 97 104 107 0
16.500000 0.880000 3.080000 93 109 120 0
16.720000 0.880000 1.760000 96 112 123 0
16.940000 0.880000 1.760000 94 120 138 0
17.160000 0.880000 1.760000 100 126 144 0
17.380000 0.880000 1.760000 98 135 159 0
17.600000 0.880000 1.760000 102 139 163 0
17.820000 0.880000 1.760000 100 148 181 0
18.040000 0.880000 0.220000 103 151 184 0
18.260000 0.880000 0.440000 97 159 191 0
18.480000 0.880000 0.440000 99 161 193 0
18.700000 0.880000 1.760000 94 168 198 0
18.920000 0.880000 1.760000 96 170 200 0
19.140000 0.880000 1.760000 98 172 204 0
19.360000 0.880000 1.760000 99 173 205 0
19.580000 0.880000 1.760000 98 174 208 0
19.800000 0.880000 1.760000 99 175 209 0
20.020000 0.880000 3.080000 103 177 211 0
20.240000 0.880000 3.080000 103 177 211 0
20.460000 0.880000 3.300000 100 178 211 0
20.680000 0.880000 4.620000 99 177 210 0
20.900000 0.880000 4.620000 99 177 210 0
21.120000 0.880000 5.940000 99 177 210 0
21.340000 0.880000 7.260000 102 180 214 0
21.560000 0.880000 8.800000 106 184 218 0
21.780000 0.880000 10.120000 96 193 230 0
22.000000 0.880000 10.120000 99 196 233 0
22.220000 0.880000 10.120000 96 199 235 0
22.440000 0.880000 10.120000 97 200 236 0
22.660000 0.880000 10.120000 90 204 238 0
22.880000 0.880000 10.120000 90 204 238 0
23.100000 0.880000 10.340000 93 202 238 0
23.320000 0.880000 11.440000 91 200 236 0
23.540000 0.880000 11.440000 100 189 226 0
23.760000 0.880000 10.120000 94 183 220 0
23.980000 0.880000 10.120000 102 170 204 0
24.200000 0.880000 11.440000 94 162 196 0
24.420000 0.880000 11.440000 106 151 177 0
24.640000 0.880000 10.120000 101 146 172 0
24.860000 0.880000 10.120000 107 138 153 0
25.080000 0.880000 11.440000 105 136 151 0
25.300000 0.880000 11.440000 105 134 147 0
25.520000 0.880000 11.440000 103 132 145 0
25.740000 0.880000 11.440000 107 130 143 0
25.960000 0.880000 11.440000 107 130 143 0
26.180000 0.880000 11.440000 107 133 143 0
26.400000 0.880000 11.440000 109 135 145 0
26.620000 0.880000 11.440000 110 137 153 0
26.840000 0.880000 9.900000 112 139 155 0
27.060000 0.880000 10.120000 113 144 159 0
27.280000 0.880000 10.120000 114 145 160 0
27.500000 0.880000 10.120000 113 148 165 0
27.720000 0.880000 10.120000 114 149 166 0
27.940000 0.880000 10.340000 115 152 168 0
28.160000 0.880000 10.120000 115 152 168 0
28.380000 0.880000 10.120000 116 152 171 0
28.600000 0.880000 10.120000 117 153 172 0
28.820000 0.880000 9.020000 117 153 172 0
29.040000 0.880000 10.340000 117 153 172 0
29.260000 0.880000 10.340000 118 153 170 0
29.480000 0.880000 10.340000 118 153 170 0
29.700000 0.880000 10.340000 117 154 170 0
29.920000 0.880000 9.020000 117 154 170 0
30.140000 0.880000 9.020000 118 154 173 0
30.360000 0.880000 9.020000 118 154 173 0
30.580000 0.880000 8.800000 116 158 178 0
30.800000 0.880000 8.800000 117 159 179 0
31.020000 0.880000 10.120000 112 163 189 0
31.240000 0.880000 10.120000 115 166 192 0
31.460000 0.880000 10.120000 108 172 202 0
31.680000 0.880000 10.120000 113 177 207 0
31.900000 0.880000 10.120000 104 186 221 0
32.120000 0.880000 10.120000 108 190 225 0
32.340000 0.880000 10.120000 101 194 232 0
32.560000 0.880000 8.800000 105 198 236 0
32.780000 0.880000 8.800000 99 203 235 0
33.000000 0.880000 8.800000 100 204 236 0
33.220000 0.880000 10.120000 97 207 237 0
33.440000 0.880000 12.980000 98 208 238 0
33.660000 0.880000 18.480000 100 210 238 0
33.880000 0.880000 23.980000 101 211 239 0
34.100000 0.880000 23.980000 99 212 239 0
34.320000 0.880000 26.840000 98 211 238 0
34.540000 0.880000 28.160000 95 213 236 0
34.760000 0.880000 28.160000 97 215 238 0
34.980000 0.880000 28.160000 99 214 238 0
35.200000 0.880000 29.480000 100 215 239 0
35.420000 0.880000 29.480000 102 216 238 0
35.640000 0.880000 28.160000 103 217 239 0
35.860000 0.880000 29.480000 104 218 240 0
36.080000 0.880000 29.480000 104 218 240 0
36.300000 0.880000 30.800000 103 219 239 0
36.520000 0.880000 30.800000 103 219 239 0
36.740000 0.880000 30.800000 105 219 240 0
36.960000 0.880000 30.800000 106 220 241 0
37.180000 0.880000 31.020000 106 222 242 0
0.000000 1.100000 21.560000 83 76 65 0
0.220000 1.100000 20.020000 84 77 66 0
0.440000 1.100000 13.200000 83 76 65 0
0.660000 1.100000 7.700000 82 75 64 0
0.880000 1.100000 9.020000 83 76 65 0
1.100000 1.100000 10.340000 84 77 66 0
1.320000 1.100000 6.160000 83 76 65 0
1.540000 1.100000 3.300000 83 76 65 0
1.760000 1.100000 4.840000 84 77 66 0
1.980000 1.100000 7.480000 83 76 65 0
2.200000 1.100000 7.700000 84 77 66 0
2.420000 1.100000 6.160000 85 78 67 0
2.640000 1.100000 4.620000 84 77 66 0
2.860000 1.100000 3.300000 84 77 66 0
3.080000 1.100000 3.300000 84 77 66 0
3.300000 1.100000 3.300000 86 77 65 0
3.520000 1.100000 1.980000 86 77 65 0
3.740000 1.100000 1.980000 85 78 67 0
3.960000 1.100000 2.200000 85 78 67 0
4.180000 1.100000 3.300000 85 78 67 0
4.400000 1.100000 3.300000 85 78 67 0
4.620000 1.100000 3.300000 86 79 68 0
4.840000 1.100000 3.300000 85 78 67 0
5.060000 1.100000 4.620000 86 77 67 0
5.280000 1.100000 4.620000 87 78 68 0
5.500000 1.100000 4.400000 86 79 68 0
5.720000 1.100000 5.720000 86 79 68 0
5.940000 1.100000 5.940000 85 78 67 0
6.160000 1.100000 4.400000 85 78 67 0
6.380000 1.100000 4.400000 86 79 68 0
6.600000 1.100000 4.400000 86 79 68 0
6.820000 1.100000 5.720000 86 79 68 0
7.040000 1.100000 5.720000 86 79 68 0
7.260000 1.100000 4.400000 85 77 69 0
7.480000 1.100000 3.080000 86 78 70 0
7.700000 1.100000 3.300000 86 78 70 0
7.920000 1.100000 4.620000 86 78 70 0
8.140000 1.100000 4.620000 87 79 71 0
8.360000 1.100000 5.940000 87 79 71 0
8.580000 1.100000 4.620000 87 80 69 0
8.800000 1.100000 4.620000 86 79 68 0
9.020000 1.100000 4.840000 86 78 70 0
9.240000 1.100000 3.300000 88 80 72 0
9.460000 1.100000 3.300000 85 80 71 0
9.680000 1.100000 4.620000 86 81 72 0
9.900000 1.100000 4.400000 84 79 70 0
10.120000 1.100000 5.720000 86 81 72 0
10.340000 1.100000 5.720000 87 79 71 0
10.560000 1.100000 5.720000 87 79 71 0
10.780000 1.100000 5.720000 86 81 73 0
11.000000 1.100000 5.720000 87 82 74 0
11.220000 1.100000 4.620000 87 82 74 0
11.440000 1.100000 4.620000 87 82 74 0
11.660000 1.100000 4.620000 87 82 74 0
11.880000 1.100000 4.620000 87 82 74 0
12.100000 1.100000 4.400000 88 83 75 0
12.320000 1.100000 4.400000 88 83 75 0
12.540000 1.100000 4.400000 88 82 77 0
12.760000 1.100000 3.080000 89 83 78 0
12.980000 1.100000 3.080000 89 84 76 0
13.200000 1.100000 3.080000 89 84 76 0
13.420000 1.100000 3.300000 88 84 78 0
13.640000 1.100000 3.300000 89 85 79 0
13.860000 1.100000 4.400000 90 84 79 0
14.080000 1.100000 4.400000 91 85 80 0
14.300000 1.100000 4.400000 90 86 82 0
14.520000 1.100000 4.400000 91 87 83 0
14.740000 1.100000 4.400000 92 88 84 0
14.960000 1.100000 4.400000 94 90 86 0
15.180000 1.100000 4.400000 92 91 91 0
15.400000 1.100000 3.080000 93 92 92 0
15.620000 1.100000 3.080000 92 95 95 0
15.840000 1.100000 4.400000 94 97 97 0
16.060000 1.100000 4.400000 93 100 103 0
16.280000 1.100000 4.400000 98 105 108 0
16.500000 1.100000 3.080000 94 110 121 0
16.720000 1.100000 3.080000 96 112 123 0
16.940000 1.100000 1.760000 94 120 138 0
17.160000 1.100000 1.760000 99 125 143 0
17.380000 1.100000 1.760000 98 135 159 0
17.600000 1.100000 1.760000 102 139 163 0
17.820000 1.100000 1.760000 99 147 180 0
18.040000 1.100000 0.220000 103 151 184 0
18.260000 1.100000 0.440000 98 160 192 0
18.480000 1.100000 0.440000 100 162 194 0
18.700000 1.100000 0.440000 94 168 198 0
18.920000 1.100000 1.760000 96 170 200 0
19.140000 1.100000 1.760000 96 170 202 0
19.360000 1.100000 1.760000 98 172 204 0
19.580000 1.100000 1.760000 98 174 208 0
19.800000 1.100000 1.760000 98 174 208 0
20.020000 1.100000 1.760000 101 175 209 0
20.240000 1.100000 3.080000 102 176 210 0
20.460000 1.100000 3.300000 99 177 210 0
20.680000 1.100000 3.300000 100 178 211 0
20.900000 1.100000 4.620000 99 177 210 0
21.120000 1.100000 4.620000 100 178 211 0
21.340000 1.100000 5.940000 102 180 214 0
21.560000 1.100000 7.260000 104 182 216 0
21.780000 1.100000 8.800000 94 191 228 0
22.000000 1.100000 8.800000 98 195 232 0
22.220000 1.100000 10.120000 96 199 235 0
22.440000 1.100000 10.120000 98 201 237 0
22.660000 1.100000 10.120000 90 204 238 0
22.880000 1.100000 10.120000 90 204 238 0
23.100000 1.100000 10.340000 93 202 238 0
23.320000 1.100000 10.120000 91 200 236 0
23.540000 1.100000 11.440000 101 190 227 0
23.760000 1.100000 10.120000 94 183 220 0
23.980000 1.100000 10.120000 101 169 203 0
24.200000 1.100000 10.120000 97 165 199 0
24.420000 1.100000 10.120000 106 151 177 0
24.640000 1.100000 10.120000 100 145 171 0
24.860000 1.100000 10.120000 107 138 153 0
25.080000 1.100000 11.440000 104 135 150 0
25.300000 1.100000 11.440000 105 134 147 0
25.520000 1.100000 11.440000 104 133 146 0
25.740000 1.100000 11.660000 108 131 144 0
25.960000 1.100000 11.660000 108 131 144 0
26.180000 1.100000 11.440000 107 133 143 0
26.400000 1.100000 11.440000 110 136 146 0
26.620000 1.100000 10.120000 110 137 153 0
26.840000 1.100000 10.120000 113 140 156 0
27.060000 1.100000 9.900000 113 144 159 0
27.280000 1.100000 10.120000 114 145 160 0
27.500000 1.100000 10.340000 112 147 164 0
27.720000 1.100000 9.020000 115 150 167 0
27.940000 1.100000 10.340000 114 151 167 0
28.160000 1.100000 10.120000 115 152 168 0
28.380000 1.100000 10.120000 116 152 171 0
28.600000 1.100000 8.800000 116 152 171 0
28.820000 1.100000 9.020000 117 153 172 0
29.040000 1.100000 10.340000 116 152 171 0
29.260000 1.100000 10.340000 119 154 171 0
29.480000 1.100000 10.340000 118 153 170 0
29.700000 1.100000 9.020000 116 153 169 0
29.920000 1.100000 9.020000 117 154 170 0
30.140000 1.100000 9.020000 117 153 172 0
30.360000 1.100000 9.020000 117 153 172 0
30.580000 1.100000 9.020000 114 156 176 0
30.800000 1.100000 8.800000 116 158 178 0
31.020000 1.100000 10.120000 111 162 188 0
31.240000 1.100000 10.120000 113 164 190 0
31.460000 1.100000 10.120000 109 173 203 0
31.680000 1.100000 8.800000 112 176 206 0
31.900000 1.100000 8.800000 103 185 220 0
32.120000 1.100000 8.800000 108 190 225 0
32.340000 1.100000 8.800000 102 195 233 0
32.560000 1.100000 8.800000 104 197 235 0
32.780000 1.100000 7.480000 100 204 236 0
33.000000 1.100000 8.800000 101 205 237 0
33.220000 1.100000 8.800000 96 206 236 0
33.440000 1.100000 8.800000 98 208 238 0
33.660000 1.100000 12.980000 100 210 238 0
33.880000 1.100000 19.800000 101 211 239 0
34.100000 1.100000 21.120000 98 211 238 0
34.320000 1.100000 25.300000 99 212 239 0
34.540000 1.100000 28.160000 95 213 236 0
34.760000 1.100000 28.160000 97 215 238 0
34.980000 1.100000 29.480000 99 214 238 0
35.200000 1.100000 30.800000 100 215 239 0
35.420000 1.100000 29.480000 102 216 238 0
35.640000 1.100000 29.480000 104 218 240 0
35.860000 1.100000 29.480000 104 218 240 0
36.080000 1.100000 30.800000 103 217 239 0
36.300000 1.100000 30.800000 103 219 239 0
36.520000 1.100000 30.800000 104 220 240 0
36.740000 1.100000 30.800000 107 221 242 0
36.960000 1.100000 30.800000 105 219 240 0
37.180000 1.100000 30.800000 105 221 241 0
0.000000 1.320000 17.380000 83 76 65 0
0.220000 1.320000 17.380000 81 77 63 0
0.440000 1.320000 11.660000 80 76 62 0
0.660000 1.320000 3.520000 84 77 64 0
0.880000 1.320000 3.300000 84 77 64 0
1.100000 1.320000 4.620000 83 76 63 0
1.320000 1.320000 4.400000 83 76 63 0
1.540000 1.320000 3.080000 83 76 65 0
1.760000 1.320000 4.620000 84 77 66 0
1.980000 1.320000 6.160000 84 77 64 0
2.200000 1.320000 5.940000 83 76 63 0
2.420000 1.320000 5.940000 85 78 65 0
2.640000 1.320000 4.620000 83 76 63 0
2.860000 1.320000 3.300000 84 77 64 0
3.080000 1.320000 3.300000 83 76 63 0
3.300000 1.320000 3.520000 86 77 65 0
3.520000 1.320000 3.300000 86 77 65 0
3.740000 1.320000 3.520000 84 77 66 0
3.960000 1.320000 4.840000 84 77 66 0
4.180000 1.320000 4.840000 86 77 65 0
4.400000 1.320000 3.300000 86 77 65 0
4.620000 1.320000 4.620000 87 78 68 0
4.840000 1.320000 4.620000 86 77 67 0
5.060000 1.320000 4.840000 86 79 68 0
5.280000 1.320000 3.300000 86 79 68 0
5.500000 1.320000 4.620000 86 77 67 0
5.720000 1.320000 5.720000 86 77 67 0
5.940000 1.320000 5.720000 85 76 66 0
6.160000 1.320000 4.400000 87 78 68 0
6.380000 1.320000 4.400000 86 79 68 0
6.600000 1.320000 4.400000 86 79 68 0
6.820000 1.320000 4.400000 85 78 67 0
7.040000 1.320000 4.400000 85 78 67 0
7.260000 1.320000 4.620000 86 78 70 0
7.480000 1.320000 3.300000 86 78 70 0
7.700000 1.320000 3.300000 86 79 68 0
7.920000 1.320000 3.300000 86 79 68 0
8.140000 1.320000 4.620000 86 78 70 0
8.360000 1.320000 4.840000 86 78 70 0
8.580000 1.320000 4.840000 86 79 68 0
8.800000 1.320000 3.300000 87 80 69 0
9.020000 1.320000 3.080000 87 79 71 0
9.240000 1.320000 4.400000 87 79 71 0
9.460000 1.320000 4.620000 88 80 72 0
9.680000 1.320000 4.620000 87 79 71 0
9.900000 1.320000 4.400000 88 80 72 0
10.120000 1.320000 4.400000 87 79 71 0
10.340000 1.320000 5.720000 88 80 72 0
10.560000 1.320000 5.720000 87 79 71 0
10.780000 1.320000 4.620000 88 80 73 0
11.000000 1.320000 4.620000 89 81 74 0
11.220000 1.320000 4.620000 89 81 74 0
11.440000 1.320000 3.300000 88 80 73 0
11.660000 1.320000 3.300000 87 82 74 0
11.880000 1.320000 4.620000 87 82 74 0
12.100000 1.320000 4.400000 87 82 73 0
12.320000 1.320000 4.400000 88 83 74 0
12.540000 1.320000 4.400000 88 83 75 0
12.760000 1.320000 4.400000 88 83 75 0
12.980000 1.320000 3.080000 91 83 78 0
13.200000 1.320000 3.080000 91 83 78 0
13.420000 1.320000 3.080000 90 85 77 0
13.640000 1.320000 3.080000 89 84 76 0
13.860000 1.320000 4.620000 90 84 79 0
14.080000 1.320000 4.400000 91 85 80 0
14.300000 1.320000 4.400000 92 86 81 0
14.520000 1.320000 4.400000 92 86 81 0
14.740000 1.320000 4.400000 93 87 84 0
14.960000 1.320000 4.400000 95 89 86 0
15.180000 1.320000 4.400000 95 90 89 0
15.400000 1.320000 3.080000 97 92 91 0
15.620000 1.320000 3.080000 94 95 95 0
15.840000 1.320000 4.400000 96 97 97 0
16.060000 1.320000 4.400000 94 101 106 0
16.280000 1.320000 4.400000 96 103 108 0
16.500000 1.320000 3.080000 100 107 120 0
16.720000 1.320000 3.080000 105 112 125 0
16.940000 1.320000 1.760000 102 118 138 0
17.160000 1.320000 1.760000 108 124 144 0
17.380000 1.320000 1.760000 105 132 154 0
17.600000 1.320000 1.760000 111 138 160 0
17.820000 1.320000 1.760000 105 146 171 0
18.040000 1.320000 0.220000 109 150 175 0
18.260000 1.320000 0.440000 109 158 186 0
18.480000 1.320000 0.440000 111 160 188 0
18.700000 1.320000 0.440000 108 163 191 0
18.920000 1.320000 0.440000 109 164 192 0
19.140000 1.320000 0.440000 104 167 197 0
19.360000 1.320000 1.760000 105 168 198 0
19.580000 1.320000 1.760000 108 168 200 0
19.800000 1.320000 1.760000 109 169 201 0
20.020000 1.320000 1.760000 106 172 205 0
20.240000 1.320000 1.760000 106 172 205 0
20.460000 1.320000 3.300000 105 171 204 0
20.680000 1.320000 3.300000 106 172 205 0
20.900000 1.320000 4.620000 103 173 202 0
21.120000 1.320000 4.620000 104 174 203 0
21.340000 1.320000 5.940000 104 178 210 0
21.560000 1.320000 5.940000 107 181 213 0
21.780000 1.320000 7.260000 101 187 221 0
22.000000 1.320000 8.800000 106 192 226 0
22.220000 1.320000 8.800000 99 196 233 0
22.440000 1.320000 10.120000 102 199 236 0
22.660000 1.320000 10.120000 96 202 237 0
22.880000 1.320000 10.120000 96 202 237 0
23.100000 1.320000 10.120000 96 199 235 0
23.320000 1.320000 10.120000 94 197 233 0
23.540000 1.320000 11.440000 104 188 222 0
23.760000 1.320000 10.120000 100 184 218 0
23.980000 1.320000 10.120000 105 168 204 0
24.200000 1.320000 10.120000 100 163 199 0
24.420000 1.320000 10.120000 109 150 175 0
24.640000 1.320000 10.120000 102 143 168 0
24.860000 1.320000 11.440000 109 137 153 0
25.080000 1.320000 11.440000 107 135 151 0
25.300000 1.320000 10.120000 107 133 143 0
25.520000 1.320000 10.120000 106 132 142 0
25.740000 1.320000 10.120000 108 130 141 0
25.960000 1.320000 10.120000 109 131 142 0
26.180000 1.320000 10.120000 110 132 141 0
26.400000 1.320000 11.440000 112 134 143 0
26.620000 1.320000 10.120000 112 135 148 0
26.840000 1.320000 10.120000 115 138 151 0
27.060000 1.320000 10.120000 114 143 156 0
27.280000 1.320000 10.340000 116 145 158 0
27.500000 1.320000 9.020000 115 146 162 0
27.720000 1.320000 9.020000 118 149 165 0
27.940000 1.320000 10.340000 116 148 164 0
28.160000 1.320000 10.120000 118 150 166 0
28.380000 1.320000 10.120000 117 152 169 0
28.600000 1.320000 9.020000 117 152 169 0
28.820000 1.320000 8.800000 118 152 172 0
29.040000 1.320000 8.800000 117 151 171 0
29.260000 1.320000 10.340000 120 152 168 0
29.480000 1.320000 9.020000 119 151 167 0
29.700000 1.320000 9.020000 120 152 168 0
29.920000 1.320000 9.020000 120 152 168 0
30.140000 1.320000 9.020000 118 153 170 0
30.360000 1.320000 9.020000 118 153 170 0
30.580000 1.320000 9.020000 115 155 175 0
30.800000 1.320000 8.800000 117 157 177 0
31.020000 1.320000 10.120000 116 161 187 0
31.240000 1.320000 10.120000 119 164 190 0
31.460000 1.320000 8.800000 111 171 203 0
31.680000 1.320000 8.800000 115 175 207 0
31.900000 1.320000 8.800000 105 184 218 0
32.120000 1.320000 8.800000 110 189 223 0
32.340000 1.320000 8.800000 99 198 235 0
32.560000 1.320000 8.800000 101 200 237 0
32.780000 1.320000 8.800000 99 201 234 0
33.000000 1.320000 8.800000 102 204 237 0
33.220000 1.320000 10.120000 99 206 237 0
33.440000 1.320000 8.800000 100 207 238 0
33.660000 1.320000 10.120000 97 210 239 0
33.880000 1.320000 17.160000 98 211 240 0
34.100000 1.320000 21.340000 99 212 239 0
34.320000 1.320000 22.660000 99 212 239 0
34.540000 1.320000 26.840000 101 211 239 0
34.760000 1.320000 28.160000 102 212 240 0
34.980000 1.320000 29.480000 99 214 238 0
35.200000 1.320000 30.800000 99 214 238 0
35.420000 1.320000 29.480000 102 217 241 0
35.640000 1.320000 29.480000 102 217 241 0
35.860000 1.320000 29.480000 103 219 240 0
36.080000 1.320000 29.480000 101 217 238 0
36.300000 1.320000 30.800000 103 217 241 0
36.520000 1.320000 31.020000 103 217 241 0
36.740000 1.320000 31.020000 102 220 241 0
36.960000 1.320000 31.020000 101 219 240 0
37.180000 1.320000 31.020000 102 220 241 0
0.000000 1.540000 6.380000 82 75 64 0
0.220000 1.540000 6.380000 81 77 63 0
0.440000 1.540000 4.840000 82 78 64 0
0.660000 1.540000 3.520000 83 76 63 0
0.880000 1.540000 4.620000 83 76 63 0
1.100000 1.540000 5.940000 83 76 63 0
1.320000 1.540000 4.620000 83 76 63 0
1.540000 1.540000 3.300000 84 77 66 0
1.760000 1.540000 3.300000 83 76 65 0
1.980000 1.540000 4.620000 83 76 63 0
2.200000 1.540000 5.940000 84 77 64 0
2.420000 1.540000 4.400000 83 76 63 0
2.640000 1.540000 4.400000 84 77 64 0
2.860000 1.540000 3.080000 83 76 63 0
3.080000 1.540000 1.980000 83 76 63 0
3.300000 1.540000 2.200000 85 76 64 0
3.520000 1.540000 2.200000 86 77 65 0
3.740000 1.540000 3.520000 85 78 67 0
3.960000 1.540000 4.840000 86 79 68 0
4.180000 1.540000 6.160000 86 77 65 0
4.400000 1.540000 5.940000 87 78 66 0
4.620000 1.540000 5.940000 86 77 67 0
4.840000 1.540000 5.940000 86 77 67 0
5.060000 1.540000 4.840000 87 80 69 0
5.280000 1.540000 4.840000 85 78 67 0
5.500000 1.540000 4.840000 86 77 67 0
5.720000 1.540000 4.620000 87 78 68 0
5.940000 1.540000 5.720000 87 78 68 0
6.160000 1.540000 5.720000 86 77 67 0
6.380000 1.540000 5.720000 87 80 69 0
6.600000 1.540000 4.400000 85 78 67 0
6.820000 1.540000 4.400000 86 79 68 0
7.040000 1.540000 4.400000 87 80 69 0
7.260000 1.540000 4.620000 86 78 70 0
7.480000 1.540000 4.840000 86 78 70 0
7.700000 1.540000 3.520000 86 79 68 0
7.920000 1.540000 3.520000 86 79 68 0
8.140000 1.540000 3.520000 86 78 70 0
8.360000 1.540000 4.840000 86 78 70 0
8.580000 1.540000 3.520000 88 81 70 0
8.800000 1.540000 3.300000 86 79 68 0
9.020000 1.540000 3.080000 86 78 70 0
9.240000 1.540000 4.400000 86 78 70 0
9.460000 1.540000 4.620000 86 78 70 0
9.680000 1.540000 4.840000 86 78 70 0
9.900000 1.540000 4.620000 87 79 71 0
10.120000 1.540000 4.400000 87 79 71 0
10.340000 1.540000 4.400000 87 79 71 0
10.560000 1.540000 5.720000 87 79 71 0
10.780000 1.540000 5.940000 89 81 74 0
11.000000 1.540000 4.620000 89 81 74 0
11.220000 1.540000 3.300000 89 81 74 0
11.440000 1.540000 3.300000 89 81 74 0
11.660000 1.540000 3.300000 87 82 74 0
11.880000 1.540000 3.300000 88 83 75 0
12.100000 1.540000 4.400000 88 83 74 0
12.320000 1.540000 4.400000 87 82 73 0
12.540000 1.540000 5.940000 87 82 74 0
12.760000 1.540000 4.620000 88 83 75 0
12.980000 1.540000 4.620000 91 83 78 0
13.200000 1.540000 4.400000 92 84 79 0
13.420000 1.540000 4.400000 89 84 76 0
13.640000 1.540000 3.080000 89 84 76 0
13.860000 1.540000 3.080000 90 84 79 0
14.080000 1.540000 4.400000 91 85 80 0
14.300000 1.540000 4.400000 93 87 82 0
14.520000 1.540000 4.400000 93 87 82 0
14.740000 1.540000 4.400000 93 87 84 0
14.960000 1.540000 4.400000 94 88 85 0
15.180000 1.540000 4.400000 95 90 89 0
15.400000 1.540000 4.400000 97 92 91 0
15.620000 1.540000 4.400000 93 94 94 0
15.840000 1.540000 4.400000 96 97 97 0
16.060000 1.540000 4.400000 93 100 105 0
16.280000 1.540000 3.080000 97 104 109 0
16.500000 1.540000 3.080000 101 108 121 0
16.720000 1.540000 3.080000 104 111 124 0
16.940000 1.540000 1.760000 102 118 138 0
17.160000 1.540000 1.760000 108 124 144 0
17.380000 1.540000 1.760000 105 132 154 0
17.600000 1.540000 1.760000 110 137 159 0
17.820000 1.540000 1.760000 106 147 172 0
18.040000 1.540000 1.760000 110 151 176 0
18.260000 1.540000 0.440000 107 156 184 0
18.480000 1.540000 0.440000 111 160 188 0
18.700000 1.540000 0.440000 108 163 191 0
18.920000 1.540000 0.440000 109 164 192 0
19.140000 1.540000 0.440000 104 167 197 0
19.360000 1.540000 0.440000 104 167 197 0
19.580000 1.540000 0.440000 107 167 199 0
19.800000 1.540000 1.760000 108 168 200 0
20.020000 1.540000 1.760000 104 170 203 0
20.240000 1.540000 1.760000 104 170 203 0
20.460000 1.540000 3.300000 105 171 204 0
20.680000 1.540000 3.300000 104 170 203 0
20.900000 1.540000 4.620000 102 172 201 0
21.120000 1.540000 4.620000 103 173 202 0
21.340000 1.540000 5.940000 102 176 208 0
21.560000 1.540000 5.940000 106 180 212 0
21.780000 1.540000 7.260000 101 187 221 0
22.000000 1.540000 8.800000 105 191 225 0
22.220000 1.540000 8.800000 100 197 234 0
22.440000 1.540000 10.120000 101 198 235 0
22.660000 1.540000 10.120000 96 202 237 0
22.880000 1.540000 10.120000 96 202 237 0
23.100000 1.540000 10.120000 97 200 236 0
23.320000 1.540000 10.120000 96 199 235 0
23.540000 1.540000 10.120000 104 188 222 0
23.760000 1.540000 10.120000 99 183 217 0
23.980000 1.540000 10.120000 105 168 204 0
24.200000 1.540000 10.120000 99 162 198 0
24.420000 1.540000 10.120000 109 150 175 0
24.640000 1.540000 10.120000 101 142 167 0
24.860000 1.540000 11.440000 108 136 152 0
25.080000 1.540000 10.120000 106 134 150 0
25.300000 1.540000 10.120000 106 132 142 0
25.520000 1.540000 10.120000 105 131 141 0
25.740000 1.540000 10.120000 108 130 141 0
25.960000 1.540000 10.340000 108 130 141 0
26.180000 1.540000 10.340000 110 132 141 0
26.400000 1.540000 10.120000 111 133 142 0
26.620000 1.540000 10.340000 113 136 149 0
26.840000 1.540000 10.340000 115 138 151 0
27.060000 1.540000 9.020000 114 143 156 0
27.280000 1.540000 9.020000 115 144 157 0
27.500000 1.540000 9.240000 115 146 162 0
27.720000 1.540000 9.240000 117 148 164 0
27.940000 1.540000 9.020000 118 150 166 0
28.160000 1.540000 9.020000 118 150 166 0
28.380000 1.540000 9.020000 116 151 168 0
28.600000 1.540000 9.020000 116 151 168 0
28.820000 1.540000 9.020000 116 150 170 0
29.040000 1.540000 9.020000 116 150 170 0
29.260000 1.540000 9.020000 119 151 167 0
29.480000 1.540000 9.020000 118 150 166 0
29.700000 1.540000 9.020000 118 150 166 0
29.920000 1.540000 9.020000 119 151 167 0
30.140000 1.540000 9.020000 117 152 169 0
30.360000 1.540000 9.020000 117 152 169 0
30.580000 1.540000 9.020000 115 155 175 0
30.800000 1.540000 9.020000 116 156 176 0
31.020000 1.540000 8.800000 115 160 186 0
31.240000 1.540000 8.800000 118 163 189 0
31.460000 1.540000 8.800000 111 171 203 0
31.680000 1.540000 9.020000 114 174 206 0
31.900000 1.540000 9.020000 104 183 217 0
32.120000 1.540000 8.800000 108 187 221 0
32.340000 1.540000 8.800000 98 197 234 0
32.560000 1.540000 8.800000 99 198 235 0
32.780000 1.540000 8.800000 99 201 234 0
33.000000 1.540000 8.800000 102 204 237 0
33.220000 1.540000 11.660000 100 207 238 0
33.440000 1.540000 12.980000 99 206 237 0
33.660000 1.540000 14.300000 96 209 238 0
33.880000 1.540000 18.480000 97 210 239 0
34.100000 1.540000 21.340000 98 211 238 0
34.320000 1.540000 21.340000 98 211 238 0
34.540000 1.540000 23.980000 101 211 239 0
34.760000 1.540000 26.840000 102 212 240 0
34.980000 1.540000 28.160000 100 215 239 0
35.200000 1.540000 28.160000 99 214 238 0
35.420000 1.540000 28.160000 100 215 239 0
35.640000 1.540000 28.160000 100 215 239 0
35.860000 1.540000 26.840000 102 218 239 0
36.080000 1.540000 28.160000 103 219 240 0
36.300000 1.540000 29.480000 102 216 240 0
36.520000 1.540000 29.480000 102 216 240 0
36.740000 1.540000 28.160000 98 216 237 0
36.960000 1.540000 29.480000 100 218 239 0
37.180000 1.540000 29.480000 100 218 239 0
0.000000 1.760000 5.060000 80 75 64 0
0.220000 1.760000 5.060000 81 76 65 0
0.440000 1.760000 3.740000 81 76 65 0
0.660000 1.760000 3.520000 83 76 65 0
0.880000 1.760000 4.840000 84 77 66 0
1.100000 1.760000 4.840000 84 77 66 0
1.320000 1.760000 4.840000 84 77 66 0
1.540000 1.760000 6.380000 81 76 65 0
1.760000 1.760000 4.840000 80 75 64 0
1.980000 1.760000 4.840000 84 77 66 0
2.200000 1.760000 4.840000 84 77 66 0
2.420000 1.760000 4.620000 83 76 65 0
2.640000 1.760000 4.400000 83 76 65 0
2.860000 1.760000 4.400000 83 76 65 0
3.080000 1.760000 3.300000 83 76 65 0
3.300000 1.760000 2.200000 84 77 66 0
3.520000 1.760000 2.200000 84 77 66 0
3.740000 1.760000 3.520000 84 77 66 0
3.960000 1.760000 5.060000 86 79 68 0
4.180000 1.760000 4.840000 85 78 67 0
4.400000 1.760000 4.840000 85 78 67 0
4.620000 1.760000 6.160000 85 78 67 0
4.840000 1.760000 6.160000 85 78 67 0
5.060000 1.760000 4.840000 85 78 67 0
5.280000 1.760000 4.620000 85 78 67 0
5.500000 1.760000 4.620000 84 77 66 0
5.720000 1.760000 4.620000 85 78 67 0
5.940000 1.760000 4.400000 85 78 67 0
6.160000 1.760000 5.720000 85 78 67 0
6.380000 1.760000 5.940000 86 79 68 0
6.600000 1.760000 5.940000 86 79 68 0
6.820000 1.760000 4.620000 85 78 67 0
7.040000 1.760000 4.620000 86 79 68 0
7.260000 1.760000 4.840000 87 79 71 0
7.480000 1.760000 4.840000 86 78 70 0
7.700000 1.760000 3.520000 86 78 70 0
7.920000 1.760000 3.520000 86 78 70 0
8.140000 1.760000 4.840000 86 78 70 0
8.360000 1.760000 4.840000 86 78 70 0
8.580000 1.760000 4.840000 87 79 71 0
8.800000 1.760000 3.300000 86 78 70 0
9.020000 1.760000 3.080000 86 78 70 0
9.240000 1.760000 4.620000 86 78 70 0
9.460000 1.760000 4.840000 86 78 70 0
9.680000 1.760000 4.620000 87 79 71 0
9.900000 1.760000 5.940000 88 80 72 0
10.120000 1.760000 4.400000 86 78 70 0
10.340000 1.760000 5.720000 87 79 71 0
10.560000 1.760000 5.720000 88 80 72 0
10.780000 1.760000 5.940000 88 80 73 0
11.000000 1.760000 4.840000 88 80 73 0
11.220000 1.760000 4.840000 88 80 73 0
11.440000 1.760000 3.300000 89 81 74 0
11.660000 1.760000 3.520000 87 82 74 0
11.880000 1.760000 3.300000 87 82 74 0
12.100000 1.760000 4.620000 88 83 75 0
12.320000 1.760000 4.400000 87 82 74 0
12.540000 1.760000 4.620000 88 82 77 0
12.760000 1.760000 4.620000 89 83 78 0
12.980000 1.760000 4.400000 89 84 76 0
13.200000 1.760000 4.400000 90 85 77 0
13.420000 1.760000 4.180000 89 84 76 0
13.640000 1.760000 4.400000 90 85 77 0
13.860000 1.760000 3.080000 90 84 79 0
14.080000 1.760000 3.080000 91 85 80 0
14.300000 1.760000 4.620000 91 87 81 0
14.520000 1.760000 4.620000 92 88 82 0
14.740000 1.760000 4.400000 93 89 85 0
14.960000 1.760000 4.400000 93 89 85 0
15.180000 1.760000 4.400000 92 90 88 0
15.400000 1.760000 4.400000 94 92 90 0
15.620000 1.760000 4.400000 94 95 95 0
15.840000 1.760000 4.400000 96 97 97 0
16.060000 1.760000 4.400000 95 100 101 0
16.280000 1.760000 3.080000 99 104 105 0
16.500000 1.760000 3.080000 95 108 119 0
16.720000 1.760000 3.080000 100 113 124 0
16.940000 1.760000 1.760000 100 118 133 0
17.160000 1.760000 1.760000 107 125 140 0
17.380000 1.760000 1.760000 108 135 149 0
17.600000 1.760000 1.760000 112 139 153 0
17.820000 1.760000 1.760000 110 145 160 0
18.040000 1.760000 1.760000 114 149 164 0
18.260000 1.760000 1.760000 111 152 169 0
18.480000 1.760000 0.440000 116 157 174 0
18.700000 1.760000 1.760000 115 160 184 0
18.920000 1.760000 1.760000 115 160 184 0
19.140000 1.760000 1.760000 111 162 188 0
19.360000 1.760000 1.760000 111 162 188 0
19.580000 1.760000 1.760000 110 163 190 0
19.800000 1.760000 1.760000 111 164 191 0
20.020000 1.760000 1.760000 115 165 195 0
20.240000 1.760000 1.760000 115 165 195 0
20.460000 1.760000 3.080000 113 165 197 0
20.680000 1.760000 3.300000 113 165 197 0
20.900000 1.760000 3.300000 111 168 198 0
21.120000 1.760000 4.620000 111 168 198 0
21.340000 1.760000 4.620000 108 172 202 0
21.560000 1.760000 5.940000 111 175 205 0
21.780000 1.760000 7.480000 107 184 215 0
22.000000 1.760000 8.800000 109 186 217 0
22.220000 1.760000 8.800000 106 194 225 0
22.440000 1.760000 10.120000 106 194 225 0
22.660000 1.760000 10.120000 98 200 236 0
22.880000 1.760000 11.660000 97 199 235 0
23.100000 1.760000 10.120000 101 197 230 0
23.320000 1.760000 10.120000 100 196 229 0
23.540000 1.760000 10.120000 110 186 223 0
23.760000 1.760000 10.120000 102 178 215 0
23.980000 1.760000 10.340000 110 164 197 0
24.200000 1.760000 10.120000 105 159 192 0
24.420000 1.760000 10.120000 111 148 164 0
24.640000 1.760000 11.440000 105 142 158 0
24.860000 1.760000 11.440000 105 136 149 0
25.080000 1.760000 10.120000 104 135 148 0
25.300000 1.760000 10.340000 106 132 140 0
25.520000 1.760000 10.340000 104 130 138 0
25.740000 1.760000 10.340000 106 130 138 0
25.960000 1.760000 8.800000 107 131 139 0
26.180000 1.760000 10.340000 106 132 142 0
26.400000 1.760000 10.340000 108 134 144 0
26.620000 1.760000 10.340000 109 136 148 0
26.840000 1.760000 9.240000 111 138 150 0
27.060000 1.760000 9.240000 112 141 154 0
27.280000 1.760000 9.240000 114 143 156 0
27.500000 1.760000 9.240000 114 146 162 0
27.720000 1.760000 9.240000 116 148 164 0
