ply
format ascii 1.0
element vertex 1104
property float x
property float y
property float z
property uchar red
property uchar green
property uchar blue
property uchar alpha
end_header
33.660000 30.580000 15.510000 156 162 159 0
33.880000 30.580000 15.510000 157 163 160 0
34.100000 30.580000 15.620000 155 161 158 0
34.320000 30.580000 15.620000 154 160 157 0
34.540000 30.580000 15.620000 152 160 158 0
34.760000 30.580000 15.730000 151 159 157 0
34.980000 30.580000 16.390000 154 159 158 0
35.200000 30.580000 16.500000 154 159 158 0
35.420000 30.580000 16.500000 155 160 159 0
35.640000 30.580000 16.500000 154 159 158 0
35.860000 30.580000 16.500000 153 159 156 0
36.080000 30.580000 17.050000 153 159 156 0
36.300000 30.580000 17.490000 153 158 157 0
36.520000 30.580000 18.040000 153 158 157 0
36.740000 30.580000 18.040000 153 158 157 0
36.960000 30.580000 18.040000 153 158 157 0
37.180000 30.580000 18.150000 154 159 158 0
0.000000 30.800000 14.740000 137 154 139 0
0.220000 30.800000 14.850000 138 155 142 0
0.440000 30.800000 14.850000 139 156 143 0
0.660000 30.800000 15.510000 139 156 141 0
0.880000 30.800000 15.510000 140 157 142 0
1.100000 30.800000 15.620000 140 157 144 0
1.320000 30.800000 15.620000 139 156 143 0
1.540000 30.800000 15.620000 139 156 143 0
1.760000 30.800000 15.620000 138 155 142 0
1.980000 30.800000 15.730000 139 156 143 0
2.200000 30.800000 15.730000 139 156 143 0
2.420000 30.800000 16.500000 140 157 144 0
2.640000 30.800000 16.500000 140 157 144 0
2.860000 30.800000 16.500000 140 157 144 0
3.080000 30.800000 16.500000 139 156 143 0
3.300000 30.800000 16.500000 139 156 143 0
3.520000 30.800000 17.050000 139 156 143 0
3.740000 30.800000 17.490000 137 157 143 0
3.960000 30.800000 18.040000 138 158 144 0
4.180000 30.800000 18.040000 138 158 144 0
4.400000 30.800000 18.040000 138 158 144 0
4.620000 30.800000 18.150000 139 156 143 0
4.840000 30.800000 18.810000 141 158 145 0
5.060000 30.800000 18.810000 140 157 144 0
5.280000 30.800000 18.920000 139 156 143 0
5.500000 30.800000 18.920000 139 159 145 0
5.720000 30.800000 18.920000 139 159 145 0
5.940000 30.800000 18.920000 140 157 146 0
6.160000 30.800000 19.030000 141 158 147 0
6.380000 30.800000 19.030000 140 157 146 0
6.600000 30.800000 19.030000 140 157 146 0
6.820000 30.800000 19.030000 140 157 144 0
7.040000 30.800000 19.140000 141 158 145 0
7.260000 30.800000 19.140000 137 156 145 0
7.480000 30.800000 19.800000 138 157 146 0
7.700000 30.800000 19.910000 138 157 146 0
7.920000 30.800000 19.910000 139 158 147 0
8.140000 30.800000 19.910000 138 157 146 0
8.360000 30.800000 19.910000 138 157 146 0
8.580000 30.800000 19.910000 141 158 147 0
8.800000 30.800000 19.910000 142 159 148 0
9.020000 30.800000 19.910000 143 160 149 0
9.240000 30.800000 20.020000 143 160 149 0
9.460000 30.800000 20.020000 141 160 149 0
9.680000 30.800000 20.020000 140 159 148 0
9.900000 30.800000 20.570000 140 159 150 0
10.120000 30.800000 19.580000 140 159 150 0
10.340000 30.800000 13.200000 143 160 149 0
10.560000 30.800000 4.180000 142 159 148 0
11.000000 30.800000 0.110000 140 159 148 0
11.220000 30.800000 0.110000 141 160 149 0
11.440000 30.800000 0.110000 140 159 148 0
11.660000 30.800000 0.110000 142 158 150 0
11.880000 30.800000 0.110000 142 158 150 0
12.100000 30.800000 0.110000 143 158 148 0
12.320000 30.800000 0.880000 143 158 148 0
12.540000 30.800000 0.880000 140 159 148 0
12.760000 30.800000 0.880000 141 160 149 0
12.980000 30.800000 0.990000 143 159 151 0
13.200000 30.800000 0.990000 144 160 152 0
13.420000 30.800000 0.990000 143 159 151 0
13.640000 30.800000 0.990000 144 160 152 0
13.860000 30.800000 1.100000 143 160 149 0
14.080000 30.800000 1.100000 142 159 148 0
14.300000 30.800000 1.760000 142 161 150 0
14.520000 30.800000 1.870000 141 160 149 0
14.740000 30.800000 1.870000 144 160 152 0
14.960000 30.800000 1.870000 143 159 151 0
15.180000 30.800000 1.870000 143 159 151 0
15.400000 30.800000 1.980000 144 160 152 0
15.620000 30.800000 1.980000 145 160 150 0
15.840000 30.800000 1.980000 145 160 150 0
16.060000 30.800000 1.980000 142 161 150 0
16.280000 30.800000 2.530000 143 162 151 0
16.500000 30.800000 2.970000 144 160 152 0
16.720000 30.800000 3.520000 143 159 151 0
16.940000 30.800000 3.520000 143 159 151 0
17.160000 30.800000 3.520000 144 160 152 0
17.380000 30.800000 4.290000 144 160 152 0
17.600000 30.800000 4.290000 145 161 153 0
17.820000 30.800000 4.290000 145 161 153 0
18.040000 30.800000 4.400000 145 161 153 0
18.260000 30.800000 4.400000 144 160 152 0
18.480000 30.800000 4.400000 145 161 153 0
18.700000 30.800000 4.510000 146 161 153 0
18.920000 30.800000 4.510000 146 161 153 0
19.140000 30.800000 4.510000 144 161 150 0
19.360000 30.800000 4.510000 146 163 152 0
19.580000 30.800000 4.620000 147 163 155 0
19.800000 30.800000 4.620000 148 164 156 0
20.020000 30.800000 5.390000 148 163 155 0
20.240000 30.800000 5.390000 148 163 155 0
20.460000 30.800000 5.390000 149 164 156 0
20.680000 30.800000 5.390000 148 163 155 0
20.900000 30.800000 5.390000 148 164 156 0
21.120000 30.800000 5.500000 147 163 155 0
21.340000 30.800000 6.050000 147 162 154 0
21.560000 30.800000 7.150000 146 161 153 0
21.780000 30.800000 6.930000 149 164 156 0
22.000000 30.800000 7.700000 148 163 155 0
22.220000 30.800000 7.700000 150 162 155 0
22.440000 30.800000 7.700000 150 162 155 0
22.660000 30.800000 7.700000 148 163 155 0
22.880000 30.800000 7.810000 148 163 155 0
23.100000 30.800000 7.810000 150 162 155 0
23.320000 30.800000 7.810000 150 162 155 0
23.540000 30.800000 7.920000 150 162 155 0
23.760000 30.800000 7.920000 149 161 154 0
23.980000 30.800000 7.920000 148 160 153 0
24.200000 30.800000 8.690000 148 160 153 0
24.420000 30.800000 8.690000 149 161 154 0
24.640000 30.800000 8.690000 148 160 153 0
24.860000 30.800000 8.800000 148 160 155 0
25.080000 30.800000 8.800000 148 160 155 0
25.300000 30.800000 8.800000 148 160 153 0
25.520000 30.800000 8.800000 147 159 152 0
25.740000 30.800000 8.910000 147 159 152 0
25.960000 30.800000 8.910000 148 160 153 0
26.180000 30.800000 8.910000 147 159 154 0
26.400000 30.800000 9.460000 147 159 154 0
26.620000 30.800000 10.560000 148 160 155 0
26.840000 30.800000 11.110000 147 159 154 0
27.060000 30.800000 11.110000 146 158 153 0
27.280000 30.800000 11.220000 146 158 153 0
27.500000 30.800000 11.220000 147 157 153 0
27.720000 30.800000 11.220000 148 158 154 0
27.940000 30.800000 11.220000 148 158 154 0
28.160000 30.800000 11.330000 147 157 153 0
28.380000 30.800000 11.330000 146 158 153 0
28.600000 30.800000 11.330000 147 159 154 0
28.820000 30.800000 11.440000 147 159 154 0
29.040000 30.800000 11.440000 147 159 154 0
29.260000 30.800000 11.440000 150 160 156 0
29.480000 30.800000 12.210000 150 160 156 0
29.700000 30.800000 12.210000 149 159 155 0
29.920000 30.800000 12.210000 149 159 155 0
30.140000 30.800000 12.320000 150 158 155 0
30.360000 30.800000 12.320000 150 158 155 0
30.580000 30.800000 12.320000 149 159 155 0
30.800000 30.800000 12.320000 150 160 156 0
31.020000 30.800000 12.430000 150 160 156 0
31.240000 30.800000 12.980000 151 161 157 0
31.460000 30.800000 13.970000 152 160 157 0
31.680000 30.800000 14.520000 152 160 157 0
31.900000 30.800000 14.630000 152 160 157 0
32.120000 30.800000 14.630000 152 160 157 0
32.340000 30.800000 14.630000 152 162 158 0
32.560000 30.800000 14.630000 152 162 158 0
32.780000 30.800000 14.740000 153 163 159 0
33.000000 30.800000 14.740000 154 164 160 0
33.220000 30.800000 15.510000 157 163 160 0
33.440000 30.800000 15.510000 156 162 159 0
33.660000 30.800000 15.510000 157 163 160 0
33.880000 30.800000 15.510000 156 162 159 0
34.100000 30.800000 15.620000 152 160 157 0
34.320000 30.800000 15.620000 151 159 156 0
34.540000 30.800000 15.620000 152 160 158 0
34.760000 30.800000 15.730000 152 160 158 0
34.980000 30.800000 16.390000 154 159 158 0
35.200000 30.800000 16.500000 154 159 158 0
35.420000 30.800000 16.500000 153 159 156 0
35.640000 30.800000 16.500000 154 160 157 0
35.860000 30.800000 16.500000 154 160 157 0
36.080000 30.800000 17.050000 154 160 157 0
36.300000 30.800000 17.490000 151 159 157 0
36.520000 30.800000 18.040000 151 159 157 0
36.740000 30.800000 18.040000 153 158 157 0
36.960000 30.800000 18.040000 153 158 157 0
37.180000 30.800000 18.150000 154 159 158 0
0.000000 31.020000 14.740000 138 155 140 0
0.220000 31.020000 14.740000 139 156 143 0
0.440000 31.020000 14.850000 139 156 143 0
0.660000 31.020000 15.510000 140 157 142 0
0.880000 31.020000 15.510000 140 157 142 0
1.100000 31.020000 15.620000 140 157 144 0
1.320000 31.020000 15.620000 139 156 143 0
1.540000 31.020000 15.620000 140 157 144 0
1.760000 31.020000 15.620000 139 156 143 0
1.980000 31.020000 15.730000 140 157 144 0
2.200000 31.020000 15.730000 140 157 144 0
2.420000 31.020000 16.390000 141 158 145 0
2.640000 31.020000 16.500000 140 157 144 0
2.860000 31.020000 16.500000 140 157 144 0
3.080000 31.020000 16.500000 140 157 144 0
3.300000 31.020000 16.500000 140 157 144 0
3.520000 31.020000 17.050000 139 156 143 0
3.740000 31.020000 17.490000 137 157 143 0
3.960000 31.020000 18.040000 137 157 143 0
4.180000 31.020000 18.040000 138 158 144 0
4.400000 31.020000 18.040000 138 158 144 0
4.620000 31.020000 18.150000 140 157 144 0
4.840000 31.020000 18.810000 140 157 144 0
5.060000 31.020000 18.810000 140 157 144 0
5.280000 31.020000 18.920000 139 156 143 0
5.500000 31.020000 18.920000 139 159 145 0
5.720000 31.020000 18.920000 139 159 145 0
5.940000 31.020000 18.920000 140 157 146 0
6.160000 31.020000 19.030000 141 158 147 0
6.380000 31.020000 19.030000 140 157 146 0
6.600000 31.020000 19.030000 140 157 146 0
6.820000 31.020000 19.030000 139 156 143 0
7.040000 31.020000 19.140000 140 157 144 0
7.260000 31.020000 19.140000 138 157 146 0
7.480000 31.020000 19.800000 138 157 146 0
7.700000 31.020000 19.910000 138 157 146 0
7.920000 31.020000 19.910000 138 157 146 0
8.140000 31.020000 19.910000 138 157 146 0
8.360000 31.020000 19.910000 139 158 147 0
8.580000 31.020000 19.910000 141 158 147 0
8.800000 31.020000 19.910000 141 158 147 0
9.020000 31.020000 19.910000 142 159 148 0
9.240000 31.020000 20.020000 141 158 147 0
9.460000 31.020000 20.020000 140 159 148 0
9.680000 31.020000 20.020000 140 159 148 0
9.900000 31.020000 20.570000 140 159 150 0
10.120000 31.020000 18.810000 139 158 149 0
10.340000 31.020000 11.110000 142 159 148 0
10.560000 31.020000 2.750000 142 159 148 0
11.000000 31.020000 0.110000 140 159 148 0
11.220000 31.020000 0.110000 139 158 147 0
11.440000 31.020000 0.110000 139 158 147 0
11.660000 31.020000 0.110000 141 157 149 0
11.880000 31.020000 0.110000 142 158 150 0
12.100000 31.020000 0.110000 143 158 148 0
12.320000 31.020000 0.880000 144 159 149 0
12.540000 31.020000 0.880000 142 161 150 0
12.760000 31.020000 0.880000 143 162 151 0
12.980000 31.020000 0.990000 143 159 151 0
13.200000 31.020000 0.990000 144 160 152 0
13.420000 31.020000 0.990000 143 159 151 0
13.640000 31.020000 0.990000 143 159 151 0
13.860000 31.020000 0.990000 143 160 149 0
14.080000 31.020000 1.100000 143 160 149 0
14.300000 31.020000 1.100000 140 159 148 0
14.520000 31.020000 1.870000 141 160 149 0
14.740000 31.020000 1.870000 143 159 151 0
14.960000 31.020000 1.870000 144 160 152 0
15.180000 31.020000 1.870000 144 160 152 0
15.400000 31.020000 1.980000 144 160 152 0
15.620000 31.020000 1.980000 145 160 150 0
15.840000 31.020000 1.980000 144 159 149 0
16.060000 31.020000 1.980000 142 161 150 0
16.280000 31.020000 2.530000 142 161 150 0
16.500000 31.020000 2.970000 143 159 151 0
16.720000 31.020000 3.520000 144 160 152 0
16.940000 31.020000 3.520000 143 159 151 0
17.160000 31.020000 3.520000 143 159 151 0
17.380000 31.020000 3.630000 144 160 152 0
17.600000 31.020000 4.290000 145 161 153 0
17.820000 31.020000 4.290000 146 162 154 0
18.040000 31.020000 4.400000 145 161 153 0
18.260000 31.020000 4.400000 144 160 152 0
18.480000 31.020000 4.400000 144 160 152 0
18.700000 31.020000 4.510000 145 160 152 0
18.920000 31.020000 4.510000 146 161 153 0
19.140000 31.020000 4.510000 145 162 151 0
19.360000 31.020000 4.510000 145 162 151 0
19.580000 31.020000 4.620000 146 162 154 0
19.800000 31.020000 4.620000 149 165 157 0
20.020000 31.020000 5.390000 150 165 157 0
20.240000 31.020000 5.390000 149 164 156 0
20.460000 31.020000 5.390000 149 164 156 0
20.680000 31.020000 5.390000 149 164 156 0
20.900000 31.020000 5.390000 148 164 156 0
21.120000 31.020000 5.500000 147 163 155 0
21.340000 31.020000 6.050000 147 162 154 0
21.560000 31.020000 7.040000 147 162 154 0
21.780000 31.020000 6.930000 148 163 155 0
22.000000 31.020000 7.700000 150 165 157 0
22.220000 31.020000 7.700000 151 163 156 0
22.440000 31.020000 7.700000 150 162 155 0
22.660000 31.020000 7.700000 148 163 155 0
22.880000 31.020000 7.810000 147 162 154 0
23.100000 31.020000 7.810000 149 161 154 0
23.320000 31.020000 7.810000 149 161 154 0
23.540000 31.020000 7.920000 149 161 154 0
23.760000 31.020000 7.920000 149 161 154 0
23.980000 31.020000 7.920000 149 161 154 0
24.200000 31.020000 8.690000 148 160 153 0
24.420000 31.020000 8.690000 148 160 153 0
24.640000 31.020000 8.690000 148 160 153 0
24.860000 31.020000 8.800000 148 160 155 0
25.080000 31.020000 8.800000 148 160 155 0
25.300000 31.020000 8.800000 148 160 153 0
25.520000 31.020000 8.800000 148 160 153 0
25.740000 31.020000 8.910000 148 160 153 0
25.960000 31.020000 8.910000 148 160 153 0
26.180000 31.020000 8.910000 147 159 154 0
26.400000 31.020000 9.460000 147 159 154 0
26.620000 31.020000 10.560000 147 159 154 0
26.840000 31.020000 11.110000 148 160 155 0
27.060000 31.020000 11.110000 147 159 154 0
27.280000 31.020000 11.220000 147 159 154 0
27.500000 31.020000 11.220000 148 158 154 0
27.720000 31.020000 11.220000 147 157 153 0
27.940000 31.020000 11.220000 147 157 153 0
28.160000 31.020000 11.330000 148 158 154 0
28.380000 31.020000 11.330000 147 159 154 0
28.600000 31.020000 11.330000 147 159 154 0
28.820000 31.020000 11.440000 147 159 154 0
29.040000 31.020000 11.440000 147 159 154 0
29.260000 31.020000 11.440000 148 158 154 0
29.480000 31.020000 12.210000 149 159 155 0
29.700000 31.020000 12.210000 149 159 155 0
29.920000 31.020000 12.210000 149 159 155 0
30.140000 31.020000 12.320000 150 158 155 0
30.360000 31.020000 12.320000 150 158 155 0
30.580000 31.020000 12.320000 149 159 155 0
30.800000 31.020000 12.320000 149 159 155 0
31.020000 31.020000 12.430000 149 159 155 0
31.240000 31.020000 12.980000 151 161 157 0
31.460000 31.020000 13.970000 152 160 157 0
31.680000 31.020000 14.520000 153 161 158 0
31.900000 31.020000 14.630000 152 160 157 0
32.120000 31.020000 14.630000 153 161 158 0
32.340000 31.020000 14.630000 152 162 158 0
32.560000 31.020000 14.630000 151 161 157 0
32.780000 31.020000 14.740000 152 162 158 0
33.000000 31.020000 14.740000 153 163 159 0
33.220000 31.020000 15.510000 156 162 159 0
33.440000 31.020000 15.510000 156 162 159 0
33.660000 31.020000 15.510000 155 161 158 0
33.880000 31.020000 15.510000 154 160 157 0
34.100000 31.020000 15.620000 151 159 156 0
34.320000 31.020000 15.620000 151 159 156 0
34.540000 31.020000 15.620000 151 159 157 0
34.760000 31.020000 15.730000 152 160 158 0
34.980000 31.020000 16.390000 154 159 158 0
35.200000 31.020000 16.500000 154 159 158 0
35.420000 31.020000 16.500000 154 160 157 0
35.640000 31.020000 16.500000 154 160 157 0
35.860000 31.020000 16.500000 154 160 157 0
36.080000 31.020000 17.050000 153 159 156 0
36.300000 31.020000 17.490000 151 159 157 0
36.520000 31.020000 18.040000 151 159 157 0
36.740000 31.020000 18.040000 152 157 156 0
36.960000 31.020000 18.040000 153 158 157 0
37.180000 31.020000 18.150000 153 158 157 0
0.000000 31.240000 14.740000 137 157 143 0
0.220000 31.240000 14.740000 136 158 143 0
0.440000 31.240000 14.850000 136 158 143 0
0.660000 31.240000 14.850000 137 159 144 0
0.880000 31.240000 15.510000 138 160 145 0
1.100000 31.240000 15.620000 138 160 145 0
1.320000 31.240000 15.620000 137 159 144 0
1.540000 31.240000 15.620000 138 158 144 0
1.760000 31.240000 15.620000 138 158 144 0
1.980000 31.240000 15.730000 137 159 144 0
2.200000 31.240000 15.730000 137 159 144 0
2.420000 31.240000 15.730000 139 160 148 0
2.640000 31.240000 16.500000 138 159 147 0
2.860000 31.240000 16.500000 139 159 145 0
3.080000 31.240000 16.500000 138 158 144 0
3.300000 31.240000 16.500000 138 158 144 0
3.520000 31.240000 17.050000 137 157 143 0
3.740000 31.240000 17.490000 136 158 143 0
3.960000 31.240000 18.040000 136 158 143 0
4.180000 31.240000 18.040000 137 156 145 0
4.400000 31.240000 18.040000 138 157 146 0
4.620000 31.240000 18.150000 137 159 144 0
4.840000 31.240000 18.810000 136 158 143 0
5.060000 31.240000 18.810000 137 159 144 0
5.280000 31.240000 18.920000 137 159 144 0
5.500000 31.240000 18.920000 137 159 144 0
5.720000 31.240000 18.920000 137 159 144 0
5.940000 31.240000 18.920000 138 157 146 0
6.160000 31.240000 19.030000 138 157 146 0
6.380000 31.240000 19.030000 137 156 145 0
6.600000 31.240000 19.030000 137 156 145 0
6.820000 31.240000 19.030000 136 157 145 0
7.040000 31.240000 19.140000 136 157 145 0
7.260000 31.240000 19.800000 136 157 145 0
7.480000 31.240000 19.800000 137 158 146 0
7.700000 31.240000 19.910000 138 157 146 0
7.920000 31.240000 19.910000 137 156 145 0
8.140000 31.240000 19.910000 138 159 147 0
8.360000 31.240000 19.910000 137 158 146 0
8.580000 31.240000 19.910000 138 159 147 0
8.800000 31.240000 19.910000 138 159 147 0
9.020000 31.240000 19.910000 138 159 147 0
9.240000 31.240000 20.020000 138 159 147 0
9.460000 31.240000 20.020000 139 160 148 0
9.680000 31.240000 20.020000 138 159 147 0
9.900000 31.240000 20.570000 138 159 147 0
10.120000 31.240000 18.810000 138 159 147 0
10.340000 31.240000 11.110000 138 159 147 0
10.560000 31.240000 2.750000 137 158 146 0
11.000000 31.240000 0.110000 139 160 148 0
11.220000 31.240000 0.110000 139 160 148 0
11.440000 31.240000 0.110000 139 160 148 0
11.660000 31.240000 0.110000 139 160 148 0
11.880000 31.240000 0.110000 138 159 147 0
12.100000 31.240000 0.110000 138 159 147 0
12.320000 31.240000 0.880000 139 160 148 0
12.540000 31.240000 0.880000 140 161 149 0
12.760000 31.240000 0.880000 140 161 149 0
12.980000 31.240000 0.990000 140 161 149 0
13.200000 31.240000 0.990000 139 160 148 0
13.420000 31.240000 0.990000 138 161 150 0
13.640000 31.240000 0.990000 138 161 150 0
13.860000 31.240000 0.990000 139 160 148 0
14.080000 31.240000 1.100000 139 160 148 0
14.300000 31.240000 1.100000 140 161 151 0
14.520000 31.240000 1.870000 139 160 150 0
14.740000 31.240000 1.870000 139 160 148 0
14.960000 31.240000 1.870000 140 161 149 0
15.180000 31.240000 1.870000 139 160 150 0
15.400000 31.240000 1.980000 140 161 151 0
15.620000 31.240000 1.980000 140 161 149 0
15.840000 31.240000 1.980000 141 162 150 0
16.060000 31.240000 1.980000 140 161 151 0
16.280000 31.240000 2.530000 140 161 151 0
16.500000 31.240000 2.970000 141 162 152 0
16.720000 31.240000 3.520000 141 162 152 0
16.940000 31.240000 3.520000 141 162 152 0
17.160000 31.240000 3.520000 140 161 151 0
17.380000 31.240000 3.630000 141 162 152 0
17.600000 31.240000 4.290000 142 163 153 0
17.820000 31.240000 4.290000 142 161 152 0
18.040000 31.240000 4.400000 144 163 154 0
18.260000 31.240000 4.400000 145 164 155 0
18.480000 31.240000 4.400000 142 161 152 0
18.700000 31.240000 4.510000 140 161 151 0
18.920000 31.240000 4.510000 141 162 152 0
19.140000 31.240000 4.510000 142 161 152 0
19.360000 31.240000 4.510000 143 162 153 0
19.580000 31.240000 4.620000 143 162 153 0
19.800000 31.240000 4.620000 145 164 155 0
20.020000 31.240000 5.390000 146 165 156 0
20.240000 31.240000 5.390000 146 165 156 0
20.460000 31.240000 5.390000 144 165 155 0
20.680000 31.240000 5.390000 144 165 155 0
20.900000 31.240000 5.390000 146 165 156 0
21.120000 31.240000 5.500000 145 164 155 0
21.340000 31.240000 6.050000 143 162 153 0
21.560000 31.240000 7.040000 144 163 154 0
21.780000 31.240000 6.930000 145 164 155 0
22.000000 31.240000 7.700000 145 164 155 0
22.220000 31.240000 7.700000 145 164 155 0
22.440000 31.240000 7.700000 145 164 155 0
22.660000 31.240000 7.700000 143 162 153 0
22.880000 31.240000 7.810000 144 163 154 0
23.100000 31.240000 7.810000 146 162 154 0
23.320000 31.240000 7.810000 146 162 154 0
23.540000 31.240000 7.920000 145 161 155 0
23.760000 31.240000 7.920000 146 162 156 0
23.980000 31.240000 7.920000 143 162 153 0
24.200000 31.240000 8.690000 144 163 154 0
24.420000 31.240000 8.690000 144 160 152 0
24.640000 31.240000 8.690000 145 161 153 0
24.860000 31.240000 8.800000 144 160 154 0
25.080000 31.240000 8.800000 144 160 154 0
25.300000 31.240000 8.800000 145 161 155 0
25.520000 31.240000 8.800000 145 161 155 0
25.740000 31.240000 8.910000 144 160 154 0
25.960000 31.240000 8.910000 145 161 155 0
26.180000 31.240000 8.910000 145 160 152 0
26.400000 31.240000 9.460000 144 159 151 0
26.620000 31.240000 10.560000 144 160 154 0
26.840000 31.240000 11.110000 145 161 155 0
27.060000 31.240000 11.110000 145 159 154 0
27.280000 31.240000 11.220000 144 158 153 0
27.500000 31.240000 11.220000 145 159 154 0
27.720000 31.240000 11.220000 144 158 153 0
27.940000 31.240000 11.220000 144 158 153 0
28.160000 31.240000 11.330000 145 159 154 0
28.380000 31.240000 11.330000 144 158 153 0
28.600000 31.240000 11.330000 144 158 153 0
28.820000 31.240000 11.440000 145 159 154 0
29.040000 31.240000 11.440000 145 159 154 0
29.260000 31.240000 11.440000 145 159 154 0
29.480000 31.240000 12.210000 146 160 155 0
29.700000 31.240000 12.210000 146 158 153 0
29.920000 31.240000 12.210000 146 158 153 0
30.140000 31.240000 12.320000 146 160 155 0
30.360000 31.240000 12.320000 146 160 155 0
30.580000 31.240000 12.320000 148 160 155 0
30.800000 31.240000 12.320000 147 159 154 0
31.020000 31.240000 12.320000 148 160 155 0
31.240000 31.240000 12.980000 148 160 155 0
31.460000 31.240000 13.970000 148 160 155 0
31.680000 31.240000 14.520000 150 162 157 0
31.900000 31.240000 14.630000 150 161 158 0
32.120000 31.240000 14.630000 150 161 158 0
32.340000 31.240000 14.630000 149 160 157 0
32.560000 31.240000 14.630000 150 161 158 0
32.780000 31.240000 14.740000 150 162 157 0
33.000000 31.240000 14.740000 150 162 157 0
33.220000 31.240000 15.510000 151 161 157 0
33.440000 31.240000 15.510000 151 161 157 0
33.660000 31.240000 15.510000 149 159 156 0
33.880000 31.240000 15.510000 150 160 157 0
34.100000 31.240000 15.620000 150 160 157 0
34.320000 31.240000 15.620000 150 160 157 0
34.540000 31.240000 15.620000 150 160 157 0
34.760000 31.240000 15.730000 150 160 157 0
34.980000 31.240000 16.390000 151 161 158 0
35.200000 31.240000 16.500000 151 161 158 0
35.420000 31.240000 16.500000 150 158 156 0
35.640000 31.240000 16.500000 151 159 157 0
35.860000 31.240000 16.500000 149 159 156 0
36.080000 31.240000 17.050000 149 159 156 0
36.300000 31.240000 17.490000 149 159 156 0
36.520000 31.240000 18.040000 149 159 156 0
36.740000 31.240000 18.040000 149 159 156 0
36.960000 31.240000 18.040000 149 159 156 0
37.180000 31.240000 18.150000 150 158 158 0
0.000000 31.460000 14.740000 136 156 142 0
0.220000 31.460000 14.740000 136 158 143 0
0.440000 31.460000 14.850000 137 159 144 0
0.660000 31.460000 14.850000 137 159 144 0
0.880000 31.460000 15.510000 138 160 145 0
1.100000 31.460000 15.620000 138 160 145 0
1.320000 31.460000 15.620000 138 160 145 0
1.540000 31.460000 15.620000 138 158 144 0
1.760000 31.460000 15.620000 138 158 144 0
1.980000 31.460000 15.730000 137 159 144 0
2.200000 31.460000 15.730000 137 159 144 0
2.420000 31.460000 15.730000 139 160 148 0
2.640000 31.460000 16.500000 139 160 148 0
2.860000 31.460000 16.500000 139 159 145 0
3.080000 31.460000 16.500000 137 157 143 0
3.300000 31.460000 16.500000 135 155 141 0
3.520000 31.460000 17.050000 137 157 143 0
3.740000 31.460000 17.490000 136 158 143 0
3.960000 31.460000 18.040000 135 157 142 0
4.180000 31.460000 18.040000 137 156 145 0
4.400000 31.460000 18.040000 137 156 145 0
4.620000 31.460000 18.150000 137 159 144 0
4.840000 31.460000 18.810000 135 157 142 0
5.060000 31.460000 18.810000 136 158 143 0
5.280000 31.460000 18.920000 137 159 144 0
5.500000 31.460000 18.920000 137 159 144 0
5.720000 31.460000 18.920000 137 159 144 0
5.940000 31.460000 18.920000 138 157 146 0
6.160000 31.460000 19.030000 138 157 146 0
6.380000 31.460000 19.030000 137 156 145 0
6.600000 31.460000 19.030000 137 156 145 0
6.820000 31.460000 19.030000 136 157 145 0
7.040000 31.460000 19.140000 135 156 144 0
7.260000 31.460000 19.800000 136 157 145 0
7.480000 31.460000 19.800000 136 157 145 0
7.700000 31.460000 19.910000 138 157 146 0
7.920000 31.460000 19.910000 138 157 146 0
8.140000 31.460000 19.910000 137 158 146 0
8.360000 31.460000 19.910000 137 158 146 0
8.580000 31.460000 19.910000 137 158 146 0
8.800000 31.460000 19.910000 137 158 146 0
9.020000 31.460000 19.910000 137 158 146 0
9.240000 31.460000 20.020000 137 158 146 0
9.460000 31.460000 20.020000 137 158 146 0
9.680000 31.460000 20.020000 137 158 146 0
9.900000 31.460000 20.570000 136 157 145 0
10.120000 31.460000 17.490000 137 158 146 0
10.340000 31.460000 8.360000 138 159 147 0
10.560000 31.460000 1.430000 137 158 146 0
11.000000 31.460000 0.110000 138 159 147 0
11.220000 31.460000 0.110000 138 159 147 0
11.440000 31.460000 0.110000 138 159 147 0
11.660000 31.460000 0.110000 138 159 147 0
11.880000 31.460000 0.110000 138 159 147 0
12.100000 31.460000 0.110000 138 159 147 0
12.320000 31.460000 0.880000 140 161 149 0
12.540000 31.460000 0.880000 140 161 149 0
12.760000 31.460000 0.880000 138 159 147 0
12.980000 31.460000 0.880000 140 161 149 0
13.200000 31.460000 0.990000 139 160 148 0
13.420000 31.460000 0.990000 138 161 150 0
13.640000 31.460000 0.990000 138 161 150 0
13.860000 31.460000 0.990000 139 160 148 0
14.080000 31.460000 1.100000 138 159 147 0
14.300000 31.460000 1.100000 138 159 149 0
14.520000 31.460000 1.100000 138 159 149 0
14.740000 31.460000 1.870000 139 160 148 0
14.960000 31.460000 1.870000 139 160 148 0
15.180000 31.460000 1.870000 139 160 150 0
15.400000 31.460000 1.980000 139 160 150 0
15.620000 31.460000 1.980000 140 161 149 0
15.840000 31.460000 1.980000 139 160 148 0
16.060000 31.460000 1.980000 140 161 151 0
16.280000 31.460000 2.530000 139 160 150 0
16.500000 31.460000 2.970000 140 161 151 0
16.720000 31.460000 3.520000 140 161 151 0
16.940000 31.460000 3.520000 141 162 152 0
17.160000 31.460000 3.520000 141 162 152 0
17.380000 31.460000 3.630000 140 161 151 0
17.600000 31.460000 4.290000 141 162 152 0
17.820000 31.460000 4.290000 143 162 153 0
18.040000 31.460000 4.400000 143 162 153 0
18.260000 31.460000 4.400000 144 163 154 0
18.480000 31.460000 4.400000 142 161 152 0
18.700000 31.460000 4.510000 140 161 151 0
18.920000 31.460000 4.510000 141 162 152 0
19.140000 31.460000 4.510000 142 161 152 0
19.360000 31.460000 4.510000 142 161 152 0
19.580000 31.460000 4.620000 143 162 153 0
19.800000 31.460000 4.620000 143 162 153 0
20.020000 31.460000 5.280000 144 163 154 0
20.240000 31.460000 5.390000 145 164 155 0
20.460000 31.460000 5.390000 143 164 154 0
20.680000 31.460000 5.390000 143 164 154 0
20.900000 31.460000 5.390000 143 162 153 0
21.120000 31.460000 5.500000 144 163 154 0
21.340000 31.460000 6.050000 144 163 154 0
21.560000 31.460000 7.040000 145 164 155 0
21.780000 31.460000 6.930000 145 164 155 0
22.000000 31.460000 6.930000 145 164 155 0
22.220000 31.460000 7.700000 144 163 154 0
22.440000 31.460000 7.700000 144 163 154 0
22.660000 31.460000 7.700000 144 163 154 0
22.880000 31.460000 7.810000 143 162 153 0
23.100000 31.460000 7.810000 145 161 153 0
23.320000 31.460000 7.810000 145 161 153 0
23.540000 31.460000 7.920000 145 161 155 0
23.760000 31.460000 7.920000 145 161 155 0
23.980000 31.460000 7.920000 142 161 152 0
24.200000 31.460000 8.690000 143 162 153 0
24.420000 31.460000 8.690000 144 160 152 0
24.640000 31.460000 8.690000 144 160 152 0
24.860000 31.460000 8.800000 144 160 154 0
25.080000 31.460000 8.800000 144 160 154 0
25.300000 31.460000 8.800000 144 160 154 0
25.520000 31.460000 8.800000 144 160 154 0
25.740000 31.460000 8.910000 144 160 154 0
25.960000 31.460000 8.910000 143 159 153 0
26.180000 31.460000 8.910000 145 160 152 0
26.400000 31.460000 9.460000 144 159 151 0
26.620000 31.460000 10.560000 144 160 154 0
26.840000 31.460000 11.110000 143 159 153 0
27.060000 31.460000 11.110000 144 158 153 0
27.280000 31.460000 11.220000 144 158 153 0
27.500000 31.460000 11.220000 144 158 153 0
27.720000 31.460000 11.220000 144 158 153 0
27.940000 31.460000 11.220000 144 158 153 0
28.160000 31.460000 11.330000 143 157 152 0
28.380000 31.460000 11.330000 144 158 153 0
28.600000 31.460000 11.330000 144 158 153 0
28.820000 31.460000 11.440000 145 159 154 0
29.040000 31.460000 11.440000 143 157 152 0
29.260000 31.460000 11.440000 146 160 155 0
29.480000 31.460000 12.210000 145 159 154 0
29.700000 31.460000 12.210000 146 158 153 0
29.920000 31.460000 12.210000 146 158 153 0
30.140000 31.460000 12.320000 145 159 154 0
30.360000 31.460000 12.320000 145 159 154 0
30.580000 31.460000 12.320000 147 159 154 0
30.800000 31.460000 12.320000 147 159 154 0
31.020000 31.460000 12.320000 147 159 154 0
31.240000 31.460000 12.870000 148 160 155 0
31.460000 31.460000 13.970000 147 159 154 0
31.680000 31.460000 14.520000 148 160 155 0
31.900000 31.460000 14.630000 149 160 157 0
32.120000 31.460000 14.630000 149 160 157 0
32.340000 31.460000 14.630000 149 160 157 0
32.560000 31.460000 14.630000 149 160 157 0
32.780000 31.460000 14.740000 150 162 157 0
33.000000 31.460000 14.740000 150 162 157 0
33.220000 31.460000 14.740000 150 160 156 0
33.440000 31.460000 15.510000 150 160 156 0
33.660000 31.460000 15.510000 149 159 156 0
33.880000 31.460000 15.510000 149 159 156 0
34.100000 31.460000 15.620000 150 160 157 0
34.320000 31.460000 15.620000 149 159 156 0
34.540000 31.460000 15.620000 149 159 156 0
34.760000 31.460000 15.730000 149 159 156 0
34.980000 31.460000 16.390000 149 159 156 0
35.200000 31.460000 16.500000 150 160 157 0
35.420000 31.460000 16.500000 150 158 156 0
35.640000 31.460000 16.500000 149 157 155 0
35.860000 31.460000 16.500000 150 160 157 0
36.080000 31.460000 17.050000 150 160 157 0
36.300000 31.460000 17.490000 151 161 158 0
36.520000 31.460000 18.040000 150 160 157 0
36.740000 31.460000 18.040000 150 160 157 0
36.960000 31.460000 18.040000 148 158 155 0
37.180000 31.460000 18.150000 150 158 158 0
0.000000 31.680000 14.740000 133 160 140 0
0.220000 31.680000 14.740000 132 160 141 0
0.440000 31.680000 14.850000 133 161 142 0
0.660000 31.680000 14.850000 133 161 142 0
0.880000 31.680000 14.850000 133 161 142 0
1.100000 31.680000 15.620000 134 162 143 0
1.320000 31.680000 15.620000 135 163 144 0
1.540000 31.680000 15.620000 135 163 143 0
1.760000 31.680000 15.620000 134 162 142 0
1.980000 31.680000 15.730000 133 161 142 0
2.200000 31.680000 15.730000 135 163 144 0
2.420000 31.680000 15.730000 136 164 145 0
2.640000 31.680000 16.500000 136 164 145 0
2.860000 31.680000 16.500000 135 163 144 0
3.080000 31.680000 16.500000 134 162 143 0
3.300000 31.680000 16.500000 133 160 140 0
3.520000 31.680000 17.050000 134 161 141 0
3.740000 31.680000 17.490000 134 162 143 0
3.960000 31.680000 18.040000 133 161 142 0
4.180000 31.680000 18.040000 132 160 141 0
4.400000 31.680000 18.040000 133 161 142 0
4.620000 31.680000 18.150000 133 161 142 0
4.840000 31.680000 18.810000 132 160 141 0
5.060000 31.680000 18.810000 132 160 141 0
5.280000 31.680000 18.920000 133 161 142 0
5.500000 31.680000 18.920000 134 162 145 0
5.720000 31.680000 18.920000 133 161 144 0
5.940000 31.680000 18.920000 133 161 142 0
6.160000 31.680000 19.030000 132 160 141 0
6.380000 31.680000 19.030000 134 162 143 0
6.600000 31.680000 19.030000 133 161 142 0
6.820000 31.680000 19.030000 133 161 142 0
7.040000 31.680000 19.140000 133 161 142 0
7.260000 31.680000 19.800000 133 161 144 0
7.480000 31.680000 19.800000 133 161 144 0
7.700000 31.680000 19.910000 130 161 141 0
7.920000 31.680000 19.910000 130 161 141 0
8.140000 31.680000 19.910000 133 161 142 0
8.360000 31.680000 19.910000 135 163 144 0
8.580000 31.680000 19.910000 133 161 142 0
8.800000 31.680000 19.910000 134 162 143 0
9.020000 31.680000 19.910000 134 162 145 0
9.240000 31.680000 20.020000 132 160 143 0
9.460000 31.680000 20.020000 130 160 143 0
9.680000 31.680000 20.020000 131 161 144 0
9.900000 31.680000 20.570000 134 162 143 0
10.120000 31.680000 16.060000 133 161 142 0
10.340000 31.680000 5.500000 132 162 145 0
11.000000 31.680000 0.110000 131 161 144 0
11.220000 31.680000 0.110000 132 162 145 0
11.440000 31.680000 0.110000 132 162 145 0
11.660000 31.680000 0.110000 133 164 144 0
11.880000 31.680000 0.110000 133 164 144 0
12.100000 31.680000 0.110000 134 164 147 0
12.320000 31.680000 0.110000 133 163 146 0
12.540000 31.680000 0.880000 134 164 149 0
12.760000 31.680000 0.880000 133 163 148 0
12.980000 31.680000 0.880000 132 162 147 0
13.200000 31.680000 0.990000 133 163 148 0
13.420000 31.680000 0.990000 134 164 147 0
13.640000 31.680000 0.990000 135 165 148 0
13.860000 31.680000 0.990000 133 163 148 0
14.080000 31.680000 1.100000 133 163 148 0
14.300000 31.680000 1.100000 135 162 148 0
14.520000 31.680000 1.100000 135 162 148 0
14.740000 31.680000 1.210000 136 163 149 0
14.960000 31.680000 1.870000 136 163 149 0
15.180000 31.680000 1.870000 134 164 147 0
15.400000 31.680000 1.980000 133 163 146 0
15.620000 31.680000 1.980000 134 164 149 0
15.840000 31.680000 1.980000 134 164 149 0
16.060000 31.680000 1.980000 134 164 149 0
16.280000 31.680000 2.530000 135 165 150 0
16.500000 31.680000 2.970000 136 163 149 0
16.720000 31.680000 3.520000 136 163 149 0
16.940000 31.680000 3.520000 135 165 150 0
17.160000 31.680000 3.520000 135 165 150 0
17.380000 31.680000 3.630000 136 166 151 0
17.600000 31.680000 4.290000 136 166 151 0
17.820000 31.680000 4.290000 137 167 152 0
18.040000 31.680000 4.400000 138 168 153 0
18.260000 31.680000 4.400000 140 167 153 0
18.480000 31.680000 4.400000 137 164 150 0
18.700000 31.680000 4.510000 135 165 150 0
18.920000 31.680000 4.510000 135 165 150 0
19.140000 31.680000 4.510000 137 164 150 0
19.360000 31.680000 4.510000 137 164 150 0
19.580000 31.680000 4.620000 138 165 151 0
19.800000 31.680000 4.620000 138 165 151 0
20.020000 31.680000 5.280000 138 165 151 0
20.240000 31.680000 5.390000 138 165 151 0
20.460000 31.680000 5.390000 139 166 152 0
20.680000 31.680000 5.390000 138 165 151 0
20.900000 31.680000 5.390000 139 166 152 0
21.120000 31.680000 5.500000 140 167 153 0
21.340000 31.680000 6.050000 140 167 155 0
21.560000 31.680000 7.040000 139 166 154 0
21.780000 31.680000 6.930000 139 169 154 0
22.000000 31.680000 7.700000 139 169 154 0
22.220000 31.680000 7.700000 142 169 155 0
22.440000 31.680000 7.700000 140 167 153 0
22.660000 31.680000 7.700000 141 166 155 0
22.880000 31.680000 7.810000 140 165 154 0
23.100000 31.680000 7.810000 140 166 152 0
23.320000 31.680000 7.810000 139 165 151 0
23.540000 31.680000 7.920000 139 164 153 0
23.760000 31.680000 7.920000 139 164 153 0
23.980000 31.680000 7.920000 139 164 153 0
24.200000 31.680000 8.690000 140 165 154 0
24.420000 31.680000 8.690000 142 165 154 0
24.640000 31.680000 8.690000 141 164 153 0
24.860000 31.680000 8.800000 140 163 152 0
25.080000 31.680000 8.800000 141 164 153 0
25.300000 31.680000 8.800000 142 163 153 0
25.520000 31.680000 8.800000 142 163 153 0
25.740000 31.680000 8.910000 142 165 154 0
25.960000 31.680000 8.910000 141 164 153 0
26.180000 31.680000 8.910000 141 162 152 0
26.400000 31.680000 9.460000 141 162 152 0
26.620000 31.680000 10.560000 140 163 150 0
26.840000 31.680000 11.110000 141 164 151 0
27.060000 31.680000 11.110000 142 163 153 0
27.280000 31.680000 11.110000 141 162 152 0
27.500000 31.680000 11.220000 142 163 153 0
27.720000 31.680000 11.220000 142 163 153 0
27.940000 31.680000 11.220000 141 160 151 0
28.160000 31.680000 11.330000 142 161 152 0
28.380000 31.680000 11.330000 142 161 152 0
28.600000 31.680000 11.330000 142 161 152 0
28.820000 31.680000 11.440000 141 162 152 0
29.040000 31.680000 11.440000 142 163 153 0
29.260000 31.680000 11.440000 143 162 153 0
29.480000 31.680000 12.210000 142 161 152 0
29.700000 31.680000 12.210000 145 161 153 0
29.920000 31.680000 12.210000 146 162 154 0
30.140000 31.680000 12.320000 142 161 150 0
30.360000 31.680000 12.320000 143 162 151 0
30.580000 31.680000 12.320000 143 164 154 0
30.800000 31.680000 12.320000 143 164 154 0
31.020000 31.680000 12.320000 144 163 154 0
31.240000 31.680000 12.870000 145 164 155 0
31.460000 31.680000 13.970000 143 162 153 0
31.680000 31.680000 14.520000 144 163 154 0
31.900000 31.680000 14.630000 144 163 154 0
32.120000 31.680000 14.630000 144 163 154 0
32.340000 31.680000 14.630000 145 164 155 0
32.560000 31.680000 14.630000 146 165 156 0
32.780000 31.680000 14.740000 147 163 157 0
33.000000 31.680000 14.740000 148 164 158 0
33.220000 31.680000 14.740000 147 163 155 0
33.440000 31.680000 15.510000 146 162 154 0
33.660000 31.680000 15.510000 144 163 154 0
33.880000 31.680000 15.510000 144 163 154 0
34.100000 31.680000 15.620000 146 162 154 0
34.320000 31.680000 15.620000 146 162 154 0
34.540000 31.680000 15.620000 147 161 156 0
34.760000 31.680000 15.730000 147 161 156 0
34.980000 31.680000 15.730000 146 162 156 0
35.200000 31.680000 16.500000 146 162 156 0
35.420000 31.680000 16.500000 146 162 154 0
35.640000 31.680000 16.500000 146 162 154 0
35.860000 31.680000 16.500000 145 161 153 0
36.080000 31.680000 17.050000 148 164 156 0
36.300000 31.680000 17.490000 147 163 157 0
36.520000 31.680000 18.040000 148 164 158 0
36.740000 31.680000 18.040000 147 163 157 0
36.960000 31.680000 18.040000 147 163 157 0
37.180000 31.680000 18.040000 145 161 153 0
0.000000 31.900000 14.740000 135 162 142 0
0.220000 31.900000 14.850000 134 162 143 0
0.440000 31.900000 14.850000 135 163 144 0
0.660000 31.900000 14.850000 135 163 144 0
0.880000 31.900000 14.850000 135 163 144 0
1.100000 31.900000 14.850000 136 164 145 0
1.320000 31.900000 15.620000 136 164 145 0
1.540000 31.900000 15.620000 137 165 145 0
1.760000 31.900000 15.730000 136 164 144 0
1.980000 31.900000 15.730000 137 165 146 0
2.200000 31.900000 15.730000 138 166 147 0
2.420000 31.900000 15.730000 138 166 147 0
2.640000 31.900000 15.730000 137 165 146 0
2.860000 31.900000 16.500000 138 166 147 0
3.080000 31.900000 16.500000 136 164 145 0
3.300000 31.900000 16.500000 136 163 143 0
3.520000 31.900000 17.050000 137 164 144 0
3.740000 31.900000 17.490000 135 163 144 0
3.960000 31.900000 18.040000 135 163 144 0
4.180000 31.900000 18.040000 135 163 144 0
4.400000 31.900000 18.040000 135 163 144 0
4.620000 31.900000 18.150000 135 163 144 0
4.840000 31.900000 18.810000 136 164 145 0
5.060000 31.900000 18.810000 136 164 145 0
5.280000 31.900000 18.920000 136 164 145 0
5.500000 31.900000 18.920000 134 162 145 0
5.720000 31.900000 18.920000 135 163 146 0
5.940000 31.900000 18.920000 135 163 144 0
6.160000 31.900000 19.030000 135 163 144 0
6.380000 31.900000 19.030000 135 163 144 0
6.600000 31.900000 19.030000 135 163 144 0
6.820000 31.900000 19.030000 136 164 145 0
7.040000 31.900000 19.140000 135 163 144 0
7.260000 31.900000 19.800000 135 163 146 0
7.480000 31.900000 19.800000 134 162 145 0
7.700000 31.900000 19.910000 132 163 143 0
7.920000 31.900000 19.910000 133 164 144 0
8.140000 31.900000 19.910000 135 163 144 0
8.360000 31.900000 19.910000 135 163 144 0
8.580000 31.900000 19.910000 135 163 144 0
8.800000 31.900000 19.910000 135 163 144 0
9.020000 31.900000 19.910000 134 162 145 0
9.240000 31.900000 20.020000 133 161 144 0
9.460000 31.900000 20.020000 131 161 144 0
9.680000 31.900000 20.020000 131 161 144 0
9.900000 31.900000 20.570000 135 163 144 0
10.120000 31.900000 16.060000 135 163 144 0
10.340000 31.900000 5.500000 133 163 146 0
11.000000 31.900000 0.110000 133 163 146 0
11.220000 31.900000 0.110000 134 164 147 0
11.440000 31.900000 0.110000 134 164 147 0
11.660000 31.900000 0.110000 134 165 145 0
11.880000 31.900000 0.110000 134 165 145 0
12.100000 31.900000 0.110000 135 165 148 0
12.320000 31.900000 0.110000 135 165 148 0
12.540000 31.900000 0.880000 135 165 150 0
12.760000 31.900000 0.880000 134 164 149 0
12.980000 31.900000 0.880000 135 165 150 0
13.200000 31.900000 0.990000 135 165 150 0
13.420000 31.900000 0.990000 136 166 149 0
13.640000 31.900000 0.990000 136 166 149 0
13.860000 31.900000 0.990000 135 165 150 0
14.080000 31.900000 1.100000 135 165 150 0
14.300000 31.900000 1.100000 137 164 150 0
14.520000 31.900000 1.100000 137 164 150 0
14.740000 31.900000 1.210000 137 164 150 0
14.960000 31.900000 1.870000 137 164 150 0
15.180000 31.900000 1.870000 135 165 148 0
15.400000 31.900000 1.980000 137 167 150 0
15.620000 31.900000 1.980000 137 167 152 0
15.840000 31.900000 1.980000 137 167 152 0
16.060000 31.900000 1.980000 136 166 151 0
16.280000 31.900000 2.530000 136 166 151 0
16.500000 31.900000 2.970000 138 165 151 0
16.720000 31.900000 3.520000 139 166 152 0
16.940000 31.900000 3.520000 137 167 152 0
17.160000 31.900000 3.520000 138 168 153 0
17.380000 31.900000 3.630000 138 168 153 0
17.600000 31.900000 4.290000 137 167 152 0
17.820000 31.900000 4.290000 138 168 153 0
18.040000 31.900000 4.400000 139 169 154 0
18.260000 31.900000 4.400000 139 166 152 0
18.480000 31.900000 4.400000 139 166 152 0
18.700000 31.900000 4.510000 137 167 152 0
18.920000 31.900000 4.510000 137 167 152 0
19.140000 31.900000 4.510000 139 166 152 0
19.360000 31.900000 4.510000 139 166 152 0
19.580000 31.900000 4.620000 139 166 152 0
19.800000 31.900000 5.280000 139 166 152 0
20.020000 31.900000 5.280000 140 167 153 0
20.240000 31.900000 5.390000 140 167 153 0
20.460000 31.900000 5.390000 139 166 152 0
20.680000 31.900000 5.390000 140 167 153 0
20.900000 31.900000 5.390000 141 168 154 0
21.120000 31.900000 5.500000 142 169 155 0
21.340000 31.900000 6.050000 143 170 158 0
21.560000 31.900000 6.490000 142 169 157 0
21.780000 31.900000 7.040000 142 172 157 0
22.000000 31.900000 7.700000 144 174 159 0
22.220000 31.900000 7.700000 143 170 156 0
22.440000 31.900000 7.700000 142 169 155 0
22.660000 31.900000 7.700000 142 167 156 0
22.880000 31.900000 7.810000 142 167 156 0
23.100000 31.900000 7.810000 142 168 154 0
23.320000 31.900000 7.810000 141 167 153 0
23.540000 31.900000 7.920000 142 167 156 0
23.760000 31.900000 7.920000 142 167 156 0
23.980000 31.900000 7.920000 142 167 156 0
24.200000 31.900000 8.690000 143 168 157 0
24.420000 31.900000 8.690000 144 167 156 0
24.640000 31.900000 8.690000 143 166 155 0
24.860000 31.900000 8.800000 143 166 155 0
25.080000 31.900000 8.800000 142 165 154 0
25.300000 31.900000 8.800000 144 165 155 0
25.520000 31.900000 8.800000 143 164 154 0
25.740000 31.900000 8.910000 143 166 155 0
25.960000 31.900000 8.910000 143 166 155 0
26.180000 31.900000 8.910000 144 165 155 0
26.400000 31.900000 9.460000 144 165 155 0
26.620000 31.900000 10.560000 143 166 153 0
26.840000 31.900000 11.110000 143 166 153 0
27.060000 31.900000 11.110000 144 165 155 0
27.280000 31.900000 11.110000 144 165 155 0
27.500000 31.900000 11.220000 144 165 155 0
27.720000 31.900000 11.220000 144 165 155 0
27.940000 31.900000 11.220000 145 164 155 0
28.160000 31.900000 11.330000 145 164 155 0
28.380000 31.900000 11.330000 144 163 154 0
28.600000 31.900000 11.330000 143 162 153 0
28.820000 31.900000 11.440000 142 163 153 0
29.040000 31.900000 11.440000 143 164 154 0
29.260000 31.900000 11.440000 145 164 155 0
29.480000 31.900000 12.210000 144 163 154 0
29.700000 31.900000 12.210000 147 163 155 0
29.920000 31.900000 12.210000 146 162 154 0
30.140000 31.900000 12.320000 146 165 154 0
30.360000 31.900000 12.320000 145 164 153 0
30.580000 31.900000 12.320000 143 164 154 0
30.800000 31.900000 12.320000 145 166 156 0
31.020000 31.900000 12.320000 145 164 155 0
31.240000 31.900000 12.870000 145 164 155 0
31.460000 31.900000 13.970000 145 164 155 0
31.680000 31.900000 14.520000 146 165 156 0
31.900000 31.900000 14.630000 146 165 156 0
32.120000 31.900000 14.630000 146 165 156 0
32.340000 31.900000 14.630000 147 166 157 0
32.560000 31.900000 14.630000 147 166 157 0
32.780000 31.900000 14.740000 149 165 159 0
33.000000 31.900000 14.740000 148 164 158 0
33.220000 31.900000 14.740000 148 164 156 0
33.440000 31.900000 15.510000 148 164 156 0
33.660000 31.900000 15.510000 147 166 157 0
33.880000 31.900000 15.510000 147 166 157 0
34.100000 31.900000 15.620000 148 164 156 0
34.320000 31.900000 15.620000 147 163 155 0
34.540000 31.900000 15.620000 149 163 158 0
34.760000 31.900000 15.730000 147 161 156 0
34.980000 31.900000 15.730000 147 163 157 0
35.200000 31.900000 16.500000 148 164 158 0
35.420000 31.900000 16.500000 147 163 155 0
35.640000 31.900000 16.500000 148 164 156 0
35.860000 31.900000 16.500000 150 166 158 0
36.080000 31.900000 17.050000 149 165 157 0
36.300000 31.900000 17.490000 149 165 159 0
36.520000 31.900000 18.040000 148 164 158 0
36.740000 31.900000 18.040000 148 164 158 0
36.960000 31.900000 18.040000 149 165 159 0
37.180000 31.900000 18.040000 149 165 157 0
0.000000 32.120000 14.740000 139 161 144 0
0.220000 32.120000 14.850000 140 160 144 0
0.440000 32.120000 14.850000 140 160 144 0
0.660000 32.120000 14.850000 139 161 144 0
0.880000 32.120000 14.850000 139 161 144 0
1.100000 32.120000 14.960000 139 161 144 0
1.320000 32.120000 14.960000 139 161 144 0
1.540000 32.120000 15.620000 140 164 146 0
1.760000 32.120000 15.730000 140 164 146 0
1.980000 32.120000 15.730000 139 163 145 0
2.200000 32.120000 15.730000 140 164 146 0
2.420000 32.120000 15.730000 141 165 147 0
2.640000 32.120000 15.730000 140 164 146 0
2.860000 32.120000 16.500000 140 164 146 0
3.080000 32.120000 16.500000 140 164 146 0
3.300000 32.120000 16.500000 137 163 145 0
3.520000 32.120000 17.050000 137 163 145 0
3.740000 32.120000 17.490000 138 162 144 0
3.960000 32.120000 18.040000 139 163 145 0
4.180000 32.120000 18.040000 138 162 144 0
4.400000 32.120000 18.040000 138 162 144 0
4.620000 32.120000 18.810000 139 163 145 0
4.840000 32.120000 18.810000 139 163 145 0
5.060000 32.120000 18.810000 139 163 145 0
5.280000 32.120000 18.920000 139 163 145 0
5.500000 32.120000 18.920000 140 162 145 0
5.720000 32.120000 18.920000 140 162 145 0
5.940000 32.120000 18.920000 140 162 147 0
6.160000 32.120000 19.030000 139 161 146 0
6.380000 32.120000 19.030000 138 162 144 0
6.600000 32.120000 19.030000 139 163 145 0
6.820000 32.120000 19.030000 139 162 147 0
7.040000 32.120000 19.140000 139 162 147 0
7.260000 32.120000 19.800000 138 161 146 0
7.480000 32.120000 19.800000 137 160 145 0
7.700000 32.120000 19.910000 138 161 146 0
7.920000 32.120000 19.910000 137 160 145 0
8.140000 32.120000 19.910000 138 161 146 0
8.360000 32.120000 19.910000 137 160 145 0
8.580000 32.120000 19.910000 138 160 145 0
8.800000 32.120000 19.910000 138 160 145 0
9.020000 32.120000 19.910000 137 160 145 0
9.240000 32.120000 20.020000 136 159 144 0
9.460000 32.120000 20.020000 136 158 143 0
9.680000 32.120000 20.020000 137 159 144 0
9.900000 32.120000 20.570000 138 160 145 0
10.120000 32.120000 15.510000 138 160 145 0
10.340000 32.120000 5.610000 139 162 147 0
11.000000 32.120000 0.110000 138 161 146 0
11.220000 32.120000 0.110000 137 163 147 0
11.440000 32.120000 0.110000 136 162 146 0
11.660000 32.120000 0.110000 137 163 147 0
11.880000 32.120000 0.110000 137 163 147 0
12.100000 32.120000 0.110000 140 163 150 0
12.320000 32.120000 0.110000 140 163 150 0
12.540000 32.120000 0.220000 139 162 149 0
12.760000 32.120000 0.880000 140 163 150 0
12.980000 32.120000 0.880000 140 163 150 0
13.200000 32.120000 0.990000 141 164 151 0
13.420000 32.120000 0.990000 141 164 151 0
13.640000 32.120000 0.990000 141 164 151 0
13.860000 32.120000 0.990000 139 162 149 0
14.080000 32.120000 1.100000 140 163 150 0
14.300000 32.120000 1.100000 139 160 148 0
14.520000 32.120000 1.100000 141 162 150 0
14.740000 32.120000 1.210000 141 164 151 0
14.960000 32.120000 1.210000 140 163 150 0
15.180000 32.120000 1.870000 140 163 150 0
15.400000 32.120000 1.980000 141 164 151 0
15.620000 32.120000 1.980000 141 164 151 0
15.840000 32.120000 1.980000 142 165 152 0
16.060000 32.120000 1.980000 142 165 152 0
16.280000 32.120000 2.530000 142 165 152 0
16.500000 32.120000 2.970000 142 165 152 0
16.720000 32.120000 3.520000 142 165 152 0
