ply
format ascii 1.0
element vertex 1101
property float x
property float y
property float z
property uchar red
property uchar green
property uchar blue
property uchar alpha
end_header
27.500000 13.200000 15.400000 170 172 182 0
27.720000 13.200000 15.400000 173 172 183 0
27.940000 13.200000 15.400000 173 172 183 0
28.160000 13.200000 15.620000 173 172 181 0
28.380000 13.200000 15.620000 174 173 182 0
28.600000 13.200000 15.840000 171 173 183 0
28.820000 13.200000 15.840000 171 173 183 0
29.040000 13.200000 15.840000 172 174 184 0
29.260000 13.200000 15.840000 173 175 185 0
29.480000 13.200000 17.380000 176 175 188 0
29.700000 13.200000 17.380000 176 175 188 0
29.920000 13.200000 17.600000 173 175 185 0
30.140000 13.200000 17.600000 174 176 186 0
30.360000 13.200000 17.600000 174 175 188 0
30.580000 13.200000 17.820000 173 174 187 0
30.800000 13.200000 17.820000 175 176 189 0
31.020000 13.200000 18.920000 175 176 189 0
31.240000 13.200000 21.120000 173 176 188 0
31.460000 13.200000 22.220000 174 177 189 0
31.680000 13.200000 22.220000 175 178 190 0
31.900000 13.200000 22.440000 174 177 189 0
32.120000 13.200000 22.440000 174 177 189 0
32.340000 13.200000 22.440000 174 177 189 0
32.560000 13.200000 22.660000 173 176 188 0
32.780000 13.200000 22.660000 173 176 188 0
33.000000 13.200000 22.660000 173 176 188 0
33.220000 13.200000 24.200000 172 175 187 0
33.440000 13.200000 24.200000 171 174 186 0
33.660000 13.200000 24.200000 172 175 187 0
33.880000 13.200000 25.740000 170 173 185 0
34.100000 13.200000 25.740000 170 173 185 0
34.320000 13.200000 27.280000 166 173 187 0
34.540000 13.200000 29.920000 169 176 190 0
34.760000 13.200000 32.780000 172 179 193 0
34.980000 13.200000 35.420000 174 181 195 0
35.200000 13.200000 38.280000 170 182 199 0
35.420000 13.200000 38.280000 168 180 197 0
35.640000 13.200000 38.280000 168 175 189 0
35.860000 13.200000 38.280000 165 172 186 0
36.080000 13.200000 38.280000 160 171 188 0
36.300000 13.200000 38.280000 161 172 189 0
36.520000 13.200000 38.280000 161 172 187 0
36.740000 13.200000 38.280000 160 171 186 0
36.960000 13.200000 38.280000 160 171 188 0
37.180000 13.200000 38.280000 160 171 188 0
0.000000 13.420000 24.640000 152 161 163 0
0.220000 13.420000 26.180000 151 160 162 0
0.440000 13.420000 27.280000 149 160 161 0
0.660000 13.420000 28.160000 150 161 162 0
0.880000 13.420000 29.260000 150 159 161 0
1.100000 13.420000 29.260000 150 159 161 0
1.320000 13.420000 29.260000 149 158 160 0
1.540000 13.420000 29.260000 151 160 162 0
1.760000 13.420000 29.260000 150 159 161 0
1.980000 13.420000 29.480000 151 160 162 0
2.200000 13.420000 29.480000 150 159 161 0
2.420000 13.420000 29.480000 149 158 160 0
2.640000 13.420000 29.480000 148 157 159 0
2.860000 13.420000 29.700000 148 157 159 0
3.080000 13.420000 31.020000 150 157 160 0
3.300000 13.420000 31.020000 149 156 159 0
3.520000 13.420000 31.240000 148 155 158 0
3.740000 13.420000 31.240000 149 156 159 0
3.960000 13.420000 31.240000 149 156 159 0
4.180000 13.420000 31.240000 149 156 159 0
4.400000 13.420000 31.240000 150 157 160 0
4.620000 13.420000 31.460000 151 158 161 0
4.840000 13.420000 32.560000 151 158 161 0
5.060000 13.420000 33.660000 152 159 162 0
5.280000 13.420000 34.760000 152 161 165 0
5.500000 13.420000 34.760000 153 162 166 0
5.720000 13.420000 34.980000 153 163 167 0
5.940000 13.420000 36.300000 155 165 169 0
6.160000 13.420000 36.520000 154 167 170 0
6.380000 13.420000 36.520000 155 168 171 0
6.600000 13.420000 36.520000 156 169 173 0
6.820000 13.420000 36.520000 157 170 174 0
7.040000 13.420000 36.520000 160 170 177 0
7.260000 13.420000 36.740000 161 171 178 0
7.480000 13.420000 38.060000 160 172 181 0
7.700000 13.420000 38.060000 162 174 183 0
7.920000 13.420000 38.280000 162 176 182 0
8.140000 13.420000 38.280000 162 176 182 0
8.360000 13.420000 38.280000 167 175 185 0
8.580000 13.420000 38.280000 167 175 185 0
8.800000 13.420000 38.500000 166 174 184 0
9.020000 13.420000 39.820000 168 176 186 0
9.240000 13.420000 39.820000 164 176 185 0
9.460000 13.420000 39.820000 164 176 185 0
9.680000 13.420000 39.820000 164 176 185 0
9.900000 13.420000 40.040000 165 177 186 0
10.120000 13.420000 40.040000 165 177 184 0
10.340000 13.420000 39.600000 167 179 186 0
10.560000 13.420000 41.800000 170 179 189 0
10.780000 13.420000 42.900000 169 178 188 0
11.000000 13.420000 42.900000 166 178 187 0
11.220000 13.420000 42.900000 166 178 187 0
11.440000 13.420000 34.760000 164 176 185 0
11.660000 13.420000 15.400000 163 175 184 0
11.880000 13.420000 2.860000 164 174 181 0
12.100000 13.420000 0.220000 161 171 178 0
12.320000 13.420000 0.220000 158 167 177 0
12.540000 13.420000 0.220000 152 161 171 0
12.760000 13.420000 0.220000 149 158 168 0
12.980000 13.420000 0.220000 147 156 166 0
13.200000 13.420000 0.220000 146 155 167 0
13.420000 13.420000 0.220000 145 154 166 0
13.640000 13.420000 0.220000 143 154 167 0
13.860000 13.420000 0.220000 144 155 168 0
14.080000 13.420000 0.220000 146 155 167 0
14.300000 13.420000 1.760000 146 155 167 0
14.520000 13.420000 4.620000 147 155 165 0
14.740000 13.420000 4.620000 147 155 165 0
14.960000 13.420000 4.620000 145 154 166 0
15.180000 13.420000 4.620000 146 155 167 0
15.400000 13.420000 7.480000 144 153 166 0
15.620000 13.420000 10.340000 144 153 166 0
15.840000 13.420000 10.340000 144 153 165 0
16.060000 13.420000 7.480000 144 153 165 0
16.280000 13.420000 4.840000 144 152 162 0
16.500000 13.420000 4.840000 145 153 163 0
16.720000 13.420000 1.980000 145 151 162 0
17.600000 13.420000 0.660000 145 153 163 0
17.820000 13.420000 0.660000 144 152 162 0
18.040000 13.420000 0.660000 146 152 161 0
18.260000 13.420000 0.660000 147 153 162 0
18.480000 13.420000 0.660000 146 152 161 0
18.700000 13.420000 0.440000 148 154 163 0
18.920000 13.420000 0.440000 149 155 164 0
19.140000 13.420000 1.980000 149 155 164 0
19.360000 13.420000 1.980000 151 158 164 0
19.580000 13.420000 1.980000 152 159 165 0
19.800000 13.420000 1.980000 155 159 165 0
20.020000 13.420000 1.980000 155 159 165 0
20.240000 13.420000 1.980000 154 161 166 0
20.460000 13.420000 1.980000 155 162 167 0
20.680000 13.420000 2.200000 156 163 168 0
20.900000 13.420000 3.520000 156 163 168 0
21.120000 13.420000 3.520000 159 163 170 0
21.340000 13.420000 3.740000 159 163 170 0
21.560000 13.420000 3.740000 159 163 170 0
21.780000 13.420000 3.740000 160 164 171 0
22.000000 13.420000 3.960000 161 165 171 0
22.220000 13.420000 3.960000 160 164 170 0
22.440000 13.420000 3.960000 161 165 171 0
22.660000 13.420000 5.060000 162 166 172 0
22.880000 13.420000 7.260000 161 165 172 0
23.100000 13.420000 7.040000 162 166 173 0
23.320000 13.420000 8.580000 163 165 173 0
23.540000 13.420000 8.580000 164 166 174 0
23.760000 13.420000 8.580000 165 167 175 0
23.980000 13.420000 8.580000 164 166 174 0
24.200000 13.420000 8.800000 163 167 173 0
24.420000 13.420000 8.800000 164 168 174 0
24.640000 13.420000 8.800000 166 168 176 0
24.860000 13.420000 9.020000 165 167 175 0
25.080000 13.420000 9.020000 166 168 176 0
25.300000 13.420000 10.560000 166 168 176 0
25.520000 13.420000 10.560000 167 169 177 0
25.740000 13.420000 10.560000 168 170 178 0
25.960000 13.420000 10.780000 170 169 180 0
26.180000 13.420000 10.780000 170 169 180 0
26.400000 13.420000 10.780000 170 169 178 0
26.620000 13.420000 10.780000 170 169 178 0
26.840000 13.420000 11.000000 169 168 177 0
27.060000 13.420000 12.100000 171 170 179 0
27.280000 13.420000 14.300000 168 170 180 0
27.500000 13.420000 15.400000 168 170 180 0
27.720000 13.420000 15.400000 170 169 180 0
27.940000 13.420000 15.400000 172 171 182 0
28.160000 13.420000 15.620000 171 170 179 0
28.380000 13.420000 15.620000 173 172 181 0
28.600000 13.420000 15.840000 171 173 183 0
28.820000 13.420000 15.840000 170 172 182 0
29.040000 13.420000 15.840000 170 172 182 0
29.260000 13.420000 15.840000 170 172 182 0
29.480000 13.420000 17.380000 173 172 185 0
29.700000 13.420000 17.380000 173 172 185 0
29.920000 13.420000 17.600000 172 174 184 0
30.140000 13.420000 17.600000 173 175 185 0
30.360000 13.420000 17.600000 173 174 187 0
30.580000 13.420000 17.820000 173 174 187 0
30.800000 13.420000 17.820000 173 174 187 0
31.020000 13.420000 18.920000 173 174 187 0
31.240000 13.420000 19.800000 172 175 187 0
31.460000 13.420000 20.900000 173 176 188 0
31.680000 13.420000 22.220000 172 175 187 0
31.900000 13.420000 22.440000 174 177 189 0
32.120000 13.420000 22.440000 172 175 187 0
32.340000 13.420000 22.440000 172 175 187 0
32.560000 13.420000 22.660000 172 175 187 0
32.780000 13.420000 22.660000 171 174 186 0
33.000000 13.420000 22.660000 171 174 186 0
33.220000 13.420000 24.200000 170 173 185 0
33.440000 13.420000 24.200000 170 173 185 0
33.660000 13.420000 24.200000 169 172 184 0
33.880000 13.420000 24.420000 168 171 183 0
34.100000 13.420000 25.740000 168 171 183 0
34.320000 13.420000 27.280000 164 171 185 0
34.540000 13.420000 29.920000 166 173 187 0
34.760000 13.420000 32.780000 169 176 190 0
34.980000 13.420000 35.420000 173 180 194 0
35.200000 13.420000 38.280000 169 181 198 0
35.420000 13.420000 38.280000 168 180 197 0
35.640000 13.420000 39.600000 168 175 189 0
35.860000 13.420000 38.280000 164 171 185 0
36.080000 13.420000 38.280000 160 171 188 0
36.300000 13.420000 38.280000 159 170 187 0
36.520000 13.420000 38.280000 159 170 185 0
36.740000 13.420000 38.280000 158 169 184 0
36.960000 13.420000 38.280000 158 169 186 0
37.180000 13.420000 38.280000 159 170 187 0
0.000000 13.640000 26.180000 148 163 165 0
0.220000 13.640000 25.960000 149 164 166 0
0.440000 13.640000 28.160000 148 163 163 0
0.660000 13.640000 29.260000 147 162 162 0
0.880000 13.640000 29.260000 147 162 162 0
1.100000 13.640000 29.260000 147 162 162 0
1.320000 13.640000 29.260000 147 162 162 0
1.540000 13.640000 29.260000 146 161 161 0
1.760000 13.640000 29.480000 148 161 164 0
1.980000 13.640000 29.480000 147 160 163 0
2.200000 13.640000 29.480000 147 160 161 0
2.420000 13.640000 29.480000 146 159 160 0
2.640000 13.640000 29.700000 147 160 161 0
2.860000 13.640000 31.020000 146 159 160 0
3.080000 13.640000 31.020000 146 159 160 0
3.300000 13.640000 31.240000 147 160 161 0
3.520000 13.640000 31.240000 147 157 161 0
3.740000 13.640000 31.240000 147 157 161 0
3.960000 13.640000 31.460000 145 158 161 0
4.180000 13.640000 31.460000 146 159 162 0
4.400000 13.640000 31.460000 148 159 160 0
4.620000 13.640000 31.680000 149 160 161 0
4.840000 13.640000 32.780000 148 161 164 0
5.060000 13.640000 34.980000 149 162 165 0
5.280000 13.640000 36.080000 147 164 166 0
5.500000 13.640000 36.080000 148 165 167 0
5.720000 13.640000 36.300000 151 165 169 0
5.940000 13.640000 36.300000 153 167 171 0
6.160000 13.640000 36.300000 153 170 173 0
6.380000 13.640000 36.520000 152 169 172 0
6.600000 13.640000 36.520000 153 172 174 0
6.820000 13.640000 36.520000 154 173 175 0
7.040000 13.640000 36.520000 158 172 178 0
7.260000 13.640000 38.060000 159 173 179 0
7.480000 13.640000 38.060000 158 175 180 0
7.700000 13.640000 38.060000 159 176 181 0
7.920000 13.640000 38.280000 159 175 183 0
8.140000 13.640000 38.280000 160 176 184 0
8.360000 13.640000 38.280000 161 175 181 0
8.580000 13.640000 38.280000 162 176 182 0
8.800000 13.640000 38.500000 162 176 182 0
9.020000 13.640000 39.820000 161 175 181 0
9.240000 13.640000 39.820000 161 175 183 0
9.460000 13.640000 39.820000 162 176 184 0
9.680000 13.640000 39.820000 159 175 183 0
9.900000 13.640000 40.040000 159 175 183 0
10.120000 13.640000 40.040000 160 177 182 0
10.340000 13.640000 41.140000 161 178 183 0
10.560000 13.640000 41.800000 164 178 184 0
10.780000 13.640000 42.900000 164 178 184 0
11.000000 13.640000 42.900000 163 177 185 0
11.220000 13.640000 42.900000 163 177 185 0
11.440000 13.640000 31.900000 162 176 184 0
11.660000 13.640000 11.220000 161 175 183 0
11.880000 13.640000 0.220000 159 173 181 0
12.100000 13.640000 0.220000 157 171 179 0
12.320000 13.640000 0.220000 155 167 174 0
12.540000 13.640000 0.220000 150 162 169 0
12.760000 13.640000 0.220000 146 158 167 0
12.980000 13.640000 0.220000 145 157 166 0
13.200000 13.640000 0.220000 145 154 166 0
13.420000 13.640000 0.220000 144 153 165 0
13.640000 13.640000 0.220000 142 154 165 0
13.860000 13.640000 0.220000 142 154 165 0
14.080000 13.640000 0.440000 143 152 164 0
16.940000 13.640000 0.660000 144 152 162 0
17.160000 13.640000 0.660000 143 151 161 0
17.380000 13.640000 0.660000 143 151 161 0
17.600000 13.640000 0.660000 144 152 160 0
17.820000 13.640000 0.660000 144 152 160 0
18.040000 13.640000 0.660000 148 151 161 0
18.260000 13.640000 0.660000 148 151 161 0
18.480000 13.640000 1.980000 146 152 161 0
18.700000 13.640000 1.980000 147 153 162 0
18.920000 13.640000 1.980000 147 155 163 0
19.140000 13.640000 1.980000 148 156 164 0
19.360000 13.640000 1.980000 149 156 162 0
19.580000 13.640000 1.980000 151 158 164 0
19.800000 13.640000 1.980000 152 156 163 0
20.020000 13.640000 3.300000 154 158 165 0
20.240000 13.640000 3.520000 153 160 166 0
20.460000 13.640000 3.520000 153 160 166 0
20.680000 13.640000 3.520000 153 160 166 0
20.900000 13.640000 3.520000 155 162 168 0
21.120000 13.640000 3.740000 156 160 167 0
21.340000 13.640000 3.740000 156 160 167 0
21.560000 13.640000 3.740000 155 162 168 0
21.780000 13.640000 3.740000 156 163 169 0
22.000000 13.640000 3.960000 156 163 168 0
22.220000 13.640000 3.960000 157 164 169 0
22.440000 13.640000 3.960000 156 163 169 0
22.660000 13.640000 5.060000 156 163 169 0
22.880000 13.640000 7.260000 159 163 169 0
23.100000 13.640000 8.360000 159 163 169 0
23.320000 13.640000 8.580000 157 164 170 0
23.540000 13.640000 8.580000 158 165 171 0
23.760000 13.640000 8.580000 158 165 170 0
23.980000 13.640000 8.580000 158 165 170 0
24.200000 13.640000 8.800000 158 165 170 0
24.420000 13.640000 8.800000 159 166 171 0
24.640000 13.640000 8.800000 162 166 173 0
24.860000 13.640000 9.020000 162 166 173 0
25.080000 13.640000 9.020000 162 166 173 0
25.300000 13.640000 10.560000 162 166 173 0
25.520000 13.640000 10.560000 161 168 174 0
25.740000 13.640000 10.560000 162 169 175 0
25.960000 13.640000 10.780000 163 170 176 0
26.180000 13.640000 10.780000 162 169 175 0
26.400000 13.640000 10.780000 165 169 176 0
26.620000 13.640000 10.780000 165 169 176 0
26.840000 13.640000 11.000000 164 168 175 0
27.060000 13.640000 12.100000 165 169 176 0
27.280000 13.640000 14.300000 163 170 176 0
27.500000 13.640000 15.400000 163 170 176 0
27.720000 13.640000 15.400000 165 169 176 0
27.940000 13.640000 15.400000 166 170 177 0
28.160000 13.640000 15.620000 166 170 177 0
28.380000 13.640000 15.620000 167 171 178 0
28.600000 13.640000 15.620000 166 169 179 0
28.820000 13.640000 15.840000 167 170 180 0
29.040000 13.640000 15.840000 164 170 179 0
29.260000 13.640000 15.840000 165 171 180 0
29.480000 13.640000 17.380000 167 170 180 0
29.700000 13.640000 17.380000 168 171 181 0
29.920000 13.640000 17.600000 167 173 182 0
30.140000 13.640000 17.600000 166 172 181 0
30.360000 13.640000 17.600000 169 172 184 0
30.580000 13.640000 17.820000 169 172 184 0
30.800000 13.640000 17.820000 167 173 184 0
31.020000 13.640000 19.140000 168 174 185 0
31.240000 13.640000 20.240000 170 173 183 0
31.460000 13.640000 21.120000 171 174 184 0
31.680000 13.640000 22.220000 167 173 182 0
31.900000 13.640000 22.440000 169 175 184 0
32.120000 13.640000 22.440000 168 174 185 0
32.340000 13.640000 22.440000 168 174 185 0
32.560000 13.640000 22.660000 166 172 183 0
32.780000 13.640000 22.660000 167 173 184 0
33.000000 13.640000 22.660000 167 173 184 0
33.220000 13.640000 24.200000 166 172 183 0
33.440000 13.640000 24.200000 166 172 183 0
33.660000 13.640000 24.200000 165 171 182 0
33.880000 13.640000 24.420000 163 170 183 0
34.100000 13.640000 25.740000 162 169 182 0
34.320000 13.640000 27.280000 163 170 183 0
34.540000 13.640000 29.920000 163 170 183 0
34.760000 13.640000 32.780000 164 176 193 0
34.980000 13.640000 35.420000 168 180 197 0
35.200000 13.640000 38.280000 166 181 199 0
35.420000 13.640000 38.280000 165 180 198 0
35.640000 13.640000 39.600000 168 177 190 0
35.860000 13.640000 39.600000 163 172 185 0
36.080000 13.640000 38.280000 159 168 181 0
36.300000 13.640000 38.280000 158 167 180 0
36.520000 13.640000 38.280000 156 167 184 0
36.740000 13.640000 38.280000 156 167 184 0
36.960000 13.640000 38.280000 157 168 181 0
37.180000 13.640000 38.280000 157 168 181 0
0.000000 13.860000 26.180000 149 164 166 0
0.220000 13.860000 25.960000 149 164 166 0
0.440000 13.860000 27.940000 149 164 164 0
0.660000 13.860000 29.040000 149 164 164 0
0.880000 13.860000 29.260000 147 162 162 0
1.100000 13.860000 29.260000 148 163 163 0
1.320000 13.860000 29.260000 148 163 163 0
1.540000 13.860000 29.260000 146 161 161 0
1.760000 13.860000 29.480000 148 161 164 0
1.980000 13.860000 29.480000 148 161 164 0
2.200000 13.860000 29.480000 147 160 161 0
2.420000 13.860000 29.700000 148 161 162 0
2.640000 13.860000 31.020000 147 160 161 0
2.860000 13.860000 31.020000 146 159 160 0
3.080000 13.860000 31.240000 146 159 160 0
3.300000 13.860000 31.240000 147 160 161 0
3.520000 13.860000 31.240000 149 159 163 0
3.740000 13.860000 31.460000 148 158 162 0
3.960000 13.860000 31.460000 145 158 161 0
4.180000 13.860000 31.460000 147 160 163 0
4.400000 13.860000 33.000000 149 160 161 0
4.620000 13.860000 33.000000 148 159 160 0
4.840000 13.860000 32.780000 148 161 164 0
5.060000 13.860000 34.980000 149 162 165 0
5.280000 13.860000 36.080000 147 164 166 0
5.500000 13.860000 36.080000 149 166 168 0
5.720000 13.860000 36.300000 153 167 171 0
5.940000 13.860000 36.300000 154 168 172 0
6.160000 13.860000 36.300000 153 170 173 0
6.380000 13.860000 36.300000 154 171 174 0
6.600000 13.860000 36.520000 154 173 175 0
6.820000 13.860000 36.520000 154 173 175 0
7.040000 13.860000 36.520000 157 171 177 0
7.260000 13.860000 38.060000 158 172 178 0
7.480000 13.860000 38.060000 157 174 179 0
7.700000 13.860000 38.060000 157 174 179 0
7.920000 13.860000 38.280000 157 173 181 0
8.140000 13.860000 38.280000 158 174 182 0
8.360000 13.860000 38.280000 161 175 181 0
8.580000 13.860000 38.280000 161 175 181 0
8.800000 13.860000 39.820000 161 175 181 0
9.020000 13.860000 39.820000 160 174 180 0
9.240000 13.860000 39.820000 160 174 182 0
9.460000 13.860000 39.820000 161 175 183 0
9.680000 13.860000 39.820000 158 174 182 0
9.900000 13.860000 40.040000 157 173 181 0
10.120000 13.860000 40.040000 157 174 179 0
10.340000 13.860000 41.140000 158 175 180 0
10.560000 13.860000 41.800000 163 177 183 0
10.780000 13.860000 42.900000 161 175 181 0
11.000000 13.860000 42.900000 161 175 183 0
11.220000 13.860000 40.260000 161 175 183 0
11.440000 13.860000 26.400000 161 175 183 0
11.660000 13.860000 8.360000 159 173 181 0
11.880000 13.860000 0.220000 159 173 181 0
12.100000 13.860000 0.220000 157 171 179 0
12.320000 13.860000 0.220000 157 169 176 0
12.540000 13.860000 0.220000 153 165 172 0
12.760000 13.860000 0.220000 148 160 169 0
12.980000 13.860000 0.220000 144 156 165 0
13.200000 13.860000 0.220000 144 153 165 0
13.420000 13.860000 0.220000 144 153 165 0
13.640000 13.860000 0.220000 142 154 165 0
13.860000 13.860000 0.440000 141 153 164 0
14.080000 13.860000 0.440000 142 151 163 0
14.300000 13.860000 0.440000 143 152 164 0
16.280000 13.860000 0.660000 140 149 161 0
16.500000 13.860000 0.440000 141 150 162 0
16.720000 13.860000 0.440000 143 151 161 0
16.940000 13.860000 0.660000 144 152 162 0
17.160000 13.860000 0.660000 144 152 162 0
17.380000 13.860000 0.660000 143 151 161 0
17.600000 13.860000 1.980000 143 151 159 0
17.820000 13.860000 1.980000 145 153 161 0
18.040000 13.860000 1.980000 148 151 161 0
18.260000 13.860000 1.980000 149 152 162 0
18.480000 13.860000 1.980000 147 153 162 0
18.700000 13.860000 1.980000 146 152 161 0
18.920000 13.860000 3.520000 147 155 163 0
19.140000 13.860000 3.520000 147 155 163 0
19.360000 13.860000 3.520000 150 157 163 0
19.580000 13.860000 3.520000 150 157 163 0
19.800000 13.860000 3.520000 153 157 164 0
20.020000 13.860000 3.520000 153 157 164 0
20.240000 13.860000 3.520000 151 158 164 0
20.460000 13.860000 3.520000 152 159 165 0
20.680000 13.860000 3.520000 152 159 165 0
20.900000 13.860000 3.740000 153 160 166 0
21.120000 13.860000 3.740000 155 159 166 0
21.340000 13.860000 3.740000 155 159 166 0
21.560000 13.860000 3.740000 155 162 168 0
21.780000 13.860000 3.960000 154 161 167 0
22.000000 13.860000 3.960000 154 161 166 0
22.220000 13.860000 3.960000 155 162 167 0
22.440000 13.860000 5.280000 155 162 168 0
22.660000 13.860000 6.380000 155 162 168 0
22.880000 13.860000 7.260000 158 162 168 0
23.100000 13.860000 8.360000 157 161 167 0
23.320000 13.860000 8.580000 157 164 170 0
23.540000 13.860000 8.580000 156 163 169 0
23.760000 13.860000 8.580000 157 164 169 0
23.980000 13.860000 8.580000 156 163 168 0
24.200000 13.860000 8.800000 157 164 169 0
24.420000 13.860000 8.800000 158 165 170 0
24.640000 13.860000 9.020000 159 163 170 0
24.860000 13.860000 10.340000 160 164 171 0
25.080000 13.860000 10.340000 160 164 171 0
25.300000 13.860000 10.560000 160 164 171 0
25.520000 13.860000 10.560000 159 166 172 0
25.740000 13.860000 10.560000 160 167 173 0
25.960000 13.860000 10.780000 161 168 174 0
26.180000 13.860000 10.780000 159 166 172 0
26.400000 13.860000 10.780000 163 167 174 0
26.620000 13.860000 10.780000 163 167 174 0
26.840000 13.860000 11.000000 163 167 174 0
27.060000 13.860000 12.100000 163 167 174 0
27.280000 13.860000 14.300000 160 167 173 0
27.500000 13.860000 15.400000 160 167 173 0
27.720000 13.860000 15.400000 164 168 175 0
27.940000 13.860000 15.400000 164 168 175 0
28.160000 13.860000 15.620000 164 168 175 0
28.380000 13.860000 15.620000 163 167 174 0
28.600000 13.860000 15.620000 165 168 178 0
28.820000 13.860000 15.840000 165 168 178 0
29.040000 13.860000 15.840000 163 169 178 0
29.260000 13.860000 15.840000 164 170 179 0
29.480000 13.860000 17.380000 166 169 179 0
29.700000 13.860000 17.380000 167 170 180 0
29.920000 13.860000 17.600000 164 170 179 0
30.140000 13.860000 17.600000 165 171 180 0
30.360000 13.860000 17.600000 167 170 182 0
30.580000 13.860000 17.820000 168 171 183 0
30.800000 13.860000 17.820000 166 172 183 0
31.020000 13.860000 17.820000 166 172 183 0
31.240000 13.860000 18.920000 168 171 181 0
31.460000 13.860000 21.120000 168 171 181 0
31.680000 13.860000 22.220000 165 171 180 0
31.900000 13.860000 22.440000 166 172 181 0
32.120000 13.860000 22.440000 165 171 182 0
32.340000 13.860000 22.440000 165 171 182 0
32.560000 13.860000 22.660000 166 172 183 0
32.780000 13.860000 22.660000 165 171 182 0
33.000000 13.860000 22.660000 165 171 182 0
33.220000 13.860000 22.880000 165 171 182 0
33.440000 13.860000 24.200000 164 170 181 0
33.660000 13.860000 24.200000 165 171 182 0
33.880000 13.860000 24.420000 162 169 182 0
34.100000 13.860000 25.740000 161 168 181 0
34.320000 13.860000 27.280000 161 168 181 0
34.540000 13.860000 29.920000 163 170 183 0
34.760000 13.860000 32.780000 162 174 191 0
34.980000 13.860000 35.420000 165 177 194 0
35.200000 13.860000 36.740000 166 181 199 0
35.420000 13.860000 38.280000 165 180 198 0
35.640000 13.860000 39.600000 166 175 188 0
35.860000 13.860000 39.600000 163 172 185 0
36.080000 13.860000 39.600000 159 168 181 0
36.300000 13.860000 38.280000 159 168 181 0
36.520000 13.860000 38.280000 155 166 183 0
36.740000 13.860000 38.280000 155 166 183 0
36.960000 13.860000 38.280000 155 166 179 0
37.180000 13.860000 38.280000 155 166 179 0
0.000000 14.080000 26.180000 148 165 167 0
0.220000 14.080000 25.960000 148 165 167 0
0.440000 14.080000 28.160000 148 165 167 0
0.660000 14.080000 29.260000 148 165 167 0
0.880000 14.080000 29.260000 148 165 167 0
1.100000 14.080000 29.260000 147 164 166 0
1.320000 14.080000 29.260000 147 164 166 0
1.540000 14.080000 29.260000 146 163 165 0
1.760000 14.080000 29.480000 149 164 166 0
1.980000 14.080000 29.480000 148 163 165 0
2.200000 14.080000 29.480000 148 163 165 0
2.420000 14.080000 31.020000 148 163 165 0
2.640000 14.080000 31.020000 145 162 164 0
2.860000 14.080000 31.240000 144 161 163 0
3.080000 14.080000 31.240000 146 163 165 0
3.300000 14.080000 31.240000 145 162 164 0
3.520000 14.080000 31.240000 149 162 165 0
3.740000 14.080000 31.460000 150 163 166 0
3.960000 14.080000 31.460000 147 162 164 0
4.180000 14.080000 33.000000 146 161 163 0
4.400000 14.080000 33.000000 147 162 164 0
4.620000 14.080000 33.000000 148 163 165 0
4.840000 14.080000 34.100000 146 163 166 0
5.060000 14.080000 34.980000 147 164 167 0
5.280000 14.080000 36.080000 148 165 168 0
5.500000 14.080000 36.080000 150 167 170 0
5.720000 14.080000 36.080000 151 168 171 0
5.940000 14.080000 36.300000 153 170 173 0
6.160000 14.080000 36.300000 154 171 176 0
6.380000 14.080000 36.300000 154 171 176 0
6.600000 14.080000 36.520000 155 172 177 0
6.820000 14.080000 36.520000 155 172 177 0
7.040000 14.080000 36.520000 156 173 178 0
7.260000 14.080000 38.060000 155 172 177 0
7.480000 14.080000 38.060000 156 172 180 0
7.700000 14.080000 38.060000 157 173 181 0
7.920000 14.080000 38.280000 160 174 182 0
8.140000 14.080000 38.280000 160 174 182 0
8.360000 14.080000 38.280000 158 174 182 0
8.580000 14.080000 38.280000 158 174 182 0
8.800000 14.080000 39.820000 159 176 181 0
9.020000 14.080000 39.820000 157 174 179 0
9.240000 14.080000 39.820000 160 174 180 0
9.460000 14.080000 39.820000 159 173 179 0
9.680000 14.080000 39.820000 157 173 181 0
9.900000 14.080000 40.040000 157 173 181 0
10.120000 14.080000 40.040000 157 174 179 0
10.340000 14.080000 41.140000 158 175 180 0
10.560000 14.080000 41.800000 160 174 182 0
10.780000 14.080000 42.900000 161 175 183 0
11.000000 14.080000 42.900000 161 175 181 0
11.220000 14.080000 34.760000 161 175 181 0
11.440000 14.080000 15.400000 160 174 182 0
11.660000 14.080000 2.860000 160 174 182 0
11.880000 14.080000 0.220000 157 173 181 0
12.100000 14.080000 0.220000 159 175 183 0
12.320000 14.080000 0.220000 159 173 179 0
12.540000 14.080000 0.220000 156 170 176 0
12.760000 14.080000 0.220000 152 161 171 0
12.980000 14.080000 0.220000 147 156 166 0
13.200000 14.080000 0.220000 145 154 164 0
13.420000 14.080000 0.220000 144 153 163 0
13.640000 14.080000 0.440000 141 153 162 0
13.860000 14.080000 0.440000 140 152 161 0
14.080000 14.080000 0.440000 142 151 161 0
14.300000 14.080000 0.440000 142 151 161 0
14.520000 14.080000 0.440000 143 151 161 0
14.740000 14.080000 0.440000 143 151 161 0
14.960000 14.080000 0.440000 143 153 160 0
15.180000 14.080000 0.440000 143 153 160 0
15.400000 14.080000 0.440000 142 152 159 0
15.620000 14.080000 0.440000 142 152 159 0
15.840000 14.080000 0.660000 142 151 161 0
16.060000 14.080000 0.660000 142 151 161 0
16.280000 14.080000 0.660000 143 151 161 0
16.500000 14.080000 0.660000 144 152 162 0
16.720000 14.080000 0.660000 143 153 160 0
16.940000 14.080000 1.980000 143 153 160 0
17.160000 14.080000 1.980000 145 153 159 0
17.380000 14.080000 1.980000 144 152 158 0
17.600000 14.080000 1.980000 145 153 159 0
17.820000 14.080000 1.980000 144 152 158 0
18.040000 14.080000 3.520000 147 154 160 0
18.260000 14.080000 3.520000 147 154 160 0
18.480000 14.080000 3.520000 146 154 160 0
18.700000 14.080000 3.520000 147 155 161 0
18.920000 14.080000 3.520000 149 156 162 0
19.140000 14.080000 3.520000 149 156 162 0
19.360000 14.080000 3.520000 149 156 162 0
19.580000 14.080000 3.520000 150 157 163 0
19.800000 14.080000 3.520000 150 157 163 0
20.020000 14.080000 5.060000 151 158 164 0
20.240000 14.080000 5.060000 151 158 163 0
20.460000 14.080000 5.060000 152 159 164 0
20.680000 14.080000 5.060000 152 159 165 0
20.900000 14.080000 5.280000 153 160 166 0
21.120000 14.080000 5.280000 153 160 165 0
21.340000 14.080000 5.280000 154 161 166 0
21.560000 14.080000 5.060000 153 160 165 0
21.780000 14.080000 6.380000 153 160 165 0
22.000000 14.080000 6.380000 154 161 166 0
22.220000 14.080000 6.600000 154 161 166 0
22.440000 14.080000 6.380000 153 160 165 0
22.660000 14.080000 7.480000 154 161 166 0
22.880000 14.080000 8.580000 154 161 166 0
23.100000 14.080000 8.360000 156 163 168 0
23.320000 14.080000 8.580000 156 160 166 0
23.540000 14.080000 8.580000 158 162 168 0
23.760000 14.080000 8.580000 155 162 167 0
23.980000 14.080000 10.120000 156 163 168 0
24.200000 14.080000 10.120000 157 161 167 0
24.420000 14.080000 10.340000 158 162 168 0
24.640000 14.080000 10.340000 156 163 168 0
24.860000 14.080000 10.340000 156 163 168 0
25.080000 14.080000 10.340000 159 163 170 0
25.300000 14.080000 10.560000 158 162 169 0
25.520000 14.080000 10.560000 159 163 170 0
25.740000 14.080000 10.560000 161 165 172 0
25.960000 14.080000 10.780000 159 166 172 0
26.180000 14.080000 10.780000 159 166 172 0
26.400000 14.080000 10.780000 161 165 172 0
26.620000 14.080000 12.320000 161 165 172 0
26.840000 14.080000 12.320000 161 165 172 0
27.060000 14.080000 12.100000 161 165 172 0
27.280000 14.080000 14.300000 161 165 172 0
27.500000 14.080000 15.400000 162 166 173 0
27.720000 14.080000 15.400000 162 166 173 0
27.940000 14.080000 15.400000 162 166 173 0
28.160000 14.080000 15.620000 160 167 173 0
28.380000 14.080000 15.620000 161 168 174 0
28.600000 14.080000 15.620000 163 166 176 0
28.820000 14.080000 15.840000 163 166 176 0
29.040000 14.080000 15.840000 163 166 176 0
29.260000 14.080000 15.840000 164 167 177 0
29.480000 14.080000 17.380000 163 169 178 0
29.700000 14.080000 17.380000 164 170 179 0
29.920000 14.080000 17.600000 164 170 179 0
30.140000 14.080000 17.600000 163 169 178 0
30.360000 14.080000 17.600000 163 169 178 0
30.580000 14.080000 17.820000 164 170 179 0
30.800000 14.080000 17.820000 163 169 180 0
31.020000 14.080000 17.820000 164 170 181 0
31.240000 14.080000 18.920000 166 169 181 0
31.460000 14.080000 21.120000 167 170 182 0
31.680000 14.080000 22.220000 165 171 182 0
31.900000 14.080000 22.440000 164 170 181 0
32.120000 14.080000 22.440000 163 169 180 0
32.340000 14.080000 22.440000 165 171 182 0
32.560000 14.080000 22.660000 164 170 181 0
32.780000 14.080000 22.660000 163 169 180 0
33.000000 14.080000 22.660000 164 170 181 0
33.220000 14.080000 22.880000 165 171 182 0
33.440000 14.080000 24.200000 163 169 180 0
33.660000 14.080000 24.200000 162 168 179 0
33.880000 14.080000 24.420000 162 168 179 0
34.100000 14.080000 25.740000 160 166 177 0
34.320000 14.080000 27.280000 161 168 181 0
34.540000 14.080000 29.920000 162 169 182 0
34.760000 14.080000 32.780000 163 174 191 0
34.980000 14.080000 35.420000 165 176 193 0
35.200000 14.080000 36.960000 165 180 198 0
35.420000 14.080000 38.280000 166 181 199 0
35.640000 14.080000 38.280000 167 176 189 0
35.860000 14.080000 39.600000 163 172 185 0
36.080000 14.080000 39.820000 161 168 181 0
36.300000 14.080000 39.820000 159 166 179 0
36.520000 14.080000 38.280000 156 165 178 0
36.740000 14.080000 38.280000 157 166 179 0
36.960000 14.080000 38.280000 156 165 178 0
37.180000 14.080000 38.500000 157 166 179 0
0.000000 14.300000 26.180000 150 167 169 0
0.220000 14.300000 25.960000 149 166 168 0
0.440000 14.300000 28.160000 149 166 168 0
0.660000 14.300000 29.260000 150 167 169 0
0.880000 14.300000 29.260000 149 166 168 0
1.100000 14.300000 29.260000 149 166 168 0
1.320000 14.300000 29.260000 148 165 167 0
1.540000 14.300000 29.480000 148 165 167 0
1.760000 14.300000 29.480000 150 165 167 0
1.980000 14.300000 29.480000 150 165 167 0
2.200000 14.300000 31.020000 148 163 165 0
2.420000 14.300000 31.020000 148 163 165 0
2.640000 14.300000 31.020000 147 164 166 0
2.860000 14.300000 31.240000 146 163 165 0
3.080000 14.300000 31.240000 147 164 166 0
3.300000 14.300000 31.240000 150 167 169 0
3.520000 14.300000 31.460000 151 164 167 0
3.740000 14.300000 31.460000 150 163 166 0
3.960000 14.300000 32.780000 149 164 166 0
4.180000 14.300000 33.000000 149 164 166 0
4.400000 14.300000 33.000000 150 165 167 0
4.620000 14.300000 33.000000 150 165 167 0
4.840000 14.300000 34.100000 148 165 168 0
5.060000 14.300000 34.980000 149 166 169 0
5.280000 14.300000 36.080000 150 167 170 0
5.500000 14.300000 36.080000 151 168 171 0
5.720000 14.300000 36.080000 153 170 173 0
5.940000 14.300000 36.300000 153 170 173 0
6.160000 14.300000 36.300000 154 171 176 0
6.380000 14.300000 36.300000 153 170 175 0
6.600000 14.300000 36.520000 155 172 177 0
6.820000 14.300000 36.520000 155 172 177 0
7.040000 14.300000 36.520000 154 171 176 0
7.260000 14.300000 38.060000 155 172 177 0
7.480000 14.300000 38.060000 156 172 180 0
7.700000 14.300000 38.060000 157 173 181 0
7.920000 14.300000 38.280000 160 174 182 0
8.140000 14.300000 38.280000 160 174 182 0
8.360000 14.300000 38.280000 158 174 182 0
8.580000 14.300000 38.280000 158 174 182 0
8.800000 14.300000 38.500000 157 174 179 0
9.020000 14.300000 39.820000 156 173 178 0
9.240000 14.300000 39.820000 158 172 178 0
9.460000 14.300000 39.820000 158 172 178 0
9.680000 14.300000 39.820000 156 172 180 0
9.900000 14.300000 40.040000 157 173 181 0
10.120000 14.300000 40.040000 156 173 178 0
10.340000 14.300000 41.140000 157 174 179 0
10.560000 14.300000 41.800000 159 173 181 0
10.780000 14.300000 42.900000 161 175 183 0
11.000000 14.300000 42.900000 160 174 180 0
11.220000 14.300000 31.900000 160 174 180 0
11.440000 14.300000 11.220000 159 173 181 0
11.660000 14.300000 0.220000 159 173 181 0
11.880000 14.300000 0.220000 161 177 185 0
12.100000 14.300000 0.220000 162 178 186 0
12.320000 14.300000 0.220000 161 175 181 0
12.540000 14.300000 0.220000 158 172 178 0
12.760000 14.300000 0.220000 156 165 175 0
12.980000 14.300000 0.220000 148 157 167 0
13.200000 14.300000 0.440000 144 153 163 0
13.420000 14.300000 0.440000 144 153 163 0
13.640000 14.300000 0.440000 141 153 162 0
13.860000 14.300000 0.440000 140 152 161 0
14.080000 14.300000 0.440000 142 151 161 0
14.300000 14.300000 0.440000 142 151 161 0
14.520000 14.300000 0.440000 144 152 162 0
14.740000 14.300000 0.440000 144 152 162 0
14.960000 14.300000 0.440000 144 154 161 0
15.180000 14.300000 0.440000 142 152 159 0
15.400000 14.300000 0.440000 142 152 159 0
15.620000 14.300000 0.660000 142 152 159 0
15.840000 14.300000 0.660000 143 152 162 0
16.060000 14.300000 0.660000 142 151 161 0
16.280000 14.300000 1.980000 142 150 160 0
16.500000 14.300000 1.980000 144 152 162 0
16.720000 14.300000 1.980000 143 153 160 0
16.940000 14.300000 1.980000 145 155 162 0
17.160000 14.300000 1.980000 146 154 160 0
17.380000 14.300000 3.520000 146 154 160 0
17.600000 14.300000 3.520000 146 154 160 0
17.820000 14.300000 3.520000 145 153 159 0
18.040000 14.300000 3.520000 147 154 160 0
18.260000 14.300000 3.520000 148 155 161 0
18.480000 14.300000 3.520000 147 155 161 0
18.700000 14.300000 3.520000 147 155 161 0
18.920000 14.300000 5.060000 148 155 161 0
19.140000 14.300000 5.060000 151 158 164 0
19.360000 14.300000 5.060000 150 157 163 0
19.580000 14.300000 5.060000 150 157 163 0
19.800000 14.300000 5.280000 151 158 164 0
20.020000 14.300000 5.280000 150 157 163 0
20.240000 14.300000 5.280000 151 158 163 0
20.460000 14.300000 5.280000 152 159 164 0
20.680000 14.300000 5.060000 152 159 165 0
20.900000 14.300000 6.380000 152 159 165 0
21.120000 14.300000 6.380000 153 160 165 0
21.340000 14.300000 6.380000 152 159 164 0
21.560000 14.300000 7.480000 153 160 165 0
21.780000 14.300000 7.260000 152 159 164 0
22.000000 14.300000 7.260000 153 160 165 0
22.220000 14.300000 8.800000 153 160 165 0
22.440000 14.300000 8.580000 154 161 166 0
22.660000 14.300000 8.580000 154 161 166 0
22.880000 14.300000 9.900000 154 161 166 0
23.100000 14.300000 9.900000 154 161 166 0
23.320000 14.300000 9.900000 157 161 167 0
23.540000 14.300000 10.120000 156 160 166 0
23.760000 14.300000 10.120000 154 161 166 0
23.980000 14.300000 10.120000 154 161 166 0
24.200000 14.300000 10.340000 157 161 167 0
24.420000 14.300000 10.340000 156 160 166 0
24.640000 14.300000 10.340000 156 163 168 0
24.860000 14.300000 10.340000 156 163 168 0
25.080000 14.300000 10.560000 157 161 168 0
25.300000 14.300000 11.880000 158 162 169 0
25.520000 14.300000 12.100000 159 163 170 0
25.740000 14.300000 12.100000 159 163 170 0
25.960000 14.300000 12.100000 158 165 171 0
26.180000 14.300000 12.100000 158 165 171 0
26.400000 14.300000 12.320000 159 163 170 0
26.620000 14.300000 12.320000 161 165 172 0
26.840000 14.300000 12.320000 160 164 171 0
27.060000 14.300000 13.200000 160 164 171 0
27.280000 14.300000 14.080000 159 163 170 0
27.500000 14.300000 15.400000 161 165 172 0
27.720000 14.300000 15.400000 161 165 172 0
27.940000 14.300000 15.400000 161 165 172 0
28.160000 14.300000 15.620000 159 166 172 0
28.380000 14.300000 15.620000 159 166 172 0
28.600000 14.300000 15.620000 162 165 175 0
28.820000 14.300000 15.840000 162 165 175 0
29.040000 14.300000 15.840000 162 165 175 0
29.260000 14.300000 15.840000 162 165 175 0
29.480000 14.300000 17.380000 162 168 177 0
29.700000 14.300000 17.380000 162 168 177 0
29.920000 14.300000 17.600000 161 167 176 0
30.140000 14.300000 17.600000 162 168 177 0
30.360000 14.300000 17.600000 162 168 177 0
30.580000 14.300000 17.820000 162 168 177 0
30.800000 14.300000 17.820000 162 168 179 0
31.020000 14.300000 17.820000 163 169 180 0
31.240000 14.300000 18.920000 164 167 179 0
31.460000 14.300000 21.120000 164 167 179 0
31.680000 14.300000 22.220000 163 169 180 0
31.900000 14.300000 22.440000 163 169 180 0
32.120000 14.300000 22.440000 163 169 180 0
32.340000 14.300000 22.440000 163 169 180 0
32.560000 14.300000 22.660000 163 169 180 0
32.780000 14.300000 22.660000 163 169 180 0
33.000000 14.300000 22.660000 163 169 180 0
33.220000 14.300000 22.880000 163 169 180 0
33.440000 14.300000 24.200000 163 169 180 0
33.660000 14.300000 24.200000 162 168 179 0
33.880000 14.300000 24.420000 161 167 178 0
34.100000 14.300000 25.740000 160 166 177 0
34.320000 14.300000 27.280000 159 166 179 0
34.540000 14.300000 29.920000 161 168 181 0
34.760000 14.300000 32.780000 162 173 190 0
34.980000 14.300000 35.420000 164 175 192 0
35.200000 14.300000 36.960000 165 180 198 0
35.420000 14.300000 38.280000 165 180 198 0
35.640000 14.300000 38.280000 168 177 190 0
35.860000 14.300000 39.820000 166 175 188 0
36.080000 14.300000 39.820000 162 169 182 0
36.300000 14.300000 39.820000 159 166 179 0
36.520000 14.300000 38.280000 158 167 180 0
36.740000 14.300000 38.500000 156 165 178 0
36.960000 14.300000 38.500000 155 164 177 0
37.180000 14.300000 38.500000 156 165 178 0
0.000000 14.520000 25.960000 147 171 168 0
0.220000 14.520000 27.060000 147 171 168 0
0.440000 14.520000 27.940000 150 171 169 0
0.660000 14.520000 29.260000 149 170 168 0
0.880000 14.520000 29.260000 150 171 169 0
1.100000 14.520000 29.260000 149 170 168 0
1.320000 14.520000 29.260000 149 170 170 0
1.540000 14.520000 29.480000 148 169 169 0
1.760000 14.520000 29.480000 148 169 169 0
1.980000 14.520000 31.020000 148 169 169 0
2.200000 14.520000 31.020000 147 168 168 0
2.420000 14.520000 31.020000 146 167 167 0
2.640000 14.520000 31.020000 146 167 167 0
2.860000 14.520000 31.240000 146 167 167 0
3.080000 14.520000 31.240000 149 170 170 0
3.300000 14.520000 31.240000 151 172 172 0
3.520000 14.520000 32.780000 149 168 169 0
3.740000 14.520000 32.780000 148 167 168 0
3.960000 14.520000 32.780000 146 167 167 0
4.180000 14.520000 33.000000 147 168 168 0
4.400000 14.520000 33.000000 148 167 168 0
4.620000 14.520000 33.000000 147 166 167 0
4.840000 14.520000 34.100000 147 168 169 0
5.060000 14.520000 34.980000 148 169 170 0
5.280000 14.520000 36.080000 151 168 171 0
5.500000 14.520000 36.080000 151 168 171 0
5.720000 14.520000 36.080000 151 170 172 0
5.940000 14.520000 36.300000 152 171 173 0
6.160000 14.520000 36.300000 153 172 174 0
6.380000 14.520000 36.300000 153 172 174 0
6.600000 14.520000 36.520000 153 172 174 0
6.820000 14.520000 36.520000 153 172 174 0
7.040000 14.520000 36.520000 154 173 175 0
7.260000 14.520000 38.060000 154 173 175 0
7.480000 14.520000 38.060000 156 174 179 0
7.700000 14.520000 38.060000 157 175 180 0
7.920000 14.520000 38.280000 156 176 180 0
8.140000 14.520000 38.280000 156 176 180 0
8.360000 14.520000 38.280000 153 176 179 0
8.580000 14.520000 38.280000 156 179 182 0
8.800000 14.520000 38.500000 158 175 180 0
9.020000 14.520000 39.820000 157 174 179 0
9.240000 14.520000 39.820000 156 174 179 0
9.460000 14.520000 39.820000 155 173 178 0
9.680000 14.520000 39.820000 156 174 179 0
9.900000 14.520000 40.040000 156 174 179 0
10.120000 14.520000 40.040000 156 174 179 0
10.340000 14.520000 41.140000 156 174 179 0
10.560000 14.520000 41.800000 157 174 179 0
10.780000 14.520000 42.900000 158 175 180 0
11.000000 14.520000 42.900000 157 174 179 0
11.220000 14.520000 31.900000 158 175 180 0
11.440000 14.520000 11.220000 158 175 180 0
11.660000 14.520000 0.220000 158 175 180 0
11.880000 14.520000 0.220000 160 183 186 0
12.100000 14.520000 0.220000 158 181 184 0
12.320000 14.520000 0.220000 160 177 180 0
12.540000 14.520000 0.220000 157 174 177 0
12.760000 14.520000 0.220000 157 171 177 0
12.980000 14.520000 0.220000 148 162 168 0
13.200000 14.520000 0.440000 145 157 164 0
13.420000 14.520000 0.440000 143 155 162 0
13.640000 14.520000 0.440000 142 154 161 0
13.860000 14.520000 0.440000 141 153 160 0
14.080000 14.520000 0.440000 142 152 159 0
14.300000 14.520000 0.440000 144 154 161 0
14.520000 14.520000 0.440000 142 154 161 0
14.740000 14.520000 0.440000 142 154 161 0
14.960000 14.520000 0.660000 143 153 160 0
15.180000 14.520000 0.660000 144 154 161 0
15.400000 14.520000 0.660000 144 154 161 0
15.620000 14.520000 1.980000 143 153 160 0
15.840000 14.520000 1.980000 142 154 161 0
16.060000 14.520000 1.980000 142 154 161 0
16.280000 14.520000 1.980000 143 155 162 0
16.500000 14.520000 1.980000 143 155 162 0
16.720000 14.520000 3.520000 145 155 160 0
16.940000 14.520000 3.520000 145 155 160 0
17.160000 14.520000 3.520000 146 156 161 0
17.380000 14.520000 3.520000 148 158 163 0
17.600000 14.520000 3.520000 148 158 162 0
17.820000 14.520000 3.520000 147 157 161 0
18.040000 14.520000 5.060000 148 158 163 0
18.260000 14.520000 5.060000 147 157 162 0
18.480000 14.520000 5.060000 148 158 162 0
18.700000 14.520000 5.060000 148 158 162 0
18.920000 14.520000 5.060000 149 159 163 0
19.140000 14.520000 5.280000 149 159 163 0
19.360000 14.520000 5.280000 151 160 164 0
19.580000 14.520000 5.280000 150 159 163 0
19.800000 14.520000 5.280000 149 158 162 0
20.020000 14.520000 5.280000 151 160 164 0
20.240000 14.520000 6.600000 152 161 163 0
20.460000 14.520000 6.380000 151 160 162 0
20.680000 14.520000 7.480000 151 160 164 0
20.900000 14.520000 8.580000 151 160 164 0
21.120000 14.520000 8.800000 153 160 165 0
21.340000 14.520000 8.580000 153 160 165 0
21.560000 14.520000 8.580000 152 161 165 0
21.780000 14.520000 9.900000 151 160 164 0
22.000000 14.520000 9.900000 152 161 163 0
22.220000 14.520000 9.900000 152 161 163 0
22.440000 14.520000 10.120000 153 162 166 0
22.660000 14.520000 10.120000 154 163 167 0
22.880000 14.520000 10.120000 155 162 167 0
23.100000 14.520000 10.120000 154 161 166 0
23.320000 14.520000 10.120000 153 162 166 0
23.540000 14.520000 10.120000 154 163 167 0
23.760000 14.520000 10.340000 154 161 166 0
23.980000 14.520000 10.340000 155 162 167 0
24.200000 14.520000 11.660000 154 163 167 0
24.420000 14.520000 11.880000 155 164 168 0
24.640000 14.520000 11.880000 154 161 166 0
24.860000 14.520000 11.880000 156 163 168 0
25.080000 14.520000 11.880000 155 162 167 0
25.300000 14.520000 12.100000 156 163 168 0
25.520000 14.520000 12.100000 156 163 168 0
25.740000 14.520000 12.100000 156 163 168 0
25.960000 14.520000 12.100000 157 164 169 0
26.180000 14.520000 12.100000 158 165 170 0
26.400000 14.520000 12.320000 157 164 169 0
26.620000 14.520000 12.320000 158 165 170 0
26.840000 14.520000 13.420000 158 165 170 0
27.060000 14.520000 14.300000 158 165 170 0
27.280000 14.520000 15.400000 160 164 171 0
27.500000 14.520000 15.400000 161 165 172 0
27.720000 14.520000 15.400000 158 165 171 0
27.940000 14.520000 15.400000 159 166 172 0
28.160000 14.520000 15.620000 159 166 172 0
28.380000 14.520000 15.620000 159 166 172 0
28.600000 14.520000 15.620000 159 166 172 0
28.820000 14.520000 15.840000 160 167 173 0
29.040000 14.520000 15.840000 160 167 173 0
29.260000 14.520000 17.380000 161 168 174 0
29.480000 14.520000 17.380000 161 168 174 0
29.700000 14.520000 17.380000 160 167 173 0
29.920000 14.520000 17.600000 160 167 173 0
30.140000 14.520000 17.600000 161 168 174 0
30.360000 14.520000 17.600000 162 169 175 0
30.580000 14.520000 17.820000 161 168 174 0
30.800000 14.520000 17.820000 162 168 177 0
31.020000 14.520000 17.820000 162 168 177 0
31.240000 14.520000 18.920000 163 170 176 0
31.460000 14.520000 21.120000 163 170 176 0
31.680000 14.520000 22.220000 162 168 177 0
31.900000 14.520000 22.220000 163 169 178 0
32.120000 14.520000 22.440000 163 169 178 0
32.340000 14.520000 22.440000 164 170 179 0
32.560000 14.520000 22.660000 163 169 180 0
32.780000 14.520000 22.660000 164 170 181 0
33.000000 14.520000 22.660000 162 168 177 0
33.220000 14.520000 22.880000 164 170 179 0
33.440000 14.520000 24.200000 162 168 177 0
33.660000 14.520000 24.200000 162 168 177 0
33.880000 14.520000 24.420000 160 168 178 0
34.100000 14.520000 25.740000 159 167 177 0
34.320000 14.520000 27.280000 159 168 180 0
34.540000 14.520000 29.920000 159 168 180 0
34.760000 14.520000 32.780000 162 173 190 0
34.980000 14.520000 35.420000 166 177 194 0
35.200000 14.520000 36.960000 168 181 193 0
35.420000 14.520000 38.280000 170 183 195 0
35.640000 14.520000 38.280000 169 180 193 0
35.860000 14.520000 38.280000 165 176 189 0
36.080000 14.520000 39.820000 164 173 186 0
36.300000 14.520000 39.820000 163 172 185 0
36.520000 14.520000 38.500000 157 166 178 0
36.740000 14.520000 38.500000 156 165 177 0
36.960000 14.520000 38.500000 154 166 177 0
37.180000 14.520000 38.500000 155 167 178 0
0.000000 14.740000 25.960000 150 174 171 0
0.220000 14.740000 27.060000 151 175 172 0
0.440000 14.740000 27.940000 152 173 171 0
0.660000 14.740000 29.260000 152 173 171 0
0.880000 14.740000 29.260000 152 173 171 0
1.100000 14.740000 29.260000 153 174 172 0
1.320000 14.740000 29.260000 152 173 173 0
1.540000 14.740000 29.480000 152 173 173 0
1.760000 14.740000 30.800000 153 174 174 0
1.980000 14.740000 31.020000 154 175 175 0
2.200000 14.740000 31.020000 151 172 172 0
2.420000 14.740000 31.020000 152 173 173 0
2.640000 14.740000 31.020000 151 172 172 0
2.860000 14.740000 31.240000 152 173 173 0
3.080000 14.740000 31.240000 152 173 173 0
3.300000 14.740000 32.780000 152 173 173 0
3.520000 14.740000 32.780000 153 172 173 0
3.740000 14.740000 32.780000 153 172 173 0
3.960000 14.740000 33.000000 151 172 172 0
4.180000 14.740000 33.000000 151 172 172 0
4.400000 14.740000 33.000000 151 170 171 0
4.620000 14.740000 33.000000 151 170 171 0
4.840000 14.740000 34.100000 150 171 172 0
5.060000 14.740000 34.980000 151 172 173 0
5.280000 14.740000 36.080000 154 171 174 0
5.500000 14.740000 36.080000 154 171 174 0
5.720000 14.740000 36.080000 153 172 174 0
5.940000 14.740000 36.300000 154 173 175 0
6.160000 14.740000 36.300000 155 174 176 0
6.380000 14.740000 36.300000 154 173 175 0
6.600000 14.740000 36.520000 156 175 177 0
6.820000 14.740000 36.520000 155 174 176 0
7.040000 14.740000 36.520000 156 175 177 0
7.260000 14.740000 38.060000 156 175 177 0
7.480000 14.740000 38.060000 157 175 180 0
7.700000 14.740000 38.060000 159 177 182 0
7.920000 14.740000 38.280000 157 177 181 0
8.140000 14.740000 38.280000 158 178 182 0
8.360000 14.740000 38.280000 156 179 182 0
8.580000 14.740000 38.280000 157 180 183 0
8.800000 14.740000 38.500000 160 177 182 0
9.020000 14.740000 39.820000 159 176 181 0
9.240000 14.740000 39.820000 158 176 181 0
9.460000 14.740000 39.820000 158 176 181 0
9.680000 14.740000 39.820000 158 176 181 0
9.900000 14.740000 40.040000 157 175 180 0
10.120000 14.740000 40.040000 158 176 181 0
10.340000 14.740000 41.140000 158 176 181 0
10.560000 14.740000 41.800000 159 176 181 0
10.780000 14.740000 42.900000 159 176 181 0
11.000000 14.740000 42.900000 160 177 182 0
11.220000 14.740000 31.900000 160 177 182 0
11.440000 14.740000 11.220000 161 178 183 0
11.660000 14.740000 0.220000 160 177 182 0
11.880000 14.740000 0.220000 164 187 190 0
12.100000 14.740000 0.220000 161 184 187 0
12.320000 14.740000 0.220000 163 180 183 0
12.540000 14.740000 0.220000 158 175 178 0
12.760000 14.740000 0.220000 158 172 178 0
