ply
format ascii 1.0
element vertex 1128
property float x
property float y
property float z
property uchar red
property uchar green
property uchar blue
property uchar alpha
end_header
33.880000 26.180000 22.220000 128 158 127 0
34.100000 26.180000 22.220000 128 158 129 0
34.320000 26.180000 22.440000 129 159 130 0
34.540000 26.180000 22.440000 129 159 130 0
34.760000 26.180000 22.440000 129 159 130 0
34.980000 26.180000 22.440000 127 160 126 0
35.200000 26.180000 22.660000 127 160 126 0
35.420000 26.180000 22.660000 129 159 128 0
35.640000 26.180000 24.200000 130 160 129 0
35.860000 26.180000 24.200000 130 160 129 0
36.080000 26.180000 24.200000 130 160 129 0
36.300000 26.180000 24.200000 130 160 129 0
36.520000 26.180000 24.200000 130 160 129 0
36.740000 26.180000 24.420000 131 161 132 0
36.960000 26.180000 24.420000 131 161 132 0
37.180000 26.180000 24.420000 131 161 132 0
0.000000 26.400000 7.480000 78 70 52 0
0.220000 26.400000 7.260000 79 71 53 0
0.440000 26.400000 7.040000 79 71 53 0
0.660000 26.400000 7.040000 79 71 53 0
0.880000 26.400000 7.040000 80 72 54 0
1.100000 26.400000 7.040000 80 72 56 0
1.320000 26.400000 7.260000 80 72 56 0
1.540000 26.400000 7.040000 79 73 54 0
1.760000 26.400000 5.720000 79 73 54 0
1.980000 26.400000 5.720000 81 73 55 0
2.200000 26.400000 5.940000 82 74 56 0
2.420000 26.400000 5.940000 81 73 55 0
2.640000 26.400000 5.940000 83 75 57 0
2.860000 26.400000 5.720000 83 75 57 0
3.080000 26.400000 5.720000 83 75 57 0
3.300000 26.400000 5.720000 83 77 58 0
3.520000 26.400000 5.720000 83 77 58 0
3.740000 26.400000 5.720000 82 76 59 0
3.960000 26.400000 5.720000 85 79 62 0
4.180000 26.400000 5.720000 87 79 63 0
4.400000 26.400000 5.720000 87 79 63 0
4.620000 26.400000 5.720000 86 80 63 0
4.840000 26.400000 5.720000 88 82 65 0
5.060000 26.400000 5.720000 88 82 65 0
5.280000 26.400000 5.720000 88 82 65 0
5.500000 26.400000 5.720000 88 82 65 0
5.720000 26.400000 4.400000 89 83 66 0
5.940000 26.400000 5.720000 89 83 66 0
6.160000 26.400000 5.720000 90 84 67 0
6.380000 26.400000 4.400000 91 85 68 0
6.600000 26.400000 4.400000 92 86 69 0
6.820000 26.400000 4.400000 93 87 70 0
7.040000 26.400000 4.400000 94 88 71 0
7.260000 26.400000 4.400000 94 90 73 0
7.480000 26.400000 4.400000 95 91 74 0
7.700000 26.400000 4.400000 96 94 77 0
7.920000 26.400000 4.400000 98 96 79 0
8.140000 26.400000 4.400000 98 98 81 0
8.360000 26.400000 2.860000 103 103 86 0
8.580000 26.400000 2.860000 107 108 95 0
8.800000 26.400000 2.860000 114 115 102 0
9.020000 26.400000 2.860000 115 122 109 0
9.240000 26.400000 2.860000 121 128 115 0
9.460000 26.400000 2.860000 128 142 120 0
9.680000 26.400000 2.860000 138 152 130 0
9.900000 26.400000 1.540000 144 164 136 0
10.120000 26.400000 1.540000 149 169 141 0
10.340000 26.400000 1.540000 146 176 143 0
10.560000 26.400000 1.540000 148 178 145 0
10.780000 26.400000 1.540000 147 177 148 0
11.000000 26.400000 1.540000 143 173 144 0
11.220000 26.400000 1.540000 143 171 143 0
11.440000 26.400000 1.540000 138 166 138 0
11.660000 26.400000 1.540000 137 161 134 0
11.880000 26.400000 1.540000 134 158 131 0
12.100000 26.400000 1.540000 134 158 131 0
12.320000 26.400000 1.540000 133 157 130 0
12.540000 26.400000 1.540000 131 156 129 0
12.760000 26.400000 1.540000 128 153 126 0
12.980000 26.400000 1.540000 128 153 126 0
13.200000 26.400000 1.760000 127 152 125 0
13.420000 26.400000 1.760000 128 151 126 0
13.640000 26.400000 1.760000 127 150 125 0
13.860000 26.400000 1.760000 126 149 124 0
14.080000 26.400000 1.760000 124 147 122 0
14.300000 26.400000 1.980000 123 146 121 0
14.520000 26.400000 1.980000 121 144 119 0
14.740000 26.400000 1.980000 120 143 118 0
14.960000 26.400000 1.980000 118 141 116 0
15.180000 26.400000 1.980000 120 140 112 0
15.400000 26.400000 1.980000 119 139 111 0
15.620000 26.400000 2.200000 118 136 109 0
15.840000 26.400000 2.200000 116 134 107 0
16.060000 26.400000 2.200000 115 130 104 0
16.280000 26.400000 2.200000 115 130 104 0
16.500000 26.400000 3.740000 115 126 105 0
16.720000 26.400000 3.740000 114 125 104 0
16.940000 26.400000 3.740000 114 123 99 0
17.160000 26.400000 3.740000 114 123 99 0
17.380000 26.400000 3.960000 114 123 97 0
17.600000 26.400000 3.960000 114 123 97 0
17.820000 26.400000 3.960000 111 126 100 0
18.040000 26.400000 3.960000 114 129 103 0
18.260000 26.400000 3.740000 117 128 106 0
18.480000 26.400000 3.740000 119 130 108 0
18.700000 26.400000 3.740000 116 133 109 0
18.920000 26.400000 3.740000 117 134 110 0
19.140000 26.400000 3.740000 117 136 111 0
19.360000 26.400000 3.740000 120 139 114 0
19.580000 26.400000 5.060000 119 141 113 0
19.800000 26.400000 5.280000 120 142 114 0
20.020000 26.400000 5.280000 120 142 114 0
20.240000 26.400000 5.280000 120 142 114 0
20.460000 26.400000 5.280000 121 143 115 0
20.680000 26.400000 5.280000 121 143 115 0
20.900000 26.400000 5.500000 122 146 117 0
21.120000 26.400000 5.500000 122 146 117 0
21.340000 26.400000 6.600000 123 145 119 0
21.560000 26.400000 7.260000 123 145 119 0
21.780000 26.400000 8.360000 122 148 118 0
22.000000 26.400000 8.360000 122 148 118 0
22.220000 26.400000 8.360000 121 150 117 0
22.440000 26.400000 8.580000 120 149 116 0
22.660000 26.400000 9.900000 123 149 117 0
22.880000 26.400000 9.900000 123 149 117 0
23.100000 26.400000 10.120000 121 149 119 0
23.320000 26.400000 10.120000 121 149 119 0
23.540000 26.400000 10.120000 124 150 120 0
23.760000 26.400000 10.120000 124 150 120 0
23.980000 26.400000 10.340000 122 150 120 0
24.200000 26.400000 10.340000 122 150 120 0
24.420000 26.400000 10.340000 125 151 121 0
24.640000 26.400000 10.340000 126 152 122 0
24.860000 26.400000 10.560000 125 151 121 0
25.080000 26.400000 10.560000 126 152 122 0
25.300000 26.400000 10.560000 124 152 122 0
25.520000 26.400000 10.560000 124 152 122 0
25.740000 26.400000 10.780000 124 154 121 0
25.960000 26.400000 10.780000 123 153 120 0
26.180000 26.400000 12.100000 126 152 122 0
26.400000 26.400000 12.320000 128 154 124 0
26.620000 26.400000 12.320000 124 154 121 0
26.840000 26.400000 12.320000 124 154 121 0
27.060000 26.400000 12.320000 122 155 121 0
27.280000 26.400000 12.100000 122 155 121 0
27.500000 26.400000 14.300000 124 157 123 0
27.720000 26.400000 15.180000 123 156 122 0
27.940000 26.400000 15.400000 126 154 124 0
28.160000 26.400000 15.400000 126 154 124 0
28.380000 26.400000 15.400000 126 156 125 0
28.600000 26.400000 15.400000 125 155 124 0
28.820000 26.400000 15.620000 124 157 125 0
29.040000 26.400000 15.620000 123 156 124 0
29.260000 26.400000 15.620000 127 155 125 0
29.480000 26.400000 15.620000 128 156 126 0
29.700000 26.400000 15.840000 127 155 125 0
29.920000 26.400000 15.840000 128 156 126 0
30.140000 26.400000 15.840000 127 157 126 0
30.360000 26.400000 15.840000 126 156 125 0
30.580000 26.400000 17.380000 127 157 126 0
30.800000 26.400000 17.380000 127 157 126 0
31.020000 26.400000 17.380000 127 157 126 0
31.240000 26.400000 17.600000 127 157 126 0
31.460000 26.400000 17.600000 125 158 124 0
31.680000 26.400000 17.600000 124 157 123 0
31.900000 26.400000 17.600000 127 157 126 0
32.120000 26.400000 17.820000 127 157 126 0
32.340000 26.400000 17.820000 125 158 126 0
32.560000 26.400000 17.820000 126 159 127 0
32.780000 26.400000 19.140000 128 158 127 0
33.000000 26.400000 19.360000 128 158 127 0
33.220000 26.400000 18.920000 126 159 125 0
33.440000 26.400000 21.120000 126 159 125 0
33.660000 26.400000 22.220000 128 158 127 0
33.880000 26.400000 22.220000 128 158 127 0
34.100000 26.400000 22.220000 128 158 129 0
34.320000 26.400000 22.440000 128 158 129 0
34.540000 26.400000 22.440000 128 158 129 0
34.760000 26.400000 22.440000 128 158 129 0
34.980000 26.400000 22.440000 126 159 125 0
35.200000 26.400000 22.660000 126 159 125 0
35.420000 26.400000 22.660000 128 158 127 0
35.640000 26.400000 23.980000 129 159 128 0
35.860000 26.400000 24.200000 129 159 128 0
36.080000 26.400000 24.200000 129 159 128 0
36.300000 26.400000 24.200000 128 158 127 0
36.520000 26.400000 24.200000 130 160 129 0
36.740000 26.400000 24.420000 130 160 131 0
36.960000 26.400000 24.420000 130 160 131 0
37.180000 26.400000 24.420000 130 160 131 0
0.000000 26.620000 7.480000 77 69 51 0
0.220000 26.620000 7.260000 78 70 52 0
0.440000 26.620000 7.260000 77 69 51 0
0.660000 26.620000 7.260000 78 70 52 0
0.880000 26.620000 7.040000 79 71 53 0
1.100000 26.620000 7.040000 78 70 52 0
1.320000 26.620000 7.260000 79 71 53 0
1.540000 26.620000 7.260000 79 71 55 0
1.760000 26.620000 5.720000 79 71 55 0
1.980000 26.620000 5.720000 80 72 54 0
2.200000 26.620000 5.720000 80 72 54 0
2.420000 26.620000 5.720000 80 72 54 0
2.640000 26.620000 5.720000 80 72 54 0
2.860000 26.620000 5.720000 80 74 55 0
3.080000 26.620000 5.720000 80 74 55 0
3.300000 26.620000 5.720000 83 75 57 0
3.520000 26.620000 5.720000 83 75 57 0
3.740000 26.620000 5.720000 83 75 57 0
3.960000 26.620000 5.720000 85 77 59 0
4.180000 26.620000 5.720000 85 77 61 0
4.400000 26.620000 5.720000 86 78 62 0
4.620000 26.620000 5.720000 86 80 63 0
4.840000 26.620000 5.720000 87 81 64 0
5.060000 26.620000 5.720000 87 81 62 0
5.280000 26.620000 4.400000 88 82 63 0
5.500000 26.620000 4.400000 87 81 64 0
5.720000 26.620000 5.720000 89 83 66 0
5.940000 26.620000 5.720000 89 83 66 0
6.160000 26.620000 5.720000 89 83 66 0
6.380000 26.620000 4.400000 90 84 67 0
6.600000 26.620000 4.400000 91 85 68 0
6.820000 26.620000 4.400000 92 86 69 0
7.040000 26.620000 4.400000 93 87 70 0
7.260000 26.620000 4.400000 93 89 73 0
7.480000 26.620000 4.400000 93 89 73 0
7.700000 26.620000 4.400000 94 92 75 0
7.920000 26.620000 4.400000 97 95 78 0
8.140000 26.620000 4.400000 97 97 82 0
8.360000 26.620000 2.860000 102 102 87 0
8.580000 26.620000 2.860000 107 108 95 0
8.800000 26.620000 2.860000 113 114 101 0
9.020000 26.620000 2.860000 116 123 110 0
9.240000 26.620000 2.860000 124 131 118 0
9.460000 26.620000 2.860000 126 143 122 0
9.680000 26.620000 2.860000 134 151 130 0
9.900000 26.620000 1.540000 141 165 136 0
10.120000 26.620000 1.540000 146 170 141 0
10.340000 26.620000 1.540000 149 174 147 0
10.560000 26.620000 1.540000 151 176 149 0
10.780000 26.620000 1.540000 145 178 146 0
11.000000 26.620000 1.540000 142 175 143 0
11.220000 26.620000 1.540000 141 171 142 0
11.440000 26.620000 1.540000 135 165 136 0
11.660000 26.620000 1.540000 137 160 135 0
11.880000 26.620000 1.540000 136 159 134 0
12.100000 26.620000 1.540000 134 159 132 0
12.320000 26.620000 1.540000 132 157 130 0
12.540000 26.620000 1.540000 129 157 130 0
12.760000 26.620000 1.540000 129 157 130 0
12.980000 26.620000 1.540000 130 153 130 0
13.200000 26.620000 1.760000 128 151 128 0
13.420000 26.620000 1.760000 128 151 128 0
13.640000 26.620000 1.760000 126 149 126 0
13.860000 26.620000 1.760000 126 149 124 0
14.080000 26.620000 1.760000 124 147 122 0
14.300000 26.620000 1.980000 123 144 122 0
14.520000 26.620000 1.980000 122 143 121 0
14.740000 26.620000 1.980000 120 143 118 0
14.960000 26.620000 1.980000 120 143 118 0
15.180000 26.620000 1.980000 122 142 114 0
15.400000 26.620000 1.980000 120 140 112 0
15.620000 26.620000 2.200000 120 137 113 0
15.840000 26.620000 2.200000 119 136 112 0
16.060000 26.620000 2.200000 117 134 110 0
16.280000 26.620000 2.200000 114 131 107 0
16.500000 26.620000 3.740000 114 132 105 0
16.720000 26.620000 3.740000 114 132 105 0
16.940000 26.620000 3.740000 116 131 105 0
17.160000 26.620000 3.960000 114 129 103 0
17.380000 26.620000 3.960000 110 130 100 0
17.600000 26.620000 3.960000 110 130 100 0
17.820000 26.620000 3.960000 114 129 105 0
18.040000 26.620000 3.960000 116 131 107 0
18.260000 26.620000 3.960000 114 132 105 0
18.480000 26.620000 3.960000 115 133 106 0
18.700000 26.620000 3.960000 117 135 108 0
18.920000 26.620000 3.740000 117 135 108 0
19.140000 26.620000 5.280000 118 138 110 0
19.360000 26.620000 5.060000 120 140 112 0
19.580000 26.620000 5.060000 122 140 113 0
19.800000 26.620000 5.060000 123 141 114 0
20.020000 26.620000 5.060000 122 142 112 0
20.240000 26.620000 5.280000 123 143 113 0
20.460000 26.620000 5.280000 124 144 116 0
20.680000 26.620000 5.280000 123 143 115 0
20.900000 26.620000 5.500000 123 143 115 0
21.120000 26.620000 5.500000 124 144 116 0
21.340000 26.620000 6.600000 124 142 115 0
21.560000 26.620000 8.580000 126 144 117 0
21.780000 26.620000 9.680000 124 144 114 0
22.000000 26.620000 9.680000 125 145 115 0
22.220000 26.620000 9.900000 124 146 118 0
22.440000 26.620000 9.900000 123 145 117 0
22.660000 26.620000 9.900000 123 146 115 0
22.880000 26.620000 9.900000 124 147 116 0
23.100000 26.620000 10.120000 124 147 116 0
23.320000 26.620000 10.120000 124 147 116 0
23.540000 26.620000 10.120000 128 146 117 0
23.760000 26.620000 10.120000 128 146 117 0
23.980000 26.620000 10.340000 125 147 119 0
24.200000 26.620000 10.340000 125 147 119 0
24.420000 26.620000 10.340000 125 149 118 0
24.640000 26.620000 10.340000 125 149 118 0
24.860000 26.620000 10.560000 126 150 119 0
25.080000 26.620000 10.560000 126 150 119 0
25.300000 26.620000 10.560000 125 151 119 0
25.520000 26.620000 10.560000 126 152 120 0
25.740000 26.620000 12.100000 126 152 122 0
25.960000 26.620000 12.100000 124 150 120 0
26.180000 26.620000 12.100000 125 151 119 0
26.400000 26.620000 12.320000 126 152 120 0
26.620000 26.620000 12.320000 123 152 119 0
26.840000 26.620000 12.320000 124 153 120 0
27.060000 26.620000 12.320000 126 152 122 0
27.280000 26.620000 13.420000 125 151 121 0
27.500000 26.620000 14.300000 126 152 122 0
27.720000 26.620000 15.180000 127 153 123 0
27.940000 26.620000 15.400000 126 155 122 0
28.160000 26.620000 15.400000 126 155 122 0
28.380000 26.620000 15.400000 124 154 121 0
28.600000 26.620000 15.400000 124 154 121 0
28.820000 26.620000 15.620000 125 155 122 0
29.040000 26.620000 15.620000 124 154 121 0
29.260000 26.620000 15.620000 126 154 124 0
29.480000 26.620000 15.620000 127 155 125 0
29.700000 26.620000 15.840000 127 156 123 0
29.920000 26.620000 15.840000 127 156 123 0
30.140000 26.620000 17.160000 126 156 125 0
30.360000 26.620000 17.380000 126 156 125 0
30.580000 26.620000 17.380000 126 156 123 0
30.800000 26.620000 17.380000 127 157 124 0
31.020000 26.620000 17.380000 125 155 122 0
31.240000 26.620000 17.600000 126 156 123 0
31.460000 26.620000 17.600000 125 158 124 0
31.680000 26.620000 17.600000 124 157 123 0
31.900000 26.620000 17.600000 127 157 124 0
32.120000 26.620000 17.820000 127 157 124 0
32.340000 26.620000 17.820000 127 157 126 0
32.560000 26.620000 19.140000 128 158 127 0
32.780000 26.620000 19.140000 125 158 124 0
33.000000 26.620000 19.140000 126 159 125 0
33.220000 26.620000 20.240000 128 158 125 0
33.440000 26.620000 21.120000 128 158 125 0
33.660000 26.620000 22.220000 126 159 123 0
33.880000 26.620000 22.220000 126 159 123 0
34.100000 26.620000 22.220000 127 157 126 0
34.320000 26.620000 22.440000 127 157 126 0
34.540000 26.620000 22.440000 128 158 125 0
34.760000 26.620000 22.440000 127 157 124 0
34.980000 26.620000 22.440000 128 158 125 0
35.200000 26.620000 22.660000 128 158 125 0
35.420000 26.620000 23.980000 127 160 126 0
35.640000 26.620000 23.980000 127 160 126 0
35.860000 26.620000 24.200000 130 160 129 0
36.080000 26.620000 24.200000 129 159 128 0
36.300000 26.620000 24.200000 129 159 126 0
36.520000 26.620000 24.200000 130 160 127 0
36.740000 26.620000 24.420000 130 160 129 0
36.960000 26.620000 24.420000 129 159 128 0
37.180000 26.620000 24.420000 130 160 127 0
0.000000 26.840000 7.260000 77 69 51 0
0.220000 26.840000 7.260000 76 68 50 0
0.440000 26.840000 7.260000 77 69 51 0
0.660000 26.840000 7.040000 76 68 50 0
0.880000 26.840000 7.040000 76 68 50 0
1.100000 26.840000 7.040000 76 68 50 0
1.320000 26.840000 7.040000 77 69 51 0
1.540000 26.840000 7.260000 78 70 54 0
1.760000 26.840000 5.720000 77 69 53 0
1.980000 26.840000 5.720000 78 70 52 0
2.200000 26.840000 5.720000 79 71 53 0
2.420000 26.840000 5.720000 80 72 54 0
2.640000 26.840000 5.720000 79 71 53 0
2.860000 26.840000 5.720000 78 72 53 0
3.080000 26.840000 5.720000 80 74 55 0
3.300000 26.840000 5.720000 81 73 55 0
3.520000 26.840000 5.720000 82 74 56 0
3.740000 26.840000 5.720000 83 75 57 0
3.960000 26.840000 5.720000 83 75 57 0
4.180000 26.840000 5.720000 85 77 61 0
4.400000 26.840000 5.720000 85 77 61 0
4.620000 26.840000 5.720000 85 79 62 0
4.840000 26.840000 5.720000 84 78 61 0
5.060000 26.840000 5.720000 86 80 61 0
5.280000 26.840000 4.400000 87 81 62 0
5.500000 26.840000 4.400000 87 81 64 0
5.720000 26.840000 4.400000 88 82 65 0
5.940000 26.840000 4.400000 88 82 65 0
6.160000 26.840000 4.400000 89 83 66 0
6.380000 26.840000 4.400000 90 84 67 0
6.600000 26.840000 4.400000 90 84 67 0
6.820000 26.840000 4.400000 91 85 68 0
7.040000 26.840000 4.400000 92 86 69 0
7.260000 26.840000 4.400000 92 88 72 0
7.480000 26.840000 4.400000 93 89 73 0
7.700000 26.840000 4.400000 94 92 75 0
7.920000 26.840000 4.400000 97 95 78 0
8.140000 26.840000 4.400000 98 98 83 0
8.360000 26.840000 2.860000 101 101 86 0
8.580000 26.840000 2.860000 106 107 94 0
8.800000 26.840000 2.860000 114 115 102 0
9.020000 26.840000 2.860000 116 123 110 0
9.240000 26.840000 2.860000 124 131 118 0
9.460000 26.840000 2.860000 126 143 122 0
9.680000 26.840000 2.860000 134 151 130 0
9.900000 26.840000 1.540000 141 165 136 0
10.120000 26.840000 1.540000 149 173 144 0
10.340000 26.840000 1.540000 151 176 149 0
10.560000 26.840000 1.540000 151 176 149 0
10.780000 26.840000 1.540000 146 179 147 0
11.000000 26.840000 1.540000 143 176 144 0
11.220000 26.840000 1.540000 141 171 142 0
11.440000 26.840000 1.540000 137 167 138 0
11.660000 26.840000 1.540000 138 161 136 0
11.880000 26.840000 1.540000 137 160 135 0
12.100000 26.840000 1.540000 135 160 133 0
12.320000 26.840000 1.540000 132 157 130 0
12.540000 26.840000 1.540000 129 157 130 0
12.760000 26.840000 1.540000 128 156 129 0
12.980000 26.840000 1.540000 130 153 130 0
13.200000 26.840000 1.760000 129 152 129 0
13.420000 26.840000 1.760000 127 150 127 0
13.640000 26.840000 1.760000 126 149 126 0
13.860000 26.840000 1.760000 125 148 123 0
14.080000 26.840000 1.760000 125 148 123 0
14.300000 26.840000 1.980000 124 145 123 0
14.520000 26.840000 1.980000 123 144 122 0
14.740000 26.840000 1.980000 122 145 120 0
14.960000 26.840000 1.980000 122 145 120 0
15.180000 26.840000 1.980000 122 142 114 0
15.400000 26.840000 2.200000 122 142 114 0
15.620000 26.840000 2.200000 122 139 115 0
15.840000 26.840000 2.200000 122 139 115 0
16.060000 26.840000 2.200000 120 137 113 0
16.280000 26.840000 3.740000 117 134 110 0
16.500000 26.840000 3.740000 117 135 108 0
16.720000 26.840000 3.740000 116 134 107 0
16.940000 26.840000 3.740000 120 135 109 0
17.160000 26.840000 3.960000 120 135 109 0
17.380000 26.840000 3.960000 113 133 103 0
17.600000 26.840000 3.960000 113 133 103 0
17.820000 26.840000 3.960000 117 132 108 0
18.040000 26.840000 3.960000 118 133 109 0
18.260000 26.840000 3.960000 117 135 108 0
18.480000 26.840000 5.280000 117 135 108 0
18.700000 26.840000 5.060000 118 136 109 0
18.920000 26.840000 5.060000 120 138 111 0
19.140000 26.840000 5.060000 121 141 113 0
19.360000 26.840000 6.380000 122 142 114 0
19.580000 26.840000 6.160000 123 141 114 0
19.800000 26.840000 6.160000 125 143 116 0
20.020000 26.840000 6.380000 124 144 114 0
20.240000 26.840000 6.380000 123 143 113 0
20.460000 26.840000 6.600000 123 143 115 0
20.680000 26.840000 6.600000 124 144 116 0
20.900000 26.840000 6.820000 123 143 115 0
21.120000 26.840000 5.500000 123 143 115 0
21.340000 26.840000 6.600000 125 143 116 0
21.560000 26.840000 7.480000 125 143 116 0
21.780000 26.840000 8.580000 124 144 114 0
22.000000 26.840000 8.580000 124 144 114 0
22.220000 26.840000 10.120000 123 145 117 0
22.440000 26.840000 9.900000 123 145 117 0
22.660000 26.840000 9.900000 123 146 115 0
22.880000 26.840000 9.900000 123 146 115 0
23.100000 26.840000 9.900000 124 147 116 0
23.320000 26.840000 10.120000 124 147 116 0
23.540000 26.840000 10.120000 127 145 116 0
23.760000 26.840000 11.440000 127 145 116 0
23.980000 26.840000 11.660000 124 146 118 0
24.200000 26.840000 11.660000 124 146 118 0
24.420000 26.840000 11.660000 123 147 116 0
24.640000 26.840000 11.880000 124 148 117 0
24.860000 26.840000 11.880000 125 149 118 0
25.080000 26.840000 11.880000 125 149 118 0
25.300000 26.840000 11.880000 124 150 118 0
25.520000 26.840000 12.100000 124 150 118 0
25.740000 26.840000 12.100000 124 150 120 0
25.960000 26.840000 12.100000 124 150 120 0
26.180000 26.840000 12.100000 125 151 119 0
26.400000 26.840000 12.320000 124 150 118 0
26.620000 26.840000 12.320000 122 151 118 0
26.840000 26.840000 12.320000 122 151 118 0
27.060000 26.840000 12.320000 124 150 120 0
27.280000 26.840000 13.420000 125 151 121 0
27.500000 26.840000 14.300000 126 152 122 0
27.720000 26.840000 15.180000 127 153 123 0
27.940000 26.840000 15.400000 124 153 120 0
28.160000 26.840000 15.400000 125 154 121 0
28.380000 26.840000 15.400000 124 154 121 0
28.600000 26.840000 15.400000 124 154 121 0
28.820000 26.840000 15.620000 124 154 121 0
29.040000 26.840000 15.620000 124 154 121 0
29.260000 26.840000 15.620000 125 153 123 0
29.480000 26.840000 17.160000 125 153 123 0
29.700000 26.840000 17.160000 125 154 121 0
29.920000 26.840000 17.160000 126 155 122 0
30.140000 26.840000 17.160000 125 155 124 0
30.360000 26.840000 17.380000 125 155 124 0
30.580000 26.840000 17.380000 125 155 122 0
30.800000 26.840000 17.380000 125 155 122 0
31.020000 26.840000 17.380000 125 155 122 0
31.240000 26.840000 17.600000 125 155 122 0
31.460000 26.840000 17.600000 123 156 122 0
31.680000 26.840000 17.600000 124 157 123 0
31.900000 26.840000 17.600000 124 154 121 0
32.120000 26.840000 17.820000 125 155 122 0
32.340000 26.840000 19.140000 126 156 125 0
32.560000 26.840000 19.140000 126 156 125 0
32.780000 26.840000 19.140000 123 156 122 0
33.000000 26.840000 19.140000 125 158 124 0
33.220000 26.840000 21.340000 127 157 124 0
33.440000 26.840000 22.220000 127 157 124 0
33.660000 26.840000 22.220000 125 158 122 0
33.880000 26.840000 22.220000 124 157 121 0
34.100000 26.840000 22.220000 127 157 126 0
34.320000 26.840000 22.440000 127 157 126 0
34.540000 26.840000 22.440000 127 157 124 0
34.760000 26.840000 22.440000 127 157 124 0
34.980000 26.840000 23.980000 127 157 124 0
35.200000 26.840000 23.980000 128 158 125 0
35.420000 26.840000 23.980000 126 159 125 0
35.640000 26.840000 23.980000 126 159 125 0
35.860000 26.840000 24.200000 129 159 128 0
36.080000 26.840000 24.200000 128 158 127 0
36.300000 26.840000 24.200000 128 158 125 0
36.520000 26.840000 24.200000 129 159 126 0
36.740000 26.840000 24.420000 129 159 128 0
36.960000 26.840000 24.420000 129 159 128 0
37.180000 26.840000 24.420000 129 159 126 0
0.000000 27.060000 7.040000 73 67 50 0
0.220000 27.060000 7.040000 75 67 51 0
0.440000 27.060000 7.040000 74 66 50 0
0.660000 27.060000 7.040000 75 67 49 0
0.880000 27.060000 7.040000 76 68 50 0
1.100000 27.060000 5.720000 75 67 49 0
1.320000 27.060000 5.720000 76 68 50 0
1.540000 27.060000 7.040000 76 68 52 0
1.760000 27.060000 5.720000 76 68 52 0
1.980000 27.060000 5.720000 76 68 52 0
2.200000 27.060000 5.720000 78 70 54 0
2.420000 27.060000 5.720000 77 69 53 0
2.640000 27.060000 5.720000 78 70 54 0
2.860000 27.060000 5.720000 79 71 53 0
3.080000 27.060000 5.720000 79 71 53 0
3.300000 27.060000 5.720000 80 72 56 0
3.520000 27.060000 5.720000 81 73 57 0
3.740000 27.060000 5.720000 82 74 58 0
3.960000 27.060000 5.720000 82 74 58 0
4.180000 27.060000 5.720000 82 74 58 0
4.400000 27.060000 5.720000 83 75 59 0
4.620000 27.060000 5.720000 84 78 61 0
4.840000 27.060000 5.720000 84 78 61 0
5.060000 27.060000 5.720000 85 79 62 0
5.280000 27.060000 4.180000 86 80 63 0
5.500000 27.060000 4.180000 87 79 63 0
5.720000 27.060000 4.400000 89 81 65 0
5.940000 27.060000 4.400000 89 83 66 0
6.160000 27.060000 4.400000 88 82 65 0
6.380000 27.060000 4.400000 89 83 66 0
6.600000 27.060000 4.400000 90 84 67 0
6.820000 27.060000 4.400000 91 85 68 0
7.040000 27.060000 4.400000 92 86 69 0
7.260000 27.060000 4.400000 91 87 70 0
7.480000 27.060000 4.400000 93 89 72 0
7.700000 27.060000 4.400000 93 91 74 0
7.920000 27.060000 4.400000 96 94 77 0
8.140000 27.060000 2.860000 100 97 83 0
8.360000 27.060000 2.860000 104 101 87 0
8.580000 27.060000 2.860000 106 107 96 0
8.800000 27.060000 2.860000 111 112 101 0
9.020000 27.060000 2.860000 116 123 110 0
9.240000 27.060000 2.860000 125 132 119 0
9.460000 27.060000 2.860000 126 143 122 0
9.680000 27.060000 2.860000 135 152 131 0
9.900000 27.060000 1.540000 141 163 138 0
10.120000 27.060000 1.540000 149 171 146 0
10.340000 27.060000 1.540000 150 178 150 0
10.560000 27.060000 1.540000 149 177 149 0
10.780000 27.060000 1.540000 146 178 149 0
11.000000 27.060000 1.540000 144 176 147 0
11.220000 27.060000 1.540000 142 172 143 0
11.440000 27.060000 1.540000 137 167 138 0
11.660000 27.060000 1.540000 139 163 136 0
11.880000 27.060000 1.540000 137 161 134 0
12.100000 27.060000 1.540000 136 160 131 0
12.320000 27.060000 1.540000 134 158 129 0
12.540000 27.060000 1.540000 130 156 126 0
12.760000 27.060000 1.540000 128 154 124 0
12.980000 27.060000 1.540000 131 153 127 0
13.200000 27.060000 1.760000 129 151 125 0
13.420000 27.060000 1.760000 126 148 122 0
13.640000 27.060000 1.760000 126 148 122 0
13.860000 27.060000 1.760000 124 148 119 0
14.080000 27.060000 1.760000 125 149 120 0
14.300000 27.060000 1.980000 125 149 122 0
14.520000 27.060000 1.980000 124 148 121 0
14.740000 27.060000 1.980000 123 147 120 0
14.960000 27.060000 1.980000 122 146 119 0
15.180000 27.060000 1.980000 122 144 119 0
15.400000 27.060000 2.200000 122 144 119 0
15.620000 27.060000 2.200000 122 144 118 0
15.840000 27.060000 2.200000 122 144 118 0
16.060000 27.060000 3.740000 120 142 114 0
16.280000 27.060000 3.740000 119 141 113 0
16.500000 27.060000 3.740000 116 140 111 0
16.720000 27.060000 3.740000 116 140 111 0
16.940000 27.060000 3.740000 117 141 112 0
17.160000 27.060000 3.960000 115 139 110 0
17.380000 27.060000 3.960000 115 138 107 0
17.600000 27.060000 3.960000 115 138 107 0
17.820000 27.060000 4.180000 114 138 109 0
18.040000 27.060000 4.180000 115 139 110 0
18.260000 27.060000 5.280000 114 138 107 0
18.480000 27.060000 6.160000 115 139 108 0
18.700000 27.060000 5.940000 116 138 110 0
18.920000 27.060000 5.940000 118 140 112 0
19.140000 27.060000 7.480000 121 144 113 0
19.360000 27.060000 7.480000 122 145 114 0
19.580000 27.060000 7.480000 122 146 115 0
19.800000 27.060000 7.480000 123 147 116 0
20.020000 27.060000 7.480000 122 146 117 0
20.240000 27.060000 7.480000 124 148 119 0
20.460000 27.060000 7.480000 123 146 115 0
20.680000 27.060000 7.700000 121 144 113 0
20.900000 27.060000 6.600000 122 145 114 0
21.120000 27.060000 6.600000 122 145 114 0
21.340000 27.060000 6.600000 121 145 114 0
21.560000 27.060000 7.920000 121 145 114 0
21.780000 27.060000 7.920000 121 145 114 0
22.000000 27.060000 7.920000 122 146 115 0
22.220000 27.060000 9.020000 122 145 114 0
22.440000 27.060000 10.120000 123 146 115 0
22.660000 27.060000 10.120000 121 147 115 0
22.880000 27.060000 10.120000 121 147 115 0
23.100000 27.060000 11.440000 121 147 115 0
23.320000 27.060000 11.220000 121 147 115 0
23.540000 27.060000 11.440000 123 147 116 0
23.760000 27.060000 11.440000 122 146 115 0
23.980000 27.060000 11.440000 123 147 116 0
24.200000 27.060000 11.440000 123 147 116 0
24.420000 27.060000 11.660000 122 148 116 0
24.640000 27.060000 11.660000 123 149 117 0
24.860000 27.060000 11.660000 123 149 117 0
25.080000 27.060000 11.880000 125 151 119 0
25.300000 27.060000 11.880000 123 149 119 0
25.520000 27.060000 11.880000 123 149 119 0
25.740000 27.060000 12.100000 124 150 118 0
25.960000 27.060000 12.100000 123 149 117 0
26.180000 27.060000 12.100000 122 151 118 0
26.400000 27.060000 12.320000 122 151 118 0
26.620000 27.060000 12.320000 121 149 119 0
26.840000 27.060000 12.320000 121 149 119 0
27.060000 27.060000 12.320000 124 150 120 0
27.280000 27.060000 13.640000 123 149 119 0
27.500000 27.060000 14.300000 122 151 118 0
27.720000 27.060000 15.400000 123 152 119 0
27.940000 27.060000 16.720000 123 153 120 0
28.160000 27.060000 16.720000 122 152 119 0
28.380000 27.060000 16.720000 123 152 119 0
28.600000 27.060000 16.940000 124 153 120 0
28.820000 27.060000 16.940000 125 151 121 0
29.040000 27.060000 16.940000 127 153 123 0
29.260000 27.060000 16.940000 124 152 122 0
29.480000 27.060000 16.940000 124 152 122 0
29.700000 27.060000 17.160000 123 153 120 0
29.920000 27.060000 17.160000 124 154 121 0
30.140000 27.060000 17.160000 123 153 122 0
30.360000 27.060000 17.160000 122 152 121 0
30.580000 27.060000 17.380000 124 152 122 0
30.800000 27.060000 17.380000 124 152 122 0
31.020000 27.060000 17.380000 123 153 120 0
31.240000 27.060000 17.600000 123 153 120 0
31.460000 27.060000 17.600000 124 154 121 0
31.680000 27.060000 17.600000 124 154 121 0
31.900000 27.060000 19.140000 124 154 121 0
32.120000 27.060000 19.140000 124 154 121 0
32.340000 27.060000 19.140000 125 155 124 0
32.560000 27.060000 19.140000 126 156 125 0
32.780000 27.060000 19.360000 125 155 122 0
33.000000 27.060000 20.240000 125 155 122 0
33.220000 27.060000 21.120000 122 155 121 0
33.440000 27.060000 22.220000 123 156 122 0
33.660000 27.060000 22.220000 126 156 123 0
33.880000 27.060000 22.220000 126 156 123 0
34.100000 27.060000 22.220000 124 154 123 0
34.320000 27.060000 22.440000 125 155 124 0
34.540000 27.060000 22.440000 124 157 123 0
34.760000 27.060000 23.760000 124 157 123 0
34.980000 27.060000 23.980000 126 156 123 0
35.200000 27.060000 23.980000 127 157 124 0
35.420000 27.060000 23.980000 127 157 124 0
35.640000 27.060000 23.980000 127 157 124 0
35.860000 27.060000 24.200000 127 157 124 0
36.080000 27.060000 24.200000 127 157 124 0
36.300000 27.060000 24.200000 127 157 124 0
36.520000 27.060000 24.200000 127 157 124 0
36.740000 27.060000 24.420000 127 157 124 0
36.960000 27.060000 25.740000 128 158 125 0
37.180000 27.060000 25.740000 129 159 126 0
0.000000 27.280000 7.260000 72 66 49 0
0.220000 27.280000 7.260000 74 66 50 0
0.440000 27.280000 7.040000 74 66 50 0
0.660000 27.280000 7.040000 74 66 48 0
0.880000 27.280000 5.940000 75 67 49 0
1.100000 27.280000 5.940000 75 67 49 0
1.320000 27.280000 7.260000 75 67 49 0
1.540000 27.280000 7.040000 75 67 51 0
1.760000 27.280000 7.040000 76 68 52 0
1.980000 27.280000 5.720000 76 68 52 0
2.200000 27.280000 5.720000 77 69 53 0
2.420000 27.280000 5.720000 77 69 53 0
2.640000 27.280000 5.720000 77 69 53 0
2.860000 27.280000 5.720000 79 71 53 0
3.080000 27.280000 5.720000 78 70 52 0
3.300000 27.280000 5.720000 79 71 55 0
3.520000 27.280000 5.720000 79 71 55 0
3.740000 27.280000 5.720000 80 72 56 0
3.960000 27.280000 5.720000 80 72 56 0
4.180000 27.280000 5.720000 81 73 57 0
4.400000 27.280000 5.720000 82 74 58 0
4.620000 27.280000 5.720000 83 77 60 0
4.840000 27.280000 5.720000 83 77 60 0
5.060000 27.280000 5.720000 84 78 61 0
5.280000 27.280000 5.720000 84 78 61 0
5.500000 27.280000 4.400000 87 79 63 0
5.720000 27.280000 4.400000 87 79 63 0
5.940000 27.280000 4.400000 87 81 64 0
6.160000 27.280000 4.400000 88 82 65 0
6.380000 27.280000 4.400000 88 82 65 0
6.600000 27.280000 4.400000 90 84 67 0
6.820000 27.280000 4.400000 90 84 67 0
7.040000 27.280000 4.400000 91 85 68 0
7.260000 27.280000 4.400000 91 87 70 0
7.480000 27.280000 4.400000 93 89 72 0
7.700000 27.280000 4.400000 94 92 75 0
7.920000 27.280000 4.400000 96 94 77 0
8.140000 27.280000 2.860000 101 98 84 0
8.360000 27.280000 2.860000 103 100 86 0
8.580000 27.280000 2.860000 105 106 95 0
8.800000 27.280000 2.860000 112 113 102 0
9.020000 27.280000 2.860000 116 123 110 0
9.240000 27.280000 2.860000 122 129 116 0
9.460000 27.280000 2.860000 126 143 122 0
9.680000 27.280000 2.860000 134 151 130 0
9.900000 27.280000 1.540000 140 162 137 0
10.120000 27.280000 1.540000 147 169 144 0
10.340000 27.280000 1.540000 149 177 149 0
10.560000 27.280000 1.540000 150 178 150 0
10.780000 27.280000 1.540000 146 178 149 0
11.000000 27.280000 1.540000 145 177 148 0
11.220000 27.280000 1.540000 143 173 144 0
11.440000 27.280000 1.540000 140 170 141 0
11.660000 27.280000 1.540000 139 163 136 0
11.880000 27.280000 1.540000 138 162 135 0
12.100000 27.280000 1.540000 136 160 131 0
12.320000 27.280000 1.540000 134 158 129 0
12.540000 27.280000 1.540000 132 158 128 0
12.760000 27.280000 1.540000 129 155 125 0
12.980000 27.280000 1.540000 131 153 127 0
13.200000 27.280000 1.760000 130 152 126 0
13.420000 27.280000 1.760000 128 150 124 0
13.640000 27.280000 1.760000 127 149 123 0
13.860000 27.280000 1.760000 125 149 120 0
14.080000 27.280000 1.760000 125 149 120 0
14.300000 27.280000 1.980000 125 149 122 0
14.520000 27.280000 1.980000 125 149 122 0
14.740000 27.280000 1.980000 125 149 122 0
14.960000 27.280000 1.980000 124 148 121 0
15.180000 27.280000 1.980000 125 147 122 0
15.400000 27.280000 2.200000 125 147 122 0
15.620000 27.280000 2.200000 125 147 121 0
15.840000 27.280000 2.200000 124 146 120 0
16.060000 27.280000 3.740000 124 146 118 0
16.280000 27.280000 3.740000 122 144 116 0
16.500000 27.280000 3.740000 119 143 114 0
16.720000 27.280000 3.740000 118 142 113 0
16.940000 27.280000 3.740000 119 143 114 0
17.160000 27.280000 3.960000 119 143 114 0
17.380000 27.280000 3.960000 120 143 112 0
17.600000 27.280000 3.960000 118 141 110 0
17.820000 27.280000 4.180000 116 140 111 0
18.040000 27.280000 3.960000 117 141 112 0
18.260000 27.280000 5.060000 120 144 113 0
18.480000 27.280000 7.260000 122 146 115 0
18.700000 27.280000 7.040000 119 141 113 0
18.920000 27.280000 7.040000 122 144 116 0
19.140000 27.280000 7.040000 123 146 115 0
19.360000 27.280000 7.260000 123 146 115 0
19.580000 27.280000 7.260000 122 146 115 0
19.800000 27.280000 7.260000 123 147 116 0
20.020000 27.280000 7.260000 124 148 119 0
20.240000 27.280000 7.260000 125 149 120 0
20.460000 27.280000 8.800000 126 149 118 0
20.680000 27.280000 8.800000 124 147 116 0
20.900000 27.280000 7.700000 123 146 115 0
21.120000 27.280000 7.700000 123 146 115 0
21.340000 27.280000 7.920000 121 145 114 0
21.560000 27.280000 7.920000 122 146 115 0
21.780000 27.280000 7.920000 123 147 116 0
22.000000 27.280000 7.920000 123 147 116 0
22.220000 27.280000 9.240000 124 147 116 0
22.440000 27.280000 9.240000 124 147 116 0
22.660000 27.280000 9.240000 122 148 116 0
22.880000 27.280000 10.560000 121 147 115 0
23.100000 27.280000 10.120000 123 149 117 0
23.320000 27.280000 11.440000 122 148 116 0
23.540000 27.280000 11.440000 124 148 117 0
23.760000 27.280000 12.760000 123 147 116 0
23.980000 27.280000 12.540000 125 149 118 0
24.200000 27.280000 12.760000 124 148 117 0
24.420000 27.280000 12.760000 123 149 117 0
24.640000 27.280000 12.760000 124 150 118 0
24.860000 27.280000 12.760000 124 150 118 0
25.080000 27.280000 12.980000 124 150 118 0
25.300000 27.280000 13.200000 124 150 120 0
25.520000 27.280000 13.200000 124 150 120 0
25.740000 27.280000 13.200000 124 150 118 0
25.960000 27.280000 13.200000 124 150 118 0
26.180000 27.280000 13.200000 123 152 119 0
26.400000 27.280000 13.420000 123 152 119 0
26.620000 27.280000 13.420000 123 151 121 0
26.840000 27.280000 13.420000 123 151 121 0
27.060000 27.280000 13.640000 124 150 120 0
27.280000 27.280000 13.640000 125 151 121 0
27.500000 27.280000 14.740000 123 152 119 0
27.720000 27.280000 15.620000 122 151 118 0
27.940000 27.280000 15.620000 123 153 120 0
28.160000 27.280000 15.620000 122 152 119 0
28.380000 27.280000 16.940000 123 152 119 0
28.600000 27.280000 16.720000 124 153 120 0
28.820000 27.280000 16.940000 125 151 121 0
29.040000 27.280000 16.940000 126 152 122 0
29.260000 27.280000 16.940000 125 153 123 0
29.480000 27.280000 16.940000 124 152 122 0
29.700000 27.280000 16.940000 123 153 120 0
29.920000 27.280000 18.480000 123 153 120 0
30.140000 27.280000 18.480000 123 153 122 0
30.360000 27.280000 18.480000 123 153 122 0
30.580000 27.280000 18.700000 124 152 122 0
30.800000 27.280000 18.700000 125 153 123 0
31.020000 27.280000 18.920000 123 153 120 0
31.240000 27.280000 18.920000 122 152 119 0
31.460000 27.280000 18.920000 123 153 120 0
31.680000 27.280000 18.920000 124 154 121 0
31.900000 27.280000 19.140000 123 153 120 0
32.120000 27.280000 19.140000 124 154 121 0
32.340000 27.280000 19.140000 124 154 123 0
32.560000 27.280000 19.140000 123 153 122 0
32.780000 27.280000 19.360000 124 154 121 0
33.000000 27.280000 20.460000 124 154 121 0
33.220000 27.280000 21.340000 122 155 121 0
33.440000 27.280000 22.220000 123 156 122 0
33.660000 27.280000 22.220000 125 155 122 0
33.880000 27.280000 23.540000 126 156 123 0
34.100000 27.280000 23.760000 125 155 124 0
34.320000 27.280000 23.760000 126 156 125 0
34.540000 27.280000 23.760000 123 156 122 0
34.760000 27.280000 23.760000 123 156 122 0
34.980000 27.280000 23.980000 126 156 123 0
35.200000 27.280000 23.980000 126 156 123 0
35.420000 27.280000 23.980000 126 156 123 0
35.640000 27.280000 23.980000 127 157 124 0
35.860000 27.280000 24.200000 127 157 124 0
36.080000 27.280000 24.200000 127 157 124 0
36.300000 27.280000 25.520000 127 157 124 0
36.520000 27.280000 25.740000 127 157 124 0
36.740000 27.280000 25.740000 128 158 125 0
36.960000 27.280000 25.740000 128 158 125 0
37.180000 27.280000 25.740000 129 159 126 0
0.000000 27.500000 6.160000 74 66 50 0
0.220000 27.500000 5.940000 73 65 49 0
0.440000 27.500000 7.040000 74 66 50 0
0.660000 27.500000 7.040000 74 66 50 0
0.880000 27.500000 5.940000 74 66 50 0
1.100000 27.500000 6.160000 73 67 50 0
1.320000 27.500000 7.260000 74 68 51 0
1.540000 27.500000 7.040000 74 66 50 0
1.760000 27.500000 7.040000 75 67 51 0
1.980000 27.500000 5.720000 76 68 50 0
2.200000 27.500000 5.720000 76 68 50 0
2.420000 27.500000 5.720000 76 68 52 0
2.640000 27.500000 5.720000 77 69 53 0
2.860000 27.500000 5.720000 76 70 53 0
3.080000 27.500000 5.720000 76 70 53 0
3.300000 27.500000 5.720000 78 70 54 0
3.520000 27.500000 5.720000 79 71 55 0
3.740000 27.500000 5.720000 78 72 55 0
3.960000 27.500000 5.720000 78 72 55 0
4.180000 27.500000 5.720000 80 74 57 0
4.400000 27.500000 5.720000 81 75 58 0
4.620000 27.500000 5.720000 81 75 58 0
4.840000 27.500000 5.720000 82 76 59 0
5.060000 27.500000 5.720000 83 77 60 0
5.280000 27.500000 4.400000 84 78 61 0
5.500000 27.500000 4.400000 85 79 62 0
5.720000 27.500000 4.400000 86 80 63 0
5.940000 27.500000 4.400000 86 80 63 0
6.160000 27.500000 4.400000 87 81 64 0
6.380000 27.500000 4.400000 88 82 65 0
6.600000 27.500000 4.400000 89 83 66 0
6.820000 27.500000 4.400000 89 85 68 0
7.040000 27.500000 4.400000 90 86 69 0
7.260000 27.500000 4.400000 90 88 70 0
7.480000 27.500000 4.400000 91 89 71 0
7.700000 27.500000 4.400000 94 92 75 0
7.920000 27.500000 4.400000 96 94 77 0
8.140000 27.500000 4.400000 97 97 82 0
8.360000 27.500000 2.860000 103 103 88 0
8.580000 27.500000 2.860000 105 106 93 0
8.800000 27.500000 2.860000 111 112 99 0
9.020000 27.500000 2.860000 116 123 110 0
9.240000 27.500000 2.860000 121 128 115 0
9.460000 27.500000 2.860000 125 142 121 0
9.680000 27.500000 2.860000 134 151 130 0
9.900000 27.500000 2.860000 139 164 137 0
10.120000 27.500000 1.540000 145 170 143 0
10.340000 27.500000 1.540000 147 177 146 0
10.560000 27.500000 1.540000 148 178 147 0
10.780000 27.500000 1.540000 144 181 143 0
11.000000 27.500000 1.540000 142 179 141 0
11.220000 27.500000 1.540000 141 178 139 0
11.440000 27.500000 1.540000 138 175 136 0
11.660000 27.500000 1.540000 140 165 138 0
11.880000 27.500000 1.540000 136 161 134 0
12.100000 27.500000 1.540000 132 160 130 0
12.320000 27.500000 1.540000 131 159 129 0
12.540000 27.500000 1.540000 130 158 128 0
12.760000 27.500000 1.540000 128 156 126 0
12.980000 27.500000 1.540000 129 152 127 0
13.200000 27.500000 1.760000 128 151 126 0
13.420000 27.500000 1.760000 126 151 125 0
13.640000 27.500000 1.760000 125 150 124 0
13.860000 27.500000 1.760000 125 150 123 0
14.080000 27.500000 1.760000 124 149 122 0
14.300000 27.500000 1.980000 126 151 124 0
14.520000 27.500000 1.980000 125 150 123 0
14.740000 27.500000 1.980000 124 152 124 0
14.960000 27.500000 1.980000 123 151 123 0
15.180000 27.500000 1.980000 124 149 123 0
15.400000 27.500000 2.200000 124 149 123 0
15.620000 27.500000 2.200000 124 149 122 0
15.840000 27.500000 3.520000 126 151 124 0
16.060000 27.500000 3.740000 125 150 123 0
16.280000 27.500000 3.740000 125 150 123 0
16.500000 27.500000 3.740000 123 148 121 0
16.720000 27.500000 3.740000 121 146 119 0
16.940000 27.500000 3.960000 119 147 117 0
17.160000 27.500000 3.960000 118 146 116 0
17.380000 27.500000 3.960000 119 145 115 0
17.600000 27.500000 3.960000 120 146 116 0
17.820000 27.500000 4.180000 118 144 114 0
18.040000 27.500000 5.280000 120 146 116 0
18.260000 27.500000 6.160000 119 148 115 0
18.480000 27.500000 7.040000 120 149 116 0
18.700000 27.500000 7.040000 119 149 116 0
18.920000 27.500000 7.040000 119 149 116 0
19.140000 27.500000 7.040000 121 150 117 0
19.360000 27.500000 7.260000 122 151 118 0
19.580000 27.500000 8.580000 121 149 119 0
19.800000 27.500000 8.580000 121 149 119 0
20.020000 27.500000 8.800000 121 150 117 0
20.240000 27.500000 8.800000 122 151 118 0
20.460000 27.500000 8.800000 122 152 119 0
20.680000 27.500000 8.800000 122 152 119 0
20.900000 27.500000 8.800000 121 150 117 0
21.120000 27.500000 9.020000 119 148 115 0
21.340000 27.500000 9.020000 122 148 116 0
21.560000 27.500000 9.240000 122 148 116 0
21.780000 27.500000 9.240000 120 149 116 0
22.000000 27.500000 9.240000 120 149 116 0
22.220000 27.500000 9.240000 119 149 116 0
22.440000 27.500000 9.240000 120 150 117 0
22.660000 27.500000 9.460000 120 149 116 0
22.880000 27.500000 9.460000 121 150 117 0
23.100000 27.500000 10.560000 122 151 118 0
23.320000 27.500000 10.560000 122 151 118 0
23.540000 27.500000 10.560000 122 151 118 0
23.760000 27.500000 11.440000 122 151 118 0
23.980000 27.500000 12.540000 121 150 117 0
24.200000 27.500000 13.860000 122 151 118 0
24.420000 27.500000 13.860000 122 151 118 0
24.640000 27.500000 14.080000 122 151 118 0
24.860000 27.500000 14.080000 122 151 118 0
25.080000 27.500000 14.080000 123 152 119 0
25.300000 27.500000 14.300000 122 153 117 0
25.520000 27.500000 14.300000 121 152 116 0
25.740000 27.500000 14.300000 121 151 118 0
25.960000 27.500000 14.300000 122 152 119 0
26.180000 27.500000 14.300000 121 154 118 0
26.400000 27.500000 14.520000 120 153 117 0
26.620000 27.500000 14.520000 123 153 120 0
26.840000 27.500000 14.520000 123 153 120 0
27.060000 27.500000 14.520000 123 154 118 0
27.280000 27.500000 14.740000 122 153 117 0
27.500000 27.500000 14.960000 122 152 119 0
27.720000 27.500000 14.740000 122 152 119 0
27.940000 27.500000 14.740000 120 153 117 0
28.160000 27.500000 16.060000 120 153 117 0
28.380000 27.500000 17.160000 121 154 118 0
28.600000 27.500000 16.940000 121 154 118 0
28.820000 27.500000 17.160000 123 154 118 0
29.040000 27.500000 16.940000 123 154 118 0
29.260000 27.500000 18.260000 121 154 120 0
29.480000 27.500000 18.260000 121 154 120 0
29.700000 27.500000 18.260000 120 153 117 0
29.920000 27.500000 18.260000 120 153 117 0
30.140000 27.500000 18.260000 121 154 118 0
30.360000 27.500000 18.480000 121 154 118 0
30.580000 27.500000 18.480000 123 154 118 0
30.800000 27.500000 18.700000 124 155 119 0
31.020000 27.500000 18.700000 121 154 118 0
31.240000 27.500000 18.700000 121 154 118 0
31.460000 27.500000 18.920000 121 154 118 0
31.680000 27.500000 20.240000 122 155 119 0
31.900000 27.500000 20.240000 122 155 119 0
32.120000 27.500000 20.460000 121 154 118 0
32.340000 27.500000 20.460000 121 154 118 0
32.560000 27.500000 19.140000 122 155 119 0
32.780000 27.500000 19.140000 122 155 121 0
33.000000 27.500000 20.680000 123 156 122 0
33.220000 27.500000 21.560000 122 155 119 0
33.440000 27.500000 22.660000 122 155 119 0
33.660000 27.500000 22.440000 123 156 120 0
33.880000 27.500000 22.440000 123 156 120 0
34.100000 27.500000 23.760000 123 156 120 0
34.320000 27.500000 23.760000 123 156 120 0
34.540000 27.500000 23.760000 122 155 119 0
34.760000 27.500000 23.760000 123 156 120 0
34.980000 27.500000 23.760000 124 157 121 0
35.200000 27.500000 23.980000 124 157 121 0
35.420000 27.500000 25.300000 124 157 121 0
35.640000 27.500000 25.300000 124 157 121 0
35.860000 27.500000 25.520000 125 158 124 0
36.080000 27.500000 25.520000 124 157 123 0
36.300000 27.500000 25.520000 125 158 122 0
36.520000 27.500000 25.520000 126 159 123 0
36.740000 27.500000 25.740000 126 159 123 0
36.960000 27.500000 25.740000 127 160 124 0
37.180000 27.500000 25.740000 127 160 126 0
0.000000 27.720000 5.940000 74 66 50 0
0.220000 27.720000 7.260000 75 67 51 0
0.440000 27.720000 7.040000 74 66 50 0
0.660000 27.720000 7.040000 73 65 49 0
0.880000 27.720000 5.940000 74 66 50 0
1.100000 27.720000 5.940000 72 66 49 0
1.320000 27.720000 7.260000 73 67 50 0
1.540000 27.720000 7.040000 74 66 50 0
1.760000 27.720000 7.260000 75 67 51 0
1.980000 27.720000 5.940000 75 67 49 0
2.200000 27.720000 5.940000 76 68 50 0
2.420000 27.720000 7.260000 76 68 52 0
2.640000 27.720000 5.720000 76 68 52 0
2.860000 27.720000 5.720000 76 70 53 0
3.080000 27.720000 5.720000 77 71 54 0
3.300000 27.720000 5.720000 78 70 54 0
3.520000 27.720000 5.720000 77 69 53 0
3.740000 27.720000 5.720000 77 71 54 0
3.960000 27.720000 5.720000 79 73 56 0
4.180000 27.720000 5.720000 80 74 57 0
4.400000 27.720000 4.400000 80 74 57 0
4.620000 27.720000 5.720000 81 75 58 0
4.840000 27.720000 5.720000 82 76 59 0
5.060000 27.720000 4.400000 83 77 60 0
5.280000 27.720000 4.400000 84 78 61 0
5.500000 27.720000 4.400000 85 79 62 0
5.720000 27.720000 4.400000 86 80 63 0
5.940000 27.720000 4.400000 86 80 63 0
6.160000 27.720000 4.400000 87 81 64 0
6.380000 27.720000 4.400000 88 82 65 0
6.600000 27.720000 4.400000 89 83 66 0
6.820000 27.720000 4.400000 88 84 67 0
7.040000 27.720000 4.400000 90 86 69 0
7.260000 27.720000 4.400000 90 88 70 0
7.480000 27.720000 4.400000 91 89 71 0
7.700000 27.720000 4.400000 94 92 75 0
7.920000 27.720000 4.400000 96 94 77 0
8.140000 27.720000 4.400000 99 99 84 0
8.360000 27.720000 4.400000 101 101 86 0
8.580000 27.720000 2.860000 105 106 93 0
8.800000 27.720000 2.860000 109 110 97 0
9.020000 27.720000 2.860000 115 122 109 0
9.240000 27.720000 2.860000 121 128 115 0
9.460000 27.720000 2.860000 124 141 120 0
9.680000 27.720000 2.860000 134 151 130 0
9.900000 27.720000 2.860000 138 163 136 0
10.120000 27.720000 1.540000 144 169 142 0
10.340000 27.720000 1.540000 146 176 145 0
10.560000 27.720000 1.540000 147 177 146 0
10.780000 27.720000 1.540000 144 181 143 0
11.000000 27.720000 1.540000 142 179 141 0
11.220000 27.720000 1.540000 140 177 138 0
11.440000 27.720000 1.540000 138 175 136 0
11.660000 27.720000 1.540000 141 166 139 0
11.880000 27.720000 1.540000 138 163 136 0
12.100000 27.720000 1.540000 132 160 130 0
12.320000 27.720000 1.540000 130 158 128 0
12.540000 27.720000 1.540000 130 158 128 0
12.760000 27.720000 1.540000 129 157 127 0
12.980000 27.720000 1.540000 130 153 128 0
13.200000 27.720000 1.760000 128 151 126 0
13.420000 27.720000 1.760000 126 151 125 0
13.640000 27.720000 1.760000 125 150 124 0
13.860000 27.720000 1.760000 125 150 123 0
14.080000 27.720000 1.760000 125 150 123 0
14.300000 27.720000 1.980000 125 150 123 0
14.520000 27.720000 1.980000 126 151 124 0
14.740000 27.720000 1.980000 124 152 124 0
14.960000 27.720000 1.980000 123 151 123 0
15.180000 27.720000 1.980000 125 150 124 0
15.400000 27.720000 2.200000 125 150 124 0
15.620000 27.720000 2.200000 126 151 124 0
15.840000 27.720000 3.520000 127 152 125 0
16.060000 27.720000 3.740000 128 153 126 0
16.280000 27.720000 3.740000 127 152 125 0
16.500000 27.720000 3.740000 125 150 123 0
16.720000 27.720000 3.740000 124 149 122 0
16.940000 27.720000 3.960000 122 150 120 0
17.160000 27.720000 3.960000 120 148 118 0
17.380000 27.720000 3.960000 124 150 120 0
17.600000 27.720000 3.960000 123 149 119 0
17.820000 27.720000 4.180000 122 148 118 0
18.040000 27.720000 5.060000 124 150 120 0
18.260000 27.720000 7.260000 122 151 118 0
18.480000 27.720000 7.040000 122 151 118 0
18.700000 27.720000 7.040000 122 152 119 0
18.920000 27.720000 7.040000 122 152 119 0
19.140000 27.720000 8.580000 123 152 119 0
19.360000 27.720000 8.580000 124 153 120 0
19.580000 27.720000 8.580000 124 152 122 0
19.800000 27.720000 8.580000 124 152 122 0
20.020000 27.720000 8.800000 125 154 121 0
