ply
format ascii 1.0
element vertex 1103
property float x
property float y
property float z
property uchar red
property uchar green
property uchar blue
property uchar alpha
end_header
26.180000 15.400000 7.700000 142 164 149 0
26.400000 15.400000 7.810000 142 164 149 0
26.620000 15.400000 7.810000 143 163 147 0
26.840000 15.400000 7.810000 143 163 147 0
27.060000 15.400000 7.920000 143 163 149 0
27.280000 15.400000 7.920000 144 164 150 0
27.500000 15.400000 7.920000 143 163 149 0
27.720000 15.400000 8.690000 143 163 149 0
27.940000 15.400000 8.690000 143 163 147 0
28.160000 15.400000 8.690000 143 163 147 0
28.380000 15.400000 8.690000 144 161 148 0
28.600000 15.400000 8.800000 144 161 148 0
28.820000 15.400000 8.800000 141 161 147 0
29.040000 15.400000 8.800000 140 160 146 0
29.260000 15.400000 8.800000 138 159 147 0
29.480000 15.400000 9.570000 138 159 147 0
29.700000 15.400000 9.570000 140 160 146 0
29.920000 15.400000 10.230000 141 161 147 0
30.140000 15.400000 10.890000 144 161 150 0
30.360000 15.400000 10.890000 144 161 150 0
30.580000 15.400000 11.660000 147 164 151 0
30.800000 15.400000 11.660000 147 164 151 0
31.020000 15.400000 12.320000 149 166 155 0
31.240000 15.400000 12.320000 149 166 155 0
31.460000 15.400000 12.320000 151 166 156 0
31.680000 15.400000 12.980000 151 166 156 0
31.900000 15.400000 13.420000 152 167 157 0
32.120000 15.400000 14.630000 151 166 156 0
32.340000 15.400000 14.630000 151 166 154 0
32.560000 15.400000 14.630000 151 166 154 0
32.780000 15.400000 14.630000 149 165 157 0
33.000000 15.400000 14.630000 149 165 157 0
33.220000 15.400000 14.740000 149 168 157 0
33.440000 15.400000 14.740000 147 166 155 0
33.660000 15.400000 14.740000 151 166 156 0
33.880000 15.400000 14.850000 152 167 157 0
34.100000 15.400000 15.510000 151 166 156 0
34.320000 15.400000 15.510000 151 166 156 0
34.540000 15.400000 15.620000 147 163 155 0
34.760000 15.400000 15.620000 146 162 154 0
34.980000 15.400000 15.620000 146 162 147 0
35.200000 15.400000 15.620000 141 157 142 0
35.420000 15.400000 15.620000 138 150 135 0
35.640000 15.400000 15.620000 135 147 132 0
35.860000 15.400000 15.620000 134 140 127 0
36.080000 15.400000 15.620000 132 138 125 0
36.300000 15.400000 15.620000 129 135 118 0
36.520000 15.400000 15.620000 128 134 117 0
36.740000 15.400000 15.620000 126 134 116 0
36.960000 15.400000 14.960000 128 136 118 0
37.180000 15.400000 14.960000 127 137 123 0
0.000000 15.620000 12.210000 133 157 138 0
0.220000 15.620000 12.980000 133 157 138 0
0.440000 15.620000 12.980000 133 157 138 0
0.660000 15.620000 12.980000 131 155 136 0
0.880000 15.620000 12.980000 130 154 135 0
1.100000 15.620000 12.980000 128 154 136 0
1.320000 15.620000 13.750000 128 154 136 0
1.540000 15.620000 13.750000 132 154 136 0
1.760000 15.620000 14.410000 133 155 137 0
1.980000 15.620000 15.070000 134 158 139 0
2.200000 15.620000 15.070000 136 160 141 0
2.420000 15.620000 15.730000 136 160 142 0
2.640000 15.620000 15.730000 138 162 144 0
2.860000 15.620000 16.500000 136 164 144 0
3.080000 15.620000 16.500000 137 165 145 0
3.300000 15.620000 16.500000 141 165 146 0
3.520000 15.620000 16.500000 140 164 145 0
3.740000 15.620000 17.050000 138 165 145 0
3.960000 15.620000 17.490000 140 167 147 0
4.180000 15.620000 18.040000 140 166 148 0
4.400000 15.620000 18.040000 140 166 148 0
4.620000 15.620000 18.040000 141 165 147 0
4.840000 15.620000 18.040000 141 165 147 0
5.060000 15.620000 18.150000 141 165 146 0
5.280000 15.620000 18.150000 141 165 146 0
5.500000 15.620000 18.150000 138 165 145 0
5.720000 15.620000 18.150000 138 165 145 0
5.940000 15.620000 18.260000 136 162 144 0
6.160000 15.620000 18.260000 136 162 144 0
6.380000 15.620000 18.260000 135 161 143 0
6.600000 15.620000 18.260000 135 161 143 0
6.820000 15.620000 19.030000 134 160 142 0
7.040000 15.620000 19.030000 134 160 142 0
7.260000 15.620000 19.030000 132 158 140 0
7.480000 15.620000 19.030000 132 158 140 0
7.700000 15.620000 19.140000 132 156 138 0
7.920000 15.620000 19.140000 128 152 134 0
8.140000 15.620000 19.140000 124 146 129 0
8.360000 15.620000 19.140000 122 144 127 0
8.580000 15.620000 19.140000 121 138 117 0
8.800000 15.620000 19.140000 118 135 114 0
9.020000 15.620000 19.140000 116 130 110 0
9.240000 15.620000 19.140000 115 129 109 0
9.460000 15.620000 19.140000 113 127 105 0
9.680000 15.620000 19.140000 114 128 106 0
9.900000 15.620000 19.140000 115 128 106 0
10.120000 15.620000 19.140000 116 129 107 0
10.340000 15.620000 19.140000 117 131 111 0
10.560000 15.620000 18.480000 118 132 112 0
10.780000 15.620000 18.480000 119 136 115 0
11.000000 15.620000 18.590000 121 138 117 0
11.220000 15.620000 18.590000 121 142 124 0
11.440000 15.620000 18.590000 123 144 126 0
11.660000 15.620000 18.590000 125 145 129 0
11.880000 15.620000 19.250000 128 148 132 0
12.100000 15.620000 19.250000 129 151 134 0
12.320000 15.620000 19.250000 131 153 136 0
12.540000 15.620000 19.250000 132 154 137 0
12.760000 15.620000 19.360000 133 155 138 0
12.980000 15.620000 20.020000 135 157 140 0
13.200000 15.620000 19.910000 135 157 140 0
13.420000 15.620000 20.900000 135 159 141 0
13.640000 15.620000 21.450000 135 159 141 0
13.860000 15.620000 15.950000 136 160 142 0
14.080000 15.620000 5.610000 136 160 142 0
14.300000 15.620000 0.110000 135 159 141 0
14.520000 15.620000 0.110000 137 161 143 0
14.740000 15.620000 0.110000 138 160 143 0
14.960000 15.620000 0.110000 138 160 143 0
15.180000 15.620000 0.110000 137 161 143 0
15.400000 15.620000 0.110000 137 161 143 0
15.620000 15.620000 0.110000 138 160 145 0
15.840000 15.620000 0.880000 139 161 146 0
16.060000 15.620000 0.880000 139 161 144 0
16.280000 15.620000 0.880000 140 162 145 0
16.500000 15.620000 0.880000 140 162 145 0
16.720000 15.620000 0.990000 140 162 145 0
16.940000 15.620000 0.990000 140 162 145 0
17.160000 15.620000 0.990000 141 163 146 0
17.380000 15.620000 0.990000 140 164 146 0
17.600000 15.620000 1.100000 139 163 145 0
17.820000 15.620000 1.100000 139 163 145 0
18.040000 15.620000 1.760000 139 163 145 0
18.260000 15.620000 1.870000 139 162 147 0
18.480000 15.620000 1.870000 139 162 147 0
18.700000 15.620000 1.870000 140 162 145 0
18.920000 15.620000 1.980000 140 162 145 0
19.140000 15.620000 1.980000 140 162 147 0
19.360000 15.620000 1.980000 141 163 148 0
19.580000 15.620000 1.980000 141 163 146 0
19.800000 15.620000 2.530000 141 163 146 0
20.020000 15.620000 2.970000 143 163 149 0
20.240000 15.620000 3.520000 142 162 148 0
20.460000 15.620000 3.520000 141 163 146 0
20.680000 15.620000 3.520000 141 163 146 0
20.900000 15.620000 3.630000 141 163 148 0
21.120000 15.620000 4.290000 142 164 149 0
21.340000 15.620000 4.290000 142 164 147 0
21.560000 15.620000 4.400000 142 164 147 0
21.780000 15.620000 4.400000 143 163 149 0
22.000000 15.620000 4.400000 143 163 149 0
22.220000 15.620000 4.510000 143 163 149 0
22.440000 15.620000 4.510000 144 164 150 0
22.660000 15.620000 4.510000 143 163 149 0
22.880000 15.620000 4.510000 143 163 149 0
23.100000 15.620000 4.510000 142 164 147 0
23.320000 15.620000 4.620000 142 164 147 0
23.540000 15.620000 5.280000 143 163 149 0
23.760000 15.620000 5.390000 143 163 149 0
23.980000 15.620000 5.390000 145 162 149 0
24.200000 15.620000 5.390000 145 162 149 0
24.420000 15.620000 5.390000 145 162 149 0
24.640000 15.620000 5.500000 145 162 149 0
24.860000 15.620000 6.050000 146 163 148 0
25.080000 15.620000 7.040000 145 162 147 0
25.300000 15.620000 7.590000 145 162 149 0
25.520000 15.620000 7.700000 145 162 149 0
25.740000 15.620000 7.700000 144 161 148 0
25.960000 15.620000 7.700000 144 161 148 0
26.180000 15.620000 7.700000 146 161 149 0
26.400000 15.620000 7.810000 146 161 149 0
26.620000 15.620000 7.810000 146 161 149 0
26.840000 15.620000 7.810000 145 160 148 0
27.060000 15.620000 7.920000 145 162 149 0
27.280000 15.620000 7.920000 145 162 149 0
27.500000 15.620000 7.920000 146 161 149 0
27.720000 15.620000 8.690000 146 161 149 0
27.940000 15.620000 8.690000 144 161 148 0
28.160000 15.620000 8.690000 144 161 148 0
28.380000 15.620000 8.690000 144 159 147 0
28.600000 15.620000 8.800000 144 159 147 0
28.820000 15.620000 8.800000 144 159 147 0
29.040000 15.620000 8.800000 142 157 145 0
29.260000 15.620000 8.800000 141 156 146 0
29.480000 15.620000 9.570000 142 157 147 0
29.700000 15.620000 9.570000 145 158 146 0
29.920000 15.620000 10.230000 145 158 146 0
30.140000 15.620000 10.890000 144 159 147 0
30.360000 15.620000 10.890000 145 160 148 0
30.580000 15.620000 11.660000 145 162 151 0
30.800000 15.620000 11.660000 147 164 153 0
31.020000 15.620000 12.320000 150 162 153 0
31.240000 15.620000 12.320000 151 163 154 0
31.460000 15.620000 12.320000 152 164 155 0
31.680000 15.620000 13.090000 152 164 155 0
31.900000 15.620000 13.530000 154 165 156 0
32.120000 15.620000 13.970000 154 165 156 0
32.340000 15.620000 14.630000 154 165 154 0
32.560000 15.620000 14.630000 154 165 154 0
32.780000 15.620000 14.630000 154 165 156 0
33.000000 15.620000 14.630000 153 164 155 0
33.220000 15.620000 14.740000 152 163 154 0
33.440000 15.620000 14.740000 154 165 156 0
33.660000 15.620000 14.740000 155 166 157 0
33.880000 15.620000 14.850000 154 165 156 0
34.100000 15.620000 15.510000 152 164 155 0
34.320000 15.620000 15.510000 152 164 155 0
34.540000 15.620000 15.620000 152 163 154 0
34.760000 15.620000 15.620000 150 161 152 0
34.980000 15.620000 15.620000 150 159 149 0
35.200000 15.620000 15.620000 145 154 144 0
35.420000 15.620000 15.620000 141 148 136 0
35.640000 15.620000 15.620000 137 144 132 0
35.860000 15.620000 15.620000 137 140 128 0
36.080000 15.620000 15.620000 134 137 125 0
36.300000 15.620000 15.620000 131 134 120 0
36.520000 15.620000 15.620000 129 132 118 0
36.740000 15.620000 15.620000 127 133 118 0
36.960000 15.620000 14.960000 129 135 120 0
37.180000 15.620000 14.960000 129 135 122 0
0.000000 15.840000 12.210000 132 156 137 0
0.220000 15.840000 12.980000 133 157 138 0
0.440000 15.840000 12.980000 133 157 138 0
0.660000 15.840000 12.980000 131 155 136 0
0.880000 15.840000 12.980000 131 155 136 0
1.100000 15.840000 13.750000 127 153 135 0
1.320000 15.840000 13.750000 127 153 135 0
1.540000 15.840000 13.750000 131 153 135 0
1.760000 15.840000 14.410000 133 155 137 0
1.980000 15.840000 15.070000 133 157 138 0
2.200000 15.840000 15.070000 134 158 139 0
2.420000 15.840000 15.730000 136 160 142 0
2.640000 15.840000 15.730000 138 162 144 0
2.860000 15.840000 16.500000 136 164 144 0
3.080000 15.840000 16.500000 137 165 145 0
3.300000 15.840000 16.500000 141 165 146 0
3.520000 15.840000 16.500000 141 165 146 0
3.740000 15.840000 17.050000 138 165 145 0
3.960000 15.840000 17.490000 140 167 147 0
4.180000 15.840000 18.040000 139 165 147 0
4.400000 15.840000 18.040000 139 165 147 0
4.620000 15.840000 18.040000 141 165 147 0
4.840000 15.840000 18.040000 142 166 148 0
5.060000 15.840000 18.150000 142 166 147 0
5.280000 15.840000 18.150000 141 165 146 0
5.500000 15.840000 18.150000 138 165 145 0
5.720000 15.840000 18.150000 139 166 146 0
5.940000 15.840000 18.260000 139 165 147 0
6.160000 15.840000 18.260000 138 164 146 0
6.380000 15.840000 18.260000 136 162 144 0
6.600000 15.840000 18.260000 135 161 143 0
6.820000 15.840000 19.030000 135 161 143 0
7.040000 15.840000 19.030000 135 161 143 0
7.260000 15.840000 19.030000 133 159 141 0
7.480000 15.840000 19.030000 132 158 140 0
7.700000 15.840000 19.140000 131 155 137 0
7.920000 15.840000 19.140000 127 151 133 0
8.140000 15.840000 19.140000 126 148 131 0
8.360000 15.840000 19.140000 122 144 127 0
8.580000 15.840000 19.140000 122 139 118 0
8.800000 15.840000 19.140000 120 137 116 0
9.020000 15.840000 19.140000 118 132 112 0
9.240000 15.840000 19.140000 115 129 109 0
9.460000 15.840000 19.140000 114 128 106 0
9.680000 15.840000 19.140000 114 128 106 0
9.900000 15.840000 19.140000 116 129 107 0
10.120000 15.840000 19.140000 116 129 107 0
10.340000 15.840000 19.140000 117 131 111 0
10.560000 15.840000 18.480000 119 133 113 0
10.780000 15.840000 18.480000 119 136 115 0
11.000000 15.840000 18.590000 122 139 118 0
11.220000 15.840000 18.590000 121 142 124 0
11.440000 15.840000 18.590000 123 144 126 0
11.660000 15.840000 18.590000 127 147 131 0
11.880000 15.840000 19.250000 129 149 133 0
12.100000 15.840000 19.250000 128 150 133 0
12.320000 15.840000 19.250000 131 153 136 0
12.540000 15.840000 19.250000 133 155 138 0
12.760000 15.840000 19.360000 134 156 139 0
12.980000 15.840000 20.020000 135 157 140 0
13.200000 15.840000 19.910000 135 157 140 0
13.420000 15.840000 20.900000 135 159 141 0
13.640000 15.840000 21.450000 135 159 141 0
13.860000 15.840000 15.950000 137 161 143 0
14.080000 15.840000 5.610000 136 160 142 0
14.300000 15.840000 0.110000 137 161 143 0
14.520000 15.840000 0.110000 137 161 143 0
14.740000 15.840000 0.110000 139 161 144 0
14.960000 15.840000 0.110000 139 161 144 0
15.180000 15.840000 0.110000 137 161 143 0
15.400000 15.840000 0.110000 138 162 144 0
15.620000 15.840000 0.110000 139 161 146 0
15.840000 15.840000 0.880000 141 163 148 0
16.060000 15.840000 0.880000 140 162 145 0
16.280000 15.840000 0.880000 140 162 145 0
16.500000 15.840000 0.880000 140 162 145 0
16.720000 15.840000 0.990000 140 162 145 0
16.940000 15.840000 0.990000 141 163 146 0
17.160000 15.840000 0.990000 141 163 146 0
17.380000 15.840000 0.990000 140 164 146 0
17.600000 15.840000 1.100000 140 164 146 0
17.820000 15.840000 1.100000 140 164 146 0
18.040000 15.840000 1.760000 139 163 145 0
18.260000 15.840000 1.870000 140 163 148 0
18.480000 15.840000 1.870000 138 161 146 0
18.700000 15.840000 1.870000 141 163 146 0
18.920000 15.840000 1.980000 141 163 146 0
19.140000 15.840000 1.980000 141 163 148 0
19.360000 15.840000 1.980000 142 164 149 0
19.580000 15.840000 1.980000 142 164 147 0
19.800000 15.840000 2.530000 142 164 147 0
20.020000 15.840000 2.970000 143 163 149 0
20.240000 15.840000 3.520000 142 162 148 0
20.460000 15.840000 3.520000 142 164 147 0
20.680000 15.840000 3.520000 141 163 146 0
20.900000 15.840000 4.290000 142 164 149 0
21.120000 15.840000 4.290000 142 164 149 0
21.340000 15.840000 4.290000 142 164 147 0
21.560000 15.840000 4.400000 142 164 147 0
21.780000 15.840000 4.400000 143 163 149 0
22.000000 15.840000 4.400000 144 164 150 0
22.220000 15.840000 4.510000 143 163 149 0
22.440000 15.840000 4.510000 143 163 149 0
22.660000 15.840000 4.510000 143 163 149 0
22.880000 15.840000 4.510000 144 164 150 0
23.100000 15.840000 4.510000 143 165 148 0
23.320000 15.840000 4.620000 142 164 147 0
23.540000 15.840000 5.280000 143 163 149 0
23.760000 15.840000 5.390000 143 163 149 0
23.980000 15.840000 5.390000 146 163 150 0
24.200000 15.840000 5.390000 146 163 150 0
24.420000 15.840000 5.390000 147 164 151 0
24.640000 15.840000 5.500000 146 163 150 0
24.860000 15.840000 6.050000 146 163 148 0
25.080000 15.840000 7.040000 146 163 148 0
25.300000 15.840000 7.590000 146 163 150 0
25.520000 15.840000 7.700000 145 162 149 0
25.740000 15.840000 7.700000 145 162 149 0
25.960000 15.840000 7.700000 146 163 150 0
26.180000 15.840000 7.700000 147 162 150 0
26.400000 15.840000 7.810000 147 162 150 0
26.620000 15.840000 7.810000 147 162 150 0
26.840000 15.840000 7.810000 146 161 149 0
27.060000 15.840000 7.920000 145 162 149 0
27.280000 15.840000 7.920000 145 162 149 0
27.500000 15.840000 7.920000 146 161 149 0
27.720000 15.840000 8.690000 146 161 149 0
27.940000 15.840000 8.690000 145 162 149 0
28.160000 15.840000 8.690000 145 162 149 0
28.380000 15.840000 8.690000 145 160 148 0
28.600000 15.840000 8.800000 146 161 149 0
28.820000 15.840000 8.800000 145 160 148 0
29.040000 15.840000 8.800000 145 160 148 0
29.260000 15.840000 8.800000 143 158 148 0
29.480000 15.840000 9.570000 143 158 148 0
29.700000 15.840000 9.570000 145 158 146 0
29.920000 15.840000 10.230000 146 159 147 0
30.140000 15.840000 10.890000 145 160 148 0
30.360000 15.840000 10.890000 145 160 148 0
30.580000 15.840000 11.660000 145 162 151 0
30.800000 15.840000 11.660000 148 165 154 0
31.020000 15.840000 12.320000 152 164 155 0
31.240000 15.840000 12.320000 153 165 156 0
31.460000 15.840000 12.320000 153 165 156 0
31.680000 15.840000 12.430000 153 165 156 0
31.900000 15.840000 12.980000 156 167 158 0
32.120000 15.840000 14.080000 155 166 157 0
32.340000 15.840000 14.630000 155 166 155 0
32.560000 15.840000 14.630000 154 165 154 0
32.780000 15.840000 14.630000 155 166 157 0
33.000000 15.840000 14.630000 154 165 156 0
33.220000 15.840000 14.740000 154 165 156 0
33.440000 15.840000 14.740000 154 165 156 0
33.660000 15.840000 14.740000 155 166 157 0
33.880000 15.840000 14.850000 155 166 157 0
34.100000 15.840000 15.510000 153 165 156 0
34.320000 15.840000 15.510000 152 164 155 0
34.540000 15.840000 15.620000 152 163 154 0
34.760000 15.840000 15.620000 151 162 153 0
34.980000 15.840000 15.620000 151 160 150 0
35.200000 15.840000 15.620000 147 156 146 0
35.420000 15.840000 15.620000 144 151 139 0
35.640000 15.840000 15.620000 138 145 133 0
35.860000 15.840000 15.620000 137 140 128 0
36.080000 15.840000 15.620000 134 137 125 0
36.300000 15.840000 15.620000 132 135 121 0
36.520000 15.840000 15.620000 130 133 119 0
36.740000 15.840000 15.620000 128 134 119 0
36.960000 15.840000 15.620000 129 135 120 0
37.180000 15.840000 15.620000 130 136 123 0
0.000000 16.060000 12.210000 136 158 140 0
0.220000 16.060000 12.980000 135 157 139 0
0.440000 16.060000 12.980000 135 157 139 0
0.660000 16.060000 12.980000 134 156 138 0
0.880000 16.060000 12.980000 132 154 136 0
1.100000 16.060000 13.750000 133 154 136 0
1.320000 16.060000 13.750000 134 155 137 0
1.540000 16.060000 13.750000 136 157 139 0
1.760000 16.060000 14.410000 136 157 139 0
1.980000 16.060000 15.070000 136 158 140 0
2.200000 16.060000 15.070000 137 159 141 0
2.420000 16.060000 15.730000 139 161 144 0
2.640000 16.060000 15.730000 140 162 145 0
2.860000 16.060000 15.730000 144 162 145 0
3.080000 16.060000 16.500000 147 165 148 0
3.300000 16.060000 16.500000 144 164 148 0
3.520000 16.060000 16.500000 144 164 148 0
3.740000 16.060000 17.160000 142 164 147 0
3.960000 16.060000 17.490000 143 165 148 0
4.180000 16.060000 18.040000 143 165 148 0
4.400000 16.060000 18.040000 144 166 149 0
4.620000 16.060000 18.040000 144 166 149 0
4.840000 16.060000 18.040000 143 165 148 0
5.060000 16.060000 18.150000 144 164 148 0
5.280000 16.060000 18.150000 145 165 149 0
5.500000 16.060000 18.150000 143 165 148 0
5.720000 16.060000 18.150000 143 165 148 0
5.940000 16.060000 18.260000 143 165 148 0
6.160000 16.060000 18.260000 143 165 148 0
6.380000 16.060000 18.260000 140 164 146 0
6.600000 16.060000 18.260000 139 163 145 0
6.820000 16.060000 19.030000 140 162 145 0
7.040000 16.060000 19.030000 140 162 145 0
7.260000 16.060000 19.030000 138 160 143 0
7.480000 16.060000 19.030000 137 159 142 0
7.700000 16.060000 19.140000 136 156 140 0
7.920000 16.060000 19.140000 133 153 137 0
8.140000 16.060000 19.140000 131 149 132 0
8.360000 16.060000 19.140000 128 146 129 0
8.580000 16.060000 19.140000 126 140 122 0
8.800000 16.060000 19.140000 122 136 118 0
9.020000 16.060000 19.140000 120 132 113 0
9.240000 16.060000 19.140000 118 130 111 0
9.460000 16.060000 19.140000 116 129 107 0
9.680000 16.060000 19.140000 115 128 106 0
9.900000 16.060000 19.140000 118 129 110 0
10.120000 16.060000 19.140000 119 130 111 0
10.340000 16.060000 19.140000 119 133 113 0
10.560000 16.060000 18.480000 121 135 115 0
10.780000 16.060000 18.480000 122 136 116 0
11.000000 16.060000 18.590000 124 138 118 0
11.220000 16.060000 18.590000 122 140 121 0
11.440000 16.060000 18.590000 127 145 126 0
11.660000 16.060000 18.590000 133 146 131 0
11.880000 16.060000 19.250000 134 147 132 0
12.100000 16.060000 19.250000 131 151 135 0
12.320000 16.060000 19.250000 133 153 137 0
12.540000 16.060000 19.250000 134 156 139 0
12.760000 16.060000 19.360000 135 157 140 0
12.980000 16.060000 20.020000 139 156 141 0
13.200000 16.060000 19.910000 140 157 142 0
13.420000 16.060000 20.900000 138 158 142 0
13.640000 16.060000 21.450000 139 159 143 0
13.860000 16.060000 15.950000 139 159 143 0
14.080000 16.060000 5.610000 140 160 144 0
14.300000 16.060000 0.110000 141 161 145 0
14.520000 16.060000 0.110000 141 161 145 0
14.740000 16.060000 0.110000 141 161 147 0
14.960000 16.060000 0.110000 141 161 147 0
15.180000 16.060000 0.110000 141 161 145 0
15.400000 16.060000 0.110000 142 162 146 0
15.620000 16.060000 0.110000 142 162 146 0
15.840000 16.060000 0.880000 142 162 146 0
16.060000 16.060000 0.880000 142 162 146 0
16.280000 16.060000 0.880000 142 162 146 0
16.500000 16.060000 0.880000 145 162 149 0
16.720000 16.060000 0.990000 145 162 149 0
16.940000 16.060000 0.990000 143 163 147 0
17.160000 16.060000 0.990000 143 163 147 0
17.380000 16.060000 0.990000 143 163 147 0
17.600000 16.060000 1.100000 143 163 147 0
17.820000 16.060000 1.100000 142 162 146 0
18.040000 16.060000 1.760000 143 163 147 0
18.260000 16.060000 1.870000 143 163 149 0
18.480000 16.060000 1.870000 142 162 148 0
18.700000 16.060000 1.870000 145 162 147 0
18.920000 16.060000 1.980000 145 162 147 0
19.140000 16.060000 1.980000 146 163 148 0
19.360000 16.060000 1.980000 146 163 148 0
19.580000 16.060000 1.980000 146 163 148 0
19.800000 16.060000 2.530000 147 164 149 0
20.020000 16.060000 2.970000 146 163 148 0
20.240000 16.060000 3.520000 146 163 148 0
20.460000 16.060000 3.520000 146 163 150 0
20.680000 16.060000 3.520000 147 164 151 0
20.900000 16.060000 4.290000 147 164 149 0
21.120000 16.060000 4.290000 147 164 149 0
21.340000 16.060000 4.290000 147 164 149 0
21.560000 16.060000 4.400000 146 163 148 0
21.780000 16.060000 4.400000 147 163 148 0
22.000000 16.060000 4.400000 148 164 149 0
22.220000 16.060000 4.510000 147 164 149 0
22.440000 16.060000 4.510000 147 164 149 0
22.660000 16.060000 4.510000 149 165 150 0
22.880000 16.060000 4.510000 149 165 150 0
23.100000 16.060000 4.510000 148 164 149 0
23.320000 16.060000 4.620000 148 164 149 0
23.540000 16.060000 5.280000 146 163 148 0
23.760000 16.060000 5.390000 145 162 147 0
23.980000 16.060000 5.390000 148 163 151 0
24.200000 16.060000 5.390000 148 163 151 0
24.420000 16.060000 5.390000 150 163 149 0
24.640000 16.060000 5.500000 150 163 149 0
24.860000 16.060000 6.050000 149 165 150 0
25.080000 16.060000 7.040000 149 165 150 0
25.300000 16.060000 6.930000 151 164 150 0
25.520000 16.060000 7.700000 150 163 149 0
25.740000 16.060000 7.700000 150 163 151 0
25.960000 16.060000 7.700000 150 163 151 0
26.180000 16.060000 7.700000 151 164 152 0
26.400000 16.060000 7.810000 150 163 151 0
26.620000 16.060000 7.810000 148 163 151 0
26.840000 16.060000 7.810000 148 163 151 0
27.060000 16.060000 7.920000 149 162 150 0
27.280000 16.060000 7.920000 149 162 150 0
27.500000 16.060000 7.920000 150 163 151 0
27.720000 16.060000 8.690000 150 163 151 0
27.940000 16.060000 8.690000 150 163 151 0
28.160000 16.060000 8.690000 149 162 150 0
28.380000 16.060000 8.690000 149 162 150 0
28.600000 16.060000 8.800000 150 163 151 0
28.820000 16.060000 8.800000 149 162 150 0
29.040000 16.060000 8.800000 148 161 149 0
29.260000 16.060000 8.800000 148 159 148 0
29.480000 16.060000 9.570000 147 158 147 0
29.700000 16.060000 9.570000 147 160 148 0
29.920000 16.060000 10.230000 147 160 148 0
30.140000 16.060000 10.890000 149 160 151 0
30.360000 16.060000 10.890000 150 161 152 0
30.580000 16.060000 11.660000 152 163 152 0
30.800000 16.060000 11.660000 153 164 153 0
31.020000 16.060000 12.320000 154 165 156 0
31.240000 16.060000 12.320000 155 166 157 0
31.460000 16.060000 12.320000 156 165 155 0
31.680000 16.060000 12.430000 156 165 155 0
31.900000 16.060000 12.980000 159 165 158 0
32.120000 16.060000 14.080000 160 166 159 0
32.340000 16.060000 14.630000 158 167 159 0
32.560000 16.060000 14.630000 158 167 159 0
32.780000 16.060000 14.630000 156 167 158 0
33.000000 16.060000 14.630000 155 166 157 0
33.220000 16.060000 14.740000 157 166 158 0
33.440000 16.060000 14.740000 157 166 158 0
33.660000 16.060000 14.740000 156 165 157 0
33.880000 16.060000 14.850000 156 165 157 0
34.100000 16.060000 15.510000 155 166 157 0
34.320000 16.060000 15.510000 154 165 156 0
34.540000 16.060000 15.620000 155 164 156 0
34.760000 16.060000 15.620000 153 162 154 0
34.980000 16.060000 15.620000 153 159 152 0
35.200000 16.060000 15.620000 150 156 149 0
35.420000 16.060000 15.620000 147 149 139 0
35.640000 16.060000 15.620000 143 145 135 0
35.860000 16.060000 15.620000 138 141 129 0
36.080000 16.060000 15.620000 135 138 126 0
36.300000 16.060000 15.620000 132 135 121 0
36.520000 16.060000 15.620000 130 133 119 0
36.740000 16.060000 15.620000 131 134 120 0
36.960000 16.060000 15.620000 131 134 120 0
37.180000 16.060000 15.620000 135 136 123 0
0.000000 16.280000 12.980000 136 158 140 0
0.220000 16.280000 12.980000 136 158 140 0
0.440000 16.280000 12.980000 135 157 139 0
0.660000 16.280000 12.980000 134 156 138 0
0.880000 16.280000 12.980000 134 156 138 0
1.100000 16.280000 12.980000 135 156 138 0
1.320000 16.280000 13.750000 135 156 138 0
1.540000 16.280000 13.750000 135 156 138 0
1.760000 16.280000 14.410000 136 157 139 0
1.980000 16.280000 15.070000 137 159 141 0
2.200000 16.280000 15.070000 138 160 142 0
2.420000 16.280000 15.730000 139 161 144 0
2.640000 16.280000 15.730000 141 163 146 0
2.860000 16.280000 15.730000 146 164 147 0
3.080000 16.280000 16.500000 147 165 148 0
3.300000 16.280000 16.500000 145 165 149 0
3.520000 16.280000 16.500000 145 165 149 0
3.740000 16.280000 16.500000 143 165 148 0
3.960000 16.280000 17.050000 144 166 149 0
4.180000 16.280000 17.490000 144 166 149 0
4.400000 16.280000 18.040000 145 167 150 0
4.620000 16.280000 18.040000 144 166 149 0
4.840000 16.280000 18.040000 143 165 148 0
5.060000 16.280000 18.150000 144 164 148 0
5.280000 16.280000 18.150000 145 165 149 0
5.500000 16.280000 18.150000 144 166 149 0
5.720000 16.280000 18.150000 143 165 148 0
5.940000 16.280000 18.260000 143 165 148 0
6.160000 16.280000 18.260000 143 165 148 0
6.380000 16.280000 18.260000 141 165 147 0
6.600000 16.280000 18.260000 140 164 146 0
6.820000 16.280000 19.030000 140 162 145 0
7.040000 16.280000 19.030000 140 162 145 0
7.260000 16.280000 19.030000 138 160 143 0
7.480000 16.280000 19.030000 137 159 142 0
7.700000 16.280000 19.140000 134 154 138 0
7.920000 16.280000 19.140000 134 154 138 0
8.140000 16.280000 19.140000 132 150 133 0
8.360000 16.280000 19.140000 127 145 128 0
8.580000 16.280000 19.140000 125 139 121 0
8.800000 16.280000 19.140000 122 136 118 0
9.020000 16.280000 19.140000 120 132 113 0
9.240000 16.280000 19.140000 118 130 111 0
9.460000 16.280000 19.140000 116 129 107 0
9.680000 16.280000 19.140000 116 129 107 0
9.900000 16.280000 19.140000 118 129 110 0
10.120000 16.280000 19.140000 120 131 112 0
10.340000 16.280000 19.140000 119 133 113 0
10.560000 16.280000 18.480000 120 134 114 0
10.780000 16.280000 18.480000 123 137 117 0
11.000000 16.280000 18.590000 124 138 118 0
11.220000 16.280000 18.590000 123 141 122 0
11.440000 16.280000 18.590000 126 144 125 0
11.660000 16.280000 19.250000 132 145 130 0
11.880000 16.280000 19.250000 135 148 133 0
12.100000 16.280000 19.250000 133 153 137 0
12.320000 16.280000 19.250000 133 153 137 0
12.540000 16.280000 19.250000 135 157 140 0
12.760000 16.280000 19.360000 135 157 140 0
12.980000 16.280000 20.020000 140 157 142 0
13.200000 16.280000 19.910000 142 159 144 0
13.420000 16.280000 20.900000 138 158 142 0
13.640000 16.280000 21.450000 139 159 143 0
13.860000 16.280000 15.950000 140 160 144 0
14.080000 16.280000 5.610000 140 160 144 0
14.300000 16.280000 0.110000 140 160 144 0
14.520000 16.280000 0.110000 141 161 145 0
14.740000 16.280000 0.110000 142 162 148 0
14.960000 16.280000 0.110000 141 161 147 0
15.180000 16.280000 0.110000 142 162 146 0
15.400000 16.280000 0.110000 142 162 146 0
15.620000 16.280000 0.110000 142 162 146 0
15.840000 16.280000 0.880000 143 163 147 0
16.060000 16.280000 0.880000 143 163 147 0
16.280000 16.280000 0.880000 143 163 147 0
16.500000 16.280000 0.880000 145 162 149 0
16.720000 16.280000 0.990000 145 162 149 0
16.940000 16.280000 0.990000 143 163 147 0
17.160000 16.280000 0.990000 143 163 147 0
17.380000 16.280000 0.990000 143 163 147 0
17.600000 16.280000 1.100000 143 163 147 0
17.820000 16.280000 1.100000 143 163 147 0
18.040000 16.280000 1.760000 144 164 148 0
18.260000 16.280000 1.870000 144 164 150 0
18.480000 16.280000 1.870000 143 163 149 0
18.700000 16.280000 1.870000 145 162 147 0
18.920000 16.280000 1.980000 146 163 148 0
19.140000 16.280000 1.980000 145 162 147 0
19.360000 16.280000 1.980000 147 164 149 0
19.580000 16.280000 1.980000 147 164 149 0
19.800000 16.280000 2.530000 148 165 150 0
20.020000 16.280000 2.970000 147 164 149 0
20.240000 16.280000 3.520000 147 164 149 0
20.460000 16.280000 3.520000 147 164 151 0
20.680000 16.280000 3.520000 147 164 151 0
20.900000 16.280000 4.290000 146 163 148 0
21.120000 16.280000 4.290000 148 165 150 0
21.340000 16.280000 4.290000 148 165 150 0
21.560000 16.280000 4.400000 148 165 150 0
21.780000 16.280000 4.400000 148 164 149 0
22.000000 16.280000 4.400000 148 164 149 0
22.220000 16.280000 4.510000 148 165 150 0
22.440000 16.280000 4.510000 147 164 149 0
22.660000 16.280000 4.510000 148 164 149 0
22.880000 16.280000 4.510000 149 165 150 0
23.100000 16.280000 4.510000 148 164 149 0
23.320000 16.280000 4.620000 148 164 149 0
23.540000 16.280000 5.280000 147 164 149 0
23.760000 16.280000 5.390000 147 164 149 0
23.980000 16.280000 5.390000 149 164 152 0
24.200000 16.280000 5.390000 149 164 152 0
24.420000 16.280000 5.390000 150 163 149 0
24.640000 16.280000 5.500000 151 164 150 0
24.860000 16.280000 6.050000 149 165 150 0
25.080000 16.280000 6.490000 149 165 150 0
25.300000 16.280000 7.040000 150 163 149 0
25.520000 16.280000 7.700000 151 164 150 0
25.740000 16.280000 7.700000 151 164 152 0
25.960000 16.280000 7.700000 151 164 152 0
26.180000 16.280000 7.700000 151 164 152 0
26.400000 16.280000 7.810000 151 164 152 0
26.620000 16.280000 7.810000 148 163 151 0
26.840000 16.280000 7.810000 149 164 152 0
27.060000 16.280000 7.920000 150 163 151 0
27.280000 16.280000 7.920000 150 163 151 0
27.500000 16.280000 7.920000 150 163 151 0
27.720000 16.280000 8.690000 150 163 151 0
27.940000 16.280000 8.690000 150 163 151 0
28.160000 16.280000 8.690000 149 162 150 0
28.380000 16.280000 8.690000 148 161 149 0
28.600000 16.280000 8.800000 149 162 150 0
28.820000 16.280000 8.800000 148 161 149 0
29.040000 16.280000 8.800000 148 161 149 0
29.260000 16.280000 8.800000 147 158 147 0
29.480000 16.280000 9.570000 148 159 148 0
29.700000 16.280000 9.570000 147 160 148 0
29.920000 16.280000 10.230000 148 161 149 0
30.140000 16.280000 10.890000 149 160 151 0
30.360000 16.280000 10.890000 151 162 153 0
30.580000 16.280000 11.660000 151 162 151 0
30.800000 16.280000 11.660000 154 165 154 0
31.020000 16.280000 12.320000 154 165 156 0
31.240000 16.280000 12.320000 155 166 157 0
31.460000 16.280000 12.320000 157 166 156 0
31.680000 16.280000 12.430000 157 166 156 0
31.900000 16.280000 12.980000 159 165 158 0
32.120000 16.280000 13.970000 160 166 159 0
32.340000 16.280000 14.630000 158 167 159 0
32.560000 16.280000 14.630000 157 166 158 0
32.780000 16.280000 14.630000 156 167 158 0
33.000000 16.280000 14.630000 155 166 157 0
33.220000 16.280000 14.740000 157 166 158 0
33.440000 16.280000 14.740000 157 166 158 0
33.660000 16.280000 14.740000 156 165 157 0
33.880000 16.280000 14.850000 155 164 156 0
34.100000 16.280000 15.510000 155 166 157 0
34.320000 16.280000 15.510000 154 165 156 0
34.540000 16.280000 15.620000 154 163 155 0
34.760000 16.280000 15.620000 154 163 155 0
34.980000 16.280000 15.620000 154 160 153 0
35.200000 16.280000 15.620000 151 157 150 0
35.420000 16.280000 15.620000 149 151 141 0
35.640000 16.280000 15.620000 144 146 136 0
35.860000 16.280000 15.620000 138 141 129 0
36.080000 16.280000 15.620000 136 139 127 0
36.300000 16.280000 15.620000 133 136 122 0
36.520000 16.280000 15.620000 131 134 120 0
36.740000 16.280000 14.960000 132 135 121 0
36.960000 16.280000 14.960000 131 134 120 0
37.180000 16.280000 15.620000 134 135 122 0
0.000000 16.500000 12.980000 135 159 140 0
0.220000 16.500000 12.980000 136 158 140 0
0.440000 16.500000 12.980000 135 157 139 0
0.660000 16.500000 12.980000 134 158 139 0
0.880000 16.500000 12.980000 133 157 138 0
1.100000 16.500000 12.980000 132 156 137 0
1.320000 16.500000 13.750000 133 157 138 0
1.540000 16.500000 13.750000 135 156 136 0
1.760000 16.500000 14.410000 136 157 137 0
1.980000 16.500000 15.070000 140 158 141 0
2.200000 16.500000 15.070000 141 159 142 0
2.420000 16.500000 15.730000 139 161 143 0
2.640000 16.500000 15.730000 141 163 145 0
2.860000 16.500000 15.730000 143 164 146 0
3.080000 16.500000 16.500000 145 166 148 0
3.300000 16.500000 16.500000 148 164 148 0
3.520000 16.500000 16.500000 149 165 149 0
3.740000 16.500000 16.500000 145 166 148 0
3.960000 16.500000 17.050000 144 165 147 0
4.180000 16.500000 17.490000 146 164 147 0
4.400000 16.500000 18.040000 148 166 149 0
4.620000 16.500000 18.040000 145 167 149 0
4.840000 16.500000 18.040000 145 167 149 0
5.060000 16.500000 18.150000 149 165 149 0
5.280000 16.500000 18.150000 148 164 148 0
5.500000 16.500000 18.150000 148 166 149 0
5.720000 16.500000 18.150000 147 165 148 0
5.940000 16.500000 18.260000 143 165 147 0
6.160000 16.500000 18.260000 143 165 147 0
6.380000 16.500000 18.260000 142 164 147 0
6.600000 16.500000 18.260000 141 163 146 0
6.820000 16.500000 19.030000 139 163 145 0
7.040000 16.500000 19.030000 139 163 145 0
7.260000 16.500000 19.030000 139 163 145 0
7.480000 16.500000 19.030000 137 161 143 0
7.700000 16.500000 19.140000 138 158 142 0
7.920000 16.500000 19.140000 132 152 136 0
8.140000 16.500000 19.140000 130 151 133 0
8.360000 16.500000 19.140000 126 147 129 0
8.580000 16.500000 19.140000 127 141 123 0
8.800000 16.500000 19.140000 122 136 118 0
9.020000 16.500000 19.140000 120 132 113 0
9.240000 16.500000 19.140000 117 129 110 0
9.460000 16.500000 19.140000 117 130 108 0
9.680000 16.500000 19.140000 116 129 107 0
9.900000 16.500000 19.140000 116 130 110 0
10.120000 16.500000 19.140000 117 131 111 0
10.340000 16.500000 19.140000 119 133 115 0
10.560000 16.500000 18.480000 120 134 116 0
10.780000 16.500000 18.480000 122 136 116 0
11.000000 16.500000 18.590000 125 139 119 0
11.220000 16.500000 18.590000 124 142 123 0
11.440000 16.500000 18.590000 126 144 125 0
11.660000 16.500000 19.250000 128 149 131 0
11.880000 16.500000 19.250000 130 151 133 0
12.100000 16.500000 19.250000 134 152 135 0
12.320000 16.500000 19.250000 136 154 137 0
12.540000 16.500000 19.250000 135 156 138 0
12.760000 16.500000 19.360000 136 157 139 0
12.980000 16.500000 20.020000 138 158 142 0
13.200000 16.500000 19.910000 139 159 143 0
13.420000 16.500000 20.900000 139 159 143 0
13.640000 16.500000 21.450000 139 159 143 0
13.860000 16.500000 15.950000 138 160 143 0
14.080000 16.500000 5.610000 139 161 144 0
14.300000 16.500000 0.110000 142 159 144 0
14.520000 16.500000 0.110000 144 161 146 0
14.740000 16.500000 0.110000 144 161 146 0
14.960000 16.500000 0.110000 143 160 145 0
15.180000 16.500000 0.110000 141 161 145 0
15.400000 16.500000 0.110000 142 162 146 0
15.620000 16.500000 0.110000 143 163 147 0
15.840000 16.500000 0.880000 143 163 147 0
16.060000 16.500000 0.880000 145 162 147 0
16.280000 16.500000 0.880000 145 162 147 0
16.500000 16.500000 0.880000 145 162 147 0
16.720000 16.500000 0.990000 146 163 148 0
16.940000 16.500000 0.990000 145 162 147 0
17.160000 16.500000 0.990000 145 162 147 0
17.380000 16.500000 0.990000 143 163 147 0
17.600000 16.500000 1.100000 143 163 147 0
17.820000 16.500000 1.760000 145 162 147 0
18.040000 16.500000 1.760000 146 163 148 0
18.260000 16.500000 1.870000 146 163 148 0
18.480000 16.500000 1.870000 145 162 147 0
18.700000 16.500000 1.870000 146 163 148 0
18.920000 16.500000 1.980000 146 163 148 0
19.140000 16.500000 1.980000 147 164 149 0
19.360000 16.500000 1.980000 146 163 148 0
19.580000 16.500000 1.980000 145 165 151 0
19.800000 16.500000 2.530000 145 165 151 0
20.020000 16.500000 2.970000 149 165 150 0
20.240000 16.500000 3.520000 148 164 149 0
20.460000 16.500000 3.520000 147 164 149 0
20.680000 16.500000 3.520000 147 164 149 0
20.900000 16.500000 4.290000 148 165 150 0
21.120000 16.500000 4.290000 146 163 148 0
21.340000 16.500000 4.290000 147 164 151 0
21.560000 16.500000 4.400000 148 165 152 0
21.780000 16.500000 4.400000 144 164 148 0
22.000000 16.500000 4.400000 146 166 150 0
22.220000 16.500000 4.400000 147 164 149 0
22.440000 16.500000 4.510000 147 164 149 0
22.660000 16.500000 4.510000 151 164 150 0
22.880000 16.500000 4.510000 151 164 150 0
23.100000 16.500000 4.510000 148 163 151 0
23.320000 16.500000 4.620000 148 163 151 0
23.540000 16.500000 5.280000 149 165 150 0
23.760000 16.500000 5.390000 148 164 149 0
23.980000 16.500000 5.390000 147 164 149 0
24.200000 16.500000 5.390000 148 165 150 0
24.420000 16.500000 5.390000 148 164 149 0
24.640000 16.500000 5.500000 149 165 150 0
24.860000 16.500000 5.500000 151 164 152 0
25.080000 16.500000 5.940000 151 164 152 0
25.300000 16.500000 7.040000 150 163 149 0
25.520000 16.500000 7.700000 150 163 149 0
25.740000 16.500000 7.700000 148 163 151 0
25.960000 16.500000 7.700000 149 164 152 0
26.180000 16.500000 7.700000 149 164 152 0
26.400000 16.500000 7.810000 148 163 151 0
26.620000 16.500000 7.810000 150 163 151 0
26.840000 16.500000 7.810000 150 163 151 0
27.060000 16.500000 7.920000 152 162 149 0
27.280000 16.500000 7.920000 152 162 149 0
27.500000 16.500000 7.920000 150 163 151 0
27.720000 16.500000 8.690000 150 163 151 0
27.940000 16.500000 8.690000 150 163 151 0
28.160000 16.500000 8.690000 150 163 151 0
28.380000 16.500000 8.690000 150 163 151 0
28.600000 16.500000 8.800000 149 162 150 0
28.820000 16.500000 8.800000 149 160 149 0
29.040000 16.500000 8.800000 150 161 150 0
29.260000 16.500000 8.800000 148 159 148 0
29.480000 16.500000 9.570000 148 159 148 0
29.700000 16.500000 9.570000 150 159 149 0
29.920000 16.500000 10.230000 149 158 148 0
30.140000 16.500000 10.890000 150 161 150 0
30.360000 16.500000 10.890000 150 161 150 0
30.580000 16.500000 11.660000 152 163 152 0
30.800000 16.500000 11.660000 153 164 153 0
31.020000 16.500000 12.320000 154 165 156 0
31.240000 16.500000 12.320000 155 166 157 0
31.460000 16.500000 12.320000 156 165 155 0
31.680000 16.500000 13.090000 156 165 155 0
31.900000 16.500000 12.980000 154 165 156 0
32.120000 16.500000 13.970000 156 167 158 0
32.340000 16.500000 14.630000 157 166 158 0
32.560000 16.500000 14.630000 157 166 158 0
32.780000 16.500000 14.630000 157 166 158 0
33.000000 16.500000 14.630000 156 165 157 0
33.220000 16.500000 14.740000 157 166 158 0
33.440000 16.500000 14.740000 157 166 158 0
33.660000 16.500000 14.740000 155 166 157 0
33.880000 16.500000 14.850000 156 167 158 0
34.100000 16.500000 15.510000 155 166 157 0
34.320000 16.500000 15.510000 155 166 157 0
34.540000 16.500000 15.620000 154 165 156 0
34.760000 16.500000 15.620000 153 164 155 0
34.980000 16.500000 15.620000 154 161 151 0
35.200000 16.500000 15.620000 150 157 147 0
35.420000 16.500000 15.620000 151 150 140 0
35.640000 16.500000 15.620000 147 146 136 0
35.860000 16.500000 15.620000 140 143 131 0
36.080000 16.500000 15.620000 135 138 126 0
36.300000 16.500000 15.620000 134 135 122 0
36.520000 16.500000 14.960000 133 134 121 0
36.740000 16.500000 14.960000 131 134 120 0
36.960000 16.500000 14.960000 132 135 121 0
37.180000 16.500000 15.620000 135 136 125 0
0.000000 16.720000 12.980000 135 159 140 0
0.220000 16.720000 12.980000 136 158 140 0
0.440000 16.720000 12.980000 135 157 139 0
0.660000 16.720000 12.980000 134 158 139 0
0.880000 16.720000 12.980000 134 158 139 0
1.100000 16.720000 12.980000 133 157 138 0
1.320000 16.720000 13.750000 133 157 138 0
1.540000 16.720000 13.750000 135 156 136 0
1.760000 16.720000 14.410000 137 158 138 0
1.980000 16.720000 15.070000 140 158 141 0
2.200000 16.720000 15.070000 141 159 142 0
2.420000 16.720000 15.730000 140 162 144 0
2.640000 16.720000 15.730000 140 162 144 0
2.860000 16.720000 15.730000 143 164 146 0
3.080000 16.720000 16.500000 144 165 147 0
3.300000 16.720000 16.500000 148 164 148 0
3.520000 16.720000 16.500000 149 165 149 0
3.740000 16.720000 16.500000 145 166 148 0
3.960000 16.720000 17.050000 146 167 149 0
4.180000 16.720000 17.490000 147 165 148 0
4.400000 16.720000 18.040000 147 165 148 0
4.620000 16.720000 18.040000 145 167 149 0
4.840000 16.720000 18.040000 145 167 149 0
5.060000 16.720000 18.150000 149 165 149 0
5.280000 16.720000 18.150000 149 165 149 0
5.500000 16.720000 18.150000 147 165 148 0
5.720000 16.720000 18.150000 147 165 148 0
5.940000 16.720000 18.260000 143 165 147 0
6.160000 16.720000 18.260000 143 165 147 0
6.380000 16.720000 18.260000 142 164 147 0
6.600000 16.720000 18.260000 141 163 146 0
6.820000 16.720000 19.030000 140 164 146 0
7.040000 16.720000 19.030000 140 164 146 0
7.260000 16.720000 19.030000 138 162 144 0
7.480000 16.720000 19.030000 138 162 144 0
7.700000 16.720000 19.140000 137 157 141 0
7.920000 16.720000 19.140000 133 153 137 0
8.140000 16.720000 19.140000 130 151 133 0
8.360000 16.720000 19.140000 126 147 129 0
8.580000 16.720000 19.140000 127 141 123 0
8.800000 16.720000 19.140000 122 136 118 0
9.020000 16.720000 19.140000 121 133 114 0
9.240000 16.720000 19.140000 118 130 111 0
9.460000 16.720000 19.140000 117 130 108 0
9.680000 16.720000 19.140000 116 129 107 0
9.900000 16.720000 19.140000 116 130 110 0
10.120000 16.720000 19.140000 117 131 111 0
10.340000 16.720000 19.140000 118 132 114 0
10.560000 16.720000 18.480000 120 134 116 0
10.780000 16.720000 18.480000 122 136 116 0
11.000000 16.720000 18.590000 124 138 118 0
11.220000 16.720000 18.590000 123 141 122 0
11.440000 16.720000 18.590000 127 145 126 0
11.660000 16.720000 19.250000 126 147 129 0
11.880000 16.720000 19.250000 130 151 133 0
12.100000 16.720000 19.250000 134 152 135 0
12.320000 16.720000 19.250000 136 154 137 0
12.540000 16.720000 19.250000 136 157 139 0
12.760000 16.720000 19.360000 137 158 140 0
12.980000 16.720000 20.020000 137 157 141 0
13.200000 16.720000 19.800000 139 159 143 0
13.420000 16.720000 20.900000 140 160 144 0
13.640000 16.720000 20.020000 140 160 144 0
13.860000 16.720000 13.200000 139 161 144 0
14.080000 16.720000 4.180000 139 161 144 0
14.300000 16.720000 0.110000 143 160 145 0
14.520000 16.720000 0.110000 144 161 146 0
14.740000 16.720000 0.110000 144 161 146 0
14.960000 16.720000 0.110000 144 161 146 0
15.180000 16.720000 0.110000 141 161 145 0
15.400000 16.720000 0.110000 142 162 146 0
15.620000 16.720000 0.110000 142 162 146 0
15.840000 16.720000 0.880000 143 163 147 0
16.060000 16.720000 0.880000 146 163 148 0
16.280000 16.720000 0.880000 146 163 148 0
16.500000 16.720000 0.880000 146 163 148 0
16.720000 16.720000 0.990000 146 163 148 0
16.940000 16.720000 0.990000 146 163 148 0
17.160000 16.720000 0.990000 146 163 148 0
17.380000 16.720000 0.990000 144 164 148 0
17.600000 16.720000 1.100000 144 164 148 0
17.820000 16.720000 1.760000 145 162 147 0
18.040000 16.720000 1.760000 145 162 147 0
18.260000 16.720000 1.870000 146 163 148 0
18.480000 16.720000 1.870000 145 162 147 0
18.700000 16.720000 1.870000 146 163 148 0
18.920000 16.720000 1.980000 146 163 148 0
19.140000 16.720000 1.980000 147 164 149 0
19.360000 16.720000 1.980000 146 163 148 0
19.580000 16.720000 1.980000 144 164 150 0
19.800000 16.720000 2.530000 144 164 150 0
20.020000 16.720000 2.970000 148 164 149 0
20.240000 16.720000 3.520000 149 165 150 0
20.460000 16.720000 3.520000 147 164 149 0
20.680000 16.720000 3.520000 147 164 149 0
20.900000 16.720000 4.290000 148 165 150 0
21.120000 16.720000 4.290000 147 164 149 0
21.340000 16.720000 4.290000 146 163 150 0
21.560000 16.720000 4.400000 147 164 151 0
21.780000 16.720000 4.400000 145 165 149 0
22.000000 16.720000 4.400000 144 164 148 0
22.220000 16.720000 4.400000 147 164 149 0
22.440000 16.720000 4.510000 148 165 150 0
22.660000 16.720000 4.510000 151 164 150 0
22.880000 16.720000 4.510000 151 164 150 0
23.100000 16.720000 4.510000 149 164 152 0
23.320000 16.720000 4.620000 149 164 152 0
23.540000 16.720000 4.620000 148 164 149 0
23.760000 16.720000 5.390000 148 164 149 0
23.980000 16.720000 5.390000 147 164 149 0
24.200000 16.720000 5.390000 147 164 149 0
24.420000 16.720000 5.390000 148 164 149 0
24.640000 16.720000 5.500000 149 165 150 0
24.860000 16.720000 5.500000 151 164 152 0
25.080000 16.720000 6.050000 151 164 152 0
25.300000 16.720000 7.150000 151 164 150 0
25.520000 16.720000 6.930000 150 163 149 0
25.740000 16.720000 7.700000 149 164 152 0
25.960000 16.720000 7.700000 148 163 151 0
26.180000 16.720000 7.700000 149 164 152 0
26.400000 16.720000 7.810000 148 163 151 0
26.620000 16.720000 7.810000 151 164 152 0
26.840000 16.720000 7.810000 150 163 151 0
27.060000 16.720000 7.920000 153 163 150 0
27.280000 16.720000 7.920000 153 163 150 0
27.500000 16.720000 7.920000 150 163 151 0
27.720000 16.720000 8.690000 150 163 151 0
27.940000 16.720000 8.690000 150 163 151 0
28.160000 16.720000 8.690000 150 163 151 0
28.380000 16.720000 8.690000 149 162 150 0
28.600000 16.720000 8.800000 149 162 150 0
28.820000 16.720000 8.800000 149 160 149 0
29.040000 16.720000 8.800000 149 160 149 0
29.260000 16.720000 8.800000 149 160 149 0
29.480000 16.720000 9.570000 148 159 148 0
29.700000 16.720000 9.570000 149 158 148 0
29.920000 16.720000 10.230000 151 160 150 0
30.140000 16.720000 10.890000 150 161 150 0
30.360000 16.720000 10.890000 151 162 151 0
30.580000 16.720000 11.660000 152 163 152 0
30.800000 16.720000 11.660000 153 164 153 0
31.020000 16.720000 12.320000 155 166 157 0
31.240000 16.720000 12.320000 155 166 157 0
31.460000 16.720000 12.320000 155 164 154 0
31.680000 16.720000 13.090000 155 164 154 0
31.900000 16.720000 12.980000 155 166 157 0
32.120000 16.720000 13.970000 155 166 157 0
32.340000 16.720000 14.520000 156 165 157 0
32.560000 16.720000 14.630000 157 166 158 0
32.780000 16.720000 14.630000 156 165 157 0
33.000000 16.720000 14.630000 157 166 158 0
33.220000 16.720000 14.740000 157 166 158 0
33.440000 16.720000 14.740000 156 165 157 0
33.660000 16.720000 14.740000 155 166 157 0
33.880000 16.720000 14.850000 154 165 156 0
34.100000 16.720000 15.510000 155 166 157 0
34.320000 16.720000 15.510000 155 166 157 0
34.540000 16.720000 15.620000 154 165 156 0
34.760000 16.720000 15.620000 153 164 155 0
34.980000 16.720000 15.620000 153 160 150 0
35.200000 16.720000 15.620000 151 158 148 0
35.420000 16.720000 15.620000 151 150 140 0
35.640000 16.720000 15.620000 146 145 135 0
35.860000 16.720000 15.620000 138 141 129 0
36.080000 16.720000 15.620000 135 138 126 0
36.300000 16.720000 15.620000 134 135 122 0
36.520000 16.720000 14.960000 132 133 120 0
36.740000 16.720000 14.960000 131 134 120 0
36.960000 16.720000 14.960000 132 135 121 0
37.180000 16.720000 15.620000 135 136 125 0
0.000000 16.940000 12.980000 133 157 138 0
0.220000 16.940000 12.980000 135 159 140 0
0.440000 16.940000 12.980000 135 159 140 0
0.660000 16.940000 12.980000 134 156 138 0
0.880000 16.940000 12.980000 134 156 138 0
1.100000 16.940000 12.980000 133 155 137 0
1.320000 16.940000 13.750000 134 156 138 0
1.540000 16.940000 13.750000 135 157 139 0
1.760000 16.940000 14.410000 136 158 140 0
1.980000 16.940000 15.070000 139 157 140 0
2.200000 16.940000 15.070000 141 159 142 0
2.420000 16.940000 15.730000 140 162 145 0
2.640000 16.940000 15.730000 141 163 146 0
2.860000 16.940000 15.730000 141 163 146 0
3.080000 16.940000 16.500000 144 166 149 0
3.300000 16.940000 16.500000 147 165 148 0
3.520000 16.940000 16.500000 146 164 147 0
3.740000 16.940000 16.500000 147 165 148 0
3.960000 16.940000 17.050000 147 165 148 0
4.180000 16.940000 17.490000 147 164 149 0
4.400000 16.940000 18.040000 147 164 149 0
4.620000 16.940000 18.040000 144 164 148 0
4.840000 16.940000 18.040000 145 165 149 0
5.060000 16.940000 18.150000 149 165 149 0
5.280000 16.940000 18.150000 149 165 149 0
5.500000 16.940000 18.150000 144 164 148 0
5.720000 16.940000 18.150000 145 165 149 0
5.940000 16.940000 18.260000 143 165 148 0
6.160000 16.940000 18.260000 142 164 147 0
6.380000 16.940000 18.260000 141 165 147 0
6.600000 16.940000 18.260000 141 165 147 0
6.820000 16.940000 19.030000 141 163 146 0
