ply
format ascii 1.0
element vertex 1100
property float x
property float y
property float z
property uchar red
property uchar green
property uchar blue
property uchar alpha
end_header
34.980000 33.220000 29.480000 172 167 169 0
35.200000 33.220000 30.800000 172 167 169 0
35.420000 33.220000 31.020000 173 168 170 0
35.640000 33.220000 31.020000 173 168 170 0
35.860000 33.220000 31.020000 172 167 169 0
36.080000 33.220000 31.240000 172 167 169 0
36.300000 33.220000 31.240000 173 168 170 0
36.520000 33.220000 31.240000 173 168 170 0
36.740000 33.220000 32.780000 172 169 171 0
36.960000 33.220000 32.780000 173 170 172 0
37.180000 33.220000 32.780000 173 168 170 0
0.000000 33.440000 25.960000 152 152 149 0
0.220000 33.440000 25.960000 153 153 150 0
0.440000 33.440000 27.060000 153 153 150 0
0.660000 33.440000 28.160000 153 153 150 0
0.880000 33.440000 29.260000 152 152 149 0
1.100000 33.440000 29.260000 153 153 150 0
1.320000 33.440000 29.260000 153 153 150 0
1.540000 33.440000 29.260000 153 151 151 0
1.760000 33.440000 29.260000 154 152 152 0
1.980000 33.440000 29.480000 153 153 150 0
2.200000 33.440000 29.480000 152 152 149 0
2.420000 33.440000 29.480000 153 153 150 0
2.640000 33.440000 29.700000 153 153 150 0
2.860000 33.440000 31.020000 154 152 152 0
3.080000 33.440000 31.020000 154 152 152 0
3.300000 33.440000 31.020000 153 153 150 0
3.520000 33.440000 31.240000 154 154 151 0
3.740000 33.440000 31.240000 154 154 151 0
3.960000 33.440000 31.240000 154 154 151 0
4.180000 33.440000 31.240000 154 152 150 0
4.400000 33.440000 31.460000 155 153 151 0
4.620000 33.440000 32.780000 155 153 153 0
4.840000 33.440000 33.000000 154 152 152 0
5.060000 33.440000 33.000000 154 154 151 0
5.280000 33.440000 33.000000 156 156 153 0
5.500000 33.440000 33.000000 154 154 151 0
5.720000 33.440000 34.320000 155 155 152 0
5.940000 33.440000 34.100000 155 153 153 0
6.160000 33.440000 34.980000 155 153 153 0
6.380000 33.440000 36.080000 154 153 153 0
6.600000 33.440000 36.080000 154 153 153 0
6.820000 33.440000 36.080000 156 154 154 0
7.040000 33.440000 36.300000 155 153 153 0
7.260000 33.440000 37.620000 156 156 153 0
7.480000 33.440000 37.620000 156 156 153 0
7.700000 33.440000 37.840000 156 155 155 0
7.920000 33.440000 37.840000 156 155 155 0
8.140000 33.440000 37.840000 155 154 154 0
8.360000 33.440000 38.060000 156 155 155 0
8.580000 33.440000 38.060000 156 155 155 0
8.800000 33.440000 38.060000 157 156 156 0
9.020000 33.440000 38.060000 158 158 155 0
9.240000 33.440000 38.060000 156 156 153 0
9.460000 33.440000 39.600000 157 156 156 0
9.680000 33.440000 39.600000 158 157 157 0
9.900000 33.440000 39.600000 159 159 156 0
10.120000 33.440000 39.600000 159 159 156 0
10.340000 33.440000 39.820000 159 158 158 0
10.560000 33.440000 39.820000 159 158 158 0
10.780000 33.440000 39.820000 160 161 158 0
11.000000 33.440000 39.820000 159 160 157 0
11.220000 33.440000 39.820000 161 160 160 0
11.440000 33.440000 39.820000 161 160 160 0
11.660000 33.440000 41.140000 161 160 160 0
11.880000 33.440000 32.120000 162 161 161 0
12.100000 33.440000 11.220000 162 161 161 0
12.540000 33.440000 0.220000 164 164 161 0
12.760000 33.440000 0.220000 163 163 160 0
12.980000 33.440000 0.220000 163 162 162 0
13.200000 33.440000 0.220000 162 161 161 0
13.420000 33.440000 0.220000 162 161 161 0
13.640000 33.440000 0.220000 163 162 162 0
13.860000 33.440000 0.220000 164 162 162 0
14.080000 33.440000 1.760000 164 162 162 0
14.300000 33.440000 1.760000 163 163 160 0
14.520000 33.440000 1.760000 163 163 160 0
14.740000 33.440000 1.980000 164 163 163 0
14.960000 33.440000 1.980000 163 162 162 0
15.180000 33.440000 1.980000 164 163 163 0
15.400000 33.440000 1.980000 164 163 163 0
15.620000 33.440000 2.200000 164 163 163 0
15.840000 33.440000 2.200000 164 163 163 0
16.060000 33.440000 3.520000 165 163 163 0
16.280000 33.440000 3.740000 166 164 164 0
16.500000 33.440000 3.740000 165 163 163 0
16.720000 33.440000 3.740000 166 164 164 0
16.940000 33.440000 3.740000 165 164 164 0
17.160000 33.440000 3.960000 165 164 164 0
17.380000 33.440000 3.960000 165 164 164 0
17.600000 33.440000 3.960000 166 165 165 0
17.820000 33.440000 3.960000 165 164 164 0
18.040000 33.440000 5.060000 165 164 164 0
18.260000 33.440000 5.940000 165 164 164 0
18.480000 33.440000 7.040000 163 162 162 0
18.700000 33.440000 7.040000 162 161 162 0
18.920000 33.440000 7.040000 162 161 162 0
19.140000 33.440000 8.580000 162 160 160 0
19.360000 33.440000 8.580000 161 159 159 0
19.580000 33.440000 8.580000 160 159 159 0
19.800000 33.440000 8.800000 158 157 157 0
20.020000 33.440000 8.800000 159 157 157 0
20.240000 33.440000 8.800000 158 156 156 0
20.460000 33.440000 8.800000 159 156 158 0
20.680000 33.440000 9.020000 159 156 158 0
20.900000 33.440000 9.020000 160 158 158 0
21.120000 33.440000 9.020000 161 159 159 0
21.340000 33.440000 9.020000 161 160 160 0
21.560000 33.440000 9.020000 162 161 161 0
21.780000 33.440000 9.240000 161 160 161 0
22.000000 33.440000 10.560000 161 160 161 0
22.220000 33.440000 10.560000 163 160 162 0
22.440000 33.440000 10.780000 163 160 162 0
22.660000 33.440000 10.780000 163 160 162 0
22.880000 33.440000 10.780000 163 160 162 0
23.100000 33.440000 11.000000 163 162 162 0
23.320000 33.440000 10.780000 163 162 162 0
23.540000 33.440000 11.880000 163 162 163 0
23.760000 33.440000 12.980000 162 161 162 0
23.980000 33.440000 14.080000 164 161 163 0
24.200000 33.440000 14.080000 165 162 164 0
24.420000 33.440000 15.400000 166 163 165 0
24.640000 33.440000 15.400000 165 162 164 0
24.860000 33.440000 15.620000 165 164 165 0
25.080000 33.440000 15.620000 164 163 164 0
25.300000 33.440000 15.620000 165 163 163 0
25.520000 33.440000 15.840000 165 163 163 0
25.740000 33.440000 15.840000 166 164 164 0
25.960000 33.440000 15.840000 166 164 164 0
26.180000 33.440000 15.840000 168 163 165 0
26.400000 33.440000 17.380000 167 162 164 0
26.620000 33.440000 17.380000 163 162 163 0
26.840000 33.440000 17.380000 164 163 164 0
27.060000 33.440000 17.600000 165 162 164 0
27.280000 33.440000 17.600000 166 163 165 0
27.500000 33.440000 17.600000 165 163 163 0
27.720000 33.440000 17.820000 166 164 164 0
27.940000 33.440000 17.820000 168 163 165 0
28.160000 33.440000 17.820000 168 163 165 0
28.380000 33.440000 18.920000 166 163 165 0
28.600000 33.440000 19.800000 166 163 165 0
28.820000 33.440000 20.900000 169 164 166 0
29.040000 33.440000 22.220000 170 165 167 0
29.260000 33.440000 22.220000 166 165 166 0
29.480000 33.440000 22.440000 166 165 166 0
29.700000 33.440000 22.440000 168 166 166 0
29.920000 33.440000 22.440000 168 166 166 0
30.140000 33.440000 22.660000 168 165 167 0
30.360000 33.440000 22.660000 169 166 168 0
30.580000 33.440000 22.660000 170 164 169 0
30.800000 33.440000 22.660000 169 163 168 0
31.020000 33.440000 22.880000 167 164 166 0
31.240000 33.440000 22.880000 167 164 166 0
31.460000 33.440000 22.880000 169 164 166 0
31.680000 33.440000 24.420000 170 165 167 0
31.900000 33.440000 24.420000 170 165 167 0
32.120000 33.440000 24.420000 170 165 167 0
32.340000 33.440000 24.640000 171 166 168 0
32.560000 33.440000 24.640000 172 167 169 0
32.780000 33.440000 24.640000 169 166 168 0
33.000000 33.440000 24.640000 168 165 167 0
33.220000 33.440000 25.960000 172 167 168 0
33.440000 33.440000 28.160000 172 167 168 0
33.660000 33.440000 29.260000 173 168 170 0
33.880000 33.440000 29.260000 173 168 170 0
34.100000 33.440000 29.260000 174 167 170 0
34.320000 33.440000 29.260000 175 168 171 0
34.540000 33.440000 29.260000 171 168 170 0
34.760000 33.440000 29.480000 171 168 170 0
34.980000 33.440000 30.800000 174 169 171 0
35.200000 33.440000 31.020000 173 168 170 0
35.420000 33.440000 31.020000 173 168 170 0
35.640000 33.440000 31.020000 173 168 170 0
35.860000 33.440000 31.240000 174 169 171 0
36.080000 33.440000 31.240000 174 169 171 0
36.300000 33.440000 31.240000 175 170 172 0
36.520000 33.440000 32.780000 174 169 171 0
36.740000 33.440000 32.780000 172 169 171 0
36.960000 33.440000 32.780000 173 170 172 0
37.180000 33.440000 32.780000 175 170 172 0
0.000000 33.660000 26.840000 152 153 152 0
0.220000 33.660000 28.160000 151 152 151 0
0.440000 33.660000 27.940000 152 153 152 0
0.660000 33.660000 29.260000 151 152 151 0
0.880000 33.660000 29.260000 152 153 152 0
1.100000 33.660000 29.260000 152 153 152 0
1.320000 33.660000 29.260000 153 154 153 0
1.540000 33.660000 29.480000 152 153 152 0
1.760000 33.660000 29.480000 152 153 152 0
1.980000 33.660000 29.480000 152 153 152 0
2.200000 33.660000 29.480000 152 153 152 0
2.420000 33.660000 29.700000 154 155 154 0
2.640000 33.660000 29.700000 152 153 152 0
2.860000 33.660000 31.020000 154 155 154 0
3.080000 33.660000 31.240000 153 154 153 0
3.300000 33.660000 31.240000 154 155 154 0
3.520000 33.660000 31.240000 155 156 155 0
3.740000 33.660000 31.240000 154 155 154 0
3.960000 33.660000 31.460000 153 154 153 0
4.180000 33.660000 31.460000 153 154 153 0
4.400000 33.660000 31.460000 154 155 154 0
4.620000 33.660000 33.000000 153 154 153 0
4.840000 33.660000 33.000000 153 154 153 0
5.060000 33.660000 33.000000 156 155 155 0
5.280000 33.660000 33.000000 155 154 154 0
5.500000 33.660000 34.100000 156 155 155 0
5.720000 33.660000 34.980000 155 154 154 0
5.940000 33.660000 36.300000 154 155 154 0
6.160000 33.660000 36.080000 154 155 154 0
6.380000 33.660000 36.080000 154 155 154 0
6.600000 33.660000 36.300000 155 156 155 0
6.820000 33.660000 36.300000 155 154 154 0
7.040000 33.660000 36.300000 155 154 154 0
7.260000 33.660000 37.840000 156 157 156 0
7.480000 33.660000 37.840000 155 156 155 0
7.700000 33.660000 37.840000 155 156 155 0
7.920000 33.660000 37.840000 156 157 156 0
8.140000 33.660000 38.060000 155 156 155 0
8.360000 33.660000 38.060000 155 156 155 0
8.580000 33.660000 38.060000 156 155 155 0
8.800000 33.660000 38.060000 158 157 157 0
9.020000 33.660000 38.280000 158 157 157 0
9.240000 33.660000 38.280000 158 157 157 0
9.460000 33.660000 39.600000 157 158 157 0
9.680000 33.660000 39.600000 156 157 156 0
9.900000 33.660000 39.820000 158 159 158 0
10.120000 33.660000 39.820000 158 159 158 0
10.340000 33.660000 39.820000 159 158 158 0
10.560000 33.660000 39.820000 160 159 159 0
10.780000 33.660000 39.820000 160 159 159 0
11.000000 33.660000 39.820000 160 159 159 0
11.220000 33.660000 39.820000 160 159 159 0
11.440000 33.660000 40.040000 161 160 160 0
11.660000 33.660000 38.280000 161 160 160 0
11.880000 33.660000 26.620000 162 161 161 0
12.100000 33.660000 8.360000 162 161 161 0
12.760000 33.660000 0.220000 162 161 161 0
12.980000 33.660000 0.220000 162 161 161 0
13.200000 33.660000 0.220000 162 161 161 0
13.420000 33.660000 0.220000 162 161 161 0
13.640000 33.660000 0.220000 162 161 161 0
13.860000 33.660000 0.220000 162 161 161 0
14.080000 33.660000 1.760000 162 161 161 0
14.300000 33.660000 1.760000 163 162 162 0
14.520000 33.660000 1.760000 164 163 163 0
14.740000 33.660000 1.980000 164 163 163 0
14.960000 33.660000 1.980000 163 162 162 0
15.180000 33.660000 1.980000 164 163 163 0
15.400000 33.660000 1.980000 164 163 163 0
15.620000 33.660000 2.200000 164 163 163 0
15.840000 33.660000 2.200000 164 163 163 0
16.060000 33.660000 3.520000 164 163 163 0
16.280000 33.660000 3.740000 165 164 164 0
16.500000 33.660000 3.740000 165 164 164 0
16.720000 33.660000 3.740000 165 164 164 0
16.940000 33.660000 3.740000 165 164 164 0
17.160000 33.660000 3.960000 164 163 163 0
17.380000 33.660000 3.960000 167 165 165 0
17.600000 33.660000 3.960000 166 164 164 0
17.820000 33.660000 3.960000 164 163 163 0
18.040000 33.660000 5.060000 164 163 163 0
18.260000 33.660000 5.940000 164 163 164 0
18.480000 33.660000 7.040000 164 163 164 0
18.700000 33.660000 7.040000 163 162 163 0
18.920000 33.660000 7.040000 163 162 163 0
19.140000 33.660000 8.580000 162 161 162 0
19.360000 33.660000 8.580000 161 160 161 0
19.580000 33.660000 8.580000 160 159 160 0
19.800000 33.660000 8.800000 159 158 159 0
20.020000 33.660000 8.800000 159 158 159 0
20.240000 33.660000 8.800000 159 158 159 0
20.460000 33.660000 8.800000 159 158 159 0
20.680000 33.660000 9.020000 160 159 160 0
20.900000 33.660000 9.020000 161 160 161 0
21.120000 33.660000 9.020000 161 160 161 0
21.340000 33.660000 9.020000 162 161 162 0
21.560000 33.660000 9.240000 163 162 163 0
21.780000 33.660000 9.240000 162 161 162 0
22.000000 33.660000 10.780000 163 162 163 0
22.220000 33.660000 10.780000 161 162 162 0
22.440000 33.660000 10.780000 161 162 162 0
22.660000 33.660000 10.780000 163 162 163 0
22.880000 33.660000 11.000000 163 162 163 0
23.100000 33.660000 11.000000 163 162 163 0
23.320000 33.660000 12.100000 163 162 163 0
23.540000 33.660000 12.980000 163 162 163 0
23.760000 33.660000 14.080000 164 163 164 0
23.980000 33.660000 14.080000 164 163 164 0
24.200000 33.660000 15.400000 165 164 165 0
24.420000 33.660000 15.400000 165 164 165 0
24.640000 33.660000 15.620000 166 165 166 0
24.860000 33.660000 15.620000 165 164 165 0
25.080000 33.660000 15.620000 166 165 166 0
25.300000 33.660000 15.840000 167 166 167 0
25.520000 33.660000 15.840000 166 165 166 0
25.740000 33.660000 15.840000 166 165 166 0
25.960000 33.660000 15.840000 165 164 165 0
26.180000 33.660000 17.380000 166 165 166 0
26.400000 33.660000 17.380000 165 164 165 0
26.620000 33.660000 17.380000 166 165 166 0
26.840000 33.660000 17.600000 166 165 166 0
27.060000 33.660000 17.600000 166 165 166 0
27.280000 33.660000 17.600000 166 165 166 0
27.500000 33.660000 17.600000 166 165 168 0
27.720000 33.660000 17.820000 166 165 168 0
27.940000 33.660000 17.820000 167 164 166 0
28.160000 33.660000 17.820000 167 164 166 0
28.380000 33.660000 20.240000 166 165 166 0
28.600000 33.660000 21.120000 167 166 167 0
28.820000 33.660000 22.220000 167 166 167 0
29.040000 33.660000 22.220000 167 166 167 0
29.260000 33.660000 22.440000 168 167 170 0
29.480000 33.660000 22.440000 168 167 170 0
29.700000 33.660000 22.440000 167 166 167 0
29.920000 33.660000 22.440000 169 168 169 0
30.140000 33.660000 22.660000 169 166 168 0
30.360000 33.660000 22.660000 169 166 168 0
30.580000 33.660000 22.660000 168 167 168 0
30.800000 33.660000 22.880000 168 167 168 0
31.020000 33.660000 22.880000 169 168 171 0
31.240000 33.660000 22.880000 167 166 169 0
31.460000 33.660000 22.880000 168 165 167 0
31.680000 33.660000 24.420000 169 166 168 0
31.900000 33.660000 24.420000 169 166 168 0
32.120000 33.660000 24.640000 170 167 169 0
32.340000 33.660000 24.640000 170 167 171 0
32.560000 33.660000 24.640000 170 167 171 0
32.780000 33.660000 24.640000 170 167 171 0
33.000000 33.660000 24.860000 171 168 172 0
33.220000 33.660000 25.960000 170 167 169 0
33.440000 33.660000 27.940000 172 169 171 0
33.660000 33.660000 29.040000 171 168 170 0
33.880000 33.660000 29.260000 171 168 170 0
34.100000 33.660000 29.260000 171 168 172 0
34.320000 33.660000 29.260000 173 170 174 0
34.540000 33.660000 29.480000 171 168 172 0
34.760000 33.660000 29.480000 172 169 173 0
34.980000 33.660000 30.800000 174 169 171 0
35.200000 33.660000 31.020000 174 169 171 0
35.420000 33.660000 31.020000 172 169 173 0
35.640000 33.660000 31.020000 172 169 173 0
35.860000 33.660000 31.240000 174 168 173 0
36.080000 33.660000 31.240000 175 169 174 0
36.300000 33.660000 32.560000 175 170 172 0
36.520000 33.660000 32.780000 175 170 172 0
36.740000 33.660000 32.780000 175 170 172 0
36.960000 33.660000 32.780000 176 171 173 0
37.180000 33.660000 33.000000 175 169 174 0
0.000000 33.880000 27.940000 153 154 153 0
0.220000 33.880000 29.260000 152 153 152 0
0.440000 33.880000 29.260000 153 154 153 0
0.660000 33.880000 29.260000 153 154 153 0
0.880000 33.880000 29.260000 154 155 154 0
1.100000 33.880000 29.260000 152 153 152 0
1.320000 33.880000 29.480000 154 155 154 0
1.540000 33.880000 29.480000 153 154 153 0
1.760000 33.880000 29.480000 153 154 153 0
1.980000 33.880000 29.480000 154 155 154 0
2.200000 33.880000 29.700000 155 156 155 0
2.420000 33.880000 29.700000 154 155 154 0
2.640000 33.880000 31.020000 154 155 154 0
2.860000 33.880000 31.240000 154 155 154 0
3.080000 33.880000 31.240000 154 155 154 0
3.300000 33.880000 31.240000 153 154 153 0
3.520000 33.880000 31.240000 154 155 154 0
3.740000 33.880000 31.460000 154 155 154 0
3.960000 33.880000 31.460000 154 155 154 0
4.180000 33.880000 31.460000 154 155 154 0
4.400000 33.880000 33.000000 154 155 154 0
4.620000 33.880000 33.000000 155 156 155 0
4.840000 33.880000 33.000000 156 157 156 0
5.060000 33.880000 33.000000 157 156 156 0
5.280000 33.880000 32.780000 157 156 156 0
5.500000 33.880000 34.980000 156 155 155 0
5.720000 33.880000 36.080000 156 155 155 0
5.940000 33.880000 36.080000 156 157 156 0
6.160000 33.880000 36.080000 156 157 156 0
6.380000 33.880000 36.080000 156 157 156 0
6.600000 33.880000 36.300000 155 156 155 0
6.820000 33.880000 36.300000 157 156 156 0
7.040000 33.880000 37.840000 157 156 156 0
7.260000 33.880000 37.840000 156 157 156 0
7.480000 33.880000 37.840000 156 157 156 0
7.700000 33.880000 37.840000 156 157 156 0
7.920000 33.880000 38.060000 157 158 157 0
8.140000 33.880000 38.060000 157 158 157 0
8.360000 33.880000 38.060000 157 158 157 0
8.580000 33.880000 38.060000 158 157 157 0
8.800000 33.880000 38.280000 158 157 157 0
9.020000 33.880000 38.280000 159 158 158 0
9.240000 33.880000 39.600000 159 158 158 0
9.460000 33.880000 39.600000 158 159 158 0
9.680000 33.880000 39.820000 158 159 158 0
9.900000 33.880000 39.820000 158 159 158 0
10.120000 33.880000 39.820000 158 159 158 0
10.340000 33.880000 39.820000 160 159 159 0
10.560000 33.880000 39.820000 159 158 158 0
10.780000 33.880000 39.820000 160 159 159 0
11.000000 33.880000 39.820000 161 160 160 0
11.220000 33.880000 40.040000 163 162 162 0
11.440000 33.880000 40.040000 162 161 161 0
11.660000 33.880000 32.780000 162 161 161 0
11.880000 33.880000 15.620000 162 161 161 0
12.100000 33.880000 2.860000 162 161 161 0
12.760000 33.880000 0.220000 162 161 161 0
12.980000 33.880000 0.220000 163 162 162 0
13.200000 33.880000 0.220000 162 161 161 0
13.420000 33.880000 0.220000 162 161 161 0
13.640000 33.880000 0.220000 163 162 162 0
13.860000 33.880000 0.220000 163 162 162 0
14.080000 33.880000 1.760000 163 162 162 0
14.300000 33.880000 1.760000 163 162 162 0
14.520000 33.880000 1.760000 164 163 163 0
14.740000 33.880000 1.980000 163 162 162 0
14.960000 33.880000 1.980000 163 162 162 0
15.180000 33.880000 1.980000 163 162 162 0
15.400000 33.880000 1.980000 163 162 162 0
15.620000 33.880000 2.200000 164 163 163 0
15.840000 33.880000 2.200000 164 163 163 0
16.060000 33.880000 3.520000 164 163 163 0
16.280000 33.880000 3.740000 165 164 164 0
16.500000 33.880000 3.740000 165 164 164 0
16.720000 33.880000 3.740000 165 164 164 0
16.940000 33.880000 3.740000 165 164 164 0
17.160000 33.880000 3.960000 165 164 164 0
17.380000 33.880000 3.960000 166 164 164 0
17.600000 33.880000 3.960000 165 163 163 0
17.820000 33.880000 3.960000 164 163 163 0
18.040000 33.880000 5.060000 163 162 162 0
18.260000 33.880000 5.940000 164 163 164 0
18.480000 33.880000 7.040000 163 162 163 0
18.700000 33.880000 7.040000 163 162 163 0
18.920000 33.880000 7.040000 164 163 164 0
19.140000 33.880000 8.580000 163 162 163 0
19.360000 33.880000 8.580000 163 162 163 0
19.580000 33.880000 8.580000 163 162 163 0
19.800000 33.880000 8.800000 162 161 162 0
20.020000 33.880000 8.800000 163 162 163 0
20.240000 33.880000 8.800000 162 161 162 0
20.460000 33.880000 9.020000 162 161 162 0
20.680000 33.880000 9.020000 162 161 162 0
20.900000 33.880000 9.020000 162 161 162 0
21.120000 33.880000 9.020000 163 162 163 0
21.340000 33.880000 9.020000 164 163 164 0
21.560000 33.880000 9.240000 164 163 164 0
21.780000 33.880000 10.560000 164 163 164 0
22.000000 33.880000 10.780000 163 162 163 0
22.220000 33.880000 10.780000 162 163 163 0
22.440000 33.880000 10.780000 163 164 164 0
22.660000 33.880000 10.780000 162 161 162 0
22.880000 33.880000 11.000000 163 162 163 0
23.100000 33.880000 11.000000 164 163 164 0
23.320000 33.880000 11.880000 165 164 165 0
23.540000 33.880000 14.080000 166 165 166 0
23.760000 33.880000 13.860000 166 165 166 0
23.980000 33.880000 15.400000 166 165 166 0
24.200000 33.880000 15.400000 166 165 166 0
24.420000 33.880000 15.400000 167 166 167 0
24.640000 33.880000 15.620000 167 166 167 0
24.860000 33.880000 15.620000 167 166 167 0
25.080000 33.880000 15.620000 166 165 166 0
25.300000 33.880000 15.840000 168 167 168 0
25.520000 33.880000 15.840000 167 166 167 0
25.740000 33.880000 15.840000 166 165 166 0
25.960000 33.880000 17.380000 166 165 166 0
26.180000 33.880000 17.380000 166 165 166 0
26.400000 33.880000 17.380000 167 166 167 0
26.620000 33.880000 17.380000 167 166 167 0
26.840000 33.880000 17.600000 167 166 167 0
27.060000 33.880000 17.600000 167 166 167 0
27.280000 33.880000 17.600000 167 166 167 0
27.500000 33.880000 17.820000 168 167 170 0
27.720000 33.880000 17.820000 166 165 168 0
27.940000 33.880000 17.820000 168 165 167 0
28.160000 33.880000 18.920000 169 166 168 0
28.380000 33.880000 19.800000 168 167 168 0
28.600000 33.880000 20.900000 168 167 168 0
28.820000 33.880000 22.220000 168 167 168 0
29.040000 33.880000 22.220000 168 167 168 0
29.260000 33.880000 22.440000 169 168 171 0
29.480000 33.880000 22.440000 169 168 171 0
29.700000 33.880000 22.440000 168 167 168 0
29.920000 33.880000 22.660000 169 168 169 0
30.140000 33.880000 22.660000 170 167 169 0
30.360000 33.880000 22.660000 171 168 170 0
30.580000 33.880000 22.660000 169 168 169 0
30.800000 33.880000 22.880000 169 168 169 0
31.020000 33.880000 22.880000 169 168 171 0
31.240000 33.880000 22.880000 169 168 171 0
31.460000 33.880000 22.880000 170 167 169 0
31.680000 33.880000 24.420000 170 167 169 0
31.900000 33.880000 24.420000 170 167 169 0
32.120000 33.880000 24.640000 171 168 170 0
32.340000 33.880000 24.640000 172 169 173 0
32.560000 33.880000 24.640000 170 167 171 0
32.780000 33.880000 24.640000 171 168 172 0
33.000000 33.880000 24.860000 172 169 173 0
33.220000 33.880000 25.960000 172 169 171 0
33.440000 33.880000 27.940000 172 169 171 0
33.660000 33.880000 29.260000 172 169 171 0
33.880000 33.880000 29.260000 172 169 171 0
34.100000 33.880000 29.260000 173 170 174 0
34.320000 33.880000 29.260000 173 170 174 0
34.540000 33.880000 29.480000 172 169 173 0
34.760000 33.880000 29.480000 173 170 174 0
34.980000 33.880000 31.020000 175 170 172 0
35.200000 33.880000 31.020000 175 170 172 0
35.420000 33.880000 31.020000 173 170 174 0
35.640000 33.880000 31.020000 173 170 174 0
35.860000 33.880000 31.240000 175 169 174 0
36.080000 33.880000 31.240000 175 169 174 0
36.300000 33.880000 32.560000 175 170 172 0
36.520000 33.880000 32.780000 175 170 172 0
36.740000 33.880000 32.780000 176 171 173 0
36.960000 33.880000 32.780000 176 171 173 0
37.180000 33.880000 33.000000 176 170 175 0
0.000000 34.100000 29.040000 153 154 154 0
0.220000 34.100000 29.260000 152 155 155 0
0.440000 34.100000 29.260000 153 156 156 0
0.660000 34.100000 29.260000 153 156 156 0
0.880000 34.100000 29.260000 153 156 156 0
1.100000 34.100000 29.260000 154 155 155 0
1.320000 34.100000 29.480000 155 156 156 0
1.540000 34.100000 29.480000 154 155 155 0
1.760000 34.100000 29.480000 154 155 155 0
1.980000 34.100000 29.700000 152 155 155 0
2.200000 34.100000 29.700000 153 156 156 0
2.420000 34.100000 31.020000 153 156 156 0
2.640000 34.100000 31.020000 153 156 156 0
2.860000 34.100000 31.240000 152 155 155 0
3.080000 34.100000 31.240000 153 156 156 0
3.300000 34.100000 31.240000 153 157 155 0
3.520000 34.100000 31.240000 153 157 155 0
3.740000 34.100000 31.460000 153 157 155 0
3.960000 34.100000 31.460000 153 157 155 0
4.180000 34.100000 31.460000 156 157 157 0
4.400000 34.100000 33.000000 156 157 157 0
4.620000 34.100000 33.000000 155 158 158 0
4.840000 34.100000 33.000000 155 158 158 0
5.060000 34.100000 33.000000 156 157 156 0
5.280000 34.100000 34.100000 157 158 157 0
5.500000 34.100000 36.300000 152 156 154 0
5.720000 34.100000 36.080000 153 157 155 0
5.940000 34.100000 36.080000 157 158 158 0
6.160000 34.100000 36.080000 157 158 158 0
6.380000 34.100000 36.300000 157 158 158 0
6.600000 34.100000 36.300000 157 158 158 0
6.820000 34.100000 37.620000 158 159 158 0
7.040000 34.100000 37.840000 157 158 157 0
7.260000 34.100000 37.840000 156 157 156 0
7.480000 34.100000 37.840000 157 158 157 0
7.700000 34.100000 38.060000 157 158 158 0
7.920000 34.100000 38.060000 157 158 158 0
8.140000 34.100000 38.060000 158 159 159 0
8.360000 34.100000 38.060000 157 158 158 0
8.580000 34.100000 38.060000 158 159 158 0
8.800000 34.100000 38.280000 158 159 158 0
9.020000 34.100000 38.280000 157 158 157 0
9.240000 34.100000 39.600000 158 159 158 0
9.460000 34.100000 39.820000 159 158 158 0
9.680000 34.100000 39.820000 160 159 159 0
9.900000 34.100000 39.820000 159 158 159 0
10.120000 34.100000 39.820000 160 159 160 0
10.340000 34.100000 39.820000 161 160 160 0
10.560000 34.100000 39.820000 161 160 160 0
10.780000 34.100000 39.820000 161 160 160 0
11.000000 34.100000 40.040000 161 160 160 0
11.220000 34.100000 40.040000 161 160 160 0
11.440000 34.100000 40.040000 162 161 161 0
11.660000 34.100000 30.140000 162 161 162 0
11.880000 34.100000 10.120000 161 160 161 0
12.760000 34.100000 0.220000 161 160 161 0
12.980000 34.100000 0.220000 161 160 161 0
13.200000 34.100000 0.220000 163 162 163 0
13.420000 34.100000 0.220000 163 162 163 0
13.640000 34.100000 0.220000 163 162 163 0
13.860000 34.100000 0.220000 164 163 164 0
14.080000 34.100000 1.760000 162 161 162 0
14.300000 34.100000 1.760000 163 162 163 0
14.520000 34.100000 1.760000 164 163 164 0
14.740000 34.100000 1.980000 164 163 164 0
14.960000 34.100000 1.980000 163 162 163 0
15.180000 34.100000 1.980000 165 164 165 0
15.400000 34.100000 1.980000 164 163 164 0
15.620000 34.100000 2.200000 164 163 164 0
15.840000 34.100000 2.200000 164 163 164 0
16.060000 34.100000 3.520000 165 164 165 0
16.280000 34.100000 3.740000 165 164 165 0
16.500000 34.100000 3.740000 165 164 165 0
16.720000 34.100000 3.740000 164 163 164 0
16.940000 34.100000 3.740000 164 163 164 0
17.160000 34.100000 3.960000 163 162 163 0
17.380000 34.100000 3.960000 165 164 165 0
17.600000 34.100000 3.960000 163 162 163 0
17.820000 34.100000 3.960000 164 163 164 0
18.040000 34.100000 5.060000 164 163 164 0
18.260000 34.100000 7.260000 164 163 164 0
18.480000 34.100000 7.040000 163 162 163 0
18.700000 34.100000 7.040000 164 163 166 0
18.920000 34.100000 7.040000 163 162 165 0
19.140000 34.100000 8.580000 164 163 164 0
19.360000 34.100000 8.580000 163 162 163 0
19.580000 34.100000 8.580000 163 162 163 0
19.800000 34.100000 8.800000 163 162 163 0
20.020000 34.100000 8.800000 162 161 162 0
20.240000 34.100000 8.800000 163 162 163 0
20.460000 34.100000 9.020000 163 162 165 0
20.680000 34.100000 9.020000 163 162 165 0
20.900000 34.100000 9.020000 163 162 163 0
21.120000 34.100000 9.020000 164 163 164 0
21.340000 34.100000 9.240000 165 164 165 0
21.560000 34.100000 9.240000 164 163 164 0
21.780000 34.100000 10.560000 164 163 166 0
22.000000 34.100000 10.780000 164 163 166 0
22.220000 34.100000 10.780000 164 163 166 0
22.440000 34.100000 10.780000 164 163 166 0
22.660000 34.100000 10.780000 164 163 166 0
22.880000 34.100000 11.000000 164 163 166 0
23.100000 34.100000 12.100000 164 163 166 0
23.320000 34.100000 12.980000 166 165 168 0
23.540000 34.100000 14.080000 166 165 168 0
23.760000 34.100000 13.860000 166 165 168 0
23.980000 34.100000 15.400000 165 165 168 0
24.200000 34.100000 15.400000 166 166 169 0
24.420000 34.100000 15.400000 165 165 168 0
24.640000 34.100000 15.620000 166 166 169 0
24.860000 34.100000 15.620000 167 166 169 0
25.080000 34.100000 15.620000 169 168 171 0
25.300000 34.100000 15.840000 167 167 170 0
25.520000 34.100000 15.840000 165 165 168 0
25.740000 34.100000 15.840000 166 166 169 0
25.960000 34.100000 17.380000 165 165 168 0
26.180000 34.100000 17.380000 166 166 169 0
26.400000 34.100000 17.380000 166 166 169 0
26.620000 34.100000 17.600000 168 167 170 0
26.840000 34.100000 17.600000 167 166 169 0
27.060000 34.100000 17.600000 166 166 169 0
27.280000 34.100000 17.600000 166 166 169 0
27.500000 34.100000 17.820000 167 166 169 0
27.720000 34.100000 17.820000 167 166 169 0
27.940000 34.100000 17.820000 169 168 171 0
28.160000 34.100000 18.920000 169 168 171 0
28.380000 34.100000 21.120000 168 167 170 0
28.600000 34.100000 22.220000 168 167 170 0
28.820000 34.100000 22.220000 169 168 171 0
29.040000 34.100000 22.220000 168 167 170 0
29.260000 34.100000 22.440000 169 168 171 0
29.480000 34.100000 22.440000 169 168 171 0
29.700000 34.100000 22.440000 169 168 171 0
29.920000 34.100000 22.660000 170 169 172 0
30.140000 34.100000 22.660000 169 169 172 0
30.360000 34.100000 22.660000 168 168 171 0
30.580000 34.100000 22.660000 169 168 171 0
30.800000 34.100000 22.880000 169 168 171 0
31.020000 34.100000 22.880000 170 169 172 0
31.240000 34.100000 22.880000 170 169 172 0
31.460000 34.100000 22.880000 170 169 172 0
31.680000 34.100000 24.420000 170 169 172 0
31.900000 34.100000 24.420000 170 169 172 0
32.120000 34.100000 24.640000 169 168 171 0
32.340000 34.100000 24.640000 169 168 171 0
32.560000 34.100000 24.640000 172 171 174 0
32.780000 34.100000 24.640000 172 170 176 0
33.000000 34.100000 24.860000 171 169 175 0
33.220000 34.100000 25.960000 171 170 173 0
33.440000 34.100000 27.940000 171 170 173 0
33.660000 34.100000 29.260000 172 169 173 0
33.880000 34.100000 29.260000 172 169 173 0
34.100000 34.100000 29.260000 172 169 173 0
34.320000 34.100000 29.260000 173 170 174 0
34.540000 34.100000 29.480000 172 169 175 0
34.760000 34.100000 29.480000 172 169 175 0
34.980000 34.100000 31.020000 174 171 175 0
35.200000 34.100000 31.020000 174 171 175 0
35.420000 34.100000 31.020000 173 172 175 0
35.640000 34.100000 31.020000 172 171 174 0
35.860000 34.100000 31.240000 174 171 175 0
36.080000 34.100000 31.240000 172 169 173 0
36.300000 34.100000 32.560000 173 170 176 0
36.520000 34.100000 32.780000 172 169 175 0
36.740000 34.100000 32.780000 173 170 174 0
36.960000 34.100000 32.780000 174 171 175 0
37.180000 34.100000 33.000000 173 170 176 0
0.000000 34.320000 29.260000 155 156 156 0
0.220000 34.320000 29.260000 153 156 156 0
0.440000 34.320000 29.260000 153 156 156 0
0.660000 34.320000 29.260000 153 156 156 0
0.880000 34.320000 29.260000 154 157 157 0
1.100000 34.320000 29.260000 155 156 156 0
1.320000 34.320000 29.480000 155 156 156 0
1.540000 34.320000 29.480000 155 156 156 0
1.760000 34.320000 29.480000 154 155 155 0
1.980000 34.320000 29.700000 153 156 156 0
2.200000 34.320000 29.700000 154 157 157 0
2.420000 34.320000 31.020000 153 156 156 0
2.640000 34.320000 31.240000 154 157 157 0
2.860000 34.320000 31.240000 152 155 155 0
3.080000 34.320000 31.240000 153 156 156 0
3.300000 34.320000 31.240000 153 157 155 0
3.520000 34.320000 31.460000 153 157 155 0
3.740000 34.320000 31.460000 153 157 155 0
3.960000 34.320000 31.460000 154 158 156 0
4.180000 34.320000 33.000000 156 157 157 0
4.400000 34.320000 33.000000 157 158 158 0
4.620000 34.320000 33.000000 156 159 159 0
4.840000 34.320000 33.000000 155 158 158 0
5.060000 34.320000 32.780000 157 158 157 0
5.280000 34.320000 34.980000 156 157 156 0
5.500000 34.320000 36.080000 154 158 156 0
5.720000 34.320000 36.080000 153 157 155 0
5.940000 34.320000 36.080000 156 157 157 0
6.160000 34.320000 36.080000 156 157 157 0
6.380000 34.320000 36.300000 157 158 158 0
6.600000 34.320000 37.620000 156 157 157 0
6.820000 34.320000 37.620000 157 158 157 0
7.040000 34.320000 37.840000 157 158 157 0
7.260000 34.320000 37.840000 157 158 157 0
7.480000 34.320000 37.840000 156 157 156 0
7.700000 34.320000 38.060000 158 159 159 0
7.920000 34.320000 38.060000 158 159 159 0
8.140000 34.320000 38.060000 157 158 158 0
8.360000 34.320000 38.060000 157 158 158 0
8.580000 34.320000 38.060000 158 159 158 0
8.800000 34.320000 38.280000 158 159 158 0
9.020000 34.320000 39.600000 159 160 159 0
9.240000 34.320000 39.600000 158 159 158 0
9.460000 34.320000 39.820000 160 159 159 0
9.680000 34.320000 39.820000 160 159 159 0
9.900000 34.320000 39.820000 159 158 159 0
10.120000 34.320000 39.820000 159 158 159 0
10.340000 34.320000 39.820000 160 159 159 0
10.560000 34.320000 39.820000 160 159 159 0
10.780000 34.320000 39.820000 161 160 160 0
11.000000 34.320000 40.040000 160 159 159 0
11.220000 34.320000 40.040000 160 159 159 0
11.440000 34.320000 40.040000 161 160 160 0
11.660000 34.320000 30.140000 161 160 161 0
11.880000 34.320000 10.120000 160 159 160 0
12.760000 34.320000 0.220000 160 159 160 0
12.980000 34.320000 0.220000 160 159 160 0
13.200000 34.320000 0.220000 161 160 161 0
13.420000 34.320000 0.220000 161 160 161 0
13.640000 34.320000 0.220000 162 161 162 0
13.860000 34.320000 0.220000 163 162 163 0
14.080000 34.320000 1.760000 162 161 162 0
14.300000 34.320000 1.760000 162 161 162 0
14.520000 34.320000 1.760000 163 162 163 0
14.740000 34.320000 1.980000 163 162 163 0
14.960000 34.320000 1.980000 163 162 163 0
15.180000 34.320000 1.980000 163 162 163 0
15.400000 34.320000 1.980000 163 162 163 0
15.620000 34.320000 2.200000 164 163 164 0
15.840000 34.320000 2.200000 164 163 164 0
16.060000 34.320000 3.520000 164 163 164 0
16.280000 34.320000 3.740000 164 163 164 0
16.500000 34.320000 3.740000 164 163 164 0
16.720000 34.320000 3.740000 163 162 163 0
16.940000 34.320000 3.740000 163 162 163 0
17.160000 34.320000 3.960000 165 164 165 0
17.380000 34.320000 3.960000 163 162 163 0
17.600000 34.320000 3.960000 162 161 162 0
17.820000 34.320000 3.960000 163 162 163 0
18.040000 34.320000 5.060000 163 162 163 0
18.260000 34.320000 7.260000 163 162 163 0
18.480000 34.320000 7.040000 164 163 164 0
18.700000 34.320000 7.040000 163 162 165 0
18.920000 34.320000 7.040000 163 162 165 0
19.140000 34.320000 8.580000 163 162 163 0
19.360000 34.320000 8.580000 163 162 163 0
19.580000 34.320000 8.580000 163 162 163 0
19.800000 34.320000 8.800000 163 162 163 0
20.020000 34.320000 8.800000 162 161 162 0
20.240000 34.320000 8.800000 163 162 163 0
20.460000 34.320000 9.020000 163 162 165 0
20.680000 34.320000 9.020000 163 162 165 0
20.900000 34.320000 9.020000 164 163 164 0
21.120000 34.320000 9.020000 164 163 164 0
21.340000 34.320000 9.240000 164 163 164 0
21.560000 34.320000 9.240000 164 163 164 0
21.780000 34.320000 10.560000 164 163 166 0
22.000000 34.320000 10.780000 163 162 165 0
22.220000 34.320000 10.780000 164 163 166 0
22.440000 34.320000 10.780000 165 164 167 0
22.660000 34.320000 10.780000 164 163 166 0
22.880000 34.320000 11.000000 164 163 166 0
23.100000 34.320000 12.100000 164 163 166 0
23.320000 34.320000 14.080000 166 165 168 0
23.540000 34.320000 13.860000 166 165 168 0
23.760000 34.320000 15.400000 166 165 168 0
23.980000 34.320000 15.400000 165 165 168 0
24.200000 34.320000 15.400000 165 165 168 0
24.420000 34.320000 15.400000 165 165 168 0
24.640000 34.320000 15.620000 166 166 169 0
24.860000 34.320000 15.620000 167 166 169 0
25.080000 34.320000 15.620000 167 166 169 0
25.300000 34.320000 15.840000 165 165 168 0
25.520000 34.320000 15.840000 165 165 168 0
25.740000 34.320000 15.840000 166 166 169 0
25.960000 34.320000 17.380000 165 165 168 0
26.180000 34.320000 17.380000 166 166 169 0
26.400000 34.320000 17.380000 166 166 169 0
26.620000 34.320000 17.600000 167 166 169 0
26.840000 34.320000 17.600000 166 165 168 0
27.060000 34.320000 17.600000 167 167 170 0
27.280000 34.320000 17.600000 167 167 170 0
27.500000 34.320000 17.820000 168 167 170 0
27.720000 34.320000 17.820000 168 167 170 0
27.940000 34.320000 17.820000 169 168 171 0
28.160000 34.320000 18.920000 168 167 170 0
28.380000 34.320000 21.120000 168 167 170 0
28.600000 34.320000 22.220000 167 166 169 0
28.820000 34.320000 22.220000 168 167 170 0
29.040000 34.320000 22.220000 170 169 172 0
29.260000 34.320000 22.440000 169 168 171 0
29.480000 34.320000 22.440000 169 168 171 0
29.700000 34.320000 22.440000 169 168 171 0
29.920000 34.320000 22.660000 169 168 171 0
30.140000 34.320000 22.660000 169 169 172 0
30.360000 34.320000 22.660000 169 169 172 0
30.580000 34.320000 22.660000 169 168 171 0
30.800000 34.320000 22.880000 169 168 171 0
31.020000 34.320000 22.880000 170 169 172 0
31.240000 34.320000 22.880000 169 168 171 0
31.460000 34.320000 22.880000 169 168 171 0
31.680000 34.320000 24.420000 170 169 172 0
31.900000 34.320000 24.420000 169 168 171 0
32.120000 34.320000 24.640000 169 168 171 0
32.340000 34.320000 24.640000 169 168 171 0
32.560000 34.320000 24.640000 171 170 173 0
32.780000 34.320000 24.640000 171 169 175 0
33.000000 34.320000 24.860000 171 169 175 0
33.220000 34.320000 25.960000 170 169 172 0
33.440000 34.320000 27.940000 171 170 173 0
33.660000 34.320000 29.040000 172 169 173 0
33.880000 34.320000 29.260000 172 169 173 0
34.100000 34.320000 29.260000 173 170 174 0
34.320000 34.320000 29.260000 173 170 174 0
34.540000 34.320000 29.480000 173 170 176 0
34.760000 34.320000 29.480000 173 170 176 0
34.980000 34.320000 30.800000 173 170 174 0
35.200000 34.320000 31.020000 173 170 174 0
35.420000 34.320000 31.020000 171 170 173 0
35.640000 34.320000 31.020000 171 170 173 0
35.860000 34.320000 31.240000 173 170 174 0
36.080000 34.320000 31.240000 173 170 174 0
36.300000 34.320000 31.240000 173 170 176 0
36.520000 34.320000 32.780000 172 169 175 0
36.740000 34.320000 32.780000 172 169 173 0
36.960000 34.320000 32.780000 173 170 174 0
37.180000 34.320000 33.000000 172 169 175 0
0.000000 34.540000 29.260000 153 159 156 0
0.220000 34.540000 29.260000 151 159 156 0
0.440000 34.540000 29.260000 150 158 155 0
0.660000 34.540000 29.260000 153 159 156 0
0.880000 34.540000 29.260000 152 158 155 0
1.100000 34.540000 29.480000 155 159 157 0
1.320000 34.540000 29.480000 155 159 157 0
1.540000 34.540000 29.480000 153 159 156 0
1.760000 34.540000 29.480000 154 160 157 0
1.980000 34.540000 29.700000 154 160 157 0
2.200000 34.540000 31.020000 155 161 158 0
2.420000 34.540000 31.020000 155 159 157 0
2.640000 34.540000 31.240000 154 158 156 0
2.860000 34.540000 31.240000 154 158 156 0
3.080000 34.540000 31.240000 155 159 157 0
3.300000 34.540000 31.240000 151 159 156 0
3.520000 34.540000 31.460000 152 160 157 0
3.740000 34.540000 31.460000 154 160 157 0
3.960000 34.540000 31.460000 154 160 157 0
4.180000 34.540000 33.000000 153 159 156 0
4.400000 34.540000 33.000000 154 160 157 0
4.620000 34.540000 33.000000 155 161 158 0
4.840000 34.540000 33.000000 155 161 158 0
5.060000 34.540000 34.100000 155 161 158 0
5.280000 34.540000 34.980000 154 160 157 0
5.500000 34.540000 36.080000 154 160 157 0
5.720000 34.540000 36.080000 154 160 157 0
5.940000 34.540000 36.080000 154 160 157 0
6.160000 34.540000 36.080000 155 161 158 0
6.380000 34.540000 36.300000 152 160 157 0
6.600000 34.540000 37.620000 153 161 158 0
6.820000 34.540000 37.620000 153 161 158 0
7.040000 34.540000 37.840000 152 160 157 0
7.260000 34.540000 37.840000 156 160 158 0
7.480000 34.540000 37.840000 156 160 158 0
7.700000 34.540000 38.060000 157 161 159 0
7.920000 34.540000 38.060000 157 161 159 0
8.140000 34.540000 38.060000 156 160 158 0
8.360000 34.540000 38.060000 156 160 158 0
8.580000 34.540000 38.060000 155 161 158 0
8.800000 34.540000 38.280000 156 162 159 0
9.020000 34.540000 39.600000 158 162 160 0
9.240000 34.540000 39.600000 157 161 159 0
9.460000 34.540000 39.820000 157 161 159 0
9.680000 34.540000 39.820000 158 162 160 0
9.900000 34.540000 39.820000 157 163 160 0
10.120000 34.540000 39.820000 158 164 161 0
10.340000 34.540000 39.820000 158 162 160 0
10.560000 34.540000 39.820000 158 162 160 0
10.780000 34.540000 40.040000 160 161 160 0
11.000000 34.540000 40.040000 160 161 160 0
11.220000 34.540000 40.040000 160 161 160 0
11.440000 34.540000 40.040000 160 161 160 0
11.660000 34.540000 30.140000 160 161 160 0
11.880000 34.540000 10.120000 160 161 160 0
12.760000 34.540000 0.220000 160 159 159 0
12.980000 34.540000 0.220000 159 160 159 0
13.200000 34.540000 0.220000 160 161 160 0
13.420000 34.540000 0.220000 160 161 160 0
13.640000 34.540000 0.220000 161 162 161 0
13.860000 34.540000 0.220000 162 163 162 0
14.080000 34.540000 1.760000 163 164 163 0
14.300000 34.540000 1.760000 163 164 163 0
14.520000 34.540000 1.760000 163 164 163 0
14.740000 34.540000 1.980000 164 165 164 0
14.960000 34.540000 1.980000 163 164 163 0
15.180000 34.540000 1.980000 163 164 163 0
15.400000 34.540000 1.980000 163 164 163 0
15.620000 34.540000 2.200000 164 165 164 0
15.840000 34.540000 2.200000 163 164 163 0
16.060000 34.540000 3.520000 164 165 164 0
16.280000 34.540000 3.740000 163 164 163 0
16.500000 34.540000 3.740000 163 164 164 0
16.720000 34.540000 3.740000 163 164 164 0
16.940000 34.540000 3.960000 163 164 164 0
17.160000 34.540000 3.960000 163 164 164 0
17.380000 34.540000 3.960000 163 164 164 0
17.600000 34.540000 3.960000 163 164 164 0
17.820000 34.540000 3.960000 161 162 162 0
18.040000 34.540000 5.060000 163 164 164 0
18.260000 34.540000 7.260000 163 162 163 0
18.480000 34.540000 7.040000 164 163 164 0
18.700000 34.540000 7.040000 162 165 165 0
18.920000 34.540000 8.580000 161 164 164 0
19.140000 34.540000 8.580000 162 163 163 0
19.360000 34.540000 8.580000 162 163 163 0
19.580000 34.540000 8.580000 162 163 163 0
19.800000 34.540000 8.800000 161 162 162 0
20.020000 34.540000 8.800000 163 164 164 0
20.240000 34.540000 8.800000 163 164 164 0
20.460000 34.540000 9.020000 164 165 165 0
20.680000 34.540000 9.020000 164 165 165 0
20.900000 34.540000 9.020000 164 165 165 0
21.120000 34.540000 9.020000 163 164 164 0
21.340000 34.540000 9.240000 163 164 164 0
21.560000 34.540000 9.240000 164 165 165 0
21.780000 34.540000 10.780000 164 165 165 0
22.000000 34.540000 10.780000 164 165 165 0
22.220000 34.540000 10.780000 164 164 167 0
22.440000 34.540000 10.780000 164 164 167 0
22.660000 34.540000 10.780000 165 166 166 0
22.880000 34.540000 11.000000 166 167 167 0
23.100000 34.540000 12.100000 163 166 166 0
23.320000 34.540000 14.080000 164 167 167 0
23.540000 34.540000 13.860000 166 167 167 0
23.760000 34.540000 15.400000 166 167 167 0
23.980000 34.540000 15.400000 164 167 167 0
24.200000 34.540000 15.400000 164 167 167 0
24.420000 34.540000 15.400000 167 168 168 0
24.640000 34.540000 15.620000 167 168 168 0
24.860000 34.540000 15.620000 165 168 168 0
25.080000 34.540000 15.620000 165 168 168 0
25.300000 34.540000 15.840000 165 168 170 0
25.520000 34.540000 15.840000 166 169 171 0
25.740000 34.540000 17.160000 164 169 168 0
25.960000 34.540000 17.380000 165 170 169 0
26.180000 34.540000 17.380000 168 169 169 0
26.400000 34.540000 17.380000 167 168 168 0
26.620000 34.540000 17.600000 167 170 170 0
26.840000 34.540000 17.600000 166 169 169 0
27.060000 34.540000 17.600000 167 170 172 0
27.280000 34.540000 17.600000 167 170 172 0
27.500000 34.540000 17.820000 167 170 170 0
27.720000 34.540000 17.820000 167 170 170 0
27.940000 34.540000 17.820000 169 170 170 0
28.160000 34.540000 18.920000 169 170 170 0
28.380000 34.540000 21.120000 166 169 169 0
28.600000 34.540000 22.220000 167 170 170 0
28.820000 34.540000 22.220000 169 169 172 0
29.040000 34.540000 22.220000 169 169 172 0
29.260000 34.540000 22.440000 169 170 170 0
29.480000 34.540000 22.440000 170 171 171 0
29.700000 34.540000 22.440000 168 171 171 0
29.920000 34.540000 22.660000 168 171 171 0
30.140000 34.540000 22.660000 169 169 172 0
30.360000 34.540000 22.660000 170 170 173 0
30.580000 34.540000 22.660000 171 171 174 0
30.800000 34.540000 22.880000 170 170 173 0
31.020000 34.540000 22.880000 170 171 171 0
31.240000 34.540000 22.880000 170 171 171 0
31.460000 34.540000 22.880000 169 169 172 0
31.680000 34.540000 24.420000 170 170 173 0
31.900000 34.540000 24.420000 170 170 173 0
32.120000 34.540000 24.640000 172 172 175 0
32.340000 34.540000 24.640000 171 171 174 0
32.560000 34.540000 24.640000 171 171 174 0
32.780000 34.540000 24.640000 172 171 174 0
33.000000 34.540000 24.860000 172 171 174 0
33.220000 34.540000 25.960000 170 170 173 0
33.440000 34.540000 27.940000 171 171 174 0
33.660000 34.540000 29.040000 172 172 175 0
33.880000 34.540000 29.260000 172 172 175 0
34.100000 34.540000 29.260000 172 171 174 0
34.320000 34.540000 29.260000 172 171 174 0
34.540000 34.540000 29.480000 175 174 177 0
34.760000 34.540000 29.480000 174 173 176 0
34.980000 34.540000 30.800000 173 173 176 0
35.200000 34.540000 31.020000 173 173 176 0
35.420000 34.540000 31.020000 173 172 175 0
35.640000 34.540000 31.020000 174 173 176 0
35.860000 34.540000 31.240000 174 173 176 0
36.080000 34.540000 31.240000 174 173 176 0
36.300000 34.540000 31.240000 173 172 175 0
36.520000 34.540000 31.460000 173 172 175 0
36.740000 34.540000 32.780000 174 173 176 0
36.960000 34.540000 32.780000 173 172 175 0
37.180000 34.540000 33.000000 174 171 175 0
0.000000 34.760000 29.260000 155 161 158 0
0.220000 34.760000 29.260000 154 162 159 0
0.440000 34.760000 29.260000 153 161 158 0
0.660000 34.760000 29.260000 154 160 157 0
0.880000 34.760000 29.260000 155 161 158 0
1.100000 34.760000 29.480000 155 159 157 0
1.320000 34.760000 29.480000 156 160 158 0
1.540000 34.760000 29.480000 155 161 158 0
1.760000 34.760000 29.480000 156 162 159 0
1.980000 34.760000 29.700000 156 162 159 0
2.200000 34.760000 29.700000 156 162 159 0
2.420000 34.760000 31.020000 156 160 158 0
2.640000 34.760000 31.240000 156 160 158 0
2.860000 34.760000 31.240000 157 161 159 0
3.080000 34.760000 31.240000 158 162 160 0
3.300000 34.760000 31.240000 155 163 160 0
3.520000 34.760000 31.460000 155 163 160 0
3.740000 34.760000 31.460000 156 162 159 0
3.960000 34.760000 31.460000 156 162 159 0
4.180000 34.760000 33.000000 156 162 159 0
4.400000 34.760000 33.000000 158 164 161 0
4.620000 34.760000 33.000000 158 164 161 0
4.840000 34.760000 33.000000 157 163 160 0
5.060000 34.760000 34.100000 157 163 160 0
5.280000 34.760000 34.980000 157 163 160 0
5.500000 34.760000 36.080000 157 163 160 0
5.720000 34.760000 36.080000 157 163 160 0
5.940000 34.760000 36.080000 157 163 160 0
6.160000 34.760000 36.080000 157 163 160 0
6.380000 34.760000 36.300000 155 163 160 0
6.600000 34.760000 37.620000 157 165 162 0
6.820000 34.760000 37.620000 157 165 162 0
7.040000 34.760000 37.840000 155 163 160 0
7.260000 34.760000 37.840000 158 162 160 0
7.480000 34.760000 37.840000 159 163 161 0
7.700000 34.760000 38.060000 158 162 160 0
7.920000 34.760000 38.060000 158 162 160 0
8.140000 34.760000 38.060000 157 161 159 0
8.360000 34.760000 38.060000 159 163 161 0
8.580000 34.760000 38.060000 158 164 161 0
8.800000 34.760000 38.280000 157 163 160 0
9.020000 34.760000 39.600000 159 163 161 0
9.240000 34.760000 39.600000 160 164 162 0
9.460000 34.760000 39.820000 160 164 162 0
9.680000 34.760000 39.820000 160 164 162 0
9.900000 34.760000 39.820000 158 164 161 0
10.120000 34.760000 39.820000 159 165 162 0
10.340000 34.760000 39.820000 160 164 162 0
10.560000 34.760000 39.820000 160 164 162 0
10.780000 34.760000 40.040000 162 163 162 0
11.000000 34.760000 40.040000 163 164 163 0
11.220000 34.760000 40.040000 163 164 163 0
11.440000 34.760000 40.040000 162 163 162 0
11.660000 34.760000 32.780000 162 163 162 0
11.880000 34.760000 15.620000 161 162 161 0
12.100000 34.760000 2.860000 157 161 159 0
12.760000 34.760000 0.220000 162 161 161 0
12.980000 34.760000 0.220000 161 162 161 0
13.200000 34.760000 0.220000 161 162 161 0
13.420000 34.760000 0.220000 162 163 162 0
13.640000 34.760000 0.220000 163 164 163 0
13.860000 34.760000 0.220000 162 163 162 0
14.080000 34.760000 1.760000 164 165 164 0
14.300000 34.760000 1.760000 164 165 164 0
14.520000 34.760000 1.760000 165 166 165 0
14.740000 34.760000 1.980000 165 166 165 0
14.960000 34.760000 1.980000 166 167 166 0
15.180000 34.760000 1.980000 165 166 165 0
15.400000 34.760000 1.980000 166 167 166 0
15.620000 34.760000 2.200000 165 166 165 0
15.840000 34.760000 2.200000 165 166 165 0
16.060000 34.760000 2.200000 166 167 166 0
16.280000 34.760000 3.740000 164 165 164 0
16.500000 34.760000 3.740000 166 167 167 0
16.720000 34.760000 3.740000 164 165 165 0
16.940000 34.760000 3.960000 164 165 165 0
17.160000 34.760000 3.960000 164 165 165 0
17.380000 34.760000 3.960000 164 165 165 0
17.600000 34.760000 3.960000 164 165 165 0
17.820000 34.760000 3.960000 164 165 165 0
18.040000 34.760000 5.060000 164 165 165 0
18.260000 34.760000 7.260000 164 163 164 0
18.480000 34.760000 7.040000 165 164 165 0
