ply
format ascii 1.0
element vertex 1100
property float x
property float y
property float z
property uchar red
property uchar green
property uchar blue
property uchar alpha
end_header
30.580000 21.120000 22.880000 178 172 177 0
30.800000 21.120000 24.200000 175 172 176 0
31.020000 21.120000 24.420000 175 172 176 0
31.240000 21.120000 25.740000 176 170 175 0
31.460000 21.120000 27.060000 176 170 175 0
31.680000 21.120000 28.160000 175 172 176 0
31.900000 21.120000 29.260000 178 175 179 0
32.120000 21.120000 30.800000 179 174 176 0
32.340000 21.120000 30.800000 182 177 179 0
32.560000 21.120000 30.800000 180 177 181 0
32.780000 21.120000 31.020000 179 176 180 0
33.000000 21.120000 32.340000 182 177 179 0
33.220000 21.120000 32.560000 182 177 179 0
33.440000 21.120000 32.560000 179 176 178 0
33.660000 21.120000 32.560000 179 176 178 0
33.880000 21.120000 32.780000 182 175 177 0
34.100000 21.120000 32.780000 183 176 178 0
34.320000 21.120000 32.780000 180 177 181 0
34.540000 21.120000 33.000000 178 175 179 0
34.760000 21.120000 33.000000 180 177 179 0
34.980000 21.120000 33.000000 180 177 179 0
35.200000 21.120000 34.100000 182 176 181 0
35.420000 21.120000 36.300000 183 177 182 0
35.640000 21.120000 36.080000 183 178 180 0
35.860000 21.120000 36.080000 184 179 181 0
36.080000 21.120000 36.300000 185 179 184 0
36.300000 21.120000 36.300000 184 178 183 0
36.520000 21.120000 36.300000 182 179 181 0
36.740000 21.120000 36.520000 183 180 182 0
36.960000 21.120000 36.520000 184 178 183 0
37.180000 21.120000 36.520000 182 176 181 0
0.000000 21.340000 22.440000 160 166 159 0
0.220000 21.340000 22.440000 159 165 158 0
0.440000 21.340000 22.440000 158 167 161 0
0.660000 21.340000 22.660000 158 167 161 0
0.880000 21.340000 22.660000 158 167 159 0
1.100000 21.340000 22.660000 158 167 159 0
1.320000 21.340000 22.660000 159 168 162 0
1.540000 21.340000 22.880000 160 169 163 0
1.760000 21.340000 24.200000 160 166 159 0
1.980000 21.340000 24.200000 160 166 159 0
2.200000 21.340000 24.420000 159 165 160 0
2.420000 21.340000 24.420000 159 165 160 0
2.640000 21.340000 24.420000 158 167 159 0
2.860000 21.340000 24.640000 159 168 160 0
3.080000 21.340000 24.640000 161 167 160 0
3.300000 21.340000 24.640000 162 168 161 0
3.520000 21.340000 26.180000 161 167 162 0
3.740000 21.340000 25.960000 161 167 162 0
3.960000 21.340000 27.940000 161 167 162 0
4.180000 21.340000 29.040000 161 167 162 0
4.400000 21.340000 29.260000 162 168 163 0
4.620000 21.340000 29.260000 163 169 164 0
4.840000 21.340000 29.260000 163 169 164 0
5.060000 21.340000 29.260000 163 169 164 0
5.280000 21.340000 30.800000 163 169 164 0
5.500000 21.340000 30.800000 163 169 164 0
5.720000 21.340000 31.020000 162 168 163 0
5.940000 21.340000 31.020000 162 168 163 0
6.160000 21.340000 31.020000 163 167 163 0
6.380000 21.340000 31.020000 163 167 163 0
6.600000 21.340000 32.560000 161 167 162 0
6.820000 21.340000 32.560000 161 167 162 0
7.040000 21.340000 32.560000 160 166 163 0
7.260000 21.340000 32.560000 161 167 164 0
7.480000 21.340000 34.100000 162 168 163 0
7.700000 21.340000 33.880000 162 168 163 0
7.920000 21.340000 34.980000 162 168 163 0
8.140000 21.340000 36.300000 162 168 163 0
8.360000 21.340000 36.300000 165 169 163 0
8.580000 21.340000 36.300000 165 169 163 0
8.800000 21.340000 36.520000 165 171 166 0
9.020000 21.340000 36.520000 165 171 166 0
9.240000 21.340000 36.520000 165 171 166 0
9.460000 21.340000 36.520000 164 170 165 0
9.680000 21.340000 38.060000 165 169 165 0
9.900000 21.340000 38.060000 165 169 165 0
10.120000 21.340000 38.060000 166 170 166 0
10.340000 21.340000 38.280000 166 170 166 0
10.560000 21.340000 38.280000 169 170 167 0
10.780000 21.340000 38.280000 169 170 167 0
11.000000 21.340000 38.280000 170 172 166 0
11.220000 21.340000 38.500000 169 171 165 0
11.440000 21.340000 39.820000 169 170 167 0
11.660000 21.340000 39.820000 169 170 167 0
11.880000 21.340000 39.820000 169 170 167 0
12.100000 21.340000 39.820000 169 170 167 0
12.320000 21.340000 40.040000 169 170 167 0
12.540000 21.340000 40.040000 170 171 168 0
12.760000 21.340000 41.140000 170 171 168 0
12.980000 21.340000 41.800000 169 170 167 0
13.200000 21.340000 34.540000 171 171 168 0
13.420000 21.340000 16.720000 170 170 167 0
13.640000 21.340000 2.860000 166 170 168 0
13.860000 21.340000 0.220000 165 169 167 0
14.080000 21.340000 0.220000 166 165 165 0
14.300000 21.340000 0.220000 162 161 161 0
14.520000 21.340000 0.220000 162 157 156 0
14.740000 21.340000 0.220000 158 153 152 0
14.960000 21.340000 0.220000 155 154 147 0
15.180000 21.340000 0.220000 155 154 147 0
15.400000 21.340000 0.440000 155 153 151 0
15.620000 21.340000 0.440000 157 155 153 0
15.840000 21.340000 0.440000 158 157 157 0
16.060000 21.340000 0.440000 161 160 160 0
16.280000 21.340000 0.440000 165 163 163 0
16.500000 21.340000 0.440000 168 166 166 0
16.720000 21.340000 1.980000 167 166 166 0
16.940000 21.340000 1.980000 168 167 167 0
17.160000 21.340000 1.980000 170 169 170 0
17.380000 21.340000 1.980000 170 169 170 0
17.600000 21.340000 3.520000 170 169 169 0
17.820000 21.340000 3.520000 172 171 171 0
18.040000 21.340000 3.520000 176 171 172 0
18.260000 21.340000 3.740000 176 171 172 0
18.480000 21.340000 3.740000 174 172 172 0
18.700000 21.340000 3.740000 174 172 172 0
18.920000 21.340000 3.960000 172 171 171 0
19.140000 21.340000 3.960000 172 171 171 0
19.360000 21.340000 3.960000 172 171 171 0
19.580000 21.340000 5.060000 173 172 172 0
19.800000 21.340000 5.940000 176 171 172 0
20.020000 21.340000 7.040000 176 171 172 0
20.240000 21.340000 7.040000 176 171 170 0
20.460000 21.340000 7.260000 176 171 170 0
20.680000 21.340000 7.260000 176 171 172 0
20.900000 21.340000 7.260000 176 171 172 0
21.120000 21.340000 7.260000 174 172 172 0
21.340000 21.340000 7.480000 174 172 172 0
21.560000 21.340000 7.480000 176 171 173 0
21.780000 21.340000 7.480000 175 170 172 0
22.000000 21.340000 9.020000 175 170 171 0
22.220000 21.340000 9.020000 175 170 171 0
22.440000 21.340000 9.240000 174 169 170 0
22.660000 21.340000 9.240000 173 168 169 0
22.880000 21.340000 9.240000 175 170 171 0
23.100000 21.340000 9.460000 176 171 172 0
23.320000 21.340000 10.780000 178 173 174 0
23.540000 21.340000 10.780000 178 173 174 0
23.760000 21.340000 11.000000 179 173 172 0
23.980000 21.340000 12.100000 179 173 172 0
24.200000 21.340000 14.300000 179 172 174 0
24.420000 21.340000 15.400000 179 172 174 0
24.640000 21.340000 15.400000 179 172 174 0
24.860000 21.340000 15.400000 180 173 175 0
25.080000 21.340000 15.620000 180 173 175 0
25.300000 21.340000 15.620000 180 173 175 0
25.520000 21.340000 15.620000 180 174 173 0
25.740000 21.340000 17.160000 179 173 172 0
25.960000 21.340000 17.160000 180 173 176 0
26.180000 21.340000 17.160000 180 173 176 0
26.400000 21.340000 17.380000 180 173 175 0
26.620000 21.340000 17.380000 181 174 176 0
26.840000 21.340000 17.380000 179 172 174 0
27.060000 21.340000 17.600000 180 173 175 0
27.280000 21.340000 17.600000 181 174 176 0
27.500000 21.340000 19.140000 181 174 176 0
27.720000 21.340000 19.140000 181 174 176 0
27.940000 21.340000 19.140000 181 174 176 0
28.160000 21.340000 18.920000 184 175 177 0
28.380000 21.340000 21.120000 183 174 176 0
28.600000 21.340000 22.220000 182 175 177 0
28.820000 21.340000 22.220000 182 175 177 0
29.040000 21.340000 22.440000 180 173 175 0
29.260000 21.340000 22.440000 181 174 176 0
29.480000 21.340000 22.440000 182 175 177 0
29.700000 21.340000 22.660000 182 175 177 0
29.920000 21.340000 22.660000 184 175 177 0
30.140000 21.340000 22.660000 184 175 177 0
30.360000 21.340000 22.880000 182 175 177 0
30.580000 21.340000 22.880000 180 173 175 0
30.800000 21.340000 24.200000 178 171 174 0
31.020000 21.340000 24.420000 178 171 174 0
31.240000 21.340000 25.740000 179 170 172 0
31.460000 21.340000 27.060000 179 170 172 0
31.680000 21.340000 28.160000 179 172 174 0
31.900000 21.340000 29.260000 182 175 177 0
32.120000 21.340000 30.800000 183 176 178 0
32.340000 21.340000 30.800000 184 177 179 0
32.560000 21.340000 30.800000 184 177 179 0
32.780000 21.340000 31.020000 184 177 179 0
33.000000 21.340000 32.340000 183 176 178 0
33.220000 21.340000 32.560000 183 176 178 0
33.440000 21.340000 32.560000 184 175 177 0
33.660000 21.340000 32.560000 184 175 177 0
33.880000 21.340000 32.780000 185 176 178 0
34.100000 21.340000 32.780000 186 177 179 0
34.320000 21.340000 32.780000 183 176 179 0
34.540000 21.340000 33.000000 184 177 180 0
34.760000 21.340000 33.000000 184 175 177 0
34.980000 21.340000 33.000000 187 178 180 0
35.200000 21.340000 34.100000 186 177 179 0
35.420000 21.340000 34.980000 187 178 180 0
35.640000 21.340000 36.080000 185 178 180 0
35.860000 21.340000 36.080000 185 178 180 0
36.080000 21.340000 36.300000 186 179 181 0
36.300000 21.340000 36.300000 187 180 182 0
36.520000 21.340000 36.300000 189 180 182 0
36.740000 21.340000 36.520000 188 179 181 0
36.960000 21.340000 36.520000 188 179 181 0
37.180000 21.340000 36.520000 186 177 179 0
0.000000 21.560000 22.440000 161 167 160 0
0.220000 21.560000 22.440000 161 167 160 0
0.440000 21.560000 22.440000 160 169 163 0
0.660000 21.560000 22.660000 158 167 161 0
0.880000 21.560000 22.660000 159 168 160 0
1.100000 21.560000 22.660000 159 168 160 0
1.320000 21.560000 22.660000 160 169 163 0
1.540000 21.560000 22.880000 159 168 162 0
1.760000 21.560000 24.200000 161 167 160 0
1.980000 21.560000 24.200000 162 168 161 0
2.200000 21.560000 24.420000 160 166 161 0
2.420000 21.560000 24.420000 161 167 162 0
2.640000 21.560000 24.420000 159 168 160 0
2.860000 21.560000 24.640000 160 169 161 0
3.080000 21.560000 24.640000 162 168 161 0
3.300000 21.560000 24.640000 162 168 161 0
3.520000 21.560000 26.180000 163 169 164 0
3.740000 21.560000 25.960000 162 168 163 0
3.960000 21.560000 27.940000 162 168 163 0
4.180000 21.560000 29.040000 163 169 164 0
4.400000 21.560000 29.260000 163 169 164 0
4.620000 21.560000 29.260000 163 169 164 0
4.840000 21.560000 29.260000 163 169 164 0
5.060000 21.560000 29.260000 164 170 165 0
5.280000 21.560000 30.800000 163 169 164 0
5.500000 21.560000 30.800000 163 169 164 0
5.720000 21.560000 31.020000 163 169 164 0
5.940000 21.560000 31.020000 163 169 164 0
6.160000 21.560000 31.020000 165 169 165 0
6.380000 21.560000 31.020000 164 168 164 0
6.600000 21.560000 32.560000 163 169 164 0
6.820000 21.560000 32.560000 162 168 163 0
7.040000 21.560000 32.560000 161 167 164 0
7.260000 21.560000 32.560000 161 167 164 0
7.480000 21.560000 34.100000 163 169 164 0
7.700000 21.560000 33.880000 163 169 164 0
7.920000 21.560000 34.980000 163 169 164 0
8.140000 21.560000 36.300000 164 170 165 0
8.360000 21.560000 36.300000 166 170 164 0
8.580000 21.560000 36.300000 167 171 165 0
8.800000 21.560000 36.520000 166 172 167 0
9.020000 21.560000 36.520000 167 173 168 0
9.240000 21.560000 36.520000 166 172 167 0
9.460000 21.560000 36.520000 166 172 167 0
9.680000 21.560000 38.060000 166 170 166 0
9.900000 21.560000 38.060000 167 171 167 0
10.120000 21.560000 38.060000 167 171 167 0
10.340000 21.560000 38.280000 167 171 167 0
10.560000 21.560000 38.280000 169 170 167 0
10.780000 21.560000 38.280000 169 170 167 0
11.000000 21.560000 38.280000 171 173 167 0
11.220000 21.560000 39.820000 171 173 167 0
11.440000 21.560000 39.820000 171 172 169 0
11.660000 21.560000 39.820000 170 171 168 0
11.880000 21.560000 39.820000 170 171 168 0
12.100000 21.560000 39.820000 171 172 169 0
12.320000 21.560000 40.040000 171 172 169 0
12.540000 21.560000 40.040000 171 172 169 0
12.760000 21.560000 41.140000 171 172 169 0
12.980000 21.560000 41.800000 171 172 169 0
13.200000 21.560000 31.900000 172 172 169 0
13.420000 21.560000 11.220000 173 173 170 0
13.640000 21.560000 0.220000 169 173 171 0
13.860000 21.560000 0.220000 166 170 168 0
14.080000 21.560000 0.220000 168 167 167 0
14.300000 21.560000 0.220000 166 165 165 0
14.520000 21.560000 0.220000 164 159 158 0
14.740000 21.560000 0.220000 161 156 155 0
14.960000 21.560000 0.220000 156 155 148 0
15.180000 21.560000 0.220000 156 155 148 0
15.400000 21.560000 0.440000 155 153 151 0
15.620000 21.560000 0.440000 158 156 154 0
15.840000 21.560000 0.440000 161 160 160 0
16.060000 21.560000 0.440000 163 162 162 0
16.280000 21.560000 0.440000 167 165 165 0
16.500000 21.560000 0.440000 168 166 166 0
16.720000 21.560000 1.980000 168 167 167 0
16.940000 21.560000 1.980000 170 169 169 0
17.160000 21.560000 1.980000 170 169 170 0
17.380000 21.560000 1.980000 171 170 171 0
17.600000 21.560000 3.520000 173 172 172 0
17.820000 21.560000 3.520000 174 173 173 0
18.040000 21.560000 3.520000 177 172 173 0
18.260000 21.560000 3.740000 178 173 174 0
18.480000 21.560000 3.740000 175 173 173 0
18.700000 21.560000 3.740000 175 173 173 0
18.920000 21.560000 3.960000 174 173 173 0
19.140000 21.560000 3.960000 174 173 173 0
19.360000 21.560000 3.960000 173 172 172 0
19.580000 21.560000 5.060000 174 173 173 0
19.800000 21.560000 5.940000 177 172 173 0
20.020000 21.560000 7.040000 177 172 173 0
20.240000 21.560000 7.040000 177 172 171 0
20.460000 21.560000 7.260000 178 173 172 0
20.680000 21.560000 7.260000 178 173 174 0
20.900000 21.560000 7.260000 178 173 174 0
21.120000 21.560000 7.260000 175 173 173 0
21.340000 21.560000 7.480000 175 173 173 0
21.560000 21.560000 7.480000 177 172 174 0
21.780000 21.560000 7.480000 176 171 173 0
22.000000 21.560000 9.020000 176 171 172 0
22.220000 21.560000 9.020000 176 171 172 0
22.440000 21.560000 9.240000 176 171 172 0
22.660000 21.560000 9.240000 176 171 172 0
22.880000 21.560000 9.240000 177 172 173 0
23.100000 21.560000 9.460000 178 173 174 0
23.320000 21.560000 10.780000 178 173 174 0
23.540000 21.560000 10.780000 179 174 175 0
23.760000 21.560000 11.000000 180 174 173 0
23.980000 21.560000 12.100000 182 176 175 0
24.200000 21.560000 14.300000 181 174 176 0
24.420000 21.560000 15.400000 179 172 174 0
24.640000 21.560000 15.400000 180 173 175 0
24.860000 21.560000 15.400000 181 174 176 0
25.080000 21.560000 15.620000 181 174 176 0
25.300000 21.560000 15.620000 182 175 177 0
25.520000 21.560000 15.620000 181 175 174 0
25.740000 21.560000 17.160000 181 175 174 0
25.960000 21.560000 17.160000 181 174 177 0
26.180000 21.560000 17.160000 181 174 177 0
26.400000 21.560000 17.380000 182 175 177 0
26.620000 21.560000 17.380000 180 173 175 0
26.840000 21.560000 17.380000 182 175 177 0
27.060000 21.560000 17.600000 182 175 177 0
27.280000 21.560000 17.600000 183 176 178 0
27.500000 21.560000 17.600000 183 176 178 0
27.720000 21.560000 19.140000 182 175 177 0
27.940000 21.560000 19.140000 182 175 177 0
28.160000 21.560000 18.920000 185 176 178 0
28.380000 21.560000 21.120000 185 176 178 0
28.600000 21.560000 22.220000 183 176 178 0
28.820000 21.560000 22.220000 183 176 178 0
29.040000 21.560000 22.440000 183 176 178 0
29.260000 21.560000 22.440000 183 176 178 0
29.480000 21.560000 22.440000 184 177 179 0
29.700000 21.560000 22.660000 183 176 178 0
29.920000 21.560000 22.660000 185 176 178 0
30.140000 21.560000 22.660000 185 176 178 0
30.360000 21.560000 22.660000 183 176 178 0
30.580000 21.560000 22.880000 182 175 177 0
30.800000 21.560000 24.200000 180 173 176 0
31.020000 21.560000 24.420000 179 172 175 0
31.240000 21.560000 25.740000 182 173 175 0
31.460000 21.560000 27.060000 183 174 176 0
31.680000 21.560000 28.160000 181 174 176 0
31.900000 21.560000 29.260000 184 177 179 0
32.120000 21.560000 30.800000 184 177 179 0
32.340000 21.560000 30.800000 185 178 180 0
32.560000 21.560000 30.800000 186 179 181 0
32.780000 21.560000 31.020000 186 179 181 0
33.000000 21.560000 32.340000 186 179 181 0
33.220000 21.560000 32.560000 186 179 181 0
33.440000 21.560000 32.560000 187 178 180 0
33.660000 21.560000 32.560000 187 178 180 0
33.880000 21.560000 32.780000 187 178 180 0
34.100000 21.560000 32.780000 187 178 180 0
34.320000 21.560000 32.780000 185 178 181 0
34.540000 21.560000 33.000000 184 177 180 0
34.760000 21.560000 33.000000 187 178 180 0
34.980000 21.560000 33.000000 187 178 180 0
35.200000 21.560000 34.100000 187 178 180 0
35.420000 21.560000 34.980000 188 179 181 0
35.640000 21.560000 36.080000 186 179 181 0
35.860000 21.560000 36.080000 188 181 183 0
36.080000 21.560000 36.300000 186 179 181 0
36.300000 21.560000 36.300000 187 180 182 0
36.520000 21.560000 36.300000 190 181 183 0
36.740000 21.560000 36.520000 191 182 184 0
36.960000 21.560000 36.520000 189 180 182 0
37.180000 21.560000 36.520000 188 179 181 0
0.000000 21.780000 22.440000 167 165 161 0
0.220000 21.780000 22.440000 167 165 161 0
0.440000 21.780000 22.440000 167 165 161 0
0.660000 21.780000 22.660000 167 165 161 0
0.880000 21.780000 22.660000 170 166 162 0
1.100000 21.780000 22.660000 170 166 162 0
1.320000 21.780000 22.660000 167 165 161 0
1.540000 21.780000 22.880000 168 166 162 0
1.760000 21.780000 22.880000 169 165 161 0
1.980000 21.780000 24.200000 169 165 161 0
2.200000 21.780000 24.420000 166 164 160 0
2.420000 21.780000 24.420000 168 166 162 0
2.640000 21.780000 24.420000 170 166 162 0
2.860000 21.780000 24.640000 170 166 162 0
3.080000 21.780000 24.640000 170 165 164 0
3.300000 21.780000 24.640000 170 165 164 0
3.520000 21.780000 26.180000 171 167 163 0
3.740000 21.780000 25.960000 170 166 162 0
3.960000 21.780000 27.940000 171 167 163 0
4.180000 21.780000 29.040000 170 166 162 0
4.400000 21.780000 29.260000 171 167 163 0
4.620000 21.780000 29.260000 172 168 164 0
4.840000 21.780000 29.260000 171 166 165 0
5.060000 21.780000 29.260000 172 167 166 0
5.280000 21.780000 30.800000 172 168 164 0
5.500000 21.780000 30.800000 172 168 164 0
5.720000 21.780000 31.020000 172 167 166 0
5.940000 21.780000 31.020000 172 167 166 0
6.160000 21.780000 31.020000 175 169 168 0
6.380000 21.780000 31.020000 173 167 166 0
6.600000 21.780000 32.560000 173 167 166 0
6.820000 21.780000 32.560000 170 164 163 0
7.040000 21.780000 32.560000 170 164 163 0
7.260000 21.780000 32.560000 171 165 164 0
7.480000 21.780000 34.100000 171 166 165 0
7.700000 21.780000 33.880000 172 167 166 0
7.920000 21.780000 34.980000 174 168 167 0
8.140000 21.780000 36.300000 175 169 168 0
8.360000 21.780000 36.300000 177 168 168 0
8.580000 21.780000 36.300000 178 169 169 0
8.800000 21.780000 36.520000 176 170 169 0
9.020000 21.780000 36.520000 176 170 169 0
9.240000 21.780000 36.520000 175 169 168 0
9.460000 21.780000 36.520000 175 169 168 0
9.680000 21.780000 38.060000 177 171 170 0
9.900000 21.780000 38.060000 176 170 169 0
10.120000 21.780000 38.060000 177 168 168 0
10.340000 21.780000 38.280000 177 168 168 0
10.560000 21.780000 38.280000 175 169 168 0
10.780000 21.780000 38.280000 175 169 168 0
11.000000 21.780000 38.280000 177 171 170 0
11.220000 21.780000 39.820000 177 171 170 0
11.440000 21.780000 39.820000 177 171 170 0
11.660000 21.780000 39.820000 178 172 171 0
11.880000 21.780000 39.820000 179 170 172 0
12.100000 21.780000 39.820000 179 170 172 0
12.320000 21.780000 40.040000 176 170 169 0
12.540000 21.780000 40.040000 177 171 170 0
12.760000 21.780000 41.140000 177 171 170 0
12.980000 21.780000 41.800000 177 171 170 0
13.200000 21.780000 31.900000 177 171 170 0
13.420000 21.780000 11.220000 178 172 171 0
13.640000 21.780000 0.220000 178 169 169 0
13.860000 21.780000 0.220000 178 169 169 0
14.080000 21.780000 0.220000 177 166 169 0
14.300000 21.780000 0.220000 174 163 166 0
14.520000 21.780000 0.220000 169 158 157 0
14.740000 21.780000 0.220000 166 155 154 0
14.960000 21.780000 0.220000 165 153 150 0
15.180000 21.780000 0.220000 163 151 148 0
15.400000 21.780000 0.440000 162 152 148 0
15.620000 21.780000 0.440000 164 154 150 0
15.840000 21.780000 0.440000 167 158 160 0
16.060000 21.780000 0.440000 170 161 163 0
16.280000 21.780000 0.440000 173 164 164 0
16.500000 21.780000 0.440000 175 166 166 0
16.720000 21.780000 1.980000 176 167 169 0
16.940000 21.780000 1.980000 177 168 170 0
17.160000 21.780000 1.980000 179 168 169 0
17.380000 21.780000 1.980000 180 169 170 0
17.600000 21.780000 3.520000 182 169 173 0
17.820000 21.780000 3.520000 183 170 174 0
18.040000 21.780000 3.520000 183 172 175 0
18.260000 21.780000 3.740000 182 171 174 0
18.480000 21.780000 3.740000 184 173 174 0
18.700000 21.780000 3.740000 183 172 173 0
18.920000 21.780000 3.960000 182 171 172 0
19.140000 21.780000 3.960000 181 170 171 0
19.360000 21.780000 3.960000 183 170 174 0
19.580000 21.780000 5.060000 183 170 174 0
19.800000 21.780000 5.940000 182 169 173 0
20.020000 21.780000 7.040000 183 170 174 0
20.240000 21.780000 7.040000 184 171 173 0
20.460000 21.780000 7.260000 184 171 173 0
20.680000 21.780000 7.260000 184 171 175 0
20.900000 21.780000 7.260000 184 171 175 0
21.120000 21.780000 7.260000 184 171 175 0
21.340000 21.780000 7.480000 183 170 174 0
21.560000 21.780000 7.480000 183 170 174 0
21.780000 21.780000 7.480000 182 169 173 0
22.000000 21.780000 9.020000 185 170 172 0
22.220000 21.780000 9.020000 184 169 171 0
22.440000 21.780000 9.240000 184 168 173 0
22.660000 21.780000 9.240000 184 168 173 0
22.880000 21.780000 9.240000 183 170 172 0
23.100000 21.780000 9.460000 185 172 174 0
23.320000 21.780000 10.780000 187 171 176 0
23.540000 21.780000 10.780000 187 171 176 0
23.760000 21.780000 11.000000 188 172 177 0
23.980000 21.780000 12.100000 187 171 176 0
24.200000 21.780000 14.300000 188 172 177 0
24.420000 21.780000 15.400000 187 171 176 0
24.640000 21.780000 15.400000 188 172 177 0
24.860000 21.780000 15.400000 188 172 177 0
25.080000 21.780000 15.620000 188 172 177 0
25.300000 21.780000 15.620000 188 172 177 0
25.520000 21.780000 15.620000 189 172 175 0
25.740000 21.780000 17.160000 189 172 175 0
25.960000 21.780000 17.160000 189 172 177 0
26.180000 21.780000 17.160000 190 173 178 0
26.400000 21.780000 17.380000 189 173 178 0
26.620000 21.780000 17.380000 188 172 177 0
26.840000 21.780000 17.380000 188 172 177 0
27.060000 21.780000 17.600000 189 173 178 0
27.280000 21.780000 17.600000 189 172 177 0
27.500000 21.780000 17.600000 190 173 178 0
27.720000 21.780000 19.140000 190 173 176 0
27.940000 21.780000 19.140000 190 173 176 0
28.160000 21.780000 18.920000 189 173 178 0
28.380000 21.780000 21.120000 190 174 179 0
28.600000 21.780000 22.220000 191 175 180 0
28.820000 21.780000 22.220000 191 175 180 0
29.040000 21.780000 22.440000 192 175 180 0
29.260000 21.780000 22.440000 193 176 181 0
29.480000 21.780000 22.440000 192 175 180 0
29.700000 21.780000 22.660000 192 175 180 0
29.920000 21.780000 22.660000 192 176 181 0
30.140000 21.780000 22.660000 191 175 180 0
30.360000 21.780000 22.660000 190 174 179 0
30.580000 21.780000 22.880000 188 172 177 0
30.800000 21.780000 24.200000 189 172 177 0
31.020000 21.780000 24.420000 188 171 176 0
31.240000 21.780000 25.740000 187 170 175 0
31.460000 21.780000 27.060000 188 171 176 0
31.680000 21.780000 28.160000 189 173 178 0
31.900000 21.780000 29.260000 191 175 180 0
32.120000 21.780000 30.800000 192 176 181 0
32.340000 21.780000 30.800000 193 177 182 0
32.560000 21.780000 30.800000 192 176 181 0
32.780000 21.780000 31.020000 192 176 181 0
33.000000 21.780000 32.340000 194 177 182 0
33.220000 21.780000 32.560000 194 177 182 0
33.440000 21.780000 32.560000 192 176 181 0
33.660000 21.780000 32.560000 192 176 181 0
33.880000 21.780000 32.780000 192 176 181 0
34.100000 21.780000 32.780000 191 175 180 0
34.320000 21.780000 32.780000 191 176 178 0
34.540000 21.780000 33.000000 192 177 179 0
34.760000 21.780000 33.000000 193 176 181 0
34.980000 21.780000 33.000000 194 177 182 0
35.200000 21.780000 34.100000 194 177 182 0
35.420000 21.780000 34.980000 194 177 182 0
35.640000 21.780000 36.080000 193 177 182 0
35.860000 21.780000 36.080000 194 178 183 0
36.080000 21.780000 36.300000 194 178 183 0
36.300000 21.780000 36.300000 194 178 183 0
36.520000 21.780000 36.300000 196 179 184 0
36.740000 21.780000 36.520000 195 178 183 0
36.960000 21.780000 36.520000 195 179 184 0
37.180000 21.780000 36.520000 194 178 183 0
0.000000 22.000000 22.440000 167 165 161 0
0.220000 22.000000 22.440000 168 166 162 0
0.440000 22.000000 22.440000 169 167 163 0
0.660000 22.000000 22.660000 167 165 161 0
0.880000 22.000000 22.660000 169 165 161 0
1.100000 22.000000 22.660000 169 165 161 0
1.320000 22.000000 22.660000 169 167 163 0
1.540000 22.000000 22.880000 169 167 163 0
1.760000 22.000000 22.880000 171 167 163 0
1.980000 22.000000 24.200000 170 166 162 0
2.200000 22.000000 24.420000 168 166 162 0
2.420000 22.000000 24.420000 167 165 161 0
2.640000 22.000000 24.420000 170 166 162 0
2.860000 22.000000 24.640000 170 166 162 0
3.080000 22.000000 24.640000 170 165 164 0
3.300000 22.000000 24.640000 171 166 165 0
3.520000 22.000000 26.180000 171 167 163 0
3.740000 22.000000 25.960000 171 167 163 0
3.960000 22.000000 27.940000 171 167 163 0
4.180000 22.000000 29.040000 172 168 164 0
4.400000 22.000000 29.260000 172 168 164 0
4.620000 22.000000 29.260000 172 168 164 0
4.840000 22.000000 29.260000 172 167 166 0
5.060000 22.000000 29.260000 173 168 167 0
5.280000 22.000000 30.800000 172 168 164 0
5.500000 22.000000 30.800000 173 169 165 0
5.720000 22.000000 31.020000 173 168 167 0
5.940000 22.000000 31.020000 172 167 166 0
6.160000 22.000000 31.020000 174 168 167 0
6.380000 22.000000 31.020000 172 166 165 0
6.600000 22.000000 31.240000 173 167 166 0
6.820000 22.000000 32.560000 171 165 164 0
7.040000 22.000000 32.560000 171 165 164 0
7.260000 22.000000 32.560000 172 166 165 0
7.480000 22.000000 34.100000 171 166 165 0
7.700000 22.000000 33.880000 171 166 165 0
7.920000 22.000000 34.980000 174 168 167 0
8.140000 22.000000 36.300000 176 170 169 0
8.360000 22.000000 36.300000 178 169 169 0
8.580000 22.000000 36.300000 178 169 169 0
8.800000 22.000000 36.520000 176 170 169 0
9.020000 22.000000 36.520000 177 171 170 0
9.240000 22.000000 36.520000 177 171 170 0
9.460000 22.000000 36.520000 175 169 168 0
9.680000 22.000000 38.060000 175 169 168 0
9.900000 22.000000 38.060000 177 171 170 0
10.120000 22.000000 38.060000 178 169 169 0
10.340000 22.000000 38.280000 178 169 169 0
10.560000 22.000000 38.280000 177 171 170 0
10.780000 22.000000 38.280000 177 171 170 0
11.000000 22.000000 38.280000 176 170 169 0
11.220000 22.000000 39.820000 176 170 169 0
11.440000 22.000000 39.820000 177 171 170 0
11.660000 22.000000 39.820000 177 171 170 0
11.880000 22.000000 39.820000 178 169 171 0
12.100000 22.000000 39.820000 179 170 172 0
12.320000 22.000000 40.040000 177 171 170 0
12.540000 22.000000 40.040000 177 171 170 0
12.760000 22.000000 41.140000 177 171 170 0
12.980000 22.000000 41.800000 177 171 170 0
13.200000 22.000000 31.900000 178 172 171 0
13.420000 22.000000 11.220000 178 172 171 0
13.640000 22.000000 0.220000 180 171 171 0
13.860000 22.000000 0.220000 179 170 170 0
14.080000 22.000000 0.220000 179 168 171 0
14.300000 22.000000 0.220000 176 165 168 0
14.520000 22.000000 0.220000 172 161 160 0
14.740000 22.000000 0.220000 169 158 157 0
14.960000 22.000000 0.220000 167 155 152 0
15.180000 22.000000 0.220000 164 152 149 0
15.400000 22.000000 0.440000 162 152 148 0
15.620000 22.000000 0.440000 165 155 151 0
15.840000 22.000000 0.440000 167 158 160 0
16.060000 22.000000 0.440000 169 160 162 0
16.280000 22.000000 0.440000 172 163 163 0
16.500000 22.000000 0.440000 175 166 166 0
16.720000 22.000000 1.980000 176 167 169 0
16.940000 22.000000 1.980000 177 168 170 0
17.160000 22.000000 1.980000 180 169 170 0
17.380000 22.000000 1.980000 181 170 171 0
17.600000 22.000000 3.520000 183 170 174 0
17.820000 22.000000 3.520000 183 170 174 0
18.040000 22.000000 3.520000 183 172 175 0
18.260000 22.000000 3.740000 183 172 175 0
18.480000 22.000000 3.740000 184 173 174 0
18.700000 22.000000 3.740000 182 171 172 0
18.920000 22.000000 3.960000 183 172 173 0
19.140000 22.000000 3.960000 183 172 173 0
19.360000 22.000000 3.960000 183 170 174 0
19.580000 22.000000 5.060000 183 170 174 0
19.800000 22.000000 5.940000 184 171 175 0
20.020000 22.000000 7.040000 184 171 175 0
20.240000 22.000000 7.040000 184 171 173 0
20.460000 22.000000 7.260000 184 171 173 0
20.680000 22.000000 7.260000 185 172 176 0
20.900000 22.000000 7.260000 185 172 176 0
21.120000 22.000000 7.260000 184 171 175 0
21.340000 22.000000 7.480000 184 171 175 0
21.560000 22.000000 7.480000 183 170 174 0
21.780000 22.000000 7.480000 183 170 174 0
22.000000 22.000000 9.020000 184 169 171 0
22.220000 22.000000 9.020000 185 170 172 0
22.440000 22.000000 9.240000 186 170 175 0
22.660000 22.000000 9.240000 186 170 175 0
22.880000 22.000000 9.240000 184 171 173 0
23.100000 22.000000 9.460000 185 172 174 0
23.320000 22.000000 10.780000 187 171 176 0
23.540000 22.000000 10.780000 186 170 175 0
23.760000 22.000000 11.000000 188 172 177 0
23.980000 22.000000 12.100000 187 171 176 0
24.200000 22.000000 14.300000 188 172 177 0
24.420000 22.000000 15.400000 187 171 176 0
24.640000 22.000000 15.400000 188 172 177 0
24.860000 22.000000 15.400000 188 172 177 0
25.080000 22.000000 15.620000 188 172 177 0
25.300000 22.000000 15.620000 189 173 178 0
25.520000 22.000000 15.620000 190 173 176 0
25.740000 22.000000 15.840000 190 173 176 0
25.960000 22.000000 17.160000 190 173 178 0
26.180000 22.000000 17.160000 189 172 177 0
26.400000 22.000000 17.380000 188 172 177 0
26.620000 22.000000 17.380000 188 172 177 0
26.840000 22.000000 17.380000 188 172 177 0
27.060000 22.000000 17.600000 189 173 178 0
27.280000 22.000000 17.600000 191 174 179 0
27.500000 22.000000 17.600000 191 174 179 0
27.720000 22.000000 17.820000 192 175 178 0
27.940000 22.000000 19.140000 191 174 177 0
28.160000 22.000000 18.920000 190 174 179 0
28.380000 22.000000 21.120000 191 175 180 0
28.600000 22.000000 22.220000 191 175 180 0
28.820000 22.000000 22.220000 190 174 179 0
29.040000 22.000000 22.440000 192 175 180 0
29.260000 22.000000 22.440000 193 176 181 0
29.480000 22.000000 22.440000 192 175 180 0
29.700000 22.000000 22.660000 192 175 180 0
29.920000 22.000000 22.660000 191 175 180 0
30.140000 22.000000 22.660000 191 175 180 0
30.360000 22.000000 22.660000 190 174 179 0
30.580000 22.000000 22.880000 189 173 178 0
30.800000 22.000000 24.200000 189 172 177 0
31.020000 22.000000 24.200000 187 170 175 0
31.240000 22.000000 25.740000 188 171 176 0
31.460000 22.000000 27.060000 189 172 177 0
31.680000 22.000000 28.160000 189 173 178 0
31.900000 22.000000 29.260000 192 176 181 0
32.120000 22.000000 30.800000 192 176 181 0
32.340000 22.000000 30.800000 193 177 182 0
32.560000 22.000000 30.800000 193 177 182 0
32.780000 22.000000 31.020000 192 176 181 0
33.000000 22.000000 32.340000 194 177 182 0
33.220000 22.000000 32.560000 194 177 182 0
33.440000 22.000000 32.560000 192 176 181 0
33.660000 22.000000 32.560000 191 175 180 0
33.880000 22.000000 32.780000 192 176 181 0
34.100000 22.000000 32.780000 191 175 180 0
34.320000 22.000000 32.780000 192 177 179 0
34.540000 22.000000 33.000000 193 178 180 0
34.760000 22.000000 33.000000 193 176 181 0
34.980000 22.000000 33.000000 194 177 182 0
35.200000 22.000000 34.100000 194 177 182 0
35.420000 22.000000 34.980000 195 178 183 0
35.640000 22.000000 36.080000 194 178 183 0
35.860000 22.000000 36.080000 194 178 183 0
36.080000 22.000000 36.300000 194 178 183 0
36.300000 22.000000 36.300000 195 179 184 0
36.520000 22.000000 36.300000 196 179 184 0
36.740000 22.000000 36.520000 196 179 184 0
36.960000 22.000000 36.520000 195 179 184 0
37.180000 22.000000 36.520000 193 177 182 0
0.000000 22.220000 22.440000 168 166 162 0
0.220000 22.220000 22.440000 168 166 162 0
0.440000 22.220000 22.440000 168 167 160 0
0.660000 22.220000 22.660000 168 167 160 0
0.880000 22.220000 22.660000 170 166 162 0
1.100000 22.220000 22.660000 170 166 162 0
1.320000 22.220000 22.660000 170 166 162 0
1.540000 22.220000 22.880000 170 166 162 0
1.760000 22.220000 22.880000 170 166 162 0
1.980000 22.220000 24.200000 170 166 162 0
2.200000 22.220000 24.420000 170 166 162 0
2.420000 22.220000 24.420000 171 167 163 0
2.640000 22.220000 24.420000 170 166 162 0
2.860000 22.220000 24.640000 170 166 162 0
3.080000 22.220000 24.640000 171 167 163 0
3.300000 22.220000 24.640000 171 167 163 0
3.520000 22.220000 26.180000 171 167 163 0
3.740000 22.220000 25.740000 170 166 162 0
3.960000 22.220000 27.940000 172 166 165 0
4.180000 22.220000 29.040000 173 167 166 0
4.400000 22.220000 29.260000 173 167 166 0
4.620000 22.220000 29.260000 173 167 166 0
4.840000 22.220000 29.260000 174 168 167 0
5.060000 22.220000 29.260000 174 168 167 0
5.280000 22.220000 30.800000 172 168 164 0
5.500000 22.220000 30.800000 173 169 165 0
5.720000 22.220000 31.020000 174 168 167 0
5.940000 22.220000 31.020000 174 168 167 0
6.160000 22.220000 31.020000 175 169 168 0
6.380000 22.220000 31.020000 174 168 167 0
6.600000 22.220000 31.240000 172 166 165 0
6.820000 22.220000 32.560000 172 166 165 0
7.040000 22.220000 32.560000 171 165 164 0
7.260000 22.220000 32.560000 172 166 165 0
7.480000 22.220000 34.100000 174 165 165 0
7.700000 22.220000 33.880000 175 166 166 0
7.920000 22.220000 34.980000 175 168 170 0
8.140000 22.220000 36.300000 176 169 171 0
8.360000 22.220000 36.300000 176 170 169 0
8.580000 22.220000 36.300000 177 171 170 0
8.800000 22.220000 36.520000 177 171 170 0
9.020000 22.220000 36.520000 176 170 169 0
9.240000 22.220000 36.520000 178 169 169 0
9.460000 22.220000 36.520000 178 169 169 0
9.680000 22.220000 38.060000 175 170 169 0
9.900000 22.220000 38.060000 175 170 169 0
10.120000 22.220000 38.060000 178 169 169 0
10.340000 22.220000 38.280000 178 169 169 0
10.560000 22.220000 38.280000 177 168 168 0
10.780000 22.220000 38.280000 178 169 169 0
11.000000 22.220000 38.280000 178 169 169 0
11.220000 22.220000 39.820000 178 169 169 0
11.440000 22.220000 39.820000 176 170 169 0
11.660000 22.220000 39.820000 177 171 170 0
11.880000 22.220000 39.820000 179 170 170 0
12.100000 22.220000 39.820000 179 170 170 0
12.320000 22.220000 40.040000 179 170 170 0
12.540000 22.220000 40.040000 179 170 170 0
12.760000 22.220000 41.140000 180 169 170 0
12.980000 22.220000 41.800000 181 170 171 0
13.200000 22.220000 31.900000 177 173 169 0
13.420000 22.220000 11.220000 177 173 169 0
13.640000 22.220000 0.220000 179 170 170 0
13.860000 22.220000 0.220000 179 170 170 0
14.080000 22.220000 0.220000 180 169 170 0
14.300000 22.220000 0.220000 178 167 168 0
14.520000 22.220000 0.220000 173 162 163 0
14.740000 22.220000 0.220000 169 158 159 0
14.960000 22.220000 0.220000 166 156 150 0
15.180000 22.220000 0.220000 163 153 147 0
15.400000 22.220000 0.440000 164 152 151 0
15.620000 22.220000 0.440000 165 153 152 0
15.840000 22.220000 0.440000 167 156 157 0
16.060000 22.220000 0.440000 170 159 160 0
16.280000 22.220000 0.440000 173 162 163 0
16.500000 22.220000 0.440000 175 164 165 0
16.720000 22.220000 1.980000 177 166 167 0
16.940000 22.220000 1.980000 178 167 168 0
17.160000 22.220000 1.980000 181 170 171 0
17.380000 22.220000 1.980000 181 170 171 0
17.600000 22.220000 3.520000 182 171 170 0
17.820000 22.220000 3.520000 182 171 170 0
18.040000 22.220000 3.520000 182 171 170 0
18.260000 22.220000 3.740000 184 173 172 0
18.480000 22.220000 3.740000 183 170 172 0
18.700000 22.220000 3.740000 184 171 173 0
18.920000 22.220000 3.960000 183 172 173 0
19.140000 22.220000 3.960000 183 172 173 0
19.360000 22.220000 3.960000 183 174 172 0
19.580000 22.220000 5.060000 181 172 170 0
19.800000 22.220000 5.940000 184 171 173 0
20.020000 22.220000 7.040000 184 171 173 0
20.240000 22.220000 7.040000 185 172 174 0
20.460000 22.220000 7.260000 185 172 174 0
20.680000 22.220000 7.260000 185 172 174 0
20.900000 22.220000 7.260000 184 171 173 0
21.120000 22.220000 7.260000 184 173 174 0
21.340000 22.220000 7.480000 183 172 173 0
21.560000 22.220000 7.480000 183 170 172 0
21.780000 22.220000 7.480000 184 171 173 0
22.000000 22.220000 9.020000 184 171 173 0
22.220000 22.220000 9.020000 185 172 174 0
22.440000 22.220000 9.240000 184 171 173 0
22.660000 22.220000 9.240000 185 172 174 0
22.880000 22.220000 9.240000 184 173 174 0
23.100000 22.220000 9.460000 183 172 173 0
23.320000 22.220000 10.780000 187 172 174 0
23.540000 22.220000 10.780000 187 172 174 0
23.760000 22.220000 11.000000 185 172 174 0
23.980000 22.220000 12.100000 185 172 174 0
24.200000 22.220000 14.300000 186 173 175 0
24.420000 22.220000 15.400000 186 173 175 0
24.640000 22.220000 15.400000 186 173 175 0
24.860000 22.220000 15.400000 186 173 175 0
25.080000 22.220000 15.620000 188 173 175 0
25.300000 22.220000 15.620000 188 173 175 0
25.520000 22.220000 15.620000 186 173 175 0
25.740000 22.220000 15.840000 187 174 176 0
25.960000 22.220000 17.160000 187 174 176 0
26.180000 22.220000 17.160000 187 174 176 0
26.400000 22.220000 17.380000 189 174 176 0
26.620000 22.220000 17.380000 188 173 175 0
26.840000 22.220000 17.380000 187 174 176 0
27.060000 22.220000 17.600000 187 174 176 0
27.280000 22.220000 17.600000 190 175 177 0
27.500000 22.220000 17.600000 191 176 178 0
27.720000 22.220000 17.820000 190 175 175 0
27.940000 22.220000 19.140000 190 175 175 0
28.160000 22.220000 18.920000 190 175 177 0
28.380000 22.220000 21.120000 191 176 178 0
28.600000 22.220000 22.220000 191 176 178 0
28.820000 22.220000 22.220000 191 176 178 0
29.040000 22.220000 22.440000 191 176 178 0
29.260000 22.220000 22.440000 192 177 179 0
29.480000 22.220000 22.440000 192 177 179 0
29.700000 22.220000 22.660000 191 176 178 0
29.920000 22.220000 22.660000 190 175 177 0
30.140000 22.220000 22.660000 190 175 177 0
30.360000 22.220000 22.660000 191 174 177 0
30.580000 22.220000 22.880000 190 173 176 0
30.800000 22.220000 24.200000 188 172 177 0
31.020000 22.220000 24.200000 187 171 176 0
31.240000 22.220000 25.740000 187 170 173 0
31.460000 22.220000 27.060000 189 172 175 0
31.680000 22.220000 28.160000 191 174 179 0
31.900000 22.220000 29.260000 193 176 181 0
32.120000 22.220000 30.800000 194 177 180 0
32.340000 22.220000 30.800000 194 177 180 0
32.560000 22.220000 30.800000 190 177 179 0
32.780000 22.220000 31.020000 191 178 180 0
33.000000 22.220000 32.340000 193 176 179 0
33.220000 22.220000 32.560000 193 176 179 0
33.440000 22.220000 32.560000 192 175 180 0
33.660000 22.220000 32.560000 193 176 181 0
33.880000 22.220000 32.780000 192 175 178 0
34.100000 22.220000 32.780000 194 177 180 0
34.320000 22.220000 32.780000 190 177 179 0
34.540000 22.220000 33.000000 189 176 178 0
34.760000 22.220000 33.000000 194 177 182 0
34.980000 22.220000 33.000000 194 177 182 0
35.200000 22.220000 34.100000 195 178 183 0
35.420000 22.220000 34.980000 195 178 183 0
35.640000 22.220000 36.080000 195 178 181 0
35.860000 22.220000 36.080000 195 178 181 0
36.080000 22.220000 36.300000 192 179 181 0
36.300000 22.220000 36.300000 193 180 182 0
36.520000 22.220000 36.300000 195 180 182 0
36.740000 22.220000 36.520000 196 181 183 0
36.960000 22.220000 36.520000 196 179 184 0
37.180000 22.220000 36.520000 196 179 184 0
0.000000 22.440000 22.440000 168 166 162 0
0.220000 22.440000 22.440000 168 166 162 0
0.440000 22.440000 22.440000 167 166 159 0
0.660000 22.440000 22.660000 169 168 161 0
0.880000 22.440000 22.660000 170 166 162 0
1.100000 22.440000 22.660000 170 166 162 0
1.320000 22.440000 22.660000 170 166 162 0
1.540000 22.440000 22.880000 170 166 162 0
1.760000 22.440000 22.880000 170 166 162 0
1.980000 22.440000 24.200000 169 165 161 0
2.200000 22.440000 24.420000 171 167 163 0
2.420000 22.440000 24.420000 171 167 163 0
2.640000 22.440000 24.420000 170 166 162 0
2.860000 22.440000 24.640000 170 166 162 0
3.080000 22.440000 24.640000 170 166 162 0
3.300000 22.440000 24.640000 171 167 163 0
3.520000 22.440000 26.180000 170 166 162 0
3.740000 22.440000 25.740000 171 167 163 0
3.960000 22.440000 27.940000 172 166 165 0
4.180000 22.440000 29.040000 173 167 166 0
4.400000 22.440000 29.260000 174 168 167 0
4.620000 22.440000 29.260000 174 168 167 0
4.840000 22.440000 29.260000 173 167 166 0
5.060000 22.440000 29.260000 173 167 166 0
5.280000 22.440000 30.800000 172 168 164 0
5.500000 22.440000 30.800000 173 169 165 0
5.720000 22.440000 31.020000 174 168 167 0
5.940000 22.440000 31.020000 174 168 167 0
6.160000 22.440000 31.020000 173 167 166 0
6.380000 22.440000 31.020000 174 168 167 0
6.600000 22.440000 31.240000 172 166 165 0
6.820000 22.440000 32.560000 172 166 165 0
7.040000 22.440000 32.560000 172 166 165 0
7.260000 22.440000 32.560000 172 166 165 0
7.480000 22.440000 32.780000 174 165 165 0
7.700000 22.440000 33.880000 176 167 167 0
7.920000 22.440000 35.200000 175 168 170 0
8.140000 22.440000 36.300000 177 170 172 0
8.360000 22.440000 36.300000 177 171 170 0
8.580000 22.440000 36.300000 176 170 169 0
8.800000 22.440000 36.520000 176 170 169 0
9.020000 22.440000 36.520000 176 170 169 0
9.240000 22.440000 36.520000 178 169 169 0
9.460000 22.440000 36.520000 177 168 168 0
9.680000 22.440000 38.060000 174 169 168 0
9.900000 22.440000 38.060000 176 171 170 0
10.120000 22.440000 38.060000 178 169 169 0
10.340000 22.440000 38.280000 177 168 168 0
10.560000 22.440000 38.280000 178 169 169 0
10.780000 22.440000 38.280000 178 169 169 0
11.000000 22.440000 38.280000 180 171 171 0
11.220000 22.440000 39.820000 178 169 169 0
11.440000 22.440000 39.820000 177 171 170 0
11.660000 22.440000 39.820000 177 171 170 0
11.880000 22.440000 39.820000 179 170 170 0
12.100000 22.440000 39.820000 179 170 170 0
12.320000 22.440000 40.040000 179 170 170 0
12.540000 22.440000 40.040000 180 171 171 0
12.760000 22.440000 41.140000 180 169 170 0
12.980000 22.440000 41.800000 182 171 172 0
13.200000 22.440000 31.900000 177 173 169 0
13.420000 22.440000 11.220000 178 174 170 0
13.640000 22.440000 0.220000 180 171 171 0
13.860000 22.440000 0.220000 180 171 171 0
14.080000 22.440000 0.220000 179 168 169 0
14.300000 22.440000 0.220000 177 166 167 0
14.520000 22.440000 0.220000 175 164 165 0
14.740000 22.440000 0.220000 171 160 161 0
14.960000 22.440000 0.220000 166 156 150 0
15.180000 22.440000 0.220000 164 154 148 0
15.400000 22.440000 0.440000 164 152 151 0
15.620000 22.440000 0.440000 165 153 152 0
15.840000 22.440000 0.440000 167 156 157 0
16.060000 22.440000 0.440000 170 159 160 0
16.280000 22.440000 0.440000 172 161 162 0
16.500000 22.440000 0.440000 176 165 166 0
16.720000 22.440000 1.980000 176 165 166 0
16.940000 22.440000 1.980000 179 168 169 0
17.160000 22.440000 1.980000 180 169 170 0
17.380000 22.440000 1.980000 180 169 170 0
17.600000 22.440000 3.520000 182 171 170 0
17.820000 22.440000 3.520000 183 172 171 0
18.040000 22.440000 3.520000 183 172 171 0
18.260000 22.440000 3.740000 183 172 171 0
18.480000 22.440000 3.740000 184 171 173 0
18.700000 22.440000 3.740000 183 170 172 0
18.920000 22.440000 3.960000 184 173 174 0
19.140000 22.440000 3.960000 183 172 173 0
19.360000 22.440000 3.960000 183 174 172 0
19.580000 22.440000 5.060000 182 173 171 0
19.800000 22.440000 5.940000 184 171 173 0
20.020000 22.440000 7.040000 183 170 172 0
20.240000 22.440000 7.040000 184 171 173 0
20.460000 22.440000 7.040000 184 171 173 0
20.680000 22.440000 7.260000 185 172 174 0
20.900000 22.440000 7.260000 184 171 173 0
21.120000 22.440000 7.260000 183 172 173 0
21.340000 22.440000 7.480000 184 173 174 0
21.560000 22.440000 7.480000 184 171 173 0
21.780000 22.440000 7.480000 184 171 173 0
22.000000 22.440000 9.020000 183 170 172 0
22.220000 22.440000 9.020000 184 171 173 0
22.440000 22.440000 9.240000 184 171 173 0
22.660000 22.440000 9.240000 184 171 173 0
22.880000 22.440000 9.240000 183 172 173 0
23.100000 22.440000 9.460000 184 173 174 0
23.320000 22.440000 10.780000 186 171 173 0
23.540000 22.440000 10.780000 186 171 173 0
23.760000 22.440000 11.000000 186 173 175 0
23.980000 22.440000 12.100000 185 172 174 0
24.200000 22.440000 14.300000 186 173 175 0
24.420000 22.440000 15.400000 186 173 175 0
24.640000 22.440000 15.400000 187 174 176 0
24.860000 22.440000 15.400000 186 173 175 0
25.080000 22.440000 15.620000 188 173 175 0
25.300000 22.440000 15.620000 188 173 175 0
25.520000 22.440000 15.620000 188 175 177 0
25.740000 22.440000 15.840000 187 174 176 0
25.960000 22.440000 17.160000 187 174 176 0
26.180000 22.440000 17.160000 187 174 176 0
26.400000 22.440000 17.380000 189 174 176 0
26.620000 22.440000 17.380000 189 174 176 0
26.840000 22.440000 17.380000 187 174 176 0
27.060000 22.440000 17.600000 188 175 177 0
27.280000 22.440000 17.600000 191 176 178 0
27.500000 22.440000 17.600000 191 176 178 0
27.720000 22.440000 17.820000 191 176 176 0
27.940000 22.440000 19.140000 190 175 175 0
28.160000 22.440000 18.920000 190 175 177 0
28.380000 22.440000 19.800000 191 176 178 0
28.600000 22.440000 20.900000 191 176 178 0
28.820000 22.440000 22.220000 191 176 178 0
29.040000 22.440000 22.440000 191 176 178 0
29.260000 22.440000 22.440000 191 176 178 0
29.480000 22.440000 22.440000 192 177 179 0
29.700000 22.440000 22.660000 191 176 178 0
29.920000 22.440000 22.660000 191 176 178 0
30.140000 22.440000 22.660000 190 175 177 0
30.360000 22.440000 22.660000 191 174 177 0
30.580000 22.440000 22.880000 189 172 175 0
30.800000 22.440000 24.200000 186 170 175 0
31.020000 22.440000 24.420000 186 170 175 0
31.240000 22.440000 25.740000 187 170 173 0
31.460000 22.440000 27.060000 189 172 175 0
31.680000 22.440000 28.160000 191 174 179 0
31.900000 22.440000 29.260000 193 176 181 0
32.120000 22.440000 30.800000 194 177 180 0
32.340000 22.440000 30.800000 193 176 179 0
32.560000 22.440000 30.800000 190 177 179 0
32.780000 22.440000 31.020000 190 177 179 0
33.000000 22.440000 31.020000 193 176 179 0
33.220000 22.440000 32.560000 193 176 179 0
33.440000 22.440000 32.560000 193 176 181 0
33.660000 22.440000 32.560000 192 175 180 0
33.880000 22.440000 32.780000 194 177 180 0
34.100000 22.440000 32.780000 193 176 179 0
34.320000 22.440000 32.780000 191 178 180 0
34.540000 22.440000 33.000000 191 178 180 0
34.760000 22.440000 33.000000 193 176 181 0
34.980000 22.440000 33.000000 194 177 182 0
35.200000 22.440000 34.100000 195 178 183 0
35.420000 22.440000 34.980000 195 178 183 0
35.640000 22.440000 36.080000 195 178 181 0
35.860000 22.440000 36.080000 195 178 181 0
36.080000 22.440000 36.300000 192 179 181 0
36.300000 22.440000 36.300000 193 180 182 0
36.520000 22.440000 36.300000 196 181 183 0
36.740000 22.440000 36.520000 196 181 183 0
36.960000 22.440000 36.520000 197 180 185 0
37.180000 22.440000 36.520000 194 177 182 0
0.000000 22.660000 22.440000 170 165 154 0
0.220000 22.660000 22.440000 170 165 154 0
0.440000 22.660000 22.440000 169 166 154 0
0.660000 22.660000 22.660000 169 166 154 0
0.880000 22.660000 22.660000 169 166 154 0
1.100000 22.660000 22.660000 170 167 155 0
1.320000 22.660000 22.660000 170 165 154 0
1.540000 22.660000 22.880000 171 166 155 0
1.760000 22.660000 22.880000 173 166 153 0
1.980000 22.660000 24.200000 173 166 153 0
2.200000 22.660000 24.420000 171 166 155 0
2.420000 22.660000 24.420000 171 166 155 0
2.640000 22.660000 24.420000 171 166 155 0
2.860000 22.660000 24.640000 172 167 156 0
3.080000 22.660000 24.640000 170 165 156 0
3.300000 22.660000 24.640000 171 166 157 0
3.520000 22.660000 26.180000 174 167 156 0
3.740000 22.660000 25.960000 173 166 155 0
3.960000 22.660000 28.160000 172 167 158 0
4.180000 22.660000 29.260000 172 167 158 0
4.400000 22.660000 29.260000 173 168 159 0
4.620000 22.660000 29.260000 172 167 158 0
4.840000 22.660000 29.260000 175 167 159 0
5.060000 22.660000 29.260000 175 167 159 0
5.280000 22.660000 29.480000 174 167 156 0
5.500000 22.660000 30.800000 175 168 157 0
5.720000 22.660000 31.020000 174 169 160 0
5.940000 22.660000 31.020000 174 169 160 0
6.160000 22.660000 31.020000 176 168 160 0
6.380000 22.660000 31.020000 174 166 158 0
6.600000 22.660000 31.240000 175 166 158 0
6.820000 22.660000 32.560000 175 166 158 0
7.040000 22.660000 32.560000 174 165 155 0
7.260000 22.660000 32.560000 175 166 156 0
7.480000 22.660000 32.780000 176 167 159 0
7.700000 22.660000 33.880000 177 168 160 0
7.920000 22.660000 35.200000 174 171 161 0
8.140000 22.660000 36.300000 175 172 162 0
8.360000 22.660000 36.300000 176 171 162 0
8.580000 22.660000 36.300000 175 170 161 0
8.800000 22.660000 36.520000 177 169 161 0
9.020000 22.660000 36.520000 177 169 161 0
9.240000 22.660000 36.520000 179 170 162 0
9.460000 22.660000 36.520000 178 169 161 0
9.680000 22.660000 38.060000 176 168 160 0
9.900000 22.660000 38.060000 177 169 161 0
10.120000 22.660000 38.060000 177 169 161 0
10.340000 22.660000 38.280000 177 169 161 0
10.560000 22.660000 38.280000 177 169 161 0
