ply
format ascii 1.0
element vertex 1100
property float x
property float y
property float z
property uchar red
property uchar green
property uchar blue
property uchar alpha
end_header
2.860000 23.540000 39.820000 185 169 148 0
3.080000 23.540000 30.360000 183 167 146 0
3.300000 23.540000 8.140000 180 169 146 0
3.960000 23.540000 0.440000 182 166 145 0
4.180000 23.540000 1.540000 183 170 146 0
4.400000 23.540000 1.540000 186 173 149 0
4.620000 23.540000 0.220000 189 178 153 0
4.840000 23.540000 1.760000 190 179 154 0
5.060000 23.540000 1.760000 190 182 156 0
5.280000 23.540000 1.760000 190 182 156 0
5.500000 23.540000 1.760000 193 182 157 0
5.720000 23.540000 1.980000 191 180 155 0
5.940000 23.540000 1.980000 190 179 154 0
6.160000 23.540000 1.980000 190 179 154 0
6.380000 23.540000 1.980000 190 179 154 0
6.600000 23.540000 2.200000 189 178 153 0
6.820000 23.540000 2.200000 189 181 155 0
7.040000 23.540000 2.200000 189 181 155 0
7.260000 23.540000 2.200000 190 179 154 0
7.480000 23.540000 2.420000 189 178 153 0
7.700000 23.540000 3.740000 189 178 153 0
7.920000 23.540000 3.740000 189 178 153 0
8.140000 23.540000 3.960000 188 177 152 0
8.360000 23.540000 3.960000 187 176 151 0
8.580000 23.540000 3.960000 187 176 151 0
8.800000 23.540000 3.960000 186 175 150 0
9.020000 23.540000 4.180000 184 171 147 0
9.240000 23.540000 5.060000 185 172 148 0
9.460000 23.540000 5.940000 183 172 147 0
9.680000 23.540000 7.040000 183 172 147 0
9.900000 23.540000 7.040000 179 171 145 0
10.120000 23.540000 7.040000 176 168 142 0
10.340000 23.540000 8.360000 169 159 131 0
10.560000 23.540000 8.360000 161 151 123 0
10.780000 23.540000 8.360000 158 143 117 0
11.000000 23.540000 8.360000 153 138 112 0
11.220000 23.540000 8.360000 154 138 110 0
11.440000 23.540000 8.360000 155 139 111 0
11.660000 23.540000 8.360000 157 142 116 0
11.880000 23.540000 8.580000 158 143 117 0
12.100000 23.540000 8.580000 159 147 120 0
12.320000 23.540000 7.260000 162 150 123 0
12.540000 23.540000 8.800000 168 156 127 0
12.760000 23.540000 8.800000 171 159 130 0
12.980000 23.540000 8.800000 171 163 137 0
13.200000 23.540000 8.800000 174 166 140 0
13.420000 23.540000 8.800000 175 167 139 0
13.640000 23.540000 8.800000 178 170 142 0
13.860000 23.540000 8.800000 179 171 143 0
14.080000 23.540000 9.020000 178 170 142 0
14.300000 23.540000 10.340000 179 172 141 0
14.520000 23.540000 10.340000 179 172 141 0
14.740000 23.540000 10.560000 179 171 143 0
14.960000 23.540000 10.560000 180 172 144 0
15.180000 23.540000 10.560000 182 174 146 0
15.400000 23.540000 10.560000 179 171 143 0
15.620000 23.540000 10.780000 178 171 140 0
15.840000 23.540000 10.780000 178 171 140 0
16.060000 23.540000 10.780000 180 173 142 0
16.280000 23.540000 10.780000 179 172 141 0
16.500000 23.540000 11.000000 182 174 146 0
16.720000 23.540000 11.000000 183 175 147 0
16.940000 23.540000 12.100000 183 176 145 0
17.160000 23.540000 14.080000 182 175 144 0
17.380000 23.540000 15.180000 183 176 145 0
17.600000 23.540000 15.400000 181 174 143 0
17.820000 23.540000 15.400000 183 176 145 0
18.040000 23.540000 15.400000 183 176 145 0
18.260000 23.540000 15.400000 181 175 144 0
18.480000 23.540000 15.620000 180 174 143 0
18.700000 23.540000 15.620000 180 174 143 0
18.920000 23.540000 15.620000 181 175 144 0
19.140000 23.540000 15.620000 181 174 143 0
19.360000 23.540000 15.840000 181 174 143 0
19.580000 23.540000 15.840000 181 176 142 0
19.800000 23.540000 15.840000 181 176 142 0
20.020000 23.540000 15.840000 183 176 145 0
20.240000 23.540000 16.060000 181 174 143 0
20.460000 23.540000 16.060000 181 174 143 0
20.680000 23.540000 16.060000 182 175 144 0
20.900000 23.540000 17.600000 182 175 144 0
21.120000 23.540000 17.600000 181 174 143 0
21.340000 23.540000 17.600000 181 176 142 0
21.560000 23.540000 17.600000 181 176 142 0
21.780000 23.540000 17.820000 183 176 143 0
22.000000 23.540000 17.820000 183 176 143 0
22.220000 23.540000 17.820000 183 176 143 0
22.440000 23.540000 17.820000 183 176 143 0
22.660000 23.540000 18.920000 183 176 143 0
22.880000 23.540000 21.120000 183 176 143 0
23.100000 23.540000 22.220000 183 176 143 0
23.320000 23.540000 22.220000 183 176 143 0
23.540000 23.540000 22.220000 183 176 143 0
23.760000 23.540000 22.440000 184 177 144 0
23.980000 23.540000 22.440000 182 177 143 0
24.200000 23.540000 22.440000 182 177 143 0
24.420000 23.540000 22.440000 182 175 142 0
24.640000 23.540000 22.660000 182 175 142 0
24.860000 23.540000 23.980000 181 176 142 0
25.080000 23.540000 23.980000 180 175 141 0
25.300000 23.540000 24.200000 180 175 141 0
25.520000 23.540000 24.200000 181 176 142 0
25.740000 23.540000 24.200000 181 176 142 0
25.960000 23.540000 24.200000 180 175 141 0
26.180000 23.540000 24.420000 179 174 140 0
26.400000 23.540000 24.420000 181 176 142 0
26.620000 23.540000 24.420000 181 174 141 0
26.840000 23.540000 25.960000 181 174 141 0
27.060000 23.540000 25.960000 180 175 141 0
27.280000 23.540000 25.960000 180 175 141 0
27.500000 23.540000 26.180000 181 174 141 0
27.720000 23.540000 26.180000 179 172 139 0
27.940000 23.540000 26.180000 180 173 140 0
28.160000 23.540000 27.500000 178 171 138 0
28.380000 23.540000 28.380000 178 171 138 0
28.600000 23.540000 29.260000 176 169 136 0
28.820000 23.540000 30.580000 175 170 136 0
29.040000 23.540000 30.800000 174 169 135 0
29.260000 23.540000 29.920000 175 170 136 0
29.480000 23.540000 31.460000 179 174 140 0
29.700000 23.540000 31.460000 180 175 141 0
29.920000 23.540000 31.460000 181 176 142 0
30.140000 23.540000 32.780000 181 177 143 0
30.360000 23.540000 33.000000 181 177 143 0
30.580000 23.540000 33.000000 182 177 143 0
30.800000 23.540000 33.000000 185 180 146 0
31.020000 23.540000 33.000000 186 181 146 0
31.240000 23.540000 34.100000 185 180 145 0
31.460000 23.540000 34.980000 184 180 146 0
31.680000 23.540000 36.080000 184 180 146 0
31.900000 23.540000 36.080000 182 178 144 0
32.120000 23.540000 36.080000 181 177 143 0
32.340000 23.540000 37.620000 182 177 143 0
32.560000 23.540000 37.620000 183 178 144 0
32.780000 23.540000 37.620000 183 178 143 0
33.000000 23.540000 37.840000 186 181 146 0
33.220000 23.540000 37.840000 184 180 146 0
33.440000 23.540000 37.840000 182 178 144 0
33.660000 23.540000 37.840000 181 176 142 0
33.880000 23.540000 37.840000 182 177 143 0
34.100000 23.540000 38.060000 179 175 143 0
34.320000 23.540000 38.060000 176 172 140 0
34.540000 23.540000 38.060000 173 169 137 0
34.760000 23.540000 38.060000 168 164 132 0
34.980000 23.540000 38.060000 164 154 122 0
35.200000 23.540000 38.060000 157 147 115 0
35.420000 23.540000 38.060000 155 146 112 0
35.640000 23.540000 38.060000 153 144 110 0
35.860000 23.540000 38.060000 154 147 113 0
36.080000 23.540000 38.060000 157 150 116 0
36.300000 23.540000 38.280000 158 152 115 0
36.520000 23.540000 38.280000 160 154 117 0
36.740000 23.540000 38.280000 162 157 122 0
36.960000 23.540000 38.280000 165 160 125 0
37.180000 23.540000 38.280000 169 164 130 0
0.000000 23.760000 37.840000 189 173 152 0
0.220000 23.760000 38.060000 189 173 152 0
0.440000 23.760000 38.060000 190 174 153 0
0.660000 23.760000 38.060000 191 175 154 0
0.880000 23.760000 38.060000 191 175 154 0
1.100000 23.760000 39.600000 189 174 150 0
1.320000 23.760000 39.600000 190 175 151 0
1.540000 23.760000 39.600000 187 174 152 0
1.760000 23.760000 39.600000 188 175 153 0
1.980000 23.760000 39.820000 185 172 150 0
2.200000 23.760000 39.820000 185 172 150 0
2.420000 23.760000 39.820000 187 172 148 0
2.640000 23.760000 39.820000 186 171 147 0
2.860000 23.760000 39.820000 185 169 148 0
3.080000 23.760000 30.360000 184 168 147 0
3.300000 23.760000 8.140000 179 168 145 0
3.960000 23.760000 0.440000 183 167 146 0
4.180000 23.760000 1.540000 181 168 144 0
4.400000 23.760000 1.540000 187 174 150 0
4.620000 23.760000 0.220000 189 178 153 0
4.840000 23.760000 1.760000 192 181 156 0
5.060000 23.760000 1.760000 191 183 157 0
5.280000 23.760000 1.760000 191 183 157 0
5.500000 23.760000 1.760000 193 182 157 0
5.720000 23.760000 1.980000 193 182 157 0
5.940000 23.760000 1.980000 192 181 156 0
6.160000 23.760000 1.980000 190 179 154 0
6.380000 23.760000 1.980000 191 180 155 0
6.600000 23.760000 2.200000 190 179 154 0
6.820000 23.760000 2.200000 187 179 153 0
7.040000 23.760000 2.200000 189 181 155 0
7.260000 23.760000 2.200000 190 179 154 0
7.480000 23.760000 2.420000 190 179 154 0
7.700000 23.760000 3.740000 190 179 154 0
7.920000 23.760000 3.740000 189 178 153 0
8.140000 23.760000 3.960000 190 179 154 0
8.360000 23.760000 3.960000 188 177 152 0
8.580000 23.760000 3.960000 188 177 152 0
8.800000 23.760000 3.960000 186 175 150 0
9.020000 23.760000 4.180000 185 172 148 0
9.240000 23.760000 5.060000 184 171 147 0
9.460000 23.760000 5.940000 182 171 146 0
9.680000 23.760000 7.040000 183 172 147 0
9.900000 23.760000 7.040000 180 172 146 0
10.120000 23.760000 7.040000 176 168 142 0
10.340000 23.760000 8.360000 170 160 132 0
10.560000 23.760000 8.360000 161 151 123 0
10.780000 23.760000 8.360000 156 141 115 0
11.000000 23.760000 8.360000 155 140 114 0
11.220000 23.760000 8.360000 154 138 110 0
11.440000 23.760000 8.360000 156 140 112 0
11.660000 23.760000 8.360000 156 141 115 0
11.880000 23.760000 8.580000 157 142 116 0
12.100000 23.760000 8.580000 159 147 120 0
12.320000 23.760000 7.260000 162 150 123 0
12.540000 23.760000 8.800000 165 153 124 0
12.760000 23.760000 8.800000 172 160 131 0
12.980000 23.760000 8.800000 171 163 137 0
13.200000 23.760000 8.800000 174 166 140 0
13.420000 23.760000 8.800000 177 169 141 0
13.640000 23.760000 8.800000 178 170 142 0
13.860000 23.760000 8.800000 178 170 142 0
14.080000 23.760000 9.020000 179 171 143 0
14.300000 23.760000 10.340000 179 172 141 0
14.520000 23.760000 10.340000 179 172 141 0
14.740000 23.760000 10.560000 180 172 144 0
14.960000 23.760000 10.560000 180 172 144 0
15.180000 23.760000 10.560000 180 172 144 0
15.400000 23.760000 10.560000 181 173 145 0
15.620000 23.760000 10.780000 180 173 142 0
15.840000 23.760000 10.780000 180 173 142 0
16.060000 23.760000 10.780000 180 173 142 0
16.280000 23.760000 10.780000 181 174 143 0
16.500000 23.760000 11.000000 181 173 145 0
16.720000 23.760000 11.000000 181 173 145 0
16.940000 23.760000 12.100000 183 176 145 0
17.160000 23.760000 12.980000 183 176 145 0
17.380000 23.760000 13.860000 183 176 145 0
17.600000 23.760000 15.400000 182 175 144 0
17.820000 23.760000 15.400000 183 176 145 0
18.040000 23.760000 15.400000 182 175 144 0
18.260000 23.760000 15.400000 182 176 145 0
18.480000 23.760000 15.620000 182 176 145 0
18.700000 23.760000 15.620000 182 176 145 0
18.920000 23.760000 15.620000 181 175 144 0
19.140000 23.760000 15.620000 181 174 143 0
19.360000 23.760000 15.840000 182 175 144 0
19.580000 23.760000 15.840000 182 177 143 0
19.800000 23.760000 15.840000 183 178 144 0
20.020000 23.760000 15.840000 184 177 146 0
20.240000 23.760000 16.060000 184 177 146 0
20.460000 23.760000 16.060000 181 174 143 0
20.680000 23.760000 16.060000 181 174 143 0
20.900000 23.760000 17.600000 181 174 143 0
21.120000 23.760000 17.600000 182 175 144 0
21.340000 23.760000 17.600000 183 178 144 0
21.560000 23.760000 17.600000 182 177 143 0
21.780000 23.760000 17.820000 184 177 144 0
22.000000 23.760000 17.820000 183 176 143 0
22.220000 23.760000 17.820000 183 176 143 0
22.440000 23.760000 17.820000 183 176 143 0
22.660000 23.760000 18.920000 183 176 143 0
22.880000 23.760000 21.120000 184 177 144 0
23.100000 23.760000 22.220000 183 176 143 0
23.320000 23.760000 22.220000 182 175 142 0
23.540000 23.760000 22.220000 182 175 142 0
23.760000 23.760000 22.440000 182 175 142 0
23.980000 23.760000 22.440000 181 176 142 0
24.200000 23.760000 22.440000 182 177 143 0
24.420000 23.760000 22.440000 183 176 143 0
24.640000 23.760000 22.660000 182 175 142 0
24.860000 23.760000 23.980000 182 177 143 0
25.080000 23.760000 23.980000 181 176 142 0
25.300000 23.760000 24.200000 181 176 142 0
25.520000 23.760000 24.200000 182 177 143 0
25.740000 23.760000 24.200000 181 176 142 0
25.960000 23.760000 24.200000 181 176 142 0
26.180000 23.760000 24.420000 180 175 141 0
26.400000 23.760000 24.420000 181 176 142 0
26.620000 23.760000 24.420000 181 174 141 0
26.840000 23.760000 25.960000 181 174 141 0
27.060000 23.760000 25.960000 180 175 141 0
27.280000 23.760000 25.960000 180 175 141 0
27.500000 23.760000 26.180000 181 174 141 0
27.720000 23.760000 26.180000 179 172 139 0
27.940000 23.760000 26.180000 178 171 138 0
28.160000 23.760000 27.500000 179 172 139 0
28.380000 23.760000 28.380000 178 171 138 0
28.600000 23.760000 29.260000 176 169 136 0
28.820000 23.760000 30.360000 175 170 136 0
29.040000 23.760000 30.800000 175 170 136 0
29.260000 23.760000 29.920000 176 171 137 0
29.480000 23.760000 31.460000 179 174 140 0
29.700000 23.760000 31.460000 180 175 141 0
29.920000 23.760000 31.460000 182 177 143 0
30.140000 23.760000 32.780000 182 178 144 0
30.360000 23.760000 33.000000 181 177 143 0
30.580000 23.760000 33.000000 182 177 143 0
30.800000 23.760000 33.000000 184 179 145 0
31.020000 23.760000 33.000000 184 179 144 0
31.240000 23.760000 34.100000 185 180 145 0
31.460000 23.760000 34.980000 184 180 146 0
31.680000 23.760000 36.080000 184 180 146 0
31.900000 23.760000 36.080000 183 179 145 0
32.120000 23.760000 36.080000 181 177 143 0
32.340000 23.760000 37.620000 183 178 144 0
32.560000 23.760000 37.620000 183 178 144 0
32.780000 23.760000 37.620000 182 177 142 0
33.000000 23.760000 37.840000 184 179 144 0
33.220000 23.760000 37.840000 183 179 145 0
33.440000 23.760000 37.840000 181 177 143 0
33.660000 23.760000 37.840000 181 176 142 0
33.880000 23.760000 37.840000 180 175 141 0
34.100000 23.760000 38.060000 178 174 142 0
34.320000 23.760000 38.060000 176 172 140 0
34.540000 23.760000 38.060000 175 171 139 0
34.760000 23.760000 38.060000 168 164 132 0
34.980000 23.760000 38.060000 165 155 123 0
35.200000 23.760000 38.060000 157 147 115 0
35.420000 23.760000 38.060000 154 145 111 0
35.640000 23.760000 38.060000 155 146 112 0
35.860000 23.760000 38.060000 154 147 113 0
36.080000 23.760000 38.060000 156 149 115 0
36.300000 23.760000 38.280000 157 151 114 0
36.520000 23.760000 38.280000 160 154 117 0
36.740000 23.760000 38.280000 162 157 122 0
36.960000 23.760000 38.280000 165 160 125 0
37.180000 23.760000 38.280000 170 165 131 0
0.000000 23.980000 37.840000 186 173 152 0
0.220000 23.980000 38.060000 188 172 151 0
0.440000 23.980000 38.060000 190 174 153 0
0.660000 23.980000 38.060000 187 174 152 0
0.880000 23.980000 38.060000 188 175 153 0
1.100000 23.980000 39.600000 189 176 154 0
1.320000 23.980000 39.600000 188 175 153 0
1.540000 23.980000 39.600000 189 176 154 0
1.760000 23.980000 39.600000 187 174 152 0
1.980000 23.980000 39.820000 186 173 151 0
2.200000 23.980000 39.820000 186 173 151 0
2.420000 23.980000 39.820000 185 172 150 0
2.640000 23.980000 39.820000 183 170 148 0
2.860000 23.980000 39.820000 185 169 148 0
3.080000 23.980000 30.360000 184 168 147 0
3.300000 23.980000 8.140000 180 167 145 0
4.180000 23.980000 0.440000 181 168 146 0
4.400000 23.980000 1.540000 188 175 153 0
4.620000 23.980000 0.220000 188 180 154 0
4.840000 23.980000 1.760000 190 182 156 0
5.060000 23.980000 1.760000 193 182 157 0
5.280000 23.980000 1.760000 193 182 157 0
5.500000 23.980000 1.760000 192 181 156 0
5.720000 23.980000 1.980000 191 180 155 0
5.940000 23.980000 1.980000 193 182 157 0
6.160000 23.980000 1.980000 191 180 155 0
6.380000 23.980000 1.980000 190 182 156 0
6.600000 23.980000 2.200000 190 182 156 0
6.820000 23.980000 2.200000 190 179 154 0
7.040000 23.980000 2.200000 190 179 154 0
7.260000 23.980000 2.200000 190 182 156 0
7.480000 23.980000 3.740000 190 182 156 0
7.700000 23.980000 3.740000 191 180 155 0
7.920000 23.980000 3.740000 191 180 155 0
8.140000 23.980000 3.960000 189 181 155 0
8.360000 23.980000 3.960000 188 180 154 0
8.580000 23.980000 3.960000 188 177 152 0
8.800000 23.980000 3.960000 187 176 151 0
9.020000 23.980000 4.180000 185 174 151 0
9.240000 23.980000 5.060000 184 173 150 0
9.460000 23.980000 5.940000 184 173 148 0
9.680000 23.980000 7.040000 182 171 146 0
9.900000 23.980000 7.040000 181 170 147 0
10.120000 23.980000 7.040000 178 167 144 0
10.340000 23.980000 8.360000 171 160 135 0
10.560000 23.980000 8.360000 164 153 128 0
10.780000 23.980000 8.360000 155 143 116 0
11.000000 23.980000 8.360000 152 140 113 0
11.220000 23.980000 8.360000 150 138 109 0
11.440000 23.980000 8.360000 152 140 111 0
11.660000 23.980000 8.360000 154 142 113 0
11.880000 23.980000 8.580000 156 144 115 0
12.100000 23.980000 8.580000 159 147 120 0
12.320000 23.980000 7.260000 163 151 124 0
12.540000 23.980000 8.800000 167 155 126 0
12.760000 23.980000 8.800000 172 160 131 0
12.980000 23.980000 8.800000 171 163 135 0
13.200000 23.980000 8.800000 174 166 138 0
13.420000 23.980000 8.800000 178 167 142 0
13.640000 23.980000 8.800000 180 169 144 0
13.860000 23.980000 8.800000 181 171 143 0
14.080000 23.980000 9.020000 181 171 143 0
14.300000 23.980000 10.340000 180 170 142 0
14.520000 23.980000 10.340000 181 171 143 0
14.740000 23.980000 10.560000 180 173 142 0
14.960000 23.980000 10.560000 181 174 143 0
15.180000 23.980000 10.560000 180 172 144 0
15.400000 23.980000 10.560000 180 172 144 0
15.620000 23.980000 10.780000 180 172 144 0
15.840000 23.980000 10.780000 180 172 144 0
16.060000 23.980000 10.780000 181 174 143 0
16.280000 23.980000 10.780000 181 174 143 0
16.500000 23.980000 11.000000 181 174 143 0
16.720000 23.980000 11.000000 183 176 145 0
16.940000 23.980000 12.320000 183 175 147 0
17.160000 23.980000 13.200000 182 174 146 0
17.380000 23.980000 14.080000 182 174 146 0
17.600000 23.980000 15.400000 181 173 145 0
17.820000 23.980000 15.400000 182 175 144 0
18.040000 23.980000 15.400000 182 175 144 0
18.260000 23.980000 15.400000 183 176 145 0
18.480000 23.980000 15.620000 182 175 144 0
18.700000 23.980000 15.620000 182 176 145 0
18.920000 23.980000 15.620000 180 174 143 0
19.140000 23.980000 15.620000 183 176 145 0
19.360000 23.980000 15.840000 181 174 143 0
19.580000 23.980000 15.840000 182 175 144 0
19.800000 23.980000 15.840000 184 177 146 0
20.020000 23.980000 15.840000 184 178 147 0
20.240000 23.980000 15.840000 184 178 147 0
20.460000 23.980000 16.060000 185 178 147 0
20.680000 23.980000 16.060000 183 176 145 0
20.900000 23.980000 17.600000 182 175 144 0
21.120000 23.980000 17.600000 183 176 145 0
21.340000 23.980000 17.600000 183 178 144 0
21.560000 23.980000 17.600000 183 178 144 0
21.780000 23.980000 17.820000 185 179 148 0
22.000000 23.980000 17.820000 185 179 148 0
22.220000 23.980000 17.820000 182 176 145 0
22.440000 23.980000 17.820000 182 176 145 0
22.660000 23.980000 18.920000 181 176 142 0
22.880000 23.980000 21.120000 183 178 144 0
23.100000 23.980000 22.220000 182 177 143 0
23.320000 23.980000 22.220000 182 177 143 0
23.540000 23.980000 22.220000 182 175 144 0
23.760000 23.980000 22.440000 183 176 145 0
23.980000 23.980000 22.440000 182 176 145 0
24.200000 23.980000 22.440000 181 175 144 0
24.420000 23.980000 22.440000 183 176 143 0
24.640000 23.980000 22.660000 183 176 143 0
24.860000 23.980000 23.980000 182 177 143 0
25.080000 23.980000 23.980000 182 177 143 0
25.300000 23.980000 24.200000 182 175 142 0
25.520000 23.980000 24.200000 182 175 142 0
25.740000 23.980000 24.200000 181 176 142 0
25.960000 23.980000 24.200000 181 176 142 0
26.180000 23.980000 24.420000 182 175 142 0
26.400000 23.980000 24.420000 181 174 141 0
26.620000 23.980000 24.420000 181 174 143 0
26.840000 23.980000 25.960000 181 174 143 0
27.060000 23.980000 25.960000 180 175 141 0
27.280000 23.980000 25.960000 180 175 141 0
27.500000 23.980000 26.180000 179 174 140 0
27.720000 23.980000 26.180000 178 173 139 0
27.940000 23.980000 26.180000 179 172 139 0
28.160000 23.980000 27.500000 179 172 139 0
28.380000 23.980000 28.380000 177 172 138 0
28.600000 23.980000 29.260000 175 170 136 0
28.820000 23.980000 30.360000 176 169 138 0
29.040000 23.980000 30.800000 176 169 138 0
29.260000 23.980000 29.920000 177 172 138 0
29.480000 23.980000 31.460000 179 174 140 0
29.700000 23.980000 31.460000 182 177 143 0
29.920000 23.980000 31.460000 182 177 143 0
30.140000 23.980000 32.780000 183 178 144 0
30.360000 23.980000 33.000000 183 178 144 0
30.580000 23.980000 33.000000 181 176 142 0
30.800000 23.980000 33.000000 182 177 143 0
31.020000 23.980000 33.000000 183 178 144 0
31.240000 23.980000 34.100000 185 180 146 0
31.460000 23.980000 34.980000 185 180 145 0
31.680000 23.980000 36.080000 185 180 145 0
31.900000 23.980000 36.080000 184 180 146 0
32.120000 23.980000 36.080000 182 178 144 0
32.340000 23.980000 37.620000 183 178 144 0
32.560000 23.980000 37.620000 182 177 143 0
32.780000 23.980000 37.620000 182 177 143 0
33.000000 23.980000 37.840000 184 179 145 0
33.220000 23.980000 37.840000 183 178 143 0
33.440000 23.980000 37.840000 182 177 142 0
33.660000 23.980000 37.840000 180 176 142 0
33.880000 23.980000 37.840000 180 176 142 0
34.100000 23.980000 38.060000 179 174 140 0
34.320000 23.980000 38.060000 177 172 138 0
34.540000 23.980000 38.060000 175 170 136 0
34.760000 23.980000 38.060000 169 164 130 0
34.980000 23.980000 38.060000 164 155 121 0
35.200000 23.980000 38.060000 157 148 114 0
35.420000 23.980000 38.060000 155 145 113 0
35.640000 23.980000 38.060000 155 145 113 0
35.860000 23.980000 38.060000 157 148 114 0
36.080000 23.980000 38.060000 159 150 116 0
36.300000 23.980000 38.280000 158 151 117 0
36.520000 23.980000 38.280000 161 154 120 0
36.740000 23.980000 38.280000 164 157 123 0
36.960000 23.980000 38.280000 168 161 127 0
37.180000 23.980000 38.280000 169 165 131 0
0.000000 24.200000 37.840000 187 174 153 0
0.220000 24.200000 38.060000 188 172 151 0
0.440000 24.200000 38.060000 188 172 151 0
0.660000 24.200000 38.060000 188 175 153 0
0.880000 24.200000 38.060000 189 176 154 0
1.100000 24.200000 39.600000 188 175 153 0
1.320000 24.200000 39.600000 189 176 154 0
1.540000 24.200000 39.600000 188 175 153 0
1.760000 24.200000 39.600000 187 174 152 0
1.980000 24.200000 39.820000 186 173 151 0
2.200000 24.200000 39.820000 187 174 152 0
2.420000 24.200000 39.820000 185 172 150 0
2.640000 24.200000 39.820000 184 171 149 0
2.860000 24.200000 39.820000 184 168 147 0
3.080000 24.200000 30.360000 184 168 147 0
3.300000 24.200000 8.140000 182 169 147 0
3.960000 24.200000 0.440000 182 166 145 0
4.180000 24.200000 1.540000 181 168 146 0
4.400000 24.200000 1.540000 186 173 151 0
4.620000 24.200000 0.220000 189 181 155 0
4.840000 24.200000 0.220000 190 182 156 0
5.060000 24.200000 1.760000 193 182 157 0
5.280000 24.200000 1.760000 194 183 158 0
5.500000 24.200000 1.760000 192 181 156 0
5.720000 24.200000 1.980000 193 182 157 0
5.940000 24.200000 1.980000 194 183 158 0
6.160000 24.200000 1.980000 194 183 158 0
6.380000 24.200000 1.980000 191 183 157 0
6.600000 24.200000 2.200000 190 182 156 0
6.820000 24.200000 2.200000 190 179 154 0
7.040000 24.200000 2.200000 190 179 154 0
7.260000 24.200000 2.200000 193 185 159 0
7.480000 24.200000 3.740000 194 186 160 0
7.700000 24.200000 3.740000 191 180 155 0
7.920000 24.200000 3.740000 190 179 154 0
8.140000 24.200000 3.960000 188 180 154 0
8.360000 24.200000 3.960000 187 179 153 0
8.580000 24.200000 3.960000 187 176 151 0
8.800000 24.200000 3.960000 187 176 151 0
9.020000 24.200000 4.180000 186 175 152 0
9.240000 24.200000 5.060000 184 173 150 0
9.460000 24.200000 5.940000 184 173 148 0
9.680000 24.200000 7.040000 182 171 146 0
9.900000 24.200000 7.040000 182 171 148 0
10.120000 24.200000 7.040000 177 166 143 0
10.340000 24.200000 8.360000 172 161 136 0
10.560000 24.200000 8.360000 163 152 127 0
10.780000 24.200000 8.360000 156 144 117 0
11.000000 24.200000 8.360000 153 141 114 0
11.220000 24.200000 8.360000 150 138 109 0
11.440000 24.200000 8.360000 152 140 111 0
11.660000 24.200000 8.360000 154 142 113 0
11.880000 24.200000 8.580000 157 145 116 0
12.100000 24.200000 8.580000 160 148 121 0
12.320000 24.200000 7.260000 163 151 124 0
12.540000 24.200000 8.800000 168 156 127 0
12.760000 24.200000 8.800000 172 160 131 0
12.980000 24.200000 8.800000 172 164 136 0
13.200000 24.200000 8.800000 174 166 138 0
13.420000 24.200000 8.800000 179 168 143 0
13.640000 24.200000 8.800000 180 169 144 0
13.860000 24.200000 8.800000 180 170 142 0
14.080000 24.200000 8.800000 180 170 142 0
14.300000 24.200000 10.340000 180 170 142 0
14.520000 24.200000 10.340000 181 171 143 0
14.740000 24.200000 10.560000 180 173 142 0
14.960000 24.200000 10.560000 180 173 142 0
15.180000 24.200000 10.560000 180 172 144 0
15.400000 24.200000 10.560000 180 172 144 0
15.620000 24.200000 10.780000 181 173 145 0
15.840000 24.200000 10.780000 182 174 146 0
16.060000 24.200000 10.780000 182 175 144 0
16.280000 24.200000 10.780000 182 175 144 0
16.500000 24.200000 11.000000 182 175 144 0
16.720000 24.200000 11.000000 183 176 145 0
16.940000 24.200000 12.320000 183 175 147 0
17.160000 24.200000 13.200000 182 174 146 0
17.380000 24.200000 14.080000 182 174 146 0
17.600000 24.200000 15.400000 182 174 146 0
17.820000 24.200000 15.400000 182 175 144 0
18.040000 24.200000 15.400000 182 175 144 0
18.260000 24.200000 15.400000 182 175 144 0
18.480000 24.200000 15.620000 182 175 144 0
18.700000 24.200000 15.620000 180 174 143 0
18.920000 24.200000 15.620000 181 175 144 0
19.140000 24.200000 15.620000 182 175 144 0
19.360000 24.200000 15.840000 181 174 143 0
19.580000 24.200000 15.840000 181 174 143 0
19.800000 24.200000 15.840000 184 177 146 0
20.020000 24.200000 15.840000 184 178 147 0
20.240000 24.200000 15.840000 185 179 148 0
20.460000 24.200000 16.060000 186 179 148 0
20.680000 24.200000 16.060000 183 176 145 0
20.900000 24.200000 17.600000 183 176 145 0
21.120000 24.200000 17.600000 183 176 145 0
21.340000 24.200000 17.600000 183 178 144 0
21.560000 24.200000 17.600000 184 179 145 0
21.780000 24.200000 17.820000 185 179 148 0
22.000000 24.200000 17.820000 186 180 149 0
22.220000 24.200000 17.820000 184 178 147 0
22.440000 24.200000 17.820000 181 175 144 0
22.660000 24.200000 18.920000 182 177 143 0
22.880000 24.200000 21.120000 182 177 143 0
23.100000 24.200000 22.220000 183 178 144 0
23.320000 24.200000 22.220000 182 177 143 0
23.540000 24.200000 22.220000 184 177 146 0
23.760000 24.200000 22.440000 182 175 144 0
23.980000 24.200000 22.440000 181 175 144 0
24.200000 24.200000 22.440000 181 175 144 0
24.420000 24.200000 22.440000 183 176 143 0
24.640000 24.200000 22.660000 183 176 143 0
24.860000 24.200000 22.660000 182 177 143 0
25.080000 24.200000 23.980000 183 178 144 0
25.300000 24.200000 24.200000 183 176 143 0
25.520000 24.200000 24.200000 182 175 142 0
25.740000 24.200000 24.200000 182 177 143 0
25.960000 24.200000 24.200000 182 177 143 0
26.180000 24.200000 24.420000 182 175 142 0
26.400000 24.200000 24.420000 182 175 142 0
26.620000 24.200000 24.420000 182 175 144 0
26.840000 24.200000 25.960000 181 174 143 0
27.060000 24.200000 25.960000 180 175 141 0
27.280000 24.200000 25.960000 179 174 140 0
27.500000 24.200000 26.180000 178 173 139 0
27.720000 24.200000 26.180000 178 173 139 0
27.940000 24.200000 26.180000 178 171 138 0
28.160000 24.200000 26.180000 178 171 138 0
28.380000 24.200000 27.060000 177 172 138 0
28.600000 24.200000 29.260000 176 171 137 0
28.820000 24.200000 30.360000 176 169 138 0
29.040000 24.200000 30.800000 176 169 138 0
29.260000 24.200000 29.920000 177 172 138 0
29.480000 24.200000 31.460000 179 174 140 0
29.700000 24.200000 31.460000 181 176 142 0
29.920000 24.200000 31.460000 182 177 143 0
30.140000 24.200000 32.780000 182 177 143 0
30.360000 24.200000 33.000000 182 177 143 0
30.580000 24.200000 33.000000 183 178 144 0
30.800000 24.200000 33.000000 183 178 144 0
31.020000 24.200000 33.000000 183 178 144 0
31.240000 24.200000 34.100000 183 178 144 0
31.460000 24.200000 34.980000 183 178 143 0
31.680000 24.200000 36.080000 184 179 144 0
31.900000 24.200000 36.080000 183 179 145 0
32.120000 24.200000 36.080000 183 179 145 0
32.340000 24.200000 37.620000 183 178 144 0
32.560000 24.200000 37.620000 183 178 144 0
32.780000 24.200000 37.620000 182 177 143 0
33.000000 24.200000 37.840000 183 178 144 0
33.220000 24.200000 37.840000 183 178 143 0
33.440000 24.200000 37.840000 182 177 142 0
33.660000 24.200000 37.840000 180 176 142 0
33.880000 24.200000 37.840000 179 175 141 0
34.100000 24.200000 38.060000 180 175 141 0
34.320000 24.200000 38.060000 177 172 138 0
34.540000 24.200000 38.060000 174 169 135 0
34.760000 24.200000 38.060000 166 161 127 0
34.980000 24.200000 38.060000 165 156 122 0
35.200000 24.200000 38.060000 156 147 113 0
35.420000 24.200000 38.060000 154 144 112 0
35.640000 24.200000 38.060000 154 144 112 0
35.860000 24.200000 38.060000 156 147 113 0
36.080000 24.200000 38.060000 159 150 116 0
36.300000 24.200000 38.280000 158 151 117 0
36.520000 24.200000 38.280000 160 153 119 0
36.740000 24.200000 38.280000 164 157 123 0
36.960000 24.200000 38.280000 168 161 127 0
37.180000 24.200000 38.280000 168 164 130 0
0.000000 24.420000 37.840000 189 176 154 0
0.220000 24.420000 38.060000 188 172 151 0
0.440000 24.420000 38.060000 188 172 151 0
0.660000 24.420000 38.060000 188 175 153 0
0.880000 24.420000 38.060000 189 176 154 0
1.100000 24.420000 39.600000 188 175 153 0
1.320000 24.420000 39.600000 187 174 152 0
1.540000 24.420000 39.600000 186 173 151 0
1.760000 24.420000 39.600000 187 174 152 0
1.980000 24.420000 39.820000 187 174 152 0
2.200000 24.420000 39.820000 186 173 151 0
2.420000 24.420000 39.820000 185 172 150 0
2.640000 24.420000 39.820000 183 170 148 0
2.860000 24.420000 39.820000 182 169 147 0
3.080000 24.420000 30.360000 182 169 147 0
3.300000 24.420000 8.140000 181 168 146 0
3.960000 24.420000 0.440000 179 166 144 0
4.180000 24.420000 1.540000 182 169 145 0
4.400000 24.420000 1.540000 186 173 149 0
4.620000 24.420000 0.220000 190 179 154 0
4.840000 24.420000 0.220000 192 181 156 0
5.060000 24.420000 1.760000 191 180 155 0
5.280000 24.420000 1.760000 191 180 155 0
5.500000 24.420000 1.760000 191 180 155 0
5.720000 24.420000 1.980000 190 179 154 0
5.940000 24.420000 1.980000 191 180 155 0
6.160000 24.420000 1.980000 193 182 157 0
6.380000 24.420000 1.980000 192 181 156 0
6.600000 24.420000 2.200000 191 180 155 0
6.820000 24.420000 2.200000 191 180 155 0
7.040000 24.420000 2.200000 191 180 155 0
7.260000 24.420000 2.200000 196 185 160 0
7.480000 24.420000 3.740000 196 185 160 0
7.700000 24.420000 3.740000 195 184 159 0
7.920000 24.420000 3.740000 191 180 155 0
8.140000 24.420000 3.960000 189 178 153 0
8.360000 24.420000 3.960000 189 178 153 0
8.580000 24.420000 3.960000 188 177 152 0
8.800000 24.420000 3.960000 187 176 151 0
9.020000 24.420000 4.180000 186 175 150 0
9.240000 24.420000 5.060000 185 174 149 0
9.460000 24.420000 5.940000 184 173 148 0
9.680000 24.420000 7.040000 183 172 147 0
9.900000 24.420000 7.040000 179 171 143 0
10.120000 24.420000 7.040000 176 168 140 0
10.340000 24.420000 8.360000 172 160 133 0
10.560000 24.420000 8.360000 166 154 127 0
10.780000 24.420000 8.360000 157 142 116 0
11.000000 24.420000 8.360000 154 139 113 0
11.220000 24.420000 8.360000 154 139 111 0
11.440000 24.420000 8.360000 155 140 112 0
11.660000 24.420000 8.360000 157 141 113 0
11.880000 24.420000 8.580000 159 143 115 0
12.100000 24.420000 8.580000 158 146 117 0
12.320000 24.420000 7.260000 160 148 119 0
12.540000 24.420000 8.800000 164 154 124 0
12.760000 24.420000 8.800000 169 159 129 0
12.980000 24.420000 8.800000 171 163 135 0
13.200000 24.420000 8.800000 175 167 139 0
13.420000 24.420000 8.800000 177 169 141 0
13.640000 24.420000 8.800000 178 170 142 0
13.860000 24.420000 8.800000 179 172 141 0
14.080000 24.420000 8.800000 179 172 141 0
14.300000 24.420000 10.340000 178 170 142 0
14.520000 24.420000 10.340000 178 170 142 0
14.740000 24.420000 10.560000 179 172 141 0
14.960000 24.420000 10.560000 180 173 142 0
15.180000 24.420000 10.560000 179 171 143 0
15.400000 24.420000 10.560000 178 170 142 0
15.620000 24.420000 10.780000 180 173 142 0
15.840000 24.420000 10.780000 181 174 143 0
16.060000 24.420000 10.780000 182 175 144 0
16.280000 24.420000 10.780000 182 175 144 0
16.500000 24.420000 11.000000 181 175 144 0
16.720000 24.420000 11.000000 181 175 144 0
16.940000 24.420000 12.100000 182 175 144 0
17.160000 24.420000 12.980000 182 175 144 0
17.380000 24.420000 13.860000 181 175 144 0
17.600000 24.420000 15.400000 181 175 144 0
17.820000 24.420000 15.400000 181 174 143 0
18.040000 24.420000 15.400000 181 174 143 0
18.260000 24.420000 15.400000 181 175 144 0
18.480000 24.420000 15.620000 180 174 143 0
18.700000 24.420000 15.620000 180 174 143 0
18.920000 24.420000 15.620000 180 174 143 0
19.140000 24.420000 15.620000 181 174 143 0
19.360000 24.420000 15.840000 181 174 143 0
19.580000 24.420000 15.840000 182 175 144 0
19.800000 24.420000 15.840000 183 176 145 0
20.020000 24.420000 15.840000 183 178 144 0
20.240000 24.420000 15.840000 184 179 145 0
20.460000 24.420000 16.060000 183 177 146 0
20.680000 24.420000 16.060000 183 177 146 0
20.900000 24.420000 17.600000 182 176 145 0
21.120000 24.420000 17.600000 181 175 144 0
21.340000 24.420000 17.600000 183 178 144 0
21.560000 24.420000 17.600000 184 179 145 0
21.780000 24.420000 17.820000 185 180 146 0
22.000000 24.420000 17.820000 185 180 146 0
22.220000 24.420000 17.820000 184 179 145 0
22.440000 24.420000 17.820000 181 176 142 0
22.660000 24.420000 18.920000 181 174 141 0
22.880000 24.420000 21.120000 182 175 142 0
23.100000 24.420000 22.220000 182 177 143 0
23.320000 24.420000 22.220000 183 178 144 0
23.540000 24.420000 22.220000 182 177 143 0
23.760000 24.420000 22.440000 182 177 143 0
23.980000 24.420000 22.440000 182 177 143 0
24.200000 24.420000 22.440000 181 176 142 0
24.420000 24.420000 22.440000 181 176 142 0
24.640000 24.420000 22.660000 182 177 143 0
24.860000 24.420000 23.980000 182 177 143 0
25.080000 24.420000 23.980000 184 179 145 0
25.300000 24.420000 24.200000 183 176 143 0
25.520000 24.420000 24.200000 182 175 142 0
25.740000 24.420000 24.200000 181 176 142 0
25.960000 24.420000 24.200000 181 176 142 0
26.180000 24.420000 24.420000 181 176 142 0
26.400000 24.420000 24.420000 181 176 142 0
26.620000 24.420000 24.420000 180 175 141 0
26.840000 24.420000 25.960000 181 176 142 0
27.060000 24.420000 25.960000 180 175 141 0
27.280000 24.420000 25.960000 179 174 140 0
27.500000 24.420000 26.180000 178 173 139 0
27.720000 24.420000 26.180000 178 173 139 0
27.940000 24.420000 26.180000 177 172 138 0
28.160000 24.420000 26.180000 177 172 138 0
28.380000 24.420000 27.060000 176 171 137 0
28.600000 24.420000 29.260000 176 171 137 0
28.820000 24.420000 30.360000 175 170 136 0
29.040000 24.420000 30.800000 175 170 136 0
29.260000 24.420000 29.920000 176 171 137 0
29.480000 24.420000 31.460000 179 174 140 0
29.700000 24.420000 31.460000 181 176 142 0
29.920000 24.420000 31.460000 181 176 142 0
30.140000 24.420000 32.780000 182 177 143 0
30.360000 24.420000 33.000000 182 177 143 0
30.580000 24.420000 33.000000 183 178 144 0
30.800000 24.420000 33.000000 184 179 145 0
31.020000 24.420000 33.000000 182 177 143 0
31.240000 24.420000 34.100000 182 177 143 0
31.460000 24.420000 34.980000 182 177 143 0
31.680000 24.420000 36.080000 182 177 143 0
31.900000 24.420000 36.080000 182 178 144 0
32.120000 24.420000 36.080000 182 178 144 0
32.340000 24.420000 37.620000 183 178 144 0
32.560000 24.420000 37.620000 183 178 144 0
32.780000 24.420000 37.620000 183 178 144 0
33.000000 24.420000 37.840000 183 178 144 0
33.220000 24.420000 37.840000 184 179 145 0
33.440000 24.420000 37.840000 181 176 142 0
33.660000 24.420000 37.840000 180 176 142 0
33.880000 24.420000 37.840000 179 175 141 0
34.100000 24.420000 38.060000 179 175 141 0
34.320000 24.420000 38.060000 177 173 139 0
34.540000 24.420000 38.060000 173 169 135 0
34.760000 24.420000 38.060000 167 163 129 0
34.980000 24.420000 38.060000 163 156 122 0
35.200000 24.420000 38.060000 154 147 113 0
35.420000 24.420000 38.060000 155 146 112 0
35.640000 24.420000 38.060000 155 146 112 0
35.860000 24.420000 38.060000 155 148 114 0
36.080000 24.420000 38.060000 156 149 115 0
36.300000 24.420000 38.280000 160 151 117 0
36.520000 24.420000 38.280000 163 154 120 0
36.740000 24.420000 38.280000 162 157 122 0
36.960000 24.420000 38.280000 166 161 126 0
37.180000 24.420000 38.280000 170 165 131 0
0.000000 24.640000 37.840000 189 176 154 0
0.220000 24.640000 38.060000 188 172 151 0
0.440000 24.640000 38.060000 189 173 152 0
0.660000 24.640000 38.060000 188 175 153 0
0.880000 24.640000 38.060000 189 176 154 0
1.100000 24.640000 39.600000 189 176 154 0
1.320000 24.640000 39.600000 187 174 152 0
1.540000 24.640000 39.600000 186 173 151 0
1.760000 24.640000 39.600000 186 173 151 0
1.980000 24.640000 39.820000 186 173 151 0
2.200000 24.640000 39.820000 186 173 151 0
2.420000 24.640000 39.820000 185 172 150 0
2.640000 24.640000 39.820000 183 170 148 0
2.860000 24.640000 39.820000 183 170 148 0
3.080000 24.640000 30.360000 182 169 147 0
3.300000 24.640000 8.140000 181 168 146 0
4.180000 24.640000 0.440000 182 169 145 0
4.400000 24.640000 0.220000 185 172 148 0
4.620000 24.640000 0.220000 189 178 153 0
4.840000 24.640000 0.220000 190 179 154 0
5.060000 24.640000 1.760000 191 180 155 0
5.280000 24.640000 1.760000 191 180 155 0
5.500000 24.640000 1.760000 188 177 152 0
5.720000 24.640000 1.980000 188 177 152 0
5.940000 24.640000 1.980000 189 178 153 0
6.160000 24.640000 1.980000 190 179 154 0
6.380000 24.640000 1.980000 192 181 156 0
6.600000 24.640000 2.200000 192 181 156 0
6.820000 24.640000 2.200000 190 179 154 0
7.040000 24.640000 2.200000 191 180 155 0
7.260000 24.640000 2.200000 193 182 157 0
7.480000 24.640000 2.420000 196 185 160 0
7.700000 24.640000 3.740000 196 185 160 0
7.920000 24.640000 3.740000 192 181 156 0
8.140000 24.640000 3.960000 189 178 153 0
8.360000 24.640000 3.960000 187 176 151 0
8.580000 24.640000 3.960000 188 177 152 0
8.800000 24.640000 3.960000 187 176 151 0
9.020000 24.640000 4.180000 186 175 150 0
9.240000 24.640000 5.060000 185 174 149 0
9.460000 24.640000 5.940000 185 174 149 0
9.680000 24.640000 7.040000 184 173 148 0
9.900000 24.640000 7.040000 180 172 144 0
10.120000 24.640000 7.040000 178 170 142 0
10.340000 24.640000 8.360000 174 162 135 0
10.560000 24.640000 8.360000 164 152 125 0
10.780000 24.640000 8.360000 158 143 117 0
11.000000 24.640000 8.360000 155 140 114 0
11.220000 24.640000 8.360000 154 139 111 0
11.440000 24.640000 8.360000 155 140 112 0
11.660000 24.640000 8.360000 157 141 113 0
11.880000 24.640000 8.580000 160 144 116 0
12.100000 24.640000 8.580000 158 146 117 0
12.320000 24.640000 8.580000 160 148 119 0
12.540000 24.640000 8.800000 165 155 125 0
12.760000 24.640000 8.800000 170 160 130 0
12.980000 24.640000 8.800000 171 163 135 0
13.200000 24.640000 8.800000 174 166 138 0
13.420000 24.640000 8.800000 176 168 140 0
13.640000 24.640000 8.800000 178 170 142 0
13.860000 24.640000 8.800000 179 172 141 0
14.080000 24.640000 8.800000 179 172 141 0
14.300000 24.640000 10.340000 178 170 142 0
14.520000 24.640000 10.340000 179 171 143 0
14.740000 24.640000 10.560000 180 173 142 0
14.960000 24.640000 10.560000 180 173 142 0
15.180000 24.640000 10.560000 179 171 143 0
15.400000 24.640000 10.560000 179 171 143 0
15.620000 24.640000 10.780000 178 171 140 0
15.840000 24.640000 10.780000 180 173 142 0
16.060000 24.640000 10.780000 180 173 142 0
16.280000 24.640000 10.780000 182 175 144 0
16.500000 24.640000 11.000000 181 175 144 0
16.720000 24.640000 11.000000 180 174 143 0
16.940000 24.640000 12.100000 180 173 142 0
17.160000 24.640000 14.080000 181 174 143 0
17.380000 24.640000 15.180000 181 175 144 0
17.600000 24.640000 15.400000 181 175 144 0
17.820000 24.640000 15.400000 182 175 144 0
18.040000 24.640000 15.400000 181 174 143 0
18.260000 24.640000 15.400000 179 173 142 0
18.480000 24.640000 15.620000 180 174 143 0
18.700000 24.640000 15.620000 180 174 143 0
18.920000 24.640000 15.620000 179 173 142 0
19.140000 24.640000 15.620000 181 174 143 0
19.360000 24.640000 15.620000 182 175 144 0
19.580000 24.640000 15.840000 182 175 144 0
19.800000 24.640000 15.840000 181 174 143 0
20.020000 24.640000 15.840000 181 176 142 0
20.240000 24.640000 15.840000 182 177 143 0
20.460000 24.640000 16.060000 181 175 144 0
20.680000 24.640000 16.060000 182 176 145 0
20.900000 24.640000 17.600000 182 176 145 0
21.120000 24.640000 17.600000 181 175 144 0
21.340000 24.640000 17.600000 181 176 142 0
21.560000 24.640000 17.600000 182 177 143 0
21.780000 24.640000 17.820000 184 179 145 0
22.000000 24.640000 17.820000 183 178 144 0
22.220000 24.640000 17.820000 181 176 142 0
22.440000 24.640000 17.820000 182 177 143 0
22.660000 24.640000 18.920000 182 175 142 0
22.880000 24.640000 21.120000 182 175 142 0
23.100000 24.640000 22.220000 183 178 144 0
23.320000 24.640000 22.220000 182 177 143 0
23.540000 24.640000 22.220000 181 176 142 0
23.760000 24.640000 22.440000 181 176 142 0
23.980000 24.640000 22.440000 181 176 142 0
24.200000 24.640000 22.440000 181 176 142 0
24.420000 24.640000 22.440000 181 176 142 0
24.640000 24.640000 22.660000 182 177 143 0
24.860000 24.640000 23.980000 182 177 143 0
25.080000 24.640000 23.980000 184 179 145 0
25.300000 24.640000 24.200000 183 176 143 0
25.520000 24.640000 24.200000 182 175 142 0
25.740000 24.640000 24.200000 180 175 141 0
25.960000 24.640000 24.200000 180 175 141 0
26.180000 24.640000 24.420000 180 175 141 0
26.400000 24.640000 24.420000 180 175 141 0
26.620000 24.640000 24.420000 181 176 142 0
26.840000 24.640000 25.960000 181 176 142 0
27.060000 24.640000 25.960000 180 175 141 0
27.280000 24.640000 25.960000 179 174 140 0
27.500000 24.640000 25.960000 179 174 140 0
27.720000 24.640000 26.180000 177 172 138 0
27.940000 24.640000 26.180000 178 173 139 0
28.160000 24.640000 25.960000 176 171 137 0
28.380000 24.640000 28.380000 177 172 138 0
28.600000 24.640000 29.260000 175 170 136 0
28.820000 24.640000 30.580000 175 170 136 0
29.040000 24.640000 30.800000 174 169 135 0
29.260000 24.640000 29.920000 176 171 137 0
29.480000 24.640000 31.460000 179 174 140 0
29.700000 24.640000 31.460000 180 175 141 0
29.920000 24.640000 31.460000 181 176 142 0
30.140000 24.640000 32.780000 181 176 142 0
30.360000 24.640000 33.000000 182 177 143 0
30.580000 24.640000 33.000000 183 178 144 0
30.800000 24.640000 33.000000 183 178 144 0
31.020000 24.640000 33.000000 183 178 144 0
31.240000 24.640000 34.100000 181 176 142 0
31.460000 24.640000 34.980000 181 176 142 0
31.680000 24.640000 36.080000 182 177 143 0
31.900000 24.640000 36.080000 182 178 144 0
32.120000 24.640000 36.080000 182 178 144 0
32.340000 24.640000 37.620000 183 178 144 0
32.560000 24.640000 37.620000 183 178 144 0
32.780000 24.640000 37.620000 182 177 143 0
33.000000 24.640000 37.840000 182 177 143 0
33.220000 24.640000 37.840000 182 177 143 0
33.440000 24.640000 37.840000 181 176 142 0
33.660000 24.640000 37.840000 180 176 142 0
33.880000 24.640000 37.840000 178 174 140 0
34.100000 24.640000 38.060000 178 174 140 0
34.320000 24.640000 38.060000 176 172 138 0
34.540000 24.640000 38.060000 174 170 136 0
34.760000 24.640000 38.060000 168 164 130 0
34.980000 24.640000 38.060000 162 155 121 0
35.200000 24.640000 38.060000 154 147 113 0
35.420000 24.640000 38.060000 154 145 111 0
35.640000 24.640000 38.060000 155 146 112 0
35.860000 24.640000 38.060000 153 146 112 0
36.080000 24.640000 38.060000 154 147 113 0
36.300000 24.640000 38.280000 159 150 116 0
36.520000 24.640000 38.280000 162 153 119 0
36.740000 24.640000 38.280000 162 157 122 0
36.960000 24.640000 38.280000 166 161 126 0
37.180000 24.640000 38.280000 170 165 131 0
0.000000 24.860000 37.840000 191 175 154 0
0.220000 24.860000 37.840000 190 174 153 0
0.440000 24.860000 38.060000 189 173 152 0
0.660000 24.860000 38.060000 189 176 154 0
0.880000 24.860000 38.060000 190 177 155 0
1.100000 24.860000 39.600000 189 176 154 0
1.320000 24.860000 39.600000 188 175 153 0
1.540000 24.860000 39.600000 186 173 149 0
1.760000 24.860000 39.600000 187 174 150 0
1.980000 24.860000 39.820000 189 174 150 0
2.200000 24.860000 39.820000 188 173 149 0
2.420000 24.860000 39.820000 187 171 150 0
2.640000 24.860000 39.820000 185 169 148 0
2.860000 24.860000 39.820000 184 168 147 0
3.080000 24.860000 30.360000 184 168 147 0
3.300000 24.860000 8.140000 182 169 145 0
3.960000 24.860000 0.440000 181 166 142 0
4.180000 24.860000 1.540000 182 169 145 0
4.400000 24.860000 0.220000 184 171 147 0
4.620000 24.860000 0.220000 187 176 151 0
4.840000 24.860000 0.220000 188 177 152 0
5.060000 24.860000 1.760000 190 179 154 0
5.280000 24.860000 1.760000 190 179 154 0
5.500000 24.860000 1.760000 188 177 152 0
5.720000 24.860000 1.980000 188 177 152 0
5.940000 24.860000 1.980000 188 177 152 0
6.160000 24.860000 1.980000 189 178 153 0
6.380000 24.860000 1.980000 190 179 154 0
6.600000 24.860000 2.200000 191 180 155 0
6.820000 24.860000 2.200000 191 180 155 0
7.040000 24.860000 2.200000 191 180 155 0
7.260000 24.860000 2.200000 193 182 157 0
7.480000 24.860000 2.420000 194 183 158 0
7.700000 24.860000 3.740000 194 183 158 0
7.920000 24.860000 3.740000 192 181 156 0
8.140000 24.860000 3.960000 190 179 154 0
8.360000 24.860000 3.960000 188 177 152 0
8.580000 24.860000 3.960000 187 174 150 0
8.800000 24.860000 3.960000 188 175 151 0
9.020000 24.860000 4.180000 186 175 150 0
9.240000 24.860000 5.060000 185 174 149 0
9.460000 24.860000 5.940000 182 174 148 0
9.680000 24.860000 7.040000 182 174 148 0
9.900000 24.860000 7.040000 179 171 145 0
10.120000 24.860000 7.040000 176 168 142 0
10.340000 24.860000 8.360000 172 162 134 0
10.560000 24.860000 8.360000 166 156 128 0
10.780000 24.860000 8.360000 157 142 114 0
11.000000 24.860000 8.360000 155 140 112 0
11.220000 24.860000 8.360000 154 138 110 0
11.440000 24.860000 8.360000 156 140 112 0
11.660000 24.860000 8.360000 157 142 114 0
11.880000 24.860000 8.580000 158 143 115 0
12.100000 24.860000 8.580000 158 146 119 0
12.320000 24.860000 8.580000 161 149 122 0
12.540000 24.860000 8.800000 164 154 124 0
12.760000 24.860000 8.800000 171 161 131 0
12.980000 24.860000 8.800000 173 165 137 0
13.200000 24.860000 8.800000 174 166 138 0
13.420000 24.860000 8.800000 176 168 140 0
13.640000 24.860000 8.800000 178 170 142 0
13.860000 24.860000 8.800000 178 170 142 0
14.080000 24.860000 10.340000 177 169 141 0
14.300000 24.860000 10.340000 180 173 142 0
14.520000 24.860000 10.340000 178 171 140 0
14.740000 24.860000 10.560000 179 172 141 0
14.960000 24.860000 10.560000 179 172 141 0
15.180000 24.860000 10.560000 179 172 141 0
15.400000 24.860000 10.560000 179 172 141 0
15.620000 24.860000 10.780000 179 172 141 0
15.840000 24.860000 10.780000 178 171 140 0
16.060000 24.860000 10.780000 179 172 141 0
16.280000 24.860000 10.780000 180 173 142 0
16.500000 24.860000 11.000000 181 174 143 0
16.720000 24.860000 11.000000 180 173 142 0
16.940000 24.860000 12.100000 179 172 141 0
17.160000 24.860000 12.980000 179 172 141 0
17.380000 24.860000 13.860000 180 173 142 0
17.600000 24.860000 15.400000 182 175 144 0
17.820000 24.860000 15.400000 182 175 144 0
18.040000 24.860000 15.400000 183 176 145 0
18.260000 24.860000 15.400000 181 174 143 0
18.480000 24.860000 15.620000 181 174 143 0
18.700000 24.860000 15.620000 180 173 142 0
18.920000 24.860000 15.620000 180 173 142 0
19.140000 24.860000 15.620000 182 175 144 0
19.360000 24.860000 15.620000 182 175 144 0
19.580000 24.860000 15.840000 183 176 143 0
19.800000 24.860000 15.840000 183 176 143 0
20.020000 24.860000 15.840000 182 175 144 0
20.240000 24.860000 15.840000 183 176 145 0
20.460000 24.860000 16.060000 183 176 143 0
20.680000 24.860000 16.060000 183 176 143 0
20.900000 24.860000 17.600000 183 176 143 0
21.120000 24.860000 17.600000 182 175 142 0
21.340000 24.860000 17.600000 182 175 142 0
21.560000 24.860000 17.600000 182 175 142 0
21.780000 24.860000 17.820000 183 176 143 0
22.000000 24.860000 17.820000 182 175 142 0
22.220000 24.860000 17.820000 181 174 141 0
22.440000 24.860000 17.820000 182 175 142 0
22.660000 24.860000 18.920000 182 175 142 0
22.880000 24.860000 21.120000 182 175 142 0
23.100000 24.860000 22.220000 182 175 142 0
23.320000 24.860000 22.220000 182 175 142 0
23.540000 24.860000 22.220000 182 175 142 0
23.760000 24.860000 22.440000 181 174 141 0
