ply
format ascii 1.0
element vertex 1125
property float x
property float y
property float z
property uchar red
property uchar green
property uchar blue
property uchar alpha
end_header
29.040000 8.580000 25.960000 212 174 158 0
29.260000 8.580000 25.960000 219 181 165 0
29.480000 8.580000 25.960000 225 185 170 0
29.700000 8.580000 26.180000 228 188 173 0
29.920000 8.580000 26.180000 228 188 175 0
30.140000 8.580000 27.280000 227 187 174 0
30.360000 8.580000 27.940000 225 185 170 0
30.580000 8.580000 30.580000 224 184 169 0
30.800000 8.580000 29.480000 223 185 171 0
31.020000 8.580000 29.920000 225 187 173 0
31.240000 8.580000 31.460000 226 186 171 0
31.460000 8.580000 31.460000 229 189 174 0
31.680000 8.580000 33.000000 230 190 177 0
31.900000 8.580000 34.100000 232 192 179 0
32.120000 8.580000 34.980000 232 192 179 0
32.340000 8.580000 36.080000 232 192 179 0
32.560000 8.580000 36.080000 231 191 178 0
32.780000 8.580000 37.620000 229 189 176 0
33.000000 8.580000 37.840000 233 186 171 0
33.220000 8.580000 38.060000 230 183 168 0
33.440000 8.580000 38.060000 227 183 169 0
33.660000 8.580000 38.060000 228 184 170 0
33.880000 8.580000 38.280000 229 186 172 0
34.100000 8.580000 38.280000 234 191 177 0
34.320000 8.580000 38.280000 235 192 180 0
34.540000 8.580000 38.280000 236 193 181 0
34.760000 8.580000 38.500000 236 196 183 0
34.980000 8.580000 38.500000 236 196 183 0
35.200000 8.580000 38.500000 236 197 185 0
35.420000 8.580000 38.500000 236 197 185 0
35.640000 8.580000 38.500000 235 196 184 0
35.860000 8.580000 38.500000 234 195 183 0
36.080000 8.580000 37.180000 237 194 182 0
36.300000 8.580000 36.960000 235 192 180 0
36.520000 8.580000 38.940000 232 189 175 0
36.740000 8.580000 38.720000 231 188 174 0
36.960000 8.580000 40.040000 229 185 171 0
37.180000 8.580000 40.260000 227 183 169 0
0.000000 8.800000 17.160000 138 121 96 0
0.220000 8.800000 17.380000 137 120 95 0
0.440000 8.800000 18.700000 138 120 95 0
0.660000 8.800000 18.700000 137 119 94 0
0.880000 8.800000 17.380000 138 120 95 0
1.100000 8.800000 15.840000 137 119 94 0
1.320000 8.800000 15.840000 137 119 92 0
1.540000 8.800000 14.520000 136 118 91 0
1.760000 8.800000 14.520000 137 119 94 0
1.980000 8.800000 15.840000 137 119 94 0
2.200000 8.800000 15.840000 137 119 94 0
2.420000 8.800000 17.380000 137 119 94 0
2.640000 8.800000 17.160000 139 118 94 0
2.860000 8.800000 17.160000 139 118 94 0
3.080000 8.800000 17.160000 139 118 92 0
3.300000 8.800000 17.380000 139 118 92 0
3.520000 8.800000 17.380000 140 119 93 0
3.740000 8.800000 17.380000 139 118 92 0
3.960000 8.800000 17.380000 138 117 91 0
4.180000 8.800000 18.700000 136 115 89 0
4.400000 8.800000 18.700000 138 116 90 0
4.620000 8.800000 18.700000 138 116 90 0
4.840000 8.800000 18.700000 138 117 91 0
5.060000 8.800000 18.700000 141 120 94 0
5.280000 8.800000 17.380000 143 121 95 0
5.500000 8.800000 18.700000 143 121 95 0
5.720000 8.800000 18.700000 144 122 96 0
5.940000 8.800000 18.700000 144 122 96 0
6.160000 8.800000 17.380000 146 121 96 0
6.380000 8.800000 17.160000 146 121 96 0
6.600000 8.800000 18.700000 144 122 96 0
6.820000 8.800000 18.480000 144 122 96 0
7.040000 8.800000 18.480000 145 123 97 0
7.260000 8.800000 17.160000 144 122 96 0
7.480000 8.800000 17.160000 146 121 96 0
7.700000 8.800000 17.160000 148 123 98 0
7.920000 8.800000 17.160000 149 124 99 0
8.140000 8.800000 17.160000 150 125 100 0
8.360000 8.800000 17.160000 153 125 99 0
8.580000 8.800000 17.160000 154 126 100 0
8.800000 8.800000 17.160000 161 127 97 0
9.020000 8.800000 17.160000 169 135 105 0
9.240000 8.800000 17.160000 185 148 117 0
9.460000 8.800000 17.160000 200 163 132 0
9.680000 8.800000 15.840000 205 167 139 0
9.900000 8.800000 15.840000 204 166 138 0
10.120000 8.800000 15.840000 199 161 135 0
10.340000 8.800000 15.840000 190 152 126 0
10.560000 8.800000 15.840000 185 149 120 0
10.780000 8.800000 16.060000 185 149 120 0
11.000000 8.800000 16.060000 185 147 119 0
11.220000 8.800000 16.060000 185 147 119 0
11.440000 8.800000 16.060000 185 147 119 0
11.660000 8.800000 16.060000 188 150 122 0
11.880000 8.800000 16.060000 189 151 125 0
12.100000 8.800000 16.060000 190 152 126 0
12.320000 8.800000 16.060000 190 154 125 0
12.540000 8.800000 16.060000 190 154 125 0
12.760000 8.800000 16.060000 193 155 127 0
12.980000 8.800000 17.600000 193 155 127 0
13.200000 8.800000 17.600000 194 156 128 0
13.420000 8.800000 17.600000 196 158 130 0
13.640000 8.800000 17.600000 198 160 134 0
13.860000 8.800000 17.820000 199 161 135 0
14.080000 8.800000 17.820000 199 161 135 0
14.300000 8.800000 17.820000 200 162 136 0
14.520000 8.800000 17.820000 200 162 136 0
14.740000 8.800000 17.820000 201 163 137 0
14.960000 8.800000 17.820000 203 165 139 0
15.180000 8.800000 19.140000 204 166 140 0
15.400000 8.800000 21.340000 206 169 145 0
15.620000 8.800000 22.220000 209 172 148 0
15.840000 8.800000 22.220000 213 178 153 0
16.060000 8.800000 22.220000 219 184 159 0
16.280000 8.800000 22.220000 222 185 161 0
16.500000 8.800000 22.440000 222 185 161 0
16.720000 8.800000 23.760000 217 179 153 0
16.940000 8.800000 23.760000 200 162 136 0
17.160000 8.800000 23.760000 181 138 116 0
17.380000 8.800000 23.980000 160 117 95 0
17.600000 8.800000 23.760000 141 102 82 0
17.820000 8.800000 25.300000 137 98 78 0
18.040000 8.800000 25.080000 137 99 81 0
18.260000 8.800000 25.300000 141 103 85 0
18.480000 8.800000 25.300000 146 107 85 0
18.700000 8.800000 25.300000 151 112 90 0
18.920000 8.800000 25.300000 156 117 95 0
19.140000 8.800000 25.300000 160 121 99 0
19.360000 8.800000 25.300000 163 126 103 0
19.580000 8.800000 25.300000 166 129 106 0
19.800000 8.800000 25.300000 168 129 107 0
20.020000 8.800000 25.300000 170 131 109 0
20.240000 8.800000 25.300000 170 133 110 0
20.460000 8.800000 25.300000 169 132 109 0
20.680000 8.800000 25.300000 169 132 111 0
20.900000 8.800000 25.300000 169 132 111 0
21.120000 8.800000 25.080000 169 132 111 0
21.340000 8.800000 25.080000 170 133 112 0
21.560000 8.800000 25.080000 170 133 112 0
21.780000 8.800000 25.080000 169 132 111 0
22.000000 8.800000 25.080000 168 132 111 0
22.220000 8.800000 25.300000 167 131 110 0
22.440000 8.800000 25.300000 168 131 110 0
22.660000 8.800000 23.980000 167 130 109 0
22.880000 8.800000 23.980000 164 128 107 0
23.100000 8.800000 25.300000 164 128 107 0
23.320000 8.800000 25.300000 163 127 108 0
23.540000 8.800000 25.300000 164 128 109 0
23.760000 8.800000 25.300000 167 131 110 0
23.980000 8.800000 25.300000 169 133 112 0
24.200000 8.800000 25.300000 171 135 116 0
24.420000 8.800000 25.300000 172 136 117 0
24.640000 8.800000 25.520000 173 137 120 0
24.860000 8.800000 25.520000 173 137 120 0
25.080000 8.800000 25.520000 174 136 118 0
25.300000 8.800000 24.200000 174 136 118 0
25.520000 8.800000 24.200000 177 138 118 0
25.740000 8.800000 24.200000 180 141 121 0
25.960000 8.800000 24.200000 180 142 124 0
26.180000 8.800000 24.200000 183 145 127 0
26.400000 8.800000 24.200000 186 147 129 0
26.620000 8.800000 24.200000 187 148 130 0
26.840000 8.800000 24.200000 190 148 131 0
27.060000 8.800000 24.200000 192 150 133 0
27.280000 8.800000 24.420000 194 155 137 0
27.500000 8.800000 24.420000 195 156 138 0
27.720000 8.800000 25.740000 200 158 141 0
27.940000 8.800000 25.740000 201 159 142 0
28.160000 8.800000 25.740000 201 162 144 0
28.380000 8.800000 25.740000 203 164 146 0
28.600000 8.800000 25.960000 205 166 148 0
28.820000 8.800000 25.960000 208 169 151 0
29.040000 8.800000 25.960000 212 174 158 0
29.260000 8.800000 25.960000 219 181 165 0
29.480000 8.800000 25.960000 224 184 169 0
29.700000 8.800000 26.180000 228 188 173 0
29.920000 8.800000 26.180000 229 189 176 0
30.140000 8.800000 27.280000 227 187 174 0
30.360000 8.800000 28.160000 227 187 172 0
30.580000 8.800000 29.260000 223 183 168 0
30.800000 8.800000 30.800000 223 185 171 0
31.020000 8.800000 29.920000 225 187 173 0
31.240000 8.800000 31.460000 227 187 172 0
31.460000 8.800000 31.460000 229 189 174 0
31.680000 8.800000 33.000000 231 191 178 0
31.900000 8.800000 34.100000 232 192 179 0
32.120000 8.800000 34.980000 232 192 179 0
32.340000 8.800000 36.080000 232 192 179 0
32.560000 8.800000 36.080000 230 190 177 0
32.780000 8.800000 37.620000 230 190 177 0
33.000000 8.800000 37.840000 232 185 170 0
33.220000 8.800000 38.060000 230 183 168 0
33.440000 8.800000 38.060000 227 183 169 0
33.660000 8.800000 38.280000 229 185 171 0
33.880000 8.800000 38.280000 229 186 172 0
34.100000 8.800000 38.280000 232 189 175 0
34.320000 8.800000 38.280000 234 191 179 0
34.540000 8.800000 38.280000 235 192 180 0
34.760000 8.800000 38.500000 235 195 182 0
34.980000 8.800000 38.500000 237 197 184 0
35.200000 8.800000 38.500000 237 198 186 0
35.420000 8.800000 38.500000 238 199 187 0
35.640000 8.800000 38.500000 237 198 186 0
35.860000 8.800000 38.500000 237 198 186 0
36.080000 8.800000 37.180000 238 195 183 0
36.300000 8.800000 36.960000 236 193 181 0
36.520000 8.800000 37.840000 235 192 178 0
36.740000 8.800000 38.720000 230 187 173 0
36.960000 8.800000 38.720000 229 185 171 0
37.180000 8.800000 38.720000 227 183 169 0
0.000000 9.020000 17.160000 138 120 95 0
0.220000 9.020000 17.380000 138 120 95 0
0.440000 9.020000 18.700000 140 119 93 0
0.660000 9.020000 17.160000 140 119 93 0
0.880000 9.020000 15.840000 139 118 94 0
1.100000 9.020000 15.840000 138 117 93 0
1.320000 9.020000 15.840000 138 117 91 0
1.540000 9.020000 15.840000 139 118 92 0
1.760000 9.020000 15.840000 139 118 92 0
1.980000 9.020000 15.840000 138 117 91 0
2.200000 9.020000 15.840000 139 118 92 0
2.420000 9.020000 17.160000 140 119 93 0
2.640000 9.020000 17.160000 140 119 93 0
2.860000 9.020000 17.160000 140 119 93 0
3.080000 9.020000 17.380000 139 118 92 0
3.300000 9.020000 17.380000 139 118 92 0
3.520000 9.020000 18.700000 138 117 91 0
3.740000 9.020000 18.700000 139 118 92 0
3.960000 9.020000 18.700000 138 116 90 0
4.180000 9.020000 18.700000 136 114 88 0
4.400000 9.020000 18.700000 138 116 90 0
4.620000 9.020000 18.700000 137 115 89 0
4.840000 9.020000 17.380000 138 116 90 0
5.060000 9.020000 17.160000 141 119 93 0
5.280000 9.020000 17.380000 143 121 95 0
5.500000 9.020000 17.380000 144 122 96 0
5.720000 9.020000 18.700000 143 121 93 0
5.940000 9.020000 18.700000 144 122 94 0
6.160000 9.020000 18.700000 144 122 94 0
6.380000 9.020000 17.380000 145 123 95 0
6.600000 9.020000 18.700000 147 122 97 0
6.820000 9.020000 18.480000 147 122 97 0
7.040000 9.020000 18.480000 146 121 96 0
7.260000 9.020000 17.160000 146 121 96 0
7.480000 9.020000 17.160000 148 123 96 0
7.700000 9.020000 17.380000 148 123 96 0
7.920000 9.020000 18.700000 149 124 97 0
8.140000 9.020000 18.700000 150 125 98 0
8.360000 9.020000 18.480000 150 125 98 0
8.580000 9.020000 17.160000 152 127 100 0
8.800000 9.020000 17.160000 158 127 102 0
9.020000 9.020000 17.160000 164 133 108 0
9.240000 9.020000 17.160000 183 145 117 0
9.460000 9.020000 17.160000 198 160 132 0
9.680000 9.020000 17.160000 203 166 135 0
9.900000 9.020000 17.160000 204 167 136 0
10.120000 9.020000 15.840000 199 161 133 0
10.340000 9.020000 15.840000 192 154 126 0
10.560000 9.020000 15.840000 186 148 120 0
10.780000 9.020000 16.060000 186 148 120 0
11.000000 9.020000 17.380000 185 147 119 0
11.220000 9.020000 17.380000 184 146 118 0
11.440000 9.020000 17.380000 187 149 121 0
11.660000 9.020000 17.380000 188 150 122 0
11.880000 9.020000 17.380000 190 152 126 0
12.100000 9.020000 17.600000 189 151 125 0
12.320000 9.020000 17.600000 190 152 124 0
12.540000 9.020000 17.600000 189 151 123 0
12.760000 9.020000 17.600000 190 152 124 0
12.980000 9.020000 17.600000 192 154 126 0
13.200000 9.020000 17.600000 196 156 128 0
13.420000 9.020000 17.600000 197 157 129 0
13.640000 9.020000 17.600000 199 158 133 0
13.860000 9.020000 17.820000 200 159 134 0
14.080000 9.020000 17.820000 199 161 133 0
14.300000 9.020000 17.820000 200 162 134 0
14.520000 9.020000 17.820000 201 163 137 0
14.740000 9.020000 17.820000 201 163 137 0
14.960000 9.020000 17.820000 204 163 138 0
15.180000 9.020000 19.140000 206 165 140 0
15.400000 9.020000 20.240000 206 168 142 0
15.620000 9.020000 21.120000 211 173 147 0
15.840000 9.020000 22.220000 210 178 152 0
16.060000 9.020000 22.220000 215 183 157 0
16.280000 9.020000 22.220000 220 185 160 0
16.500000 9.020000 22.440000 220 185 160 0
16.720000 9.020000 23.760000 216 171 147 0
16.940000 9.020000 23.760000 196 151 127 0
17.160000 9.020000 23.760000 172 133 113 0
17.380000 9.020000 23.980000 150 111 91 0
17.600000 9.020000 23.760000 138 102 83 0
17.820000 9.020000 25.080000 137 101 82 0
18.040000 9.020000 25.080000 137 101 82 0
18.260000 9.020000 25.300000 142 106 87 0
18.480000 9.020000 25.300000 148 110 86 0
18.700000 9.020000 23.760000 154 116 92 0
18.920000 9.020000 23.980000 157 120 97 0
19.140000 9.020000 23.980000 161 124 101 0
19.360000 9.020000 23.980000 164 127 103 0
19.580000 9.020000 23.980000 167 130 106 0
19.800000 9.020000 23.980000 167 130 107 0
20.020000 9.020000 23.980000 167 130 107 0
20.240000 9.020000 25.300000 168 131 108 0
20.460000 9.020000 25.300000 168 131 108 0
20.680000 9.020000 25.300000 168 131 110 0
20.900000 9.020000 25.080000 169 132 111 0
21.120000 9.020000 25.080000 169 132 109 0
21.340000 9.020000 25.080000 169 132 109 0
21.560000 9.020000 25.080000 170 133 110 0
21.780000 9.020000 25.080000 168 131 108 0
22.000000 9.020000 25.300000 166 130 111 0
22.220000 9.020000 23.980000 166 130 111 0
22.440000 9.020000 23.980000 166 130 109 0
22.660000 9.020000 23.980000 164 128 107 0
22.880000 9.020000 23.980000 163 128 104 0
23.100000 9.020000 23.980000 164 129 105 0
23.320000 9.020000 25.300000 164 128 107 0
23.540000 9.020000 25.300000 165 129 108 0
23.760000 9.020000 25.300000 169 131 113 0
23.980000 9.020000 25.300000 171 133 115 0
24.200000 9.020000 25.300000 172 134 116 0
24.420000 9.020000 25.300000 174 136 118 0
24.640000 9.020000 25.300000 175 138 117 0
24.860000 9.020000 25.520000 176 139 118 0
25.080000 9.020000 25.520000 175 138 117 0
25.300000 9.020000 23.980000 176 139 118 0
25.520000 9.020000 24.200000 177 139 121 0
25.740000 9.020000 24.200000 179 141 123 0
25.960000 9.020000 24.200000 183 143 128 0
26.180000 9.020000 24.200000 186 146 131 0
26.400000 9.020000 24.200000 188 149 131 0
26.620000 9.020000 24.200000 188 149 131 0
26.840000 9.020000 24.200000 189 150 132 0
27.060000 9.020000 24.200000 192 153 135 0
27.280000 9.020000 24.420000 195 156 138 0
27.500000 9.020000 24.420000 197 158 140 0
27.720000 9.020000 25.740000 199 160 142 0
27.940000 9.020000 25.740000 201 162 144 0
28.160000 9.020000 25.740000 202 163 145 0
28.380000 9.020000 25.740000 204 165 147 0
28.600000 9.020000 25.960000 204 166 148 0
28.820000 9.020000 25.960000 208 170 152 0
29.040000 9.020000 25.960000 213 175 159 0
29.260000 9.020000 25.960000 216 178 162 0
29.480000 9.020000 25.960000 224 184 171 0
29.700000 9.020000 26.180000 226 186 173 0
29.920000 9.020000 26.180000 227 187 172 0
30.140000 9.020000 26.180000 227 187 172 0
30.360000 9.020000 27.060000 224 184 169 0
30.580000 9.020000 29.260000 223 183 168 0
30.800000 9.020000 30.800000 224 184 171 0
31.020000 9.020000 29.920000 226 186 173 0
31.240000 9.020000 31.460000 229 189 176 0
31.460000 9.020000 31.460000 229 189 176 0
31.680000 9.020000 33.000000 231 191 176 0
31.900000 9.020000 34.100000 232 192 177 0
32.120000 9.020000 34.980000 233 190 176 0
32.340000 9.020000 36.080000 232 189 175 0
32.560000 9.020000 36.300000 232 188 174 0
32.780000 9.020000 37.620000 232 188 174 0
33.000000 9.020000 37.840000 229 185 171 0
33.220000 9.020000 38.060000 228 184 170 0
33.440000 9.020000 38.060000 229 182 171 0
33.660000 9.020000 38.280000 229 182 171 0
33.880000 9.020000 38.280000 231 184 169 0
34.100000 9.020000 38.280000 232 185 170 0
34.320000 9.020000 38.280000 234 190 176 0
34.540000 9.020000 38.500000 235 191 177 0
34.760000 9.020000 38.500000 234 194 179 0
34.980000 9.020000 38.500000 236 196 181 0
35.200000 9.020000 38.500000 238 198 185 0
35.420000 9.020000 38.500000 238 198 185 0
35.640000 9.020000 38.500000 238 198 185 0
35.860000 9.020000 38.720000 237 197 184 0
36.080000 9.020000 37.180000 239 195 181 0
36.300000 9.020000 35.860000 236 192 178 0
36.520000 9.020000 36.960000 234 190 176 0
36.740000 9.020000 37.840000 230 186 172 0
36.960000 9.020000 38.940000 227 187 174 0
37.180000 9.020000 38.720000 227 187 174 0
0.000000 9.240000 17.160000 138 120 95 0
0.220000 9.240000 17.160000 137 119 94 0
0.440000 9.240000 17.160000 138 117 91 0
0.660000 9.240000 17.160000 140 119 93 0
0.880000 9.240000 17.160000 140 119 95 0
1.100000 9.240000 17.160000 140 119 95 0
1.320000 9.240000 17.160000 139 118 92 0
1.540000 9.240000 17.160000 138 117 91 0
1.760000 9.240000 17.160000 139 118 92 0
1.980000 9.240000 17.160000 138 117 91 0
2.200000 9.240000 17.160000 139 118 92 0
2.420000 9.240000 15.840000 140 119 93 0
2.640000 9.240000 15.840000 140 119 93 0
2.860000 9.240000 17.160000 139 118 92 0
3.080000 9.240000 17.160000 140 119 93 0
3.300000 9.240000 17.380000 138 117 91 0
3.520000 9.240000 18.700000 139 118 92 0
3.740000 9.240000 18.700000 139 118 92 0
3.960000 9.240000 18.700000 138 116 90 0
4.180000 9.240000 18.700000 136 114 88 0
4.400000 9.240000 18.700000 138 116 90 0
4.620000 9.240000 17.380000 138 116 90 0
4.840000 9.240000 17.380000 140 118 92 0
5.060000 9.240000 17.380000 142 120 94 0
5.280000 9.240000 17.380000 142 120 94 0
5.500000 9.240000 17.160000 142 120 94 0
5.720000 9.240000 18.700000 143 121 93 0
5.940000 9.240000 18.700000 143 121 93 0
6.160000 9.240000 18.700000 144 122 94 0
6.380000 9.240000 17.380000 144 122 94 0
6.600000 9.240000 17.380000 147 122 97 0
6.820000 9.240000 17.380000 147 122 97 0
7.040000 9.240000 17.160000 146 121 96 0
7.260000 9.240000 18.700000 147 122 97 0
7.480000 9.240000 18.700000 147 122 95 0
7.700000 9.240000 18.700000 147 122 95 0
7.920000 9.240000 18.700000 148 123 96 0
8.140000 9.240000 18.480000 149 124 97 0
8.360000 9.240000 18.480000 149 124 97 0
8.580000 9.240000 17.160000 151 126 99 0
8.800000 9.240000 17.160000 157 126 101 0
9.020000 9.240000 17.160000 162 131 106 0
9.240000 9.240000 17.160000 180 142 114 0
9.460000 9.240000 17.160000 194 156 128 0
9.680000 9.240000 17.160000 203 166 135 0
9.900000 9.240000 17.160000 203 166 135 0
10.120000 9.240000 17.160000 200 162 134 0
10.340000 9.240000 17.160000 190 152 124 0
10.560000 9.240000 17.380000 186 148 120 0
10.780000 9.240000 17.380000 185 147 119 0
11.000000 9.240000 17.380000 185 147 119 0
11.220000 9.240000 17.380000 185 147 119 0
11.440000 9.240000 17.380000 187 149 121 0
11.660000 9.240000 17.380000 187 149 121 0
11.880000 9.240000 17.380000 189 151 125 0
12.100000 9.240000 17.380000 188 150 124 0
12.320000 9.240000 17.600000 188 150 122 0
12.540000 9.240000 17.600000 188 150 122 0
12.760000 9.240000 17.600000 189 151 123 0
12.980000 9.240000 17.600000 191 153 125 0
13.200000 9.240000 17.600000 195 155 127 0
13.420000 9.240000 17.600000 198 158 130 0
13.640000 9.240000 17.600000 198 157 132 0
13.860000 9.240000 17.600000 199 158 133 0
14.080000 9.240000 17.820000 198 160 132 0
14.300000 9.240000 17.820000 199 161 133 0
14.520000 9.240000 17.820000 201 163 137 0
14.740000 9.240000 17.820000 201 163 137 0
14.960000 9.240000 17.820000 205 164 139 0
15.180000 9.240000 18.040000 206 165 140 0
15.400000 9.240000 18.920000 207 169 143 0
15.620000 9.240000 21.120000 211 173 147 0
15.840000 9.240000 22.220000 212 180 154 0
16.060000 9.240000 22.220000 216 184 158 0
16.280000 9.240000 22.220000 220 185 160 0
16.500000 9.240000 23.760000 219 184 159 0
16.720000 9.240000 23.760000 209 164 140 0
16.940000 9.240000 23.760000 192 147 123 0
17.160000 9.240000 23.760000 165 126 106 0
17.380000 9.240000 23.760000 142 103 83 0
17.600000 9.240000 23.760000 137 101 82 0
17.820000 9.240000 23.760000 136 100 81 0
18.040000 9.240000 23.760000 140 104 85 0
18.260000 9.240000 23.760000 142 106 87 0
18.480000 9.240000 23.760000 149 111 87 0
18.700000 9.240000 23.760000 155 117 93 0
18.920000 9.240000 23.980000 159 122 99 0
19.140000 9.240000 23.980000 163 126 103 0
19.360000 9.240000 23.980000 165 128 104 0
19.580000 9.240000 23.980000 167 130 106 0
19.800000 9.240000 23.980000 167 130 107 0
20.020000 9.240000 23.980000 168 131 108 0
20.240000 9.240000 23.980000 167 130 107 0
20.460000 9.240000 23.760000 168 131 108 0
20.680000 9.240000 23.760000 168 131 110 0
20.900000 9.240000 23.760000 169 132 111 0
21.120000 9.240000 25.080000 169 132 109 0
21.340000 9.240000 24.860000 170 133 110 0
21.560000 9.240000 25.080000 168 131 108 0
21.780000 9.240000 23.760000 168 131 108 0
22.000000 9.240000 23.980000 166 130 111 0
22.220000 9.240000 23.980000 166 130 111 0
22.440000 9.240000 23.980000 166 130 109 0
22.660000 9.240000 25.300000 164 128 107 0
22.880000 9.240000 23.980000 163 128 104 0
23.100000 9.240000 23.980000 163 128 104 0
23.320000 9.240000 25.300000 164 128 107 0
23.540000 9.240000 25.300000 166 130 109 0
23.760000 9.240000 25.300000 169 131 113 0
23.980000 9.240000 25.300000 172 134 116 0
24.200000 9.240000 25.300000 174 136 118 0
24.420000 9.240000 25.300000 174 136 118 0
24.640000 9.240000 25.300000 176 139 118 0
24.860000 9.240000 25.520000 176 139 118 0
25.080000 9.240000 25.520000 177 140 119 0
25.300000 9.240000 25.520000 178 141 120 0
25.520000 9.240000 25.520000 179 141 123 0
25.740000 9.240000 24.200000 182 144 126 0
25.960000 9.240000 24.200000 185 145 130 0
26.180000 9.240000 24.200000 188 148 133 0
26.400000 9.240000 24.200000 189 150 132 0
26.620000 9.240000 24.200000 190 151 133 0
26.840000 9.240000 24.200000 191 152 134 0
27.060000 9.240000 24.200000 193 154 136 0
27.280000 9.240000 24.420000 195 156 138 0
27.500000 9.240000 25.740000 199 160 142 0
27.720000 9.240000 25.740000 200 161 143 0
27.940000 9.240000 25.740000 201 162 144 0
28.160000 9.240000 25.740000 203 164 146 0
28.380000 9.240000 25.740000 204 165 147 0
28.600000 9.240000 25.960000 205 167 149 0
28.820000 9.240000 25.960000 208 170 152 0
29.040000 9.240000 25.960000 211 173 157 0
29.260000 9.240000 25.960000 214 176 160 0
29.480000 9.240000 25.960000 222 182 169 0
29.700000 9.240000 26.180000 226 186 173 0
29.920000 9.240000 26.180000 226 186 171 0
30.140000 9.240000 26.180000 226 186 171 0
30.360000 9.240000 27.280000 223 183 168 0
30.580000 9.240000 29.480000 223 183 168 0
30.800000 9.240000 30.800000 223 183 170 0
31.020000 9.240000 29.920000 224 184 171 0
31.240000 9.240000 31.460000 227 187 174 0
31.460000 9.240000 31.460000 227 187 174 0
31.680000 9.240000 33.000000 229 189 174 0
31.900000 9.240000 34.100000 229 189 174 0
32.120000 9.240000 34.980000 232 189 175 0
32.340000 9.240000 36.080000 231 188 174 0
32.560000 9.240000 36.300000 232 188 174 0
32.780000 9.240000 37.840000 231 187 173 0
33.000000 9.240000 37.840000 230 186 172 0
33.220000 9.240000 38.060000 228 184 170 0
33.440000 9.240000 38.060000 229 182 171 0
33.660000 9.240000 38.280000 228 181 170 0
33.880000 9.240000 38.280000 230 183 168 0
34.100000 9.240000 38.280000 231 184 169 0
34.320000 9.240000 38.280000 231 187 173 0
34.540000 9.240000 38.500000 232 188 174 0
34.760000 9.240000 38.500000 234 194 179 0
34.980000 9.240000 38.500000 236 196 181 0
35.200000 9.240000 38.500000 237 197 184 0
35.420000 9.240000 38.500000 237 197 184 0
35.640000 9.240000 38.500000 236 196 183 0
35.860000 9.240000 38.720000 236 196 183 0
36.080000 9.240000 37.180000 236 192 178 0
36.300000 9.240000 35.860000 233 189 175 0
36.520000 9.240000 35.640000 230 186 172 0
36.740000 9.240000 36.740000 231 187 173 0
36.960000 9.240000 37.620000 228 188 175 0
37.180000 9.240000 38.720000 229 189 176 0
0.000000 9.460000 17.160000 138 120 93 0
0.220000 9.460000 15.840000 138 120 93 0
0.440000 9.460000 15.840000 137 119 92 0
0.660000 9.460000 17.160000 137 119 92 0
0.880000 9.460000 17.160000 140 119 93 0
1.100000 9.460000 17.160000 139 118 92 0
1.320000 9.460000 18.700000 139 118 94 0
1.540000 9.460000 18.700000 138 117 93 0
1.760000 9.460000 17.160000 138 117 91 0
1.980000 9.460000 15.840000 138 117 91 0
2.200000 9.460000 15.840000 138 117 91 0
2.420000 9.460000 17.160000 138 117 91 0
2.640000 9.460000 17.160000 139 118 92 0
2.860000 9.460000 17.160000 139 118 92 0
3.080000 9.460000 17.160000 138 117 93 0
3.300000 9.460000 17.160000 138 117 93 0
3.520000 9.460000 18.700000 138 117 91 0
3.740000 9.460000 18.700000 138 117 91 0
3.960000 9.460000 17.380000 138 117 91 0
4.180000 9.460000 17.380000 138 117 91 0
4.400000 9.460000 17.380000 138 117 91 0
4.620000 9.460000 17.380000 139 118 92 0
4.840000 9.460000 17.380000 141 119 93 0
5.060000 9.460000 17.380000 142 120 94 0
5.280000 9.460000 17.380000 142 120 92 0
5.500000 9.460000 17.160000 143 121 93 0
5.720000 9.460000 18.700000 142 120 94 0
5.940000 9.460000 18.480000 142 120 94 0
6.160000 9.460000 18.700000 143 121 95 0
6.380000 9.460000 18.700000 143 121 95 0
6.600000 9.460000 17.380000 145 120 93 0
6.820000 9.460000 17.380000 145 120 93 0
7.040000 9.460000 17.160000 146 121 94 0
7.260000 9.460000 17.160000 146 121 94 0
7.480000 9.460000 18.480000 146 121 96 0
7.700000 9.460000 18.480000 147 122 97 0
7.920000 9.460000 18.480000 146 124 98 0
8.140000 9.460000 18.480000 147 125 99 0
8.360000 9.460000 18.480000 151 124 100 0
8.580000 9.460000 17.160000 152 125 101 0
8.800000 9.460000 17.160000 156 124 98 0
9.020000 9.460000 17.160000 160 128 102 0
9.240000 9.460000 17.160000 178 138 110 0
9.460000 9.460000 17.160000 191 151 123 0
9.680000 9.460000 17.160000 199 161 133 0
9.900000 9.460000 17.160000 201 163 135 0
10.120000 9.460000 17.160000 201 161 133 0
10.340000 9.460000 17.160000 193 153 125 0
10.560000 9.460000 17.380000 187 149 121 0
10.780000 9.460000 17.380000 185 147 119 0
11.000000 9.460000 17.380000 186 145 120 0
11.220000 9.460000 17.380000 187 146 121 0
11.440000 9.460000 17.380000 187 149 123 0
11.660000 9.460000 17.380000 187 149 123 0
11.880000 9.460000 17.380000 190 149 124 0
12.100000 9.460000 17.380000 190 149 124 0
12.320000 9.460000 17.380000 187 149 121 0
12.540000 9.460000 17.600000 187 149 121 0
12.760000 9.460000 17.600000 190 150 122 0
12.980000 9.460000 17.600000 192 152 124 0
13.200000 9.460000 17.600000 193 155 127 0
13.420000 9.460000 17.600000 195 157 129 0
13.640000 9.460000 17.600000 199 159 131 0
13.860000 9.460000 17.600000 199 159 131 0
14.080000 9.460000 17.820000 198 160 134 0
14.300000 9.460000 17.820000 199 161 135 0
14.520000 9.460000 17.820000 199 161 135 0
14.740000 9.460000 17.820000 201 163 137 0
14.960000 9.460000 17.820000 203 166 142 0
15.180000 9.460000 17.820000 203 166 142 0
15.400000 9.460000 19.140000 205 170 146 0
15.620000 9.460000 21.340000 209 174 150 0
15.840000 9.460000 22.220000 215 180 156 0
16.060000 9.460000 22.220000 220 185 161 0
16.280000 9.460000 22.220000 221 186 162 0
16.500000 9.460000 23.760000 214 179 155 0
16.720000 9.460000 23.760000 205 159 139 0
16.940000 9.460000 23.760000 186 140 120 0
17.160000 9.460000 23.760000 151 117 100 0
17.380000 9.460000 23.760000 137 103 86 0
17.600000 9.460000 25.080000 135 101 84 0
17.820000 9.460000 23.760000 136 102 85 0
18.040000 9.460000 23.760000 142 105 84 0
18.260000 9.460000 23.760000 144 107 86 0
18.480000 9.460000 23.760000 148 113 89 0
18.700000 9.460000 23.760000 154 119 95 0
18.920000 9.460000 23.760000 158 123 99 0
19.140000 9.460000 23.980000 163 128 104 0
19.360000 9.460000 23.980000 164 127 104 0
19.580000 9.460000 23.760000 166 129 106 0
19.800000 9.460000 23.760000 167 128 106 0
20.020000 9.460000 23.980000 166 127 105 0
20.240000 9.460000 23.760000 167 130 107 0
20.460000 9.460000 25.080000 167 130 107 0
20.680000 9.460000 23.760000 168 131 108 0
20.900000 9.460000 23.760000 167 130 107 0
21.120000 9.460000 23.760000 167 130 107 0
21.340000 9.460000 24.860000 167 130 107 0
21.560000 9.460000 25.080000 166 131 107 0
21.780000 9.460000 23.760000 165 130 106 0
22.000000 9.460000 23.980000 165 129 108 0
22.220000 9.460000 23.980000 165 129 108 0
22.440000 9.460000 23.980000 166 130 109 0
22.660000 9.460000 25.300000 165 129 108 0
22.880000 9.460000 23.980000 163 127 106 0
23.100000 9.460000 23.980000 162 126 105 0
23.320000 9.460000 23.980000 163 127 106 0
23.540000 9.460000 25.300000 167 131 110 0
23.760000 9.460000 25.300000 170 132 114 0
23.980000 9.460000 25.300000 171 133 115 0
24.200000 9.460000 25.300000 173 136 115 0
24.420000 9.460000 25.300000 175 138 117 0
24.640000 9.460000 25.300000 176 137 119 0
24.860000 9.460000 25.300000 178 139 121 0
25.080000 9.460000 25.520000 179 140 122 0
25.300000 9.460000 25.520000 180 141 123 0
25.520000 9.460000 25.520000 181 141 126 0
25.740000 9.460000 25.520000 183 143 128 0
25.960000 9.460000 24.200000 186 147 129 0
26.180000 9.460000 24.200000 188 149 131 0
26.400000 9.460000 24.200000 193 151 134 0
26.620000 9.460000 24.200000 193 151 134 0
26.840000 9.460000 24.200000 195 153 136 0
27.060000 9.460000 24.200000 197 155 138 0
27.280000 9.460000 24.420000 196 157 139 0
27.500000 9.460000 25.740000 198 159 141 0
27.720000 9.460000 25.740000 199 159 144 0
27.940000 9.460000 25.740000 201 161 146 0
28.160000 9.460000 25.740000 203 161 144 0
28.380000 9.460000 25.740000 206 164 147 0
28.600000 9.460000 25.960000 207 165 148 0
28.820000 9.460000 25.960000 211 169 152 0
29.040000 9.460000 25.960000 210 170 155 0
29.260000 9.460000 25.960000 214 174 159 0
29.480000 9.460000 25.960000 218 178 163 0
29.700000 9.460000 26.180000 223 183 168 0
29.920000 9.460000 26.180000 227 184 170 0
30.140000 9.460000 26.180000 226 183 169 0
30.360000 9.460000 27.280000 225 182 168 0
30.580000 9.460000 29.480000 224 181 167 0
30.800000 9.460000 30.800000 222 182 167 0
31.020000 9.460000 29.920000 222 182 167 0
31.240000 9.460000 31.460000 224 184 169 0
31.460000 9.460000 31.460000 226 186 171 0
31.680000 9.460000 33.000000 229 186 174 0
31.900000 9.460000 34.100000 229 186 174 0
32.120000 9.460000 34.980000 231 187 173 0
32.340000 9.460000 36.080000 231 187 173 0
32.560000 9.460000 37.620000 230 186 172 0
32.780000 9.460000 37.840000 230 186 172 0
33.000000 9.460000 37.840000 228 184 170 0
33.220000 9.460000 38.060000 228 184 170 0
33.440000 9.460000 38.060000 231 181 169 0
33.660000 9.460000 38.280000 230 180 168 0
33.880000 9.460000 38.280000 229 180 168 0
34.100000 9.460000 38.280000 230 181 169 0
34.320000 9.460000 38.280000 229 185 171 0
34.540000 9.460000 38.500000 233 189 175 0
34.760000 9.460000 38.500000 234 191 177 0
34.980000 9.460000 38.500000 237 194 180 0
35.200000 9.460000 38.500000 237 194 182 0
35.420000 9.460000 38.500000 238 195 183 0
35.640000 9.460000 38.500000 239 192 179 0
35.860000 9.460000 37.180000 236 189 176 0
36.080000 9.460000 37.180000 233 182 173 0
36.300000 9.460000 35.860000 231 180 171 0
36.520000 9.460000 35.640000 227 183 169 0
36.740000 9.460000 36.520000 229 185 171 0
36.960000 9.460000 37.400000 231 188 174 0
37.180000 9.460000 38.720000 233 190 176 0
0.000000 9.680000 17.160000 138 120 93 0
0.220000 9.680000 15.620000 137 119 92 0
0.440000 9.680000 15.840000 138 120 93 0
0.660000 9.680000 17.160000 137 119 92 0
0.880000 9.680000 17.160000 139 118 92 0
1.100000 9.680000 17.160000 139 118 92 0
1.320000 9.680000 18.700000 139 118 94 0
1.540000 9.680000 18.700000 138 117 93 0
1.760000 9.680000 17.160000 137 116 90 0
1.980000 9.680000 15.840000 138 117 91 0
2.200000 9.680000 15.840000 137 116 90 0
2.420000 9.680000 17.160000 138 117 91 0
2.640000 9.680000 17.160000 137 116 90 0
2.860000 9.680000 17.160000 138 117 91 0
3.080000 9.680000 18.480000 138 117 93 0
3.300000 9.680000 18.480000 137 116 92 0
3.520000 9.680000 18.700000 137 116 90 0
3.740000 9.680000 18.700000 138 117 91 0
3.960000 9.680000 17.380000 138 117 91 0
4.180000 9.680000 17.160000 138 117 91 0
4.400000 9.680000 18.700000 139 118 92 0
4.620000 9.680000 18.700000 140 119 93 0
4.840000 9.680000 17.380000 142 120 94 0
5.060000 9.680000 17.380000 142 120 94 0
5.280000 9.680000 18.700000 142 120 92 0
5.500000 9.680000 18.700000 142 120 92 0
5.720000 9.680000 18.700000 141 119 93 0
5.940000 9.680000 18.700000 141 119 93 0
6.160000 9.680000 18.700000 142 120 94 0
6.380000 9.680000 18.700000 144 122 96 0
6.600000 9.680000 18.700000 145 120 93 0
6.820000 9.680000 17.160000 145 120 93 0
7.040000 9.680000 17.160000 145 120 93 0
7.260000 9.680000 17.160000 144 119 92 0
7.480000 9.680000 17.160000 145 120 95 0
7.700000 9.680000 18.480000 146 121 96 0
7.920000 9.680000 18.480000 145 123 97 0
8.140000 9.680000 17.160000 145 123 97 0
8.360000 9.680000 17.160000 150 123 99 0
8.580000 9.680000 17.160000 150 123 99 0
8.800000 9.680000 17.160000 156 124 98 0
9.020000 9.680000 17.160000 160 128 102 0
9.240000 9.680000 17.160000 174 134 106 0
9.460000 9.680000 17.160000 188 148 120 0
9.680000 9.680000 15.840000 195 157 129 0
9.900000 9.680000 15.840000 200 162 134 0
10.120000 9.680000 15.840000 200 160 132 0
10.340000 9.680000 15.840000 192 152 124 0
10.560000 9.680000 15.840000 185 147 119 0
10.780000 9.680000 15.840000 184 146 118 0
11.000000 9.680000 15.840000 187 146 121 0
11.220000 9.680000 17.380000 187 146 121 0
11.440000 9.680000 17.380000 187 149 123 0
11.660000 9.680000 17.380000 188 150 124 0
11.880000 9.680000 17.380000 190 149 124 0
12.100000 9.680000 17.380000 188 147 122 0
12.320000 9.680000 17.380000 186 148 120 0
12.540000 9.680000 17.600000 185 147 119 0
12.760000 9.680000 17.600000 189 149 121 0
12.980000 9.680000 17.600000 191 151 123 0
13.200000 9.680000 17.600000 191 153 125 0
13.420000 9.680000 17.600000 195 157 129 0
13.640000 9.680000 17.600000 198 158 130 0
13.860000 9.680000 17.600000 199 159 131 0
14.080000 9.680000 17.600000 198 160 134 0
14.300000 9.680000 17.820000 199 161 135 0
14.520000 9.680000 17.820000 200 162 136 0
14.740000 9.680000 17.820000 201 163 137 0
14.960000 9.680000 17.820000 202 165 141 0
15.180000 9.680000 17.820000 205 168 144 0
15.400000 9.680000 19.140000 207 172 148 0
15.620000 9.680000 20.240000 210 175 151 0
15.840000 9.680000 22.440000 217 182 158 0
16.060000 9.680000 22.220000 219 184 160 0
16.280000 9.680000 22.220000 221 186 162 0
16.500000 9.680000 23.760000 211 176 152 0
16.720000 9.680000 23.760000 199 153 133 0
16.940000 9.680000 23.760000 179 133 113 0
17.160000 9.680000 23.760000 145 111 94 0
17.380000 9.680000 25.080000 135 101 84 0
17.600000 9.680000 25.080000 135 101 84 0
17.820000 9.680000 23.760000 137 103 86 0
18.040000 9.680000 23.760000 143 106 85 0
18.260000 9.680000 23.760000 146 109 88 0
18.480000 9.680000 23.760000 150 115 91 0
18.700000 9.680000 23.760000 153 118 94 0
18.920000 9.680000 23.760000 160 125 101 0
19.140000 9.680000 23.760000 162 127 103 0
19.360000 9.680000 23.760000 163 126 103 0
19.580000 9.680000 23.760000 164 127 104 0
19.800000 9.680000 23.760000 166 127 105 0
20.020000 9.680000 23.760000 166 127 105 0
20.240000 9.680000 23.760000 167 130 107 0
20.460000 9.680000 25.080000 167 130 107 0
20.680000 9.680000 23.760000 167 130 107 0
20.900000 9.680000 23.980000 167 130 107 0
21.120000 9.680000 23.980000 167 130 107 0
21.340000 9.680000 23.760000 166 129 106 0
21.560000 9.680000 23.760000 163 128 104 0
21.780000 9.680000 23.980000 163 128 104 0
22.000000 9.680000 23.980000 164 128 107 0
22.220000 9.680000 23.980000 165 129 108 0
22.440000 9.680000 23.980000 167 131 110 0
22.660000 9.680000 23.980000 166 130 109 0
22.880000 9.680000 23.980000 165 129 108 0
23.100000 9.680000 23.980000 163 127 106 0
23.320000 9.680000 23.980000 163 127 106 0
23.540000 9.680000 25.300000 166 130 109 0
23.760000 9.680000 25.300000 169 131 113 0
23.980000 9.680000 25.300000 171 133 115 0
24.200000 9.680000 25.300000 173 136 115 0
24.420000 9.680000 25.300000 175 138 117 0
24.640000 9.680000 25.300000 176 137 119 0
24.860000 9.680000 25.300000 179 140 122 0
25.080000 9.680000 25.520000 179 140 122 0
25.300000 9.680000 25.520000 180 141 123 0
25.520000 9.680000 25.520000 181 141 126 0
25.740000 9.680000 25.520000 184 144 129 0
25.960000 9.680000 25.520000 188 149 131 0
26.180000 9.680000 24.200000 189 150 132 0
26.400000 9.680000 24.200000 193 151 134 0
26.620000 9.680000 24.200000 195 153 136 0
26.840000 9.680000 24.200000 195 153 136 0
27.060000 9.680000 24.200000 198 156 139 0
27.280000 9.680000 25.740000 196 157 139 0
27.500000 9.680000 25.740000 198 159 141 0
27.720000 9.680000 25.740000 199 159 144 0
27.940000 9.680000 25.740000 200 160 145 0
28.160000 9.680000 25.740000 203 161 144 0
28.380000 9.680000 25.740000 204 162 145 0
28.600000 9.680000 25.960000 207 165 148 0
28.820000 9.680000 25.960000 209 167 150 0
29.040000 9.680000 25.960000 209 169 154 0
29.260000 9.680000 25.960000 212 172 157 0
29.480000 9.680000 25.960000 216 176 161 0
29.700000 9.680000 26.180000 220 180 165 0
29.920000 9.680000 26.180000 225 182 168 0
30.140000 9.680000 26.180000 225 182 168 0
30.360000 9.680000 27.280000 222 179 165 0
30.580000 9.680000 29.480000 222 179 165 0
30.800000 9.680000 30.800000 220 180 165 0
31.020000 9.680000 29.920000 220 180 165 0
31.240000 9.680000 31.460000 223 183 168 0
31.460000 9.680000 31.460000 225 185 170 0
31.680000 9.680000 33.000000 228 185 173 0
31.900000 9.680000 34.100000 228 185 173 0
32.120000 9.680000 34.980000 231 187 173 0
32.340000 9.680000 36.080000 231 187 173 0
32.560000 9.680000 37.620000 230 186 172 0
32.780000 9.680000 37.840000 230 186 172 0
33.000000 9.680000 37.840000 228 184 170 0
33.220000 9.680000 38.060000 227 183 169 0
33.440000 9.680000 38.060000 230 180 168 0
33.660000 9.680000 38.280000 229 179 167 0
33.880000 9.680000 38.280000 228 179 167 0
34.100000 9.680000 38.280000 229 180 168 0
34.320000 9.680000 38.280000 229 185 171 0
34.540000 9.680000 38.500000 231 187 173 0
34.760000 9.680000 38.500000 232 189 175 0
34.980000 9.680000 38.500000 235 192 178 0
35.200000 9.680000 38.500000 236 193 181 0
35.420000 9.680000 38.500000 234 191 179 0
35.640000 9.680000 38.500000 235 188 175 0
35.860000 9.680000 37.180000 232 185 172 0
36.080000 9.680000 37.180000 231 180 171 0
36.300000 9.680000 35.860000 230 179 170 0
36.520000 9.680000 35.640000 229 185 171 0
36.740000 9.680000 36.520000 231 187 173 0
36.960000 9.680000 37.400000 232 189 175 0
37.180000 9.680000 37.400000 234 191 177 0
0.000000 9.900000 17.160000 138 121 96 0
0.220000 9.900000 15.620000 137 120 95 0
0.440000 9.900000 15.840000 137 119 94 0
0.660000 9.900000 15.840000 138 120 95 0
0.880000 9.900000 15.840000 138 120 93 0
1.100000 9.900000 15.840000 136 118 91 0
1.320000 9.900000 17.380000 139 118 92 0
1.540000 9.900000 17.380000 139 118 92 0
1.760000 9.900000 15.840000 138 117 91 0
1.980000 9.900000 15.840000 137 116 90 0
2.200000 9.900000 15.840000 137 116 90 0
2.420000 9.900000 17.160000 137 116 90 0
2.640000 9.900000 17.160000 138 117 91 0
2.860000 9.900000 17.160000 138 117 91 0
3.080000 9.900000 18.480000 138 117 91 0
3.300000 9.900000 18.700000 137 116 90 0
3.520000 9.900000 18.700000 136 115 89 0
3.740000 9.900000 17.160000 137 116 90 0
3.960000 9.900000 17.380000 137 116 90 0
4.180000 9.900000 17.160000 139 118 92 0
4.400000 9.900000 18.700000 139 119 90 0
4.620000 9.900000 18.480000 139 119 90 0
4.840000 9.900000 17.160000 141 119 93 0
5.060000 9.900000 17.160000 142 120 94 0
5.280000 9.900000 18.700000 141 119 93 0
5.500000 9.900000 18.700000 142 120 94 0
5.720000 9.900000 18.480000 142 120 94 0
5.940000 9.900000 18.700000 141 119 93 0
6.160000 9.900000 18.480000 142 120 92 0
6.380000 9.900000 18.480000 144 122 94 0
6.600000 9.900000 18.480000 143 121 95 0
6.820000 9.900000 18.480000 143 121 95 0
7.040000 9.900000 18.480000 145 120 93 0
7.260000 9.900000 17.160000 145 120 93 0
7.480000 9.900000 17.160000 145 120 95 0
7.700000 9.900000 17.160000 145 120 95 0
7.920000 9.900000 17.160000 147 122 95 0
8.140000 9.900000 17.160000 147 122 95 0
8.360000 9.900000 17.160000 148 123 98 0
8.580000 9.900000 17.160000 149 124 99 0
8.800000 9.900000 17.160000 152 124 98 0
9.020000 9.900000 17.160000 155 127 101 0
9.240000 9.900000 17.160000 170 132 104 0
9.460000 9.900000 15.840000 185 147 119 0
9.680000 9.900000 15.840000 196 155 130 0
9.900000 9.900000 15.840000 200 159 134 0
10.120000 9.900000 15.840000 198 160 132 0
10.340000 9.900000 15.840000 191 153 125 0
10.560000 9.900000 15.840000 185 147 119 0
10.780000 9.900000 15.840000 185 147 119 0
11.000000 9.900000 15.840000 185 147 119 0
11.220000 9.900000 16.060000 186 148 120 0
11.440000 9.900000 16.060000 188 150 124 0
11.660000 9.900000 16.060000 187 149 123 0
11.880000 9.900000 16.060000 187 149 121 0
12.100000 9.900000 16.060000 186 148 120 0
12.320000 9.900000 16.060000 186 148 120 0
12.540000 9.900000 17.600000 186 148 120 0
12.760000 9.900000 17.600000 186 148 120 0
12.980000 9.900000 17.600000 190 152 124 0
13.200000 9.900000 17.600000 194 153 128 0
13.420000 9.900000 17.600000 196 155 130 0
13.640000 9.900000 17.600000 196 158 130 0
13.860000 9.900000 17.600000 198 160 132 0
14.080000 9.900000 17.600000 199 161 135 0
14.300000 9.900000 17.820000 199 161 135 0
14.520000 9.900000 17.820000 201 163 137 0
14.740000 9.900000 17.820000 203 165 139 0
14.960000 9.900000 17.820000 204 167 143 0
15.180000 9.900000 17.820000 206 169 145 0
15.400000 9.900000 19.140000 207 174 152 0
15.620000 9.900000 20.240000 211 178 156 0
15.840000 9.900000 21.120000 214 186 167 0
16.060000 9.900000 22.220000 216 188 169 0
16.280000 9.900000 22.220000 223 186 162 0
16.500000 9.900000 23.540000 210 173 149 0
16.720000 9.900000 23.760000 191 153 129 0
16.940000 9.900000 23.760000 169 131 107 0
17.160000 9.900000 23.540000 141 108 88 0
17.380000 9.900000 25.080000 134 101 81 0
17.600000 9.900000 25.080000 133 101 81 0
17.820000 9.900000 25.080000 136 104 84 0
18.040000 9.900000 23.760000 143 106 85 0
18.260000 9.900000 23.760000 148 111 90 0
18.480000 9.900000 23.760000 151 116 92 0
18.700000 9.900000 23.760000 155 120 96 0
18.920000 9.900000 23.760000 160 125 101 0
19.140000 9.900000 23.760000 162 127 103 0
19.360000 9.900000 23.760000 163 126 103 0
19.580000 9.900000 23.760000 164 127 104 0
19.800000 9.900000 23.760000 166 129 108 0
20.020000 9.900000 23.760000 165 128 107 0
20.240000 9.900000 23.760000 164 128 107 0
20.460000 9.900000 23.540000 166 130 109 0
20.680000 9.900000 23.760000 165 129 108 0
20.900000 9.900000 23.980000 164 128 107 0
21.120000 9.900000 23.980000 164 128 107 0
21.340000 9.900000 23.760000 162 126 105 0
21.560000 9.900000 23.980000 162 126 105 0
21.780000 9.900000 23.980000 162 126 105 0
22.000000 9.900000 23.980000 164 128 109 0
22.220000 9.900000 23.980000 168 132 113 0
22.440000 9.900000 23.980000 168 132 111 0
22.660000 9.900000 23.980000 167 131 110 0
22.880000 9.900000 23.980000 166 130 109 0
23.100000 9.900000 25.300000 164 128 107 0
23.320000 9.900000 25.300000 165 128 107 0
23.540000 9.900000 25.300000 167 130 109 0
23.760000 9.900000 25.300000 168 132 113 0
23.980000 9.900000 25.300000 171 135 116 0
24.200000 9.900000 25.300000 173 137 120 0
24.420000 9.900000 25.300000 174 138 121 0
24.640000 9.900000 25.300000 176 138 120 0
24.860000 9.900000 25.300000 178 140 122 0
25.080000 9.900000 25.520000 180 141 123 0
25.300000 9.900000 25.520000 181 142 124 0
25.520000 9.900000 25.520000 181 144 123 0
25.740000 9.900000 25.520000 184 147 126 0
25.960000 9.900000 25.520000 189 150 130 0
26.180000 9.900000 25.520000 190 151 131 0
26.400000 9.900000 25.520000 194 152 135 0
26.620000 9.900000 24.200000 195 153 136 0
26.840000 9.900000 24.200000 194 155 137 0
27.060000 9.900000 25.740000 196 157 139 0
27.280000 9.900000 25.740000 196 156 141 0
27.500000 9.900000 25.740000 196 156 141 0
27.720000 9.900000 25.740000 202 160 143 0
27.940000 9.900000 25.740000 202 160 143 0
28.160000 9.900000 25.740000 204 160 142 0
28.380000 9.900000 25.740000 205 161 143 0
28.600000 9.900000 25.960000 205 163 146 0
28.820000 9.900000 25.960000 209 167 150 0
29.040000 9.900000 25.960000 210 171 153 0
29.260000 9.900000 25.960000 212 173 155 0
29.480000 9.900000 25.960000 218 174 160 0
29.700000 9.900000 26.180000 223 179 165 0
29.920000 9.900000 26.180000 223 180 166 0
30.140000 9.900000 26.180000 224 181 167 0
30.360000 9.900000 27.280000 220 180 167 0
30.580000 9.900000 29.480000 219 179 166 0
30.800000 9.900000 30.800000 219 181 165 0
31.020000 9.900000 31.020000 220 182 166 0
31.240000 9.900000 31.240000 222 182 167 0
31.460000 9.900000 31.460000 224 184 169 0
31.680000 9.900000 31.680000 228 185 171 0
31.900000 9.900000 34.100000 230 187 173 0
32.120000 9.900000 34.980000 229 189 176 0
32.340000 9.900000 36.080000 229 189 176 0
32.560000 9.900000 37.620000 231 188 174 0
32.780000 9.900000 37.840000 229 186 172 0
33.000000 9.900000 37.840000 229 186 172 0
33.220000 9.900000 38.060000 228 185 171 0
33.440000 9.900000 38.060000 229 182 167 0
33.660000 9.900000 38.280000 229 182 167 0
33.880000 9.900000 38.280000 226 182 168 0
34.100000 9.900000 38.280000 226 182 168 0
34.320000 9.900000 38.500000 228 185 171 0
34.540000 9.900000 38.500000 232 189 175 0
34.760000 9.900000 38.500000 232 192 177 0
34.980000 9.900000 38.500000 232 192 177 0
35.200000 9.900000 38.500000 234 190 176 0
35.420000 9.900000 38.500000 235 191 177 0
35.640000 9.900000 38.500000 233 186 171 0
35.860000 9.900000 37.180000 231 184 169 0
36.080000 9.900000 37.180000 226 183 169 0
36.300000 9.900000 35.860000 227 184 170 0
36.520000 9.900000 35.640000 230 187 173 0
36.740000 9.900000 36.520000 232 189 175 0
36.960000 9.900000 37.620000 233 190 176 0
37.180000 9.900000 37.400000 235 192 178 0
0.000000 10.120000 17.160000 139 122 97 0
0.220000 10.120000 17.160000 138 121 96 0
0.440000 10.120000 17.160000 139 121 96 0
0.660000 10.120000 15.840000 139 121 96 0
0.880000 10.120000 15.840000 138 120 93 0
1.100000 10.120000 15.840000 137 119 92 0
1.320000 10.120000 17.160000 138 117 91 0
1.540000 10.120000 17.160000 139 118 92 0
1.760000 10.120000 17.160000 138 117 91 0
1.980000 10.120000 16.940000 137 116 90 0
2.200000 10.120000 16.940000 138 117 91 0
2.420000 10.120000 17.160000 138 117 91 0
2.640000 10.120000 17.160000 138 117 91 0
2.860000 10.120000 17.160000 138 117 91 0
3.080000 10.120000 18.700000 137 116 90 0
3.300000 10.120000 18.480000 137 116 90 0
3.520000 10.120000 18.480000 137 116 90 0
3.740000 10.120000 17.160000 137 116 90 0
3.960000 10.120000 17.160000 138 117 91 0
4.180000 10.120000 17.160000 139 118 92 0
4.400000 10.120000 17.160000 140 120 91 0
4.620000 10.120000 18.480000 140 120 91 0
4.840000 10.120000 17.160000 142 120 94 0
5.060000 10.120000 17.160000 141 119 93 0
5.280000 10.120000 18.480000 141 119 93 0
5.500000 10.120000 18.480000 141 119 93 0
5.720000 10.120000 18.480000 142 120 94 0
5.940000 10.120000 18.480000 142 120 94 0
6.160000 10.120000 18.480000 142 120 92 0
6.380000 10.120000 18.480000 143 121 93 0
6.600000 10.120000 18.480000 143 121 95 0
6.820000 10.120000 18.480000 143 121 95 0
7.040000 10.120000 17.160000 146 121 94 0
7.260000 10.120000 17.160000 146 121 94 0
7.480000 10.120000 17.160000 146 121 96 0
7.700000 10.120000 17.160000 147 122 97 0
7.920000 10.120000 17.160000 148 123 96 0
8.140000 10.120000 17.160000 148 123 96 0
8.360000 10.120000 17.160000 147 122 97 0
8.580000 10.120000 17.160000 148 123 98 0
8.800000 10.120000 15.620000 152 124 98 0
9.020000 10.120000 15.620000 155 127 101 0
9.240000 10.120000 15.620000 169 131 103 0
9.460000 10.120000 15.840000 184 146 118 0
9.680000 10.120000 15.840000 197 156 131 0
9.900000 10.120000 15.840000 199 158 133 0
10.120000 10.120000 15.840000 198 160 132 0
10.340000 10.120000 15.840000 194 156 128 0
10.560000 10.120000 15.840000 188 150 122 0
10.780000 10.120000 15.840000 187 149 121 0
11.000000 10.120000 15.840000 185 147 119 0
11.220000 10.120000 16.060000 186 148 120 0
11.440000 10.120000 16.060000 189 151 125 0
11.660000 10.120000 16.060000 189 151 125 0
11.880000 10.120000 16.060000 189 151 123 0
12.100000 10.120000 16.060000 188 150 122 0
12.320000 10.120000 16.060000 187 149 121 0
12.540000 10.120000 16.060000 187 149 121 0
12.760000 10.120000 16.060000 187 149 121 0
12.980000 10.120000 17.600000 192 154 126 0
13.200000 10.120000 17.600000 195 154 129 0
13.420000 10.120000 17.600000 197 156 131 0
13.640000 10.120000 17.600000 196 158 130 0
13.860000 10.120000 17.600000 198 160 132 0
14.080000 10.120000 17.600000 199 161 135 0
14.300000 10.120000 17.820000 201 163 137 0
14.520000 10.120000 17.820000 204 166 140 0
