ply
format ascii 1.0
element vertex 1150
property float x
property float y
property float z
property uchar red
property uchar green
property uchar blue
property uchar alpha
end_header
36.960000 8.360000 10.120000 135 114 90 0
37.180000 8.360000 10.120000 136 113 90 0
0.000000 8.580000 5.280000 200 215 205 0
0.220000 8.580000 5.280000 200 215 205 0
0.440000 8.580000 5.390000 200 215 205 0
0.660000 8.580000 5.390000 200 215 205 0
0.880000 8.580000 5.390000 201 216 206 0
1.100000 8.580000 5.500000 200 215 205 0
1.320000 8.580000 5.500000 200 215 205 0
1.540000 8.580000 6.050000 198 213 203 0
1.760000 8.580000 6.380000 198 213 203 0
1.980000 8.580000 6.930000 197 212 202 0
2.200000 8.580000 7.040000 197 212 202 0
2.420000 8.580000 7.040000 197 212 202 0
2.640000 8.580000 7.040000 197 212 202 0
2.860000 8.580000 7.040000 198 213 203 0
3.080000 8.580000 7.150000 197 212 202 0
3.300000 8.580000 7.150000 197 212 202 0
3.520000 8.580000 7.150000 196 211 201 0
3.740000 8.580000 7.150000 195 210 200 0
3.960000 8.580000 7.150000 193 208 198 0
4.180000 8.580000 7.260000 183 203 189 0
4.400000 8.580000 7.260000 169 189 175 0
4.620000 8.580000 6.490000 159 170 148 0
4.840000 8.580000 6.490000 152 163 141 0
5.060000 8.580000 6.490000 145 157 132 0
5.280000 8.580000 6.490000 141 153 128 0
5.500000 8.580000 6.490000 140 149 125 0
5.720000 8.580000 6.490000 139 148 124 0
5.940000 8.580000 6.490000 134 146 121 0
6.160000 8.580000 6.490000 134 146 121 0
6.380000 8.580000 5.830000 135 144 120 0
6.600000 8.580000 5.830000 135 144 120 0
6.820000 8.580000 5.830000 132 144 119 0
7.040000 8.580000 5.830000 132 144 119 0
7.260000 8.580000 5.830000 133 142 118 0
7.480000 8.580000 5.830000 133 142 118 0
7.700000 8.580000 5.830000 131 143 118 0
7.920000 8.580000 5.720000 130 142 117 0
8.140000 8.580000 5.830000 131 143 118 0
8.360000 8.580000 5.830000 131 143 118 0
8.580000 8.580000 5.830000 131 143 118 0
8.800000 8.580000 5.830000 131 143 118 0
9.020000 8.580000 5.830000 131 143 118 0
9.240000 8.580000 5.830000 130 142 117 0
9.460000 8.580000 5.830000 130 142 117 0
9.680000 8.580000 5.830000 129 141 116 0
9.900000 8.580000 5.830000 129 141 116 0
10.120000 8.580000 5.830000 129 141 116 0
10.340000 8.580000 5.830000 130 142 117 0
10.560000 8.580000 5.830000 128 140 115 0
10.780000 8.580000 5.830000 129 141 116 0
11.000000 8.580000 5.830000 128 140 115 0
11.220000 8.580000 5.830000 127 139 114 0
11.440000 8.580000 5.830000 127 139 114 0
11.660000 8.580000 5.830000 127 139 114 0
11.880000 8.580000 5.830000 127 139 114 0
12.100000 8.580000 5.830000 127 139 114 0
12.320000 8.580000 5.830000 126 138 113 0
12.540000 8.580000 5.830000 126 138 113 0
12.760000 8.580000 5.830000 125 137 112 0
12.980000 8.580000 5.830000 125 137 112 0
13.200000 8.580000 5.830000 124 136 111 0
13.420000 8.580000 5.830000 126 135 111 0
13.640000 8.580000 5.830000 125 134 110 0
13.860000 8.580000 5.830000 122 134 109 0
14.080000 8.580000 5.830000 120 132 107 0
14.300000 8.580000 5.830000 123 132 108 0
14.520000 8.580000 5.830000 126 135 111 0
14.740000 8.580000 5.060000 140 155 131 0
14.960000 8.580000 5.060000 157 172 148 0
15.180000 8.580000 4.400000 160 173 151 0
15.400000 8.580000 3.740000 160 173 151 0
15.620000 8.580000 3.740000 160 173 151 0
15.840000 8.580000 2.970000 158 171 149 0
16.060000 8.580000 2.970000 157 170 148 0
16.280000 8.580000 2.310000 156 169 147 0
16.500000 8.580000 2.310000 156 169 147 0
16.720000 8.580000 2.310000 156 169 147 0
16.940000 8.580000 1.650000 155 168 146 0
17.160000 8.580000 1.650000 155 168 146 0
17.380000 8.580000 1.650000 155 168 146 0
17.600000 8.580000 1.650000 154 167 145 0
17.820000 8.580000 0.990000 153 166 144 0
18.040000 8.580000 0.990000 153 166 144 0
18.260000 8.580000 0.990000 153 166 144 0
18.480000 8.580000 0.990000 153 166 144 0
18.700000 8.580000 0.990000 152 165 143 0
18.920000 8.580000 1.100000 152 165 143 0
19.140000 8.580000 1.100000 152 165 143 0
19.360000 8.580000 1.100000 153 166 144 0
19.580000 8.580000 0.990000 151 164 142 0
19.800000 8.580000 0.330000 152 165 143 0
20.020000 8.580000 0.330000 152 165 143 0
20.240000 8.580000 0.330000 151 164 142 0
20.460000 8.580000 0.220000 151 162 141 0
20.680000 8.580000 0.220000 151 162 141 0
20.900000 8.580000 0.330000 150 163 141 0
21.120000 8.580000 0.330000 151 164 142 0
21.340000 8.580000 0.330000 151 164 142 0
21.560000 8.580000 0.330000 149 162 140 0
22.000000 8.580000 1.100000 149 162 140 0
22.220000 8.580000 2.420000 151 162 141 0
22.440000 8.580000 1.100000 150 161 140 0
22.660000 8.580000 0.330000 150 161 140 0
22.880000 8.580000 0.330000 150 161 140 0
23.100000 8.580000 0.330000 150 161 140 0
23.320000 8.580000 0.330000 148 159 138 0
23.760000 8.580000 1.100000 147 158 137 0
23.980000 8.580000 3.850000 146 157 136 0
24.200000 8.580000 3.740000 147 158 137 0
24.420000 8.580000 0.990000 148 159 138 0
25.080000 8.580000 0.330000 148 159 138 0
25.300000 8.580000 3.080000 146 157 136 0
25.520000 8.580000 3.740000 146 157 136 0
25.740000 8.580000 0.990000 145 156 135 0
27.280000 8.580000 0.220000 146 154 134 0
27.500000 8.580000 0.990000 143 154 133 0
27.720000 8.580000 0.990000 141 152 131 0
27.940000 8.580000 1.650000 141 152 131 0
28.160000 8.580000 0.330000 141 152 131 0
28.600000 8.580000 0.330000 144 152 132 0
28.820000 8.580000 2.420000 143 151 131 0
29.040000 8.580000 5.170000 143 151 131 0
29.260000 8.580000 4.620000 143 151 131 0
29.480000 8.580000 1.100000 142 150 130 0
29.700000 8.580000 1.760000 139 150 129 0
29.920000 8.580000 5.280000 139 150 129 0
30.140000 8.580000 7.260000 140 147 127 0
30.360000 8.580000 7.370000 138 145 125 0
30.580000 8.580000 6.710000 143 136 113 0
30.800000 8.580000 6.710000 138 131 108 0
31.020000 8.580000 7.370000 140 122 95 0
31.240000 8.580000 7.370000 139 121 94 0
31.460000 8.580000 7.260000 139 118 94 0
31.680000 8.580000 6.600000 139 118 94 0
31.900000 8.580000 5.940000 137 116 90 0
32.120000 8.580000 6.600000 137 116 90 0
32.340000 8.580000 8.030000 136 115 89 0
32.560000 8.580000 8.690000 135 114 88 0
32.780000 8.580000 9.460000 134 113 87 0
33.000000 8.580000 10.010000 135 114 88 0
33.220000 8.580000 9.240000 135 114 90 0
33.440000 8.580000 8.690000 136 115 91 0
33.660000 8.580000 8.030000 136 115 91 0
33.880000 8.580000 8.690000 136 115 91 0
34.100000 8.580000 8.690000 137 116 90 0
34.320000 8.580000 8.030000 137 116 90 0
34.540000 8.580000 8.030000 137 116 90 0
34.760000 8.580000 8.690000 136 115 89 0
34.980000 8.580000 9.350000 137 116 92 0
35.200000 8.580000 9.350000 137 116 92 0
35.420000 8.580000 10.010000 136 115 91 0
35.640000 8.580000 10.010000 136 115 91 0
35.860000 8.580000 9.900000 137 116 90 0
36.080000 8.580000 9.900000 137 116 90 0
36.300000 8.580000 10.010000 135 114 90 0
36.520000 8.580000 10.120000 134 113 89 0
36.740000 8.580000 10.780000 135 114 90 0
36.960000 8.580000 10.780000 135 114 90 0
37.180000 8.580000 10.120000 136 115 91 0
0.000000 8.800000 5.280000 201 216 206 0
0.220000 8.800000 5.280000 203 218 208 0
0.440000 8.800000 5.390000 203 218 208 0
0.660000 8.800000 5.390000 202 217 207 0
0.880000 8.800000 5.390000 202 217 207 0
1.100000 8.800000 5.500000 201 216 206 0
1.320000 8.800000 5.500000 200 215 205 0
1.540000 8.800000 6.050000 201 216 206 0
1.760000 8.800000 6.380000 201 216 206 0
1.980000 8.800000 6.930000 199 214 204 0
2.200000 8.800000 7.040000 198 213 203 0
2.420000 8.800000 7.040000 199 214 204 0
2.640000 8.800000 7.040000 198 213 203 0
2.860000 8.800000 7.040000 198 213 203 0
3.080000 8.800000 7.150000 198 213 203 0
3.300000 8.800000 7.150000 198 213 203 0
3.520000 8.800000 7.150000 197 212 202 0
3.740000 8.800000 7.150000 196 211 201 0
3.960000 8.800000 7.150000 194 209 199 0
4.180000 8.800000 7.260000 183 203 189 0
4.400000 8.800000 7.260000 170 190 176 0
4.620000 8.800000 7.260000 159 170 148 0
4.840000 8.800000 6.490000 151 162 140 0
5.060000 8.800000 6.490000 143 155 130 0
5.280000 8.800000 6.490000 141 153 128 0
5.500000 8.800000 6.490000 139 148 124 0
5.720000 8.800000 6.490000 138 147 123 0
5.940000 8.800000 6.490000 135 147 122 0
6.160000 8.800000 5.830000 134 146 121 0
6.380000 8.800000 5.830000 135 144 120 0
6.600000 8.800000 5.830000 134 143 119 0
6.820000 8.800000 5.830000 133 145 120 0
7.040000 8.800000 5.830000 132 144 119 0
7.260000 8.800000 5.830000 133 142 118 0
7.480000 8.800000 5.830000 132 141 117 0
7.700000 8.800000 5.830000 130 142 117 0
7.920000 8.800000 5.720000 130 142 117 0
8.140000 8.800000 5.720000 130 142 117 0
8.360000 8.800000 5.830000 130 142 117 0
8.580000 8.800000 5.830000 129 141 116 0
8.800000 8.800000 5.830000 130 142 117 0
9.020000 8.800000 5.830000 130 142 117 0
9.240000 8.800000 5.830000 130 142 117 0
9.460000 8.800000 5.830000 129 141 116 0
9.680000 8.800000 5.830000 128 140 115 0
9.900000 8.800000 5.830000 129 141 116 0
10.120000 8.800000 5.830000 129 141 116 0
10.340000 8.800000 5.830000 128 140 115 0
10.560000 8.800000 5.830000 129 141 116 0
10.780000 8.800000 5.830000 128 140 115 0
11.000000 8.800000 5.830000 128 140 115 0
11.220000 8.800000 5.830000 127 139 114 0
11.440000 8.800000 5.830000 128 140 115 0
11.660000 8.800000 5.830000 128 140 115 0
11.880000 8.800000 5.830000 128 140 115 0
12.100000 8.800000 5.830000 127 139 114 0
12.320000 8.800000 5.830000 126 138 113 0
12.540000 8.800000 5.830000 126 138 113 0
12.760000 8.800000 5.830000 126 138 113 0
12.980000 8.800000 5.830000 126 138 113 0
13.200000 8.800000 5.830000 124 136 111 0
13.420000 8.800000 5.830000 125 134 110 0
13.640000 8.800000 5.830000 125 134 110 0
13.860000 8.800000 5.830000 122 134 109 0
14.080000 8.800000 5.830000 121 133 108 0
14.300000 8.800000 5.830000 123 132 108 0
14.520000 8.800000 5.830000 125 134 110 0
14.740000 8.800000 5.060000 138 153 129 0
14.960000 8.800000 5.060000 153 168 144 0
15.180000 8.800000 4.400000 159 172 150 0
15.400000 8.800000 4.400000 159 172 150 0
15.620000 8.800000 3.740000 159 172 150 0
15.840000 8.800000 3.740000 158 171 149 0
16.060000 8.800000 3.080000 158 171 149 0
16.280000 8.800000 2.310000 156 169 147 0
16.500000 8.800000 2.310000 155 168 146 0
16.720000 8.800000 2.310000 155 168 146 0
16.940000 8.800000 1.650000 155 168 146 0
17.160000 8.800000 1.760000 154 167 145 0
17.380000 8.800000 1.760000 154 167 145 0
17.600000 8.800000 1.760000 154 167 145 0
17.820000 8.800000 0.990000 153 166 144 0
18.040000 8.800000 0.990000 152 165 143 0
18.260000 8.800000 0.990000 153 166 144 0
18.480000 8.800000 1.100000 152 165 143 0
18.700000 8.800000 1.100000 153 166 144 0
18.920000 8.800000 1.100000 152 165 143 0
19.140000 8.800000 1.100000 152 165 143 0
19.360000 8.800000 0.990000 152 165 143 0
19.580000 8.800000 0.990000 152 165 143 0
19.800000 8.800000 0.990000 152 165 143 0
20.020000 8.800000 0.330000 151 164 142 0
20.240000 8.800000 0.330000 151 164 142 0
20.460000 8.800000 0.330000 152 163 142 0
20.680000 8.800000 0.220000 151 162 141 0
20.900000 8.800000 0.330000 151 164 142 0
21.120000 8.800000 0.330000 151 164 142 0
21.340000 8.800000 0.440000 150 163 141 0
21.560000 8.800000 0.330000 150 163 141 0
21.780000 8.800000 0.330000 150 163 141 0
22.000000 8.800000 2.420000 150 163 141 0
22.220000 8.800000 5.170000 150 161 140 0
22.440000 8.800000 2.420000 150 161 140 0
22.880000 8.800000 0.330000 150 161 140 0
23.100000 8.800000 0.330000 150 161 140 0
23.320000 8.800000 0.330000 148 159 138 0
25.080000 8.800000 1.760000 147 158 137 0
25.300000 8.800000 7.260000 147 158 137 0
25.520000 8.800000 7.150000 145 156 135 0
25.740000 8.800000 2.310000 144 155 134 0
27.280000 8.800000 0.770000 145 153 133 0
27.500000 8.800000 0.770000 142 153 132 0
28.600000 8.800000 0.330000 144 152 132 0
28.820000 8.800000 2.310000 143 151 131 0
29.040000 8.800000 4.400000 144 152 132 0
29.260000 8.800000 3.190000 144 152 132 0
29.480000 8.800000 1.100000 142 150 130 0
29.700000 8.800000 1.100000 140 151 130 0
29.920000 8.800000 3.850000 138 149 128 0
30.140000 8.800000 5.940000 139 146 126 0
30.360000 8.800000 6.600000 138 145 125 0
30.580000 8.800000 7.370000 143 136 113 0
30.800000 8.800000 7.370000 137 130 107 0
31.020000 8.800000 7.370000 141 123 96 0
31.240000 8.800000 7.260000 138 120 93 0
31.460000 8.800000 7.260000 139 118 94 0
31.680000 8.800000 7.260000 139 118 94 0
31.900000 8.800000 7.260000 138 117 91 0
32.120000 8.800000 7.370000 136 115 89 0
32.340000 8.800000 8.030000 136 115 89 0
32.560000 8.800000 8.030000 134 113 87 0
32.780000 8.800000 8.800000 134 113 87 0
33.000000 8.800000 9.350000 134 113 87 0
33.220000 8.800000 8.690000 135 114 90 0
33.440000 8.800000 8.030000 137 116 92 0
33.660000 8.800000 8.030000 137 116 92 0
33.880000 8.800000 8.030000 137 116 92 0
34.100000 8.800000 8.690000 136 115 89 0
34.320000 8.800000 8.690000 135 114 88 0
34.540000 8.800000 8.030000 136 115 89 0
34.760000 8.800000 8.690000 137 116 90 0
34.980000 8.800000 9.350000 136 115 91 0
35.200000 8.800000 9.350000 136 115 91 0
35.420000 8.800000 9.350000 136 115 91 0
35.640000 8.800000 10.120000 137 116 92 0
35.860000 8.800000 10.010000 136 115 89 0
36.080000 8.800000 10.010000 136 115 89 0
36.300000 8.800000 10.120000 136 115 91 0
36.520000 8.800000 9.460000 135 114 90 0
36.740000 8.800000 10.120000 135 114 90 0
36.960000 8.800000 10.120000 135 114 90 0
37.180000 8.800000 10.120000 135 114 90 0
0.000000 9.020000 5.280000 202 217 207 0
0.220000 9.020000 5.280000 203 218 208 0
0.440000 9.020000 5.390000 204 219 209 0
0.660000 9.020000 5.390000 203 218 206 0
0.880000 9.020000 5.390000 203 218 206 0
1.100000 9.020000 5.500000 202 217 207 0
1.320000 9.020000 5.500000 202 217 207 0
1.540000 9.020000 6.050000 201 216 206 0
1.760000 9.020000 6.380000 200 215 205 0
1.980000 9.020000 6.930000 201 216 204 0
2.200000 9.020000 7.040000 200 215 203 0
2.420000 9.020000 7.040000 201 216 204 0
2.640000 9.020000 7.040000 199 214 202 0
2.860000 9.020000 7.040000 198 213 203 0
3.080000 9.020000 7.150000 199 214 204 0
3.300000 9.020000 7.150000 199 214 204 0
3.520000 9.020000 7.150000 198 213 203 0
3.740000 9.020000 7.150000 197 212 202 0
3.960000 9.020000 7.150000 194 209 199 0
4.180000 9.020000 7.260000 187 204 191 0
4.400000 9.020000 7.260000 170 187 174 0
4.620000 9.020000 7.260000 163 174 153 0
4.840000 9.020000 6.490000 153 164 143 0
5.060000 9.020000 6.490000 146 158 133 0
5.280000 9.020000 6.490000 143 155 130 0
5.500000 9.020000 6.490000 139 151 126 0
5.720000 9.020000 6.490000 136 148 123 0
5.940000 9.020000 6.490000 136 145 121 0
6.160000 9.020000 5.830000 135 144 120 0
6.380000 9.020000 5.830000 135 144 120 0
6.600000 9.020000 5.830000 134 143 119 0
6.820000 9.020000 5.830000 132 144 119 0
7.040000 9.020000 5.830000 131 143 118 0
7.260000 9.020000 5.830000 131 143 118 0
7.480000 9.020000 5.830000 131 143 118 0
7.700000 9.020000 5.720000 131 140 116 0
7.920000 9.020000 5.720000 131 140 116 0
8.140000 9.020000 5.720000 130 142 117 0
8.360000 9.020000 5.830000 130 142 117 0
8.580000 9.020000 5.830000 129 141 116 0
8.800000 9.020000 5.830000 129 141 116 0
9.020000 9.020000 5.830000 131 140 116 0
9.240000 9.020000 5.830000 132 141 117 0
9.460000 9.020000 5.830000 132 141 117 0
9.680000 9.020000 5.830000 131 140 116 0
9.900000 9.020000 5.830000 129 141 116 0
10.120000 9.020000 5.830000 128 140 115 0
10.340000 9.020000 5.830000 128 140 115 0
10.560000 9.020000 5.830000 129 141 116 0
10.780000 9.020000 5.830000 128 140 115 0
11.000000 9.020000 5.830000 127 139 114 0
11.220000 9.020000 5.830000 129 138 114 0
11.440000 9.020000 5.830000 129 138 114 0
11.660000 9.020000 5.830000 127 139 114 0
11.880000 9.020000 5.830000 127 139 114 0
12.100000 9.020000 5.830000 127 139 114 0
12.320000 9.020000 5.830000 126 138 113 0
12.540000 9.020000 5.830000 126 138 113 0
12.760000 9.020000 5.830000 126 138 113 0
12.980000 9.020000 5.830000 127 136 112 0
13.200000 9.020000 5.830000 126 135 111 0
13.420000 9.020000 5.830000 124 136 111 0
13.640000 9.020000 5.830000 123 135 110 0
13.860000 9.020000 5.830000 122 134 109 0
14.080000 9.020000 5.830000 121 133 108 0
14.300000 9.020000 5.830000 120 132 107 0
14.520000 9.020000 5.830000 122 134 109 0
14.740000 9.020000 5.170000 133 147 125 0
14.960000 9.020000 5.060000 151 165 143 0
15.180000 9.020000 4.400000 159 172 149 0
15.400000 9.020000 4.400000 158 171 148 0
15.620000 9.020000 3.740000 159 172 150 0
15.840000 9.020000 3.080000 158 171 149 0
16.060000 9.020000 3.080000 156 169 147 0
16.280000 9.020000 2.420000 157 170 148 0
16.500000 9.020000 2.310000 154 168 146 0
16.720000 9.020000 1.650000 153 167 145 0
16.940000 9.020000 1.760000 154 167 145 0
17.160000 9.020000 1.760000 154 167 145 0
17.380000 9.020000 1.760000 154 167 145 0
17.600000 9.020000 0.990000 154 167 145 0
17.820000 9.020000 1.100000 153 166 144 0
18.040000 9.020000 1.100000 152 165 143 0
18.260000 9.020000 1.100000 152 165 143 0
18.480000 9.020000 1.100000 151 164 142 0
18.700000 9.020000 1.100000 152 165 143 0
18.920000 9.020000 1.100000 152 165 143 0
19.140000 9.020000 1.100000 152 165 143 0
19.360000 9.020000 0.990000 152 165 143 0
19.580000 9.020000 0.990000 151 164 142 0
19.800000 9.020000 0.990000 152 165 143 0
20.020000 9.020000 0.330000 151 164 142 0
20.240000 9.020000 0.330000 151 164 142 0
20.460000 9.020000 0.330000 151 164 142 0
20.680000 9.020000 0.330000 151 164 142 0
20.900000 9.020000 0.330000 150 163 141 0
21.120000 9.020000 0.330000 150 163 141 0
21.340000 9.020000 0.330000 150 163 141 0
21.560000 9.020000 1.100000 150 163 141 0
21.780000 9.020000 1.100000 150 161 140 0
22.000000 9.020000 1.760000 150 161 140 0
22.220000 9.020000 2.420000 149 160 139 0
22.440000 9.020000 1.100000 149 160 139 0
23.320000 9.020000 0.330000 149 160 139 0
23.760000 9.020000 0.440000 149 160 139 0
23.980000 9.020000 1.760000 148 159 138 0
24.200000 9.020000 2.420000 148 159 138 0
24.420000 9.020000 0.990000 147 158 137 0
25.080000 9.020000 0.990000 148 159 138 0
25.300000 9.020000 3.850000 147 158 137 0
25.520000 9.020000 3.740000 146 157 136 0
25.740000 9.020000 0.990000 148 156 136 0
25.960000 9.020000 0.330000 148 156 136 0
26.180000 9.020000 0.440000 145 156 135 0
27.280000 9.020000 0.770000 145 153 133 0
27.500000 9.020000 1.430000 145 153 133 0
27.720000 9.020000 0.220000 143 151 131 0
28.160000 9.020000 0.330000 145 153 133 0
28.380000 9.020000 1.100000 144 152 132 0
28.600000 9.020000 1.100000 143 151 131 0
28.820000 9.020000 2.420000 142 150 130 0
29.040000 9.020000 5.170000 143 151 131 0
29.260000 9.020000 3.850000 143 151 131 0
29.480000 9.020000 1.760000 142 150 130 0
29.700000 9.020000 1.100000 141 149 129 0
29.920000 9.020000 1.760000 141 149 129 0
30.140000 9.020000 3.190000 142 146 127 0
30.360000 9.020000 5.940000 139 143 124 0
30.580000 9.020000 7.370000 143 136 112 0
30.800000 9.020000 7.370000 137 130 106 0
31.020000 9.020000 8.030000 141 123 96 0
31.240000 9.020000 8.030000 139 121 94 0
31.460000 9.020000 8.030000 140 119 93 0
31.680000 9.020000 8.030000 139 118 92 0
31.900000 9.020000 8.030000 138 117 93 0
32.120000 9.020000 8.030000 137 116 92 0
32.340000 9.020000 8.030000 136 115 91 0
32.560000 9.020000 8.030000 135 114 90 0
32.780000 9.020000 8.030000 135 114 88 0
33.000000 9.020000 8.030000 134 113 87 0
33.220000 9.020000 8.690000 135 114 88 0
33.440000 9.020000 8.690000 136 115 89 0
33.660000 9.020000 8.030000 137 116 90 0
33.880000 9.020000 8.030000 136 115 89 0
34.100000 9.020000 8.690000 136 115 91 0
34.320000 9.020000 8.030000 137 116 92 0
34.540000 9.020000 8.030000 137 116 90 0
34.760000 9.020000 8.690000 136 115 89 0
34.980000 9.020000 9.350000 136 115 89 0
35.200000 9.020000 9.350000 136 115 89 0
35.420000 9.020000 9.350000 136 115 89 0
35.640000 9.020000 10.120000 136 115 89 0
35.860000 9.020000 10.120000 136 115 91 0
36.080000 9.020000 10.120000 136 115 91 0
36.300000 9.020000 9.460000 136 115 91 0
36.520000 9.020000 9.460000 136 115 91 0
36.740000 9.020000 9.460000 136 115 89 0
36.960000 9.020000 9.460000 136 115 89 0
37.180000 9.020000 9.460000 136 113 90 0
0.000000 9.240000 5.280000 203 218 208 0
0.220000 9.240000 5.280000 203 218 208 0
0.440000 9.240000 5.390000 204 219 209 0
0.660000 9.240000 5.390000 204 219 207 0
0.880000 9.240000 5.390000 204 219 207 0
1.100000 9.240000 5.500000 202 217 207 0
1.320000 9.240000 5.500000 202 217 207 0
1.540000 9.240000 6.050000 200 215 205 0
1.760000 9.240000 6.380000 200 215 205 0
1.980000 9.240000 6.930000 201 216 204 0
2.200000 9.240000 7.040000 201 216 204 0
2.420000 9.240000 7.040000 201 216 204 0
2.640000 9.240000 7.040000 201 216 204 0
2.860000 9.240000 7.040000 199 214 204 0
3.080000 9.240000 7.150000 198 213 203 0
3.300000 9.240000 7.150000 199 214 204 0
3.520000 9.240000 7.150000 199 214 204 0
3.740000 9.240000 7.150000 197 212 202 0
3.960000 9.240000 7.150000 194 209 199 0
4.180000 9.240000 7.260000 189 206 193 0
4.400000 9.240000 7.260000 174 191 178 0
4.620000 9.240000 7.260000 163 174 153 0
4.840000 9.240000 6.490000 153 164 143 0
5.060000 9.240000 6.490000 147 159 134 0
5.280000 9.240000 6.490000 142 154 129 0
5.500000 9.240000 6.490000 138 150 125 0
5.720000 9.240000 6.490000 136 148 123 0
5.940000 9.240000 6.490000 138 147 123 0
6.160000 9.240000 6.490000 136 145 121 0
6.380000 9.240000 5.830000 135 144 120 0
6.600000 9.240000 5.830000 135 144 120 0
6.820000 9.240000 5.830000 131 143 118 0
7.040000 9.240000 5.830000 132 144 119 0
7.260000 9.240000 5.830000 130 142 117 0
7.480000 9.240000 5.830000 130 142 117 0
7.700000 9.240000 5.720000 132 141 117 0
7.920000 9.240000 5.720000 132 141 117 0
8.140000 9.240000 5.830000 130 142 117 0
8.360000 9.240000 5.830000 130 142 117 0
8.580000 9.240000 5.830000 129 141 116 0
8.800000 9.240000 5.830000 129 141 116 0
9.020000 9.240000 5.830000 131 140 116 0
9.240000 9.240000 5.830000 132 141 117 0
9.460000 9.240000 5.830000 132 141 117 0
9.680000 9.240000 5.830000 132 141 117 0
9.900000 9.240000 5.830000 128 140 115 0
10.120000 9.240000 5.830000 128 140 115 0
10.340000 9.240000 5.830000 129 141 116 0
10.560000 9.240000 5.830000 129 141 116 0
10.780000 9.240000 5.830000 128 140 115 0
11.000000 9.240000 5.830000 128 140 115 0
11.220000 9.240000 5.830000 130 139 115 0
11.440000 9.240000 5.830000 130 139 115 0
11.660000 9.240000 5.830000 128 140 115 0
11.880000 9.240000 5.830000 127 139 114 0
12.100000 9.240000 5.830000 127 139 114 0
12.320000 9.240000 5.830000 126 138 113 0
12.540000 9.240000 5.830000 126 138 113 0
12.760000 9.240000 5.830000 126 138 113 0
12.980000 9.240000 5.830000 128 137 113 0
13.200000 9.240000 5.830000 128 137 113 0
13.420000 9.240000 5.830000 124 136 111 0
13.640000 9.240000 5.830000 123 135 110 0
13.860000 9.240000 5.830000 121 133 108 0
14.080000 9.240000 5.830000 120 132 107 0
14.300000 9.240000 5.830000 118 130 105 0
14.520000 9.240000 5.830000 118 130 105 0
14.740000 9.240000 5.830000 132 146 124 0
14.960000 9.240000 5.060000 151 165 143 0
15.180000 9.240000 4.400000 158 171 148 0
15.400000 9.240000 4.400000 158 171 148 0
15.620000 9.240000 3.740000 158 171 149 0
15.840000 9.240000 3.080000 157 170 148 0
16.060000 9.240000 3.080000 156 169 147 0
16.280000 9.240000 2.420000 156 169 147 0
16.500000 9.240000 2.310000 154 168 146 0
16.720000 9.240000 1.650000 153 167 145 0
16.940000 9.240000 1.760000 154 167 145 0
17.160000 9.240000 1.650000 154 167 145 0
17.380000 9.240000 1.650000 153 166 144 0
17.600000 9.240000 0.990000 153 166 144 0
17.820000 9.240000 1.100000 153 166 144 0
18.040000 9.240000 1.100000 153 166 144 0
18.260000 9.240000 1.100000 152 165 143 0
18.480000 9.240000 1.100000 151 164 142 0
18.700000 9.240000 1.100000 152 165 143 0
18.920000 9.240000 1.100000 152 165 143 0
19.140000 9.240000 1.100000 151 164 142 0
19.360000 9.240000 1.100000 152 165 143 0
19.580000 9.240000 1.100000 152 165 143 0
19.800000 9.240000 1.100000 152 165 143 0
20.020000 9.240000 0.330000 151 164 142 0
20.240000 9.240000 0.330000 151 164 142 0
20.460000 9.240000 0.330000 151 164 142 0
20.680000 9.240000 0.330000 151 164 142 0
20.900000 9.240000 0.330000 149 162 140 0
21.120000 9.240000 1.100000 150 163 141 0
21.340000 9.240000 1.100000 150 163 141 0
21.560000 9.240000 1.100000 150 163 141 0
21.780000 9.240000 1.100000 150 161 140 0
22.000000 9.240000 0.330000 150 161 140 0
22.220000 9.240000 0.330000 149 160 139 0
23.320000 9.240000 0.330000 149 160 139 0
23.540000 9.240000 0.330000 149 160 139 0
23.760000 9.240000 0.440000 149 160 139 0
23.980000 9.240000 3.080000 148 159 138 0
24.200000 9.240000 5.170000 148 159 138 0
24.420000 9.240000 2.420000 148 159 138 0
25.740000 9.240000 1.100000 148 156 136 0
25.960000 9.240000 2.530000 148 156 136 0
26.180000 9.240000 1.760000 146 157 136 0
26.400000 9.240000 0.330000 144 155 134 0
26.620000 9.240000 0.440000 147 155 135 0
26.840000 9.240000 0.440000 146 154 134 0
27.060000 9.240000 0.330000 145 153 133 0
27.280000 9.240000 0.880000 145 153 133 0
27.500000 9.240000 0.880000 144 152 132 0
27.720000 9.240000 0.330000 144 152 132 0
27.940000 9.240000 0.330000 144 152 132 0
28.160000 9.240000 2.420000 144 152 132 0
28.380000 9.240000 3.850000 143 151 131 0
28.600000 9.240000 2.420000 143 151 131 0
28.820000 9.240000 1.760000 143 151 131 0
29.040000 9.240000 1.760000 143 151 131 0
29.260000 9.240000 2.530000 143 151 131 0
29.480000 9.240000 2.530000 142 150 130 0
29.700000 9.240000 1.760000 142 150 130 0
29.920000 9.240000 0.990000 141 149 129 0
30.140000 9.240000 3.190000 142 146 127 0
30.360000 9.240000 5.280000 140 144 125 0
30.580000 9.240000 7.370000 144 137 113 0
30.800000 9.240000 7.370000 137 130 106 0
31.020000 9.240000 8.030000 141 123 96 0
31.240000 9.240000 8.030000 137 119 92 0
31.460000 9.240000 8.690000 138 117 91 0
31.680000 9.240000 8.690000 138 117 91 0
31.900000 9.240000 8.030000 138 117 93 0
32.120000 9.240000 8.030000 137 116 92 0
32.340000 9.240000 8.030000 137 116 92 0
32.560000 9.240000 8.030000 136 115 91 0
32.780000 9.240000 8.030000 135 114 88 0
33.000000 9.240000 8.030000 135 114 88 0
33.220000 9.240000 8.690000 135 114 88 0
33.440000 9.240000 8.690000 136 115 89 0
33.660000 9.240000 8.030000 136 115 89 0
33.880000 9.240000 8.030000 137 116 90 0
34.100000 9.240000 8.030000 136 115 91 0
34.320000 9.240000 8.030000 137 116 92 0
34.540000 9.240000 8.690000 136 115 89 0
34.760000 9.240000 9.350000 136 115 89 0
34.980000 9.240000 9.350000 135 114 88 0
35.200000 9.240000 8.690000 136 115 89 0
35.420000 9.240000 8.690000 136 115 89 0
35.640000 9.240000 10.120000 136 115 89 0
35.860000 9.240000 10.890000 136 115 91 0
36.080000 9.240000 10.890000 136 115 91 0
36.300000 9.240000 10.120000 137 116 92 0
36.520000 9.240000 9.350000 137 116 92 0
36.740000 9.240000 9.460000 136 115 89 0
36.960000 9.240000 9.460000 136 115 89 0
37.180000 9.240000 9.460000 136 113 90 0
0.000000 9.460000 5.280000 203 218 208 0
0.220000 9.460000 5.280000 203 218 208 0
0.440000 9.460000 5.390000 203 218 208 0
0.660000 9.460000 5.390000 204 219 209 0
0.880000 9.460000 5.390000 204 219 209 0
1.100000 9.460000 5.500000 204 219 209 0
1.320000 9.460000 5.500000 201 216 206 0
1.540000 9.460000 6.050000 202 217 205 0
1.760000 9.460000 6.380000 202 217 205 0
1.980000 9.460000 6.930000 201 216 206 0
2.200000 9.460000 7.040000 202 217 207 0
2.420000 9.460000 7.040000 203 218 208 0
2.640000 9.460000 7.040000 201 216 206 0
2.860000 9.460000 7.040000 199 214 204 0
3.080000 9.460000 7.150000 199 214 204 0
3.300000 9.460000 7.150000 198 213 201 0
3.520000 9.460000 7.150000 198 213 201 0
3.740000 9.460000 7.150000 198 213 203 0
3.960000 9.460000 7.150000 194 209 199 0
4.180000 9.460000 7.260000 185 205 189 0
4.400000 9.460000 7.260000 175 195 179 0
4.620000 9.460000 7.260000 164 177 154 0
4.840000 9.460000 6.490000 155 168 145 0
5.060000 9.460000 6.490000 148 160 135 0
5.280000 9.460000 6.490000 142 154 129 0
5.500000 9.460000 6.490000 141 150 126 0
5.720000 9.460000 6.490000 139 148 124 0
5.940000 9.460000 6.490000 137 146 122 0
6.160000 9.460000 6.490000 136 145 121 0
6.380000 9.460000 5.830000 135 144 120 0
6.600000 9.460000 5.830000 135 144 120 0
6.820000 9.460000 5.830000 131 143 118 0
7.040000 9.460000 5.830000 131 143 118 0
7.260000 9.460000 5.830000 131 143 118 0
7.480000 9.460000 5.830000 130 142 117 0
7.700000 9.460000 5.830000 131 143 118 0
7.920000 9.460000 5.830000 131 143 118 0
8.140000 9.460000 5.830000 132 141 117 0
8.360000 9.460000 5.830000 132 141 117 0
8.580000 9.460000 5.830000 130 142 117 0
8.800000 9.460000 5.830000 130 142 117 0
9.020000 9.460000 5.830000 132 141 117 0
9.240000 9.460000 5.830000 132 141 117 0
9.460000 9.460000 5.830000 131 140 116 0
9.680000 9.460000 5.830000 130 139 115 0
9.900000 9.460000 5.830000 128 140 115 0
10.120000 9.460000 5.830000 129 141 116 0
10.340000 9.460000 5.830000 129 141 116 0
10.560000 9.460000 5.830000 129 141 116 0
10.780000 9.460000 5.830000 128 140 115 0
11.000000 9.460000 5.830000 128 140 115 0
11.220000 9.460000 5.830000 130 139 115 0
11.440000 9.460000 5.830000 131 140 116 0
11.660000 9.460000 5.830000 128 140 115 0
11.880000 9.460000 5.830000 128 140 115 0
12.100000 9.460000 5.830000 127 139 114 0
12.320000 9.460000 5.830000 127 139 114 0
12.540000 9.460000 5.830000 126 138 113 0
12.760000 9.460000 5.830000 126 138 113 0
12.980000 9.460000 5.830000 128 137 113 0
13.200000 9.460000 5.830000 127 136 112 0
13.420000 9.460000 5.830000 124 136 111 0
13.640000 9.460000 5.830000 123 135 110 0
13.860000 9.460000 5.830000 120 131 109 0
14.080000 9.460000 5.830000 117 128 106 0
14.300000 9.460000 5.830000 118 130 105 0
14.520000 9.460000 5.830000 120 132 107 0
14.740000 9.460000 5.830000 129 143 121 0
14.960000 9.460000 5.060000 151 165 143 0
15.180000 9.460000 4.400000 159 172 150 0
15.400000 9.460000 4.400000 159 172 150 0
15.620000 9.460000 3.740000 159 172 150 0
15.840000 9.460000 3.080000 158 171 149 0
16.060000 9.460000 3.080000 157 170 148 0
16.280000 9.460000 2.970000 157 170 148 0
16.500000 9.460000 2.310000 156 169 147 0
16.720000 9.460000 2.310000 154 167 145 0
16.940000 9.460000 1.760000 153 166 144 0
17.160000 9.460000 1.760000 154 167 145 0
17.380000 9.460000 0.990000 153 166 144 0
17.600000 9.460000 1.100000 153 166 144 0
17.820000 9.460000 1.100000 153 166 144 0
18.040000 9.460000 1.100000 154 167 145 0
18.260000 9.460000 1.100000 153 166 144 0
18.480000 9.460000 1.100000 154 167 145 0
18.700000 9.460000 1.100000 152 165 143 0
18.920000 9.460000 1.100000 152 165 143 0
19.140000 9.460000 1.100000 152 165 143 0
19.360000 9.460000 1.100000 151 164 142 0
19.580000 9.460000 1.100000 152 165 143 0
19.800000 9.460000 1.100000 152 165 143 0
20.020000 9.460000 0.330000 151 164 142 0
20.240000 9.460000 0.330000 151 164 142 0
20.460000 9.460000 0.330000 151 164 142 0
20.680000 9.460000 0.440000 151 164 142 0
20.900000 9.460000 0.440000 150 163 141 0
21.120000 9.460000 1.100000 149 162 140 0
21.340000 9.460000 1.100000 149 162 140 0
21.560000 9.460000 1.100000 149 162 140 0
21.780000 9.460000 0.440000 149 162 140 0
22.000000 9.460000 0.330000 147 160 138 0
22.220000 9.460000 0.330000 147 160 138 0
23.320000 9.460000 0.440000 150 161 140 0
23.540000 9.460000 0.330000 148 159 138 0
23.760000 9.460000 0.330000 149 160 139 0
23.980000 9.460000 1.100000 148 159 138 0
24.200000 9.460000 1.760000 148 159 138 0
24.420000 9.460000 0.330000 149 160 139 0
25.740000 9.460000 2.530000 146 157 136 0
25.960000 9.460000 4.510000 145 156 135 0
26.180000 9.460000 3.190000 146 157 136 0
26.400000 9.460000 0.990000 145 156 135 0
26.620000 9.460000 1.760000 146 157 136 0
26.840000 9.460000 0.990000 144 155 134 0
27.060000 9.460000 0.220000 144 155 134 0
27.500000 9.460000 0.330000 144 152 132 0
27.720000 9.460000 0.440000 144 152 132 0
27.940000 9.460000 0.440000 144 152 132 0
28.160000 9.460000 3.190000 144 152 132 0
28.380000 9.460000 5.170000 143 151 131 0
28.600000 9.460000 3.740000 143 151 131 0
28.820000 9.460000 0.990000 143 151 131 0
29.040000 9.460000 0.440000 143 151 131 0
29.260000 9.460000 0.440000 143 151 131 0
29.480000 9.460000 1.760000 142 150 130 0
29.700000 9.460000 3.080000 142 150 130 0
29.920000 9.460000 3.080000 141 149 129 0
30.140000 9.460000 4.510000 141 148 128 0
30.360000 9.460000 5.940000 140 147 127 0
30.580000 9.460000 7.370000 145 138 114 0
30.800000 9.460000 7.370000 137 130 106 0
31.020000 9.460000 8.030000 140 122 97 0
31.240000 9.460000 8.690000 139 121 96 0
31.460000 9.460000 8.690000 137 119 92 0
31.680000 9.460000 8.690000 136 118 91 0
31.900000 9.460000 8.690000 138 117 91 0
32.120000 9.460000 8.030000 138 117 91 0
32.340000 9.460000 8.030000 138 117 93 0
32.560000 9.460000 8.690000 137 116 92 0
32.780000 9.460000 8.690000 137 116 92 0
33.000000 9.460000 8.030000 136 115 91 0
33.220000 9.460000 8.690000 137 116 90 0
33.440000 9.460000 8.690000 136 115 89 0
33.660000 9.460000 8.800000 137 116 90 0
33.880000 9.460000 8.030000 136 115 89 0
34.100000 9.460000 8.030000 136 115 91 0
34.320000 9.460000 8.030000 137 116 92 0
34.540000 9.460000 8.690000 136 115 91 0
34.760000 9.460000 9.240000 137 116 92 0
34.980000 9.460000 9.350000 136 115 89 0
35.200000 9.460000 8.690000 136 115 89 0
35.420000 9.460000 8.690000 136 115 89 0
35.640000 9.460000 9.460000 136 115 89 0
35.860000 9.460000 10.120000 135 114 90 0
36.080000 9.460000 10.120000 136 115 91 0
36.300000 9.460000 10.120000 137 116 92 0
36.520000 9.460000 9.460000 136 115 91 0
36.740000 9.460000 9.460000 135 114 90 0
36.960000 9.460000 9.460000 136 115 91 0
37.180000 9.460000 9.460000 136 115 91 0
0.000000 9.680000 5.280000 203 218 208 0
0.220000 9.680000 5.280000 203 218 208 0
0.440000 9.680000 5.390000 203 218 208 0
0.660000 9.680000 5.390000 204 219 209 0
0.880000 9.680000 5.390000 204 219 209 0
1.100000 9.680000 5.500000 204 219 209 0
1.320000 9.680000 5.500000 201 216 206 0
1.540000 9.680000 6.050000 201 216 204 0
1.760000 9.680000 6.380000 202 217 205 0
1.980000 9.680000 6.930000 202 217 207 0
2.200000 9.680000 7.040000 201 216 206 0
2.420000 9.680000 7.040000 204 219 209 0
2.640000 9.680000 7.040000 202 217 207 0
2.860000 9.680000 7.040000 199 214 204 0
3.080000 9.680000 7.150000 199 214 204 0
3.300000 9.680000 7.150000 199 214 202 0
3.520000 9.680000 7.150000 198 213 201 0
3.740000 9.680000 7.150000 199 214 204 0
3.960000 9.680000 7.150000 196 211 201 0
4.180000 9.680000 7.260000 186 206 190 0
4.400000 9.680000 7.260000 175 195 179 0
4.620000 9.680000 7.260000 164 177 154 0
4.840000 9.680000 6.490000 152 165 142 0
5.060000 9.680000 6.490000 149 161 136 0
5.280000 9.680000 6.490000 143 155 130 0
5.500000 9.680000 6.490000 141 150 126 0
5.720000 9.680000 6.490000 139 148 124 0
5.940000 9.680000 6.490000 137 146 122 0
6.160000 9.680000 6.490000 136 145 121 0
6.380000 9.680000 5.830000 136 145 121 0
6.600000 9.680000 5.830000 134 143 119 0
6.820000 9.680000 5.830000 132 144 119 0
7.040000 9.680000 5.830000 132 144 119 0
7.260000 9.680000 5.830000 131 143 118 0
7.480000 9.680000 5.830000 130 142 117 0
7.700000 9.680000 5.830000 130 142 117 0
7.920000 9.680000 5.830000 131 143 118 0
8.140000 9.680000 5.830000 132 141 117 0
8.360000 9.680000 5.830000 132 141 117 0
8.580000 9.680000 5.830000 130 142 117 0
8.800000 9.680000 5.830000 130 142 117 0
9.020000 9.680000 5.830000 132 141 117 0
9.240000 9.680000 5.830000 132 141 117 0
9.460000 9.680000 5.830000 131 140 116 0
9.680000 9.680000 5.830000 131 140 116 0
9.900000 9.680000 5.830000 129 141 116 0
10.120000 9.680000 5.830000 129 141 116 0
10.340000 9.680000 5.830000 129 141 116 0
10.560000 9.680000 5.830000 129 141 116 0
10.780000 9.680000 5.830000 128 140 115 0
11.000000 9.680000 5.830000 128 140 115 0
11.220000 9.680000 5.830000 129 138 114 0
11.440000 9.680000 5.830000 130 139 115 0
11.660000 9.680000 5.830000 128 140 115 0
11.880000 9.680000 5.830000 127 139 114 0
12.100000 9.680000 5.830000 128 140 115 0
12.320000 9.680000 5.830000 127 139 114 0
12.540000 9.680000 5.830000 126 138 113 0
12.760000 9.680000 5.830000 126 138 113 0
12.980000 9.680000 5.830000 128 137 113 0
13.200000 9.680000 5.830000 127 136 112 0
13.420000 9.680000 5.830000 125 137 112 0
13.640000 9.680000 5.830000 123 135 110 0
13.860000 9.680000 5.830000 120 131 109 0
14.080000 9.680000 5.830000 120 131 109 0
14.300000 9.680000 5.830000 121 133 108 0
14.520000 9.680000 5.830000 122 134 109 0
14.740000 9.680000 5.830000 129 143 121 0
14.960000 9.680000 5.170000 150 164 142 0
15.180000 9.680000 4.400000 159 172 150 0
15.400000 9.680000 4.400000 160 173 151 0
15.620000 9.680000 3.740000 159 172 150 0
15.840000 9.680000 3.740000 158 171 149 0
16.060000 9.680000 3.080000 158 171 149 0
16.280000 9.680000 3.080000 157 170 148 0
16.500000 9.680000 2.310000 155 168 146 0
16.720000 9.680000 2.310000 153 166 144 0
16.940000 9.680000 1.650000 153 166 144 0
17.160000 9.680000 1.760000 154 167 145 0
17.380000 9.680000 1.100000 153 166 144 0
17.600000 9.680000 1.100000 153 166 144 0
17.820000 9.680000 1.100000 152 165 143 0
18.040000 9.680000 1.100000 152 165 143 0
18.260000 9.680000 1.100000 153 166 144 0
18.480000 9.680000 1.100000 151 164 142 0
18.700000 9.680000 1.100000 151 164 142 0
18.920000 9.680000 1.100000 151 164 142 0
19.140000 9.680000 1.100000 151 164 142 0
19.360000 9.680000 1.100000 152 165 143 0
19.580000 9.680000 0.440000 152 165 143 0
19.800000 9.680000 0.440000 151 164 142 0
20.020000 9.680000 0.440000 151 164 142 0
20.240000 9.680000 0.440000 151 164 142 0
20.460000 9.680000 0.440000 152 165 143 0
20.680000 9.680000 0.440000 150 163 141 0
20.900000 9.680000 0.440000 149 162 140 0
21.120000 9.680000 0.440000 150 163 141 0
21.340000 9.680000 0.440000 149 162 140 0
21.560000 9.680000 0.440000 151 164 142 0
21.780000 9.680000 0.440000 148 161 139 0
22.000000 9.680000 0.440000 147 160 138 0
22.220000 9.680000 0.440000 148 161 139 0
22.440000 9.680000 0.440000 148 161 139 0
25.740000 9.680000 1.100000 146 157 136 0
25.960000 9.680000 1.760000 146 157 136 0
26.180000 9.680000 1.760000 146 157 136 0
26.400000 9.680000 1.650000 145 156 135 0
26.620000 9.680000 1.650000 145 156 135 0
26.840000 9.680000 0.990000 144 155 134 0
27.060000 9.680000 0.330000 142 153 132 0
27.280000 9.680000 0.990000 142 153 132 0
27.500000 9.680000 3.080000 144 152 132 0
27.720000 9.680000 3.190000 144 152 132 0
27.940000 9.680000 1.100000 144 152 132 0
28.160000 9.680000 1.100000 145 153 133 0
28.380000 9.680000 2.420000 144 152 132 0
28.600000 9.680000 2.310000 144 152 132 0
28.820000 9.680000 1.650000 144 152 132 0
29.040000 9.680000 1.100000 143 151 131 0
29.260000 9.680000 0.440000 143 151 131 0
29.480000 9.680000 1.760000 142 150 130 0
29.700000 9.680000 3.850000 142 150 130 0
29.920000 9.680000 5.940000 142 150 130 0
30.140000 9.680000 6.600000 141 148 128 0
30.360000 9.680000 7.370000 138 145 125 0
30.580000 9.680000 8.030000 144 137 113 0
30.800000 9.680000 8.030000 137 130 106 0
31.020000 9.680000 8.030000 141 123 98 0
31.240000 9.680000 8.030000 138 120 95 0
31.460000 9.680000 8.030000 137 119 92 0
31.680000 9.680000 8.690000 136 118 91 0
31.900000 9.680000 9.350000 138 117 91 0
32.120000 9.680000 8.690000 137 116 90 0
32.340000 9.680000 8.690000 137 116 92 0
32.560000 9.680000 8.690000 138 117 93 0
32.780000 9.680000 8.690000 138 117 93 0
33.000000 9.680000 8.030000 138 117 93 0
33.220000 9.680000 8.690000 136 115 89 0
33.440000 9.680000 9.460000 137 116 90 0
33.660000 9.680000 9.460000 135 114 88 0
33.880000 9.680000 8.800000 135 114 88 0
34.100000 9.680000 8.030000 135 114 90 0
34.320000 9.680000 8.690000 136 115 91 0
34.540000 9.680000 8.690000 136 115 91 0
34.760000 9.680000 8.690000 137 116 92 0
34.980000 9.680000 9.350000 136 115 89 0
35.200000 9.680000 8.690000 136 115 89 0
35.420000 9.680000 8.800000 136 115 89 0
35.640000 9.680000 9.460000 135 114 88 0
35.860000 9.680000 9.460000 136 115 91 0
36.080000 9.680000 10.120000 136 115 91 0
36.300000 9.680000 10.120000 136 115 91 0
36.520000 9.680000 10.120000 136 115 91 0
36.740000 9.680000 9.460000 136 115 91 0
36.960000 9.680000 9.460000 135 114 90 0
37.180000 9.680000 9.460000 136 115 91 0
0.000000 9.900000 5.280000 203 218 208 0
0.220000 9.900000 5.280000 202 217 207 0
0.440000 9.900000 5.390000 203 218 208 0
0.660000 9.900000 5.390000 202 217 207 0
0.880000 9.900000 5.390000 203 218 208 0
1.100000 9.900000 5.500000 203 218 208 0
1.320000 9.900000 5.500000 203 218 208 0
1.540000 9.900000 6.050000 201 216 206 0
1.760000 9.900000 6.380000 201 216 206 0
1.980000 9.900000 6.930000 201 216 206 0
2.200000 9.900000 7.040000 201 216 206 0
2.420000 9.900000 7.040000 201 216 206 0
2.640000 9.900000 7.040000 201 216 206 0
2.860000 9.900000 7.040000 200 215 205 0
3.080000 9.900000 7.150000 199 214 204 0
3.300000 9.900000 7.150000 198 213 203 0
3.520000 9.900000 7.150000 198 213 203 0
3.740000 9.900000 7.150000 199 214 204 0
3.960000 9.900000 7.150000 197 212 202 0
4.180000 9.900000 7.260000 191 203 194 0
4.400000 9.900000 7.260000 180 192 183 0
4.620000 9.900000 7.260000 166 179 157 0
4.840000 9.900000 6.490000 154 167 145 0
5.060000 9.900000 6.490000 148 160 135 0
5.280000 9.900000 6.490000 144 156 131 0
5.500000 9.900000 6.490000 141 150 128 0
5.720000 9.900000 6.490000 140 149 127 0
5.940000 9.900000 6.490000 137 146 122 0
6.160000 9.900000 6.490000 136 145 121 0
6.380000 9.900000 6.490000 135 144 120 0
6.600000 9.900000 5.830000 135 144 120 0
6.820000 9.900000 5.830000 134 143 119 0
7.040000 9.900000 5.830000 133 142 118 0
7.260000 9.900000 5.830000 131 140 116 0
7.480000 9.900000 5.830000 132 141 117 0
7.700000 9.900000 5.830000 132 141 117 0
7.920000 9.900000 5.830000 132 141 117 0
8.140000 9.900000 5.830000 132 141 117 0
8.360000 9.900000 5.830000 132 141 117 0
8.580000 9.900000 5.830000 132 141 117 0
8.800000 9.900000 5.830000 131 140 116 0
9.020000 9.900000 5.830000 131 140 116 0
9.240000 9.900000 5.830000 132 141 117 0
9.460000 9.900000 5.830000 131 140 116 0
9.680000 9.900000 5.830000 131 140 116 0
9.900000 9.900000 5.830000 131 140 116 0
10.120000 9.900000 5.830000 131 140 116 0
10.340000 9.900000 5.830000 131 140 116 0
10.560000 9.900000 5.830000 131 140 116 0
10.780000 9.900000 5.830000 131 140 116 0
11.000000 9.900000 5.830000 129 138 114 0
11.220000 9.900000 5.830000 127 136 112 0
11.440000 9.900000 5.830000 129 138 114 0
11.660000 9.900000 5.830000 129 138 114 0
11.880000 9.900000 5.830000 129 138 114 0
12.100000 9.900000 5.830000 130 139 115 0
12.320000 9.900000 5.830000 129 138 114 0
12.540000 9.900000 5.830000 128 137 113 0
12.760000 9.900000 5.830000 128 137 113 0
12.980000 9.900000 5.830000 127 136 112 0
13.200000 9.900000 5.830000 126 135 111 0
13.420000 9.900000 5.830000 126 135 111 0
13.640000 9.900000 5.830000 122 131 107 0
13.860000 9.900000 5.830000 123 132 108 0
14.080000 9.900000 5.830000 123 132 108 0
14.300000 9.900000 5.830000 123 132 108 0
14.520000 9.900000 5.830000 124 133 109 0
14.740000 9.900000 5.830000 133 144 122 0
14.960000 9.900000 5.170000 149 160 138 0
15.180000 9.900000 4.400000 159 172 149 0
15.400000 9.900000 4.400000 160 173 150 0
15.620000 9.900000 3.740000 159 172 149 0
15.840000 9.900000 3.740000 158 171 148 0
16.060000 9.900000 3.080000 159 170 148 0
16.280000 9.900000 2.420000 157 168 146 0
16.500000 9.900000 2.420000 155 168 146 0
16.720000 9.900000 1.760000 154 167 145 0
16.940000 9.900000 1.760000 153 166 144 0
17.160000 9.900000 1.760000 153 166 144 0
17.380000 9.900000 1.760000 153 166 144 0
17.600000 9.900000 1.760000 153 166 144 0
17.820000 9.900000 1.100000 152 165 143 0
18.040000 9.900000 1.100000 152 165 143 0
18.260000 9.900000 1.100000 152 165 143 0
18.480000 9.900000 1.100000 152 165 143 0
18.700000 9.900000 1.100000 151 164 142 0
18.920000 9.900000 1.100000 149 162 140 0
19.140000 9.900000 1.100000 149 162 140 0
19.360000 9.900000 1.100000 151 164 142 0
19.580000 9.900000 1.100000 151 164 142 0
19.800000 9.900000 0.440000 151 164 142 0
20.020000 9.900000 0.440000 151 164 142 0
20.240000 9.900000 0.440000 150 163 141 0
20.460000 9.900000 0.440000 152 163 142 0
20.680000 9.900000 0.440000 151 162 141 0
20.900000 9.900000 0.440000 149 162 140 0
21.120000 9.900000 0.440000 149 162 140 0
21.560000 9.900000 0.440000 150 161 140 0
21.780000 9.900000 0.440000 148 161 139 0
22.000000 9.900000 0.440000 149 162 140 0
22.220000 9.900000 0.440000 149 160 139 0
22.440000 9.900000 0.440000 149 160 139 0
22.660000 9.900000 0.330000 148 161 139 0
25.740000 9.900000 0.440000 146 157 136 0
26.180000 9.900000 0.330000 145 156 135 0
26.400000 9.900000 1.760000 144 155 134 0
26.620000 9.900000 1.760000 146 154 134 0
26.840000 9.900000 0.440000 146 154 134 0
27.280000 9.900000 1.650000 144 152 132 0
27.500000 9.900000 7.260000 144 152 132 0
27.720000 9.900000 8.690000 144 152 132 0
27.940000 9.900000 2.530000 144 152 132 0
28.600000 9.900000 0.220000 144 152 132 0
28.820000 9.900000 1.100000 143 151 131 0
29.040000 9.900000 1.870000 143 151 131 0
29.260000 9.900000 2.530000 143 151 133 0
29.480000 9.900000 3.850000 142 150 132 0
29.700000 9.900000 5.280000 142 150 130 0
29.920000 9.900000 6.600000 141 149 129 0
30.140000 9.900000 7.370000 143 147 127 0
30.360000 9.900000 8.030000 140 144 124 0
30.580000 9.900000 8.030000 143 136 113 0
30.800000 9.900000 8.030000 139 132 109 0
31.020000 9.900000 8.030000 144 123 99 0
31.240000 9.900000 8.030000 140 119 95 0
31.460000 9.900000 7.370000 139 118 92 0
31.680000 9.900000 8.690000 138 117 91 0
31.900000 9.900000 9.350000 136 115 91 0
32.120000 9.900000 8.690000 137 116 92 0
32.340000 9.900000 8.690000 137 116 92 0
32.560000 9.900000 8.030000 137 116 92 0
32.780000 9.900000 8.030000 137 116 90 0
33.000000 9.900000 8.030000 137 116 90 0
33.220000 9.900000 8.030000 137 116 90 0
33.440000 9.900000 8.690000 136 115 89 0
33.660000 9.900000 9.460000 135 114 90 0
33.880000 9.900000 9.460000 136 115 91 0
34.100000 9.900000 8.690000 136 115 91 0
34.320000 9.900000 8.690000 136 115 91 0
34.540000 9.900000 9.460000 136 115 91 0
34.760000 9.900000 9.460000 136 115 91 0
34.980000 9.900000 9.460000 136 115 91 0
35.200000 9.900000 9.460000 135 114 90 0
35.420000 9.900000 9.460000 136 115 91 0
35.640000 9.900000 9.460000 136 115 91 0
35.860000 9.900000 9.460000 136 115 91 0
36.080000 9.900000 9.460000 136 115 91 0
36.300000 9.900000 10.120000 135 114 90 0
36.520000 9.900000 10.120000 135 114 90 0
36.740000 9.900000 10.010000 136 115 91 0
36.960000 9.900000 10.120000 136 115 91 0
37.180000 9.900000 9.460000 137 114 91 0
0.000000 10.120000 5.280000 203 218 208 0
0.220000 10.120000 5.280000 202 217 207 0
0.440000 10.120000 5.390000 202 217 207 0
0.660000 10.120000 5.390000 201 216 206 0
0.880000 10.120000 5.390000 201 216 206 0
1.100000 10.120000 5.500000 201 216 206 0
1.320000 10.120000 5.500000 202 217 207 0
1.540000 10.120000 6.050000 202 217 207 0
1.760000 10.120000 6.380000 201 216 206 0
1.980000 10.120000 6.930000 201 216 206 0
2.200000 10.120000 6.930000 200 215 205 0
2.420000 10.120000 7.040000 200 215 205 0
2.640000 10.120000 7.040000 199 214 204 0
2.860000 10.120000 7.040000 200 215 205 0
3.080000 10.120000 7.150000 199 214 204 0
3.300000 10.120000 7.150000 197 212 202 0
3.520000 10.120000 7.150000 198 213 203 0
3.740000 10.120000 7.150000 197 212 202 0
3.960000 10.120000 7.150000 194 209 199 0
4.180000 10.120000 7.260000 192 204 195 0
4.400000 10.120000 7.260000 181 193 184 0
4.620000 10.120000 7.260000 168 181 159 0
4.840000 10.120000 6.490000 152 165 143 0
5.060000 10.120000 6.490000 148 160 135 0
5.280000 10.120000 6.490000 142 154 129 0
5.500000 10.120000 6.490000 141 150 128 0
5.720000 10.120000 6.490000 139 148 126 0
5.940000 10.120000 6.490000 137 146 122 0
6.160000 10.120000 6.490000 136 145 121 0
6.380000 10.120000 6.490000 134 143 119 0
6.600000 10.120000 5.830000 133 142 118 0
6.820000 10.120000 5.830000 133 142 118 0
7.040000 10.120000 5.830000 133 142 118 0
7.260000 10.120000 5.830000 132 141 117 0
7.480000 10.120000 5.830000 132 141 117 0
7.700000 10.120000 5.830000 132 141 117 0
7.920000 10.120000 5.830000 132 141 117 0
8.140000 10.120000 5.830000 132 141 117 0
8.360000 10.120000 5.830000 132 141 117 0
8.580000 10.120000 5.830000 131 140 116 0
8.800000 10.120000 5.830000 131 140 116 0
9.020000 10.120000 5.830000 130 139 115 0
9.240000 10.120000 5.830000 131 140 116 0
9.460000 10.120000 5.830000 131 140 116 0
9.680000 10.120000 5.830000 130 139 115 0
9.900000 10.120000 5.830000 131 140 116 0
10.120000 10.120000 5.830000 130 139 115 0
10.340000 10.120000 5.830000 131 140 116 0
10.560000 10.120000 5.830000 129 138 114 0
