ply
format ascii 1.0
element vertex 1105
property float x
property float y
property float z
property uchar red
property uchar green
property uchar blue
property uchar alpha
end_header
25.520000 15.400000 13.090000 176 133 112 0
25.740000 15.400000 13.640000 182 139 118 0
25.960000 15.400000 14.080000 187 141 121 0
26.180000 15.400000 14.630000 190 144 124 0
26.400000 15.400000 14.520000 193 150 128 0
26.620000 15.400000 14.520000 197 154 132 0
26.840000 15.400000 14.630000 202 156 135 0
27.060000 15.400000 14.630000 203 157 136 0
27.280000 15.400000 14.630000 202 156 135 0
27.500000 15.400000 14.630000 202 156 135 0
27.720000 15.400000 14.630000 201 155 134 0
27.940000 15.400000 14.630000 201 155 134 0
28.160000 15.400000 14.740000 201 155 134 0
28.380000 15.400000 14.740000 205 159 138 0
28.600000 15.400000 14.740000 210 166 148 0
28.820000 15.400000 14.740000 214 170 152 0
29.040000 15.400000 14.740000 217 175 156 0
29.260000 15.400000 15.510000 220 178 159 0
29.480000 15.400000 15.510000 220 181 161 0
29.700000 15.400000 15.510000 221 182 162 0
29.920000 15.400000 15.620000 223 186 163 0
30.140000 15.400000 15.730000 224 187 164 0
30.360000 15.400000 16.500000 226 187 167 0
30.580000 15.400000 17.050000 226 187 167 0
30.800000 15.400000 17.490000 227 188 168 0
31.020000 15.400000 18.040000 228 189 169 0
31.240000 15.400000 18.150000 230 191 171 0
31.460000 15.400000 18.150000 229 190 170 0
31.680000 15.400000 18.260000 232 193 171 0
31.900000 15.400000 18.260000 232 193 171 0
32.120000 15.400000 19.030000 233 194 174 0
32.340000 15.400000 19.030000 233 194 174 0
32.560000 15.400000 19.030000 234 195 175 0
32.780000 15.400000 19.030000 234 195 175 0
33.000000 15.400000 19.140000 233 194 174 0
33.220000 15.400000 19.140000 233 194 174 0
33.440000 15.400000 19.140000 233 195 177 0
33.660000 15.400000 19.250000 233 195 177 0
33.880000 15.400000 19.250000 234 196 178 0
34.100000 15.400000 19.250000 234 196 178 0
34.320000 15.400000 19.250000 234 196 180 0
34.540000 15.400000 19.250000 232 194 178 0
34.760000 15.400000 19.250000 232 193 175 0
34.980000 15.400000 19.360000 233 194 176 0
35.200000 15.400000 18.590000 231 193 175 0
35.420000 15.400000 19.140000 229 191 173 0
35.640000 15.400000 19.580000 228 190 174 0
35.860000 15.400000 20.020000 225 187 171 0
36.080000 15.400000 20.130000 221 183 169 0
36.300000 15.400000 20.130000 218 180 166 0
36.520000 15.400000 18.920000 210 179 169 0
36.740000 15.400000 17.710000 215 184 174 0
36.960000 15.400000 15.730000 205 199 196 0
37.180000 15.400000 14.960000 212 206 203 0
0.000000 15.620000 7.370000 143 147 127 0
0.220000 15.620000 7.370000 141 145 125 0
0.440000 15.620000 7.370000 146 140 119 0
0.660000 15.620000 8.030000 141 135 114 0
0.880000 15.620000 8.690000 144 126 101 0
1.100000 15.620000 10.120000 141 123 98 0
1.320000 15.620000 11.330000 143 122 96 0
1.540000 15.620000 10.560000 142 121 95 0
1.760000 15.620000 11.220000 142 121 95 0
1.980000 15.620000 11.990000 140 119 93 0
2.200000 15.620000 10.780000 139 118 94 0
2.420000 15.620000 10.120000 139 118 94 0
2.640000 15.620000 10.120000 140 119 95 0
2.860000 15.620000 10.120000 142 121 97 0
3.080000 15.620000 10.120000 141 120 96 0
3.300000 15.620000 9.460000 139 118 94 0
3.520000 15.620000 10.120000 139 118 94 0
3.740000 15.620000 10.890000 140 119 95 0
3.960000 15.620000 10.780000 139 118 94 0
4.180000 15.620000 10.670000 140 119 95 0
4.400000 15.620000 10.670000 139 118 94 0
4.620000 15.620000 11.330000 139 118 94 0
4.840000 15.620000 11.110000 139 118 94 0
5.060000 15.620000 11.110000 137 116 92 0
5.280000 15.620000 10.670000 138 117 93 0
5.500000 15.620000 10.670000 138 117 93 0
5.720000 15.620000 10.780000 138 117 93 0
5.940000 15.620000 10.120000 138 117 93 0
6.160000 15.620000 10.120000 139 116 93 0
6.380000 15.620000 10.120000 139 116 93 0
6.600000 15.620000 10.120000 138 115 92 0
6.820000 15.620000 10.120000 137 114 91 0
7.040000 15.620000 10.230000 138 115 92 0
7.260000 15.620000 10.120000 137 114 91 0
7.480000 15.620000 10.670000 137 114 91 0
7.700000 15.620000 10.560000 137 114 91 0
7.920000 15.620000 10.670000 137 114 91 0
8.140000 15.620000 10.120000 136 113 90 0
8.360000 15.620000 10.230000 135 112 89 0
8.580000 15.620000 10.230000 135 112 89 0
8.800000 15.620000 10.230000 134 111 88 0
9.020000 15.620000 10.230000 133 110 87 0
9.240000 15.620000 10.230000 134 111 88 0
9.460000 15.620000 10.230000 134 111 88 0
9.680000 15.620000 10.230000 134 111 88 0
9.900000 15.620000 10.230000 135 112 89 0
10.120000 15.620000 9.460000 136 113 90 0
10.340000 15.620000 9.460000 136 113 90 0
10.560000 15.620000 9.460000 139 114 91 0
10.780000 15.620000 9.460000 139 114 91 0
11.000000 15.620000 9.460000 141 116 91 0
11.220000 15.620000 8.800000 143 118 93 0
11.440000 15.620000 8.800000 161 119 92 0
11.660000 15.620000 8.800000 178 136 109 0
11.880000 15.620000 8.800000 199 153 124 0
12.100000 15.620000 8.800000 214 168 139 0
12.320000 15.620000 8.800000 219 180 146 0
12.540000 15.620000 8.910000 223 184 150 0
12.760000 15.620000 8.910000 225 184 151 0
12.980000 15.620000 9.570000 227 186 153 0
13.200000 15.620000 9.570000 227 186 151 0
13.420000 15.620000 10.670000 226 185 150 0
13.640000 15.620000 11.110000 224 184 146 0
13.860000 15.620000 11.110000 217 177 139 0
14.080000 15.620000 11.110000 217 170 137 0
14.300000 15.620000 11.110000 212 165 132 0
14.520000 15.620000 11.110000 208 158 130 0
14.740000 15.620000 11.220000 202 152 124 0
14.960000 15.620000 11.220000 199 147 121 0
15.180000 15.620000 11.220000 197 145 119 0
15.400000 15.620000 11.220000 194 143 117 0
15.620000 15.620000 11.220000 192 141 115 0
15.840000 15.620000 11.220000 189 141 116 0
16.060000 15.620000 11.220000 188 140 115 0
16.280000 15.620000 11.220000 189 138 114 0
16.500000 15.620000 11.330000 190 139 115 0
16.720000 15.620000 11.990000 191 140 114 0
16.940000 15.620000 11.990000 191 140 114 0
17.160000 15.620000 11.990000 192 141 117 0
17.380000 15.620000 11.990000 191 140 116 0
17.600000 15.620000 11.990000 192 141 117 0
17.820000 15.620000 11.990000 194 143 119 0
18.040000 15.620000 11.990000 191 143 118 0
18.260000 15.620000 12.100000 193 145 120 0
18.480000 15.620000 12.100000 194 146 121 0
18.700000 15.620000 12.100000 195 147 122 0
18.920000 15.620000 12.100000 197 146 122 0
19.140000 15.620000 12.100000 197 146 122 0
19.360000 15.620000 12.100000 196 148 123 0
19.580000 15.620000 12.210000 196 148 123 0
19.800000 15.620000 12.210000 195 148 125 0
20.020000 15.620000 12.210000 196 149 126 0
20.240000 15.620000 12.210000 195 148 125 0
20.460000 15.620000 12.210000 195 148 125 0
20.680000 15.620000 12.210000 197 148 126 0
20.900000 15.620000 12.210000 196 147 125 0
21.120000 15.620000 12.210000 194 145 123 0
21.340000 15.620000 12.980000 193 144 122 0
21.560000 15.620000 12.210000 190 145 121 0
21.780000 15.620000 12.320000 188 143 119 0
22.000000 15.620000 12.980000 185 142 121 0
22.220000 15.620000 12.980000 186 143 122 0
22.440000 15.620000 12.320000 185 141 123 0
22.660000 15.620000 12.320000 183 139 121 0
22.880000 15.620000 12.320000 179 137 118 0
23.100000 15.620000 12.320000 181 139 120 0
23.320000 15.620000 12.320000 169 140 127 0
23.540000 15.620000 12.320000 165 136 123 0
23.760000 15.620000 12.430000 168 130 116 0
23.980000 15.620000 12.430000 166 128 114 0
24.200000 15.620000 12.430000 164 124 109 0
24.420000 15.620000 12.430000 162 122 107 0
24.640000 15.620000 12.430000 161 121 106 0
24.860000 15.620000 12.430000 163 123 108 0
25.080000 15.620000 13.090000 166 127 109 0
25.300000 15.620000 12.980000 170 131 113 0
25.520000 15.620000 13.530000 177 133 115 0
25.740000 15.620000 14.080000 182 138 120 0
25.960000 15.620000 14.630000 188 142 122 0
26.180000 15.620000 14.520000 192 146 126 0
26.400000 15.620000 14.520000 196 150 130 0
26.620000 15.620000 14.630000 198 152 132 0
26.840000 15.620000 14.630000 200 154 133 0
27.060000 15.620000 14.630000 202 156 135 0
27.280000 15.620000 14.630000 203 157 137 0
27.500000 15.620000 14.630000 202 156 136 0
27.720000 15.620000 14.630000 201 153 134 0
27.940000 15.620000 14.740000 201 153 134 0
28.160000 15.620000 14.740000 201 153 136 0
28.380000 15.620000 14.740000 201 153 136 0
28.600000 15.620000 14.740000 206 163 141 0
28.820000 15.620000 14.740000 212 169 147 0
29.040000 15.620000 14.740000 218 174 156 0
29.260000 15.620000 15.510000 220 176 158 0
29.480000 15.620000 15.510000 220 181 161 0
29.700000 15.620000 15.620000 221 182 162 0
29.920000 15.620000 15.620000 223 184 164 0
30.140000 15.620000 15.730000 225 186 166 0
30.360000 15.620000 16.500000 226 187 169 0
30.580000 15.620000 17.050000 227 188 170 0
30.800000 15.620000 17.490000 227 188 168 0
31.020000 15.620000 18.040000 229 190 170 0
31.240000 15.620000 18.150000 230 191 171 0
31.460000 15.620000 18.150000 231 192 172 0
31.680000 15.620000 18.260000 232 193 173 0
31.900000 15.620000 18.920000 233 194 174 0
32.120000 15.620000 19.030000 234 195 177 0
32.340000 15.620000 19.030000 233 194 176 0
32.560000 15.620000 19.030000 233 194 176 0
32.780000 15.620000 19.140000 233 194 176 0
33.000000 15.620000 19.140000 231 192 172 0
33.220000 15.620000 19.140000 232 193 173 0
33.440000 15.620000 19.140000 231 192 172 0
33.660000 15.620000 19.250000 232 193 173 0
33.880000 15.620000 19.250000 231 193 175 0
34.100000 15.620000 19.250000 231 193 175 0
34.320000 15.620000 19.250000 231 193 177 0
34.540000 15.620000 19.250000 231 193 177 0
34.760000 15.620000 19.360000 230 190 175 0
34.980000 15.620000 19.360000 229 189 174 0
35.200000 15.620000 18.590000 230 191 171 0
35.420000 15.620000 19.140000 226 187 167 0
35.640000 15.620000 19.470000 224 184 171 0
35.860000 15.620000 20.130000 220 180 167 0
36.080000 15.620000 20.130000 211 180 170 0
36.300000 15.620000 18.920000 211 180 170 0
36.520000 15.620000 17.050000 197 191 188 0
36.740000 15.620000 15.070000 206 200 197 0
36.960000 15.620000 13.750000 211 205 202 0
37.180000 15.620000 13.750000 215 209 206 0
0.000000 15.840000 3.190000 142 146 126 0
0.220000 15.840000 4.620000 141 145 125 0
0.440000 15.840000 6.710000 145 139 118 0
0.660000 15.840000 8.030000 141 135 114 0
0.880000 15.840000 8.030000 146 128 103 0
1.100000 15.840000 9.460000 141 123 98 0
1.320000 15.840000 8.690000 142 121 95 0
1.540000 15.840000 6.600000 142 121 95 0
1.760000 15.840000 8.580000 141 120 94 0
1.980000 15.840000 12.100000 141 120 94 0
2.200000 15.840000 11.440000 139 118 94 0
2.420000 15.840000 10.120000 140 119 95 0
2.640000 15.840000 10.010000 140 119 95 0
2.860000 15.840000 10.780000 140 119 95 0
3.080000 15.840000 10.780000 140 119 95 0
3.300000 15.840000 10.120000 138 117 93 0
3.520000 15.840000 10.780000 138 117 93 0
3.740000 15.840000 10.780000 138 117 93 0
3.960000 15.840000 11.550000 139 118 94 0
4.180000 15.840000 11.440000 139 118 94 0
4.400000 15.840000 10.780000 139 118 94 0
4.620000 15.840000 10.670000 139 118 94 0
4.840000 15.840000 10.560000 139 118 94 0
5.060000 15.840000 11.220000 139 118 94 0
5.280000 15.840000 10.670000 138 117 93 0
5.500000 15.840000 10.780000 139 118 94 0
5.720000 15.840000 10.120000 139 118 94 0
5.940000 15.840000 9.460000 139 118 94 0
6.160000 15.840000 9.460000 139 116 93 0
6.380000 15.840000 9.460000 140 117 94 0
6.600000 15.840000 9.460000 140 117 94 0
6.820000 15.840000 10.120000 138 115 92 0
7.040000 15.840000 10.890000 138 115 92 0
7.260000 15.840000 10.780000 138 115 92 0
7.480000 15.840000 10.670000 138 115 92 0
7.700000 15.840000 10.560000 137 114 91 0
7.920000 15.840000 10.670000 137 114 91 0
8.140000 15.840000 10.010000 137 114 91 0
8.360000 15.840000 10.230000 135 112 89 0
8.580000 15.840000 10.230000 136 113 90 0
8.800000 15.840000 10.230000 134 111 88 0
9.020000 15.840000 10.230000 133 110 87 0
9.240000 15.840000 10.230000 133 110 87 0
9.460000 15.840000 10.230000 133 110 87 0
9.680000 15.840000 10.230000 134 111 88 0
9.900000 15.840000 10.230000 135 112 89 0
10.120000 15.840000 10.230000 135 112 89 0
10.340000 15.840000 9.460000 135 112 89 0
10.560000 15.840000 9.460000 139 114 91 0
10.780000 15.840000 9.460000 140 115 92 0
11.000000 15.840000 9.460000 141 116 91 0
11.220000 15.840000 8.800000 143 118 93 0
11.440000 15.840000 8.800000 158 116 89 0
11.660000 15.840000 8.800000 175 133 106 0
11.880000 15.840000 8.800000 195 149 120 0
12.100000 15.840000 8.800000 209 163 134 0
12.320000 15.840000 8.800000 217 178 144 0
12.540000 15.840000 8.910000 222 183 149 0
12.760000 15.840000 8.910000 224 183 150 0
12.980000 15.840000 8.910000 226 185 152 0
13.200000 15.840000 9.570000 227 186 151 0
13.420000 15.840000 10.120000 225 184 149 0
13.640000 15.840000 10.560000 224 184 146 0
13.860000 15.840000 11.110000 220 180 142 0
14.080000 15.840000 11.110000 220 173 140 0
14.300000 15.840000 11.110000 213 166 133 0
14.520000 15.840000 11.110000 208 158 130 0
14.740000 15.840000 11.220000 202 152 124 0
14.960000 15.840000 11.220000 198 146 120 0
15.180000 15.840000 11.220000 197 145 119 0
15.400000 15.840000 11.220000 194 143 117 0
15.620000 15.840000 11.220000 191 140 114 0
15.840000 15.840000 11.220000 188 140 115 0
16.060000 15.840000 11.220000 188 140 115 0
16.280000 15.840000 11.220000 189 138 114 0
16.500000 15.840000 11.220000 190 139 115 0
16.720000 15.840000 11.990000 190 139 113 0
16.940000 15.840000 11.990000 191 140 114 0
17.160000 15.840000 11.990000 190 139 115 0
17.380000 15.840000 11.990000 192 141 117 0
17.600000 15.840000 11.990000 192 141 117 0
17.820000 15.840000 11.990000 193 142 118 0
18.040000 15.840000 11.990000 193 145 120 0
18.260000 15.840000 12.100000 192 144 119 0
18.480000 15.840000 12.100000 195 147 122 0
18.700000 15.840000 12.100000 195 147 122 0
18.920000 15.840000 12.100000 198 147 123 0
19.140000 15.840000 12.100000 198 147 123 0
19.360000 15.840000 12.100000 197 149 124 0
19.580000 15.840000 12.100000 197 149 124 0
19.800000 15.840000 12.210000 197 150 127 0
20.020000 15.840000 12.210000 198 151 128 0
20.240000 15.840000 12.210000 197 150 127 0
20.460000 15.840000 12.210000 198 151 128 0
20.680000 15.840000 12.210000 199 150 128 0
20.900000 15.840000 12.210000 197 148 126 0
21.120000 15.840000 12.980000 196 147 125 0
21.340000 15.840000 12.980000 194 145 123 0
21.560000 15.840000 12.980000 191 146 122 0
21.780000 15.840000 12.980000 190 145 121 0
22.000000 15.840000 12.980000 188 145 124 0
22.220000 15.840000 12.980000 189 146 125 0
22.440000 15.840000 12.980000 187 143 125 0
22.660000 15.840000 12.980000 187 143 125 0
22.880000 15.840000 13.090000 186 144 125 0
23.100000 15.840000 12.320000 183 141 122 0
23.320000 15.840000 12.320000 172 143 130 0
23.540000 15.840000 12.430000 168 139 126 0
23.760000 15.840000 12.430000 174 136 122 0
23.980000 15.840000 12.430000 171 133 119 0
24.200000 15.840000 12.430000 167 127 112 0
24.420000 15.840000 12.430000 167 127 112 0
24.640000 15.840000 12.430000 165 125 110 0
24.860000 15.840000 13.090000 164 124 109 0
25.080000 15.840000 12.870000 166 127 109 0
25.300000 15.840000 13.420000 170 131 113 0
25.520000 15.840000 13.970000 177 133 115 0
25.740000 15.840000 14.630000 185 141 123 0
25.960000 15.840000 14.520000 190 144 124 0
26.180000 15.840000 14.520000 193 147 127 0
26.400000 15.840000 14.630000 195 149 129 0
26.620000 15.840000 14.630000 197 151 131 0
26.840000 15.840000 14.630000 200 154 133 0
27.060000 15.840000 14.630000 202 156 135 0
27.280000 15.840000 14.630000 203 157 137 0
27.500000 15.840000 14.630000 203 157 137 0
27.720000 15.840000 14.740000 202 154 135 0
27.940000 15.840000 14.740000 200 152 133 0
28.160000 15.840000 14.740000 199 151 134 0
28.380000 15.840000 14.740000 199 151 134 0
28.600000 15.840000 14.740000 201 158 136 0
28.820000 15.840000 14.740000 204 161 139 0
29.040000 15.840000 15.510000 211 167 149 0
29.260000 15.840000 15.510000 216 172 154 0
29.480000 15.840000 15.510000 216 177 157 0
29.700000 15.840000 15.620000 220 181 161 0
29.920000 15.840000 15.620000 223 184 164 0
30.140000 15.840000 15.730000 225 186 166 0
30.360000 15.840000 16.500000 226 187 169 0
30.580000 15.840000 17.050000 226 187 169 0
30.800000 15.840000 17.490000 228 189 169 0
31.020000 15.840000 18.040000 230 191 171 0
31.240000 15.840000 18.150000 232 193 173 0
31.460000 15.840000 18.150000 232 193 173 0
31.680000 15.840000 18.260000 233 194 174 0
31.900000 15.840000 18.920000 233 194 174 0
32.120000 15.840000 19.030000 234 195 177 0
32.340000 15.840000 19.030000 233 194 176 0
32.560000 15.840000 19.030000 232 193 175 0
32.780000 15.840000 19.140000 232 193 175 0
33.000000 15.840000 19.140000 231 192 172 0
33.220000 15.840000 19.140000 231 192 172 0
33.440000 15.840000 19.250000 229 190 170 0
33.660000 15.840000 19.250000 229 190 170 0
33.880000 15.840000 19.250000 228 190 172 0
34.100000 15.840000 19.250000 228 190 172 0
34.320000 15.840000 19.250000 228 190 174 0
34.540000 15.840000 19.250000 228 190 174 0
34.760000 15.840000 19.360000 228 188 173 0
34.980000 15.840000 19.250000 224 184 169 0
35.200000 15.840000 19.140000 225 186 166 0
35.420000 15.840000 19.580000 222 183 163 0
35.640000 15.840000 19.470000 220 180 167 0
35.860000 15.840000 17.380000 216 176 163 0
36.080000 15.840000 16.720000 209 178 168 0
36.300000 15.840000 16.280000 213 182 172 0
36.520000 15.840000 15.070000 204 198 195 0
36.740000 15.840000 13.640000 212 206 203 0
36.960000 15.840000 12.980000 215 209 206 0
37.180000 15.840000 12.980000 214 208 205 0
0.000000 16.060000 3.190000 142 146 126 0
0.220000 16.060000 3.850000 140 144 124 0
0.440000 16.060000 7.370000 141 139 119 0
0.660000 16.060000 8.800000 137 135 115 0
0.880000 16.060000 8.800000 144 126 101 0
1.100000 16.060000 9.460000 140 122 97 0
1.320000 16.060000 8.800000 139 121 96 0
1.540000 16.060000 6.710000 139 121 96 0
1.760000 16.060000 8.690000 141 120 96 0
1.980000 16.060000 11.440000 140 119 95 0
2.200000 16.060000 11.440000 140 119 95 0
2.420000 16.060000 11.440000 141 120 96 0
2.640000 16.060000 11.440000 139 121 96 0
2.860000 16.060000 11.440000 138 120 95 0
3.080000 16.060000 10.670000 139 118 94 0
3.300000 16.060000 11.330000 138 117 93 0
3.520000 16.060000 12.100000 138 117 93 0
3.740000 16.060000 11.440000 138 117 93 0
3.960000 16.060000 10.890000 138 117 93 0
4.180000 16.060000 10.890000 139 118 94 0
4.400000 16.060000 10.780000 137 119 94 0
4.620000 16.060000 10.780000 137 119 94 0
4.840000 16.060000 10.670000 139 118 94 0
5.060000 16.060000 10.670000 138 117 93 0
5.280000 16.060000 10.780000 138 117 93 0
5.500000 16.060000 10.780000 139 118 94 0
5.720000 16.060000 10.120000 140 119 95 0
5.940000 16.060000 9.460000 139 118 94 0
6.160000 16.060000 9.460000 139 118 94 0
6.380000 16.060000 9.460000 138 117 93 0
6.600000 16.060000 10.120000 138 117 93 0
6.820000 16.060000 10.780000 136 115 91 0
7.040000 16.060000 10.890000 138 115 92 0
7.260000 16.060000 10.780000 138 115 92 0
7.480000 16.060000 11.330000 137 114 91 0
7.700000 16.060000 11.330000 137 114 91 0
7.920000 16.060000 10.670000 137 114 91 0
8.140000 16.060000 10.780000 137 114 91 0
8.360000 16.060000 10.120000 136 113 90 0
8.580000 16.060000 10.230000 136 113 90 0
8.800000 16.060000 10.230000 135 112 89 0
9.020000 16.060000 10.230000 133 110 87 0
9.240000 16.060000 10.230000 133 110 87 0
9.460000 16.060000 10.230000 134 111 88 0
9.680000 16.060000 10.230000 133 110 87 0
9.900000 16.060000 10.230000 134 111 88 0
10.120000 16.060000 9.460000 135 112 89 0
10.340000 16.060000 9.460000 136 113 90 0
10.560000 16.060000 9.460000 138 113 90 0
10.780000 16.060000 9.460000 140 115 92 0
11.000000 16.060000 8.800000 142 117 94 0
11.220000 16.060000 8.800000 142 117 94 0
11.440000 16.060000 8.800000 156 113 91 0
11.660000 16.060000 8.800000 172 129 107 0
11.880000 16.060000 8.800000 193 146 113 0
12.100000 16.060000 8.800000 207 160 127 0
12.320000 16.060000 8.800000 217 173 141 0
12.540000 16.060000 8.910000 223 179 147 0
12.760000 16.060000 8.910000 225 181 147 0
12.980000 16.060000 8.910000 226 182 148 0
13.200000 16.060000 9.680000 227 183 151 0
13.420000 16.060000 9.460000 227 183 151 0
13.640000 16.060000 10.560000 222 181 148 0
13.860000 16.060000 11.110000 221 180 147 0
14.080000 16.060000 11.110000 218 174 142 0
14.300000 16.060000 11.110000 211 167 135 0
14.520000 16.060000 11.110000 209 162 131 0
14.740000 16.060000 11.110000 200 153 122 0
14.960000 16.060000 11.220000 197 149 122 0
15.180000 16.060000 11.220000 193 145 118 0
15.400000 16.060000 11.220000 193 142 118 0
15.620000 16.060000 11.220000 191 140 116 0
15.840000 16.060000 11.220000 188 140 115 0
16.060000 16.060000 11.220000 187 139 114 0
16.280000 16.060000 11.220000 188 140 115 0
16.500000 16.060000 11.990000 188 140 115 0
16.720000 16.060000 11.990000 188 140 113 0
16.940000 16.060000 11.990000 189 141 114 0
17.160000 16.060000 11.990000 191 140 114 0
17.380000 16.060000 11.990000 191 140 114 0
17.600000 16.060000 11.990000 191 143 118 0
17.820000 16.060000 11.990000 191 143 118 0
18.040000 16.060000 11.990000 193 146 121 0
18.260000 16.060000 12.100000 193 146 121 0
18.480000 16.060000 12.100000 194 147 122 0
18.700000 16.060000 12.100000 196 149 124 0
18.920000 16.060000 12.100000 198 150 125 0
19.140000 16.060000 12.100000 197 149 124 0
19.360000 16.060000 12.100000 197 150 127 0
19.580000 16.060000 12.100000 198 151 128 0
19.800000 16.060000 12.210000 199 152 129 0
20.020000 16.060000 12.210000 199 152 129 0
20.240000 16.060000 12.210000 200 153 128 0
20.460000 16.060000 12.210000 200 153 128 0
20.680000 16.060000 12.210000 198 151 126 0
20.900000 16.060000 12.870000 198 151 126 0
21.120000 16.060000 12.980000 197 150 127 0
21.340000 16.060000 12.980000 196 149 126 0
21.560000 16.060000 12.980000 196 149 126 0
21.780000 16.060000 12.980000 195 148 125 0
22.000000 16.060000 12.980000 192 146 125 0
22.220000 16.060000 12.980000 193 147 126 0
22.440000 16.060000 12.980000 191 148 127 0
22.660000 16.060000 12.980000 189 146 125 0
22.880000 16.060000 13.090000 191 145 124 0
23.100000 16.060000 13.090000 188 142 121 0
23.320000 16.060000 12.430000 187 141 123 0
23.540000 16.060000 12.430000 185 139 121 0
23.760000 16.060000 12.430000 183 139 121 0
23.980000 16.060000 12.430000 180 136 118 0
24.200000 16.060000 12.430000 177 135 118 0
24.420000 16.060000 13.090000 176 134 117 0
24.640000 16.060000 12.980000 173 129 113 0
24.860000 16.060000 13.530000 174 130 114 0
25.080000 16.060000 14.080000 172 129 115 0
25.300000 16.060000 13.860000 174 131 117 0
25.520000 16.060000 14.520000 179 135 117 0
25.740000 16.060000 14.520000 184 140 122 0
25.960000 16.060000 14.520000 190 147 126 0
26.180000 16.060000 14.630000 192 149 128 0
26.400000 16.060000 14.630000 195 149 128 0
26.620000 16.060000 14.630000 198 152 131 0
26.840000 16.060000 14.630000 200 154 134 0
27.060000 16.060000 14.630000 202 156 136 0
27.280000 16.060000 14.630000 201 158 137 0
27.500000 16.060000 14.740000 201 158 137 0
27.720000 16.060000 14.740000 202 156 135 0
27.940000 16.060000 14.740000 198 152 131 0
28.160000 16.060000 14.740000 197 151 131 0
28.380000 16.060000 14.740000 198 152 132 0
28.600000 16.060000 14.740000 199 153 133 0
28.820000 16.060000 14.850000 205 159 139 0
29.040000 16.060000 15.510000 210 166 148 0
29.260000 16.060000 15.510000 216 172 154 0
29.480000 16.060000 15.620000 216 177 157 0
29.700000 16.060000 15.620000 221 182 162 0
29.920000 16.060000 15.620000 224 185 165 0
30.140000 16.060000 16.390000 225 186 166 0
30.360000 16.060000 16.500000 228 189 167 0
30.580000 16.060000 17.050000 228 189 167 0
30.800000 16.060000 17.490000 230 191 169 0
31.020000 16.060000 18.040000 230 191 169 0
31.240000 16.060000 18.150000 233 194 174 0
31.460000 16.060000 18.150000 235 196 176 0
31.680000 16.060000 18.920000 234 194 179 0
31.900000 16.060000 18.920000 234 194 179 0
32.120000 16.060000 19.030000 235 196 176 0
32.340000 16.060000 19.030000 234 195 175 0
32.560000 16.060000 19.030000 232 193 173 0
32.780000 16.060000 19.140000 232 193 173 0
33.000000 16.060000 19.140000 233 191 172 0
33.220000 16.060000 19.140000 232 190 171 0
33.440000 16.060000 19.250000 227 189 171 0
33.660000 16.060000 19.250000 227 189 171 0
33.880000 16.060000 19.250000 227 189 175 0
34.100000 16.060000 19.250000 229 191 177 0
34.320000 16.060000 19.250000 226 189 176 0
34.540000 16.060000 19.250000 225 188 175 0
34.760000 16.060000 19.360000 223 183 170 0
34.980000 16.060000 19.250000 221 181 168 0
35.200000 16.060000 18.920000 220 182 166 0
35.420000 16.060000 17.380000 218 180 164 0
35.640000 16.060000 14.630000 218 178 163 0
35.860000 16.060000 10.450000 218 178 163 0
36.080000 16.060000 9.900000 204 188 183 0
36.300000 16.060000 12.100000 212 196 191 0
36.520000 16.060000 12.870000 213 207 204 0
36.740000 16.060000 12.980000 215 209 206 0
36.960000 16.060000 12.980000 214 208 205 0
37.180000 16.060000 12.980000 215 209 206 0
0.000000 16.280000 6.710000 142 146 126 0
0.220000 16.280000 5.940000 140 144 124 0
0.440000 16.280000 7.370000 142 140 120 0
0.660000 16.280000 8.800000 138 136 116 0
0.880000 16.280000 8.030000 144 126 101 0
1.100000 16.280000 7.370000 140 122 97 0
1.320000 16.280000 8.030000 139 121 96 0
1.540000 16.280000 9.460000 139 121 96 0
1.760000 16.280000 11.440000 140 119 95 0
1.980000 16.280000 11.440000 140 119 95 0
2.200000 16.280000 12.100000 141 120 96 0
2.420000 16.280000 12.760000 140 119 95 0
2.640000 16.280000 12.100000 139 121 96 0
2.860000 16.280000 11.330000 139 121 96 0
3.080000 16.280000 11.330000 140 119 95 0
3.300000 16.280000 12.100000 138 117 93 0
3.520000 16.280000 12.100000 138 117 93 0
3.740000 16.280000 11.440000 138 117 93 0
3.960000 16.280000 10.780000 138 117 93 0
4.180000 16.280000 10.780000 139 118 94 0
4.400000 16.280000 10.780000 137 119 94 0
4.620000 16.280000 10.120000 138 120 95 0
4.840000 16.280000 10.120000 140 119 95 0
5.060000 16.280000 10.120000 139 118 94 0
5.280000 16.280000 10.890000 139 118 94 0
5.500000 16.280000 10.890000 138 117 93 0
5.720000 16.280000 10.120000 139 118 94 0
5.940000 16.280000 10.120000 140 119 95 0
6.160000 16.280000 10.120000 138 117 93 0
6.380000 16.280000 10.120000 138 117 93 0
6.600000 16.280000 10.120000 138 117 93 0
6.820000 16.280000 10.780000 138 117 93 0
7.040000 16.280000 11.550000 138 115 92 0
7.260000 16.280000 10.780000 138 115 92 0
7.480000 16.280000 10.780000 138 115 92 0
7.700000 16.280000 10.780000 137 114 91 0
7.920000 16.280000 10.780000 137 114 91 0
8.140000 16.280000 10.780000 137 114 91 0
8.360000 16.280000 10.780000 137 114 91 0
8.580000 16.280000 10.230000 137 114 91 0
8.800000 16.280000 10.230000 136 113 90 0
9.020000 16.280000 10.230000 134 111 88 0
9.240000 16.280000 10.230000 135 112 89 0
9.460000 16.280000 10.230000 134 111 88 0
9.680000 16.280000 10.230000 134 111 88 0
9.900000 16.280000 10.230000 134 111 88 0
10.120000 16.280000 9.460000 135 112 89 0
10.340000 16.280000 9.460000 136 113 90 0
10.560000 16.280000 9.460000 139 114 91 0
10.780000 16.280000 9.460000 140 115 92 0
11.000000 16.280000 8.800000 140 115 92 0
11.220000 16.280000 8.800000 142 117 94 0
11.440000 16.280000 8.800000 156 113 91 0
11.660000 16.280000 8.800000 167 124 102 0
11.880000 16.280000 8.800000 186 139 106 0
12.100000 16.280000 8.800000 204 157 124 0
12.320000 16.280000 8.800000 212 168 136 0
12.540000 16.280000 8.910000 221 177 145 0
12.760000 16.280000 8.910000 223 179 145 0
12.980000 16.280000 8.910000 225 181 147 0
13.200000 16.280000 8.910000 225 181 149 0
13.420000 16.280000 9.460000 225 181 149 0
13.640000 16.280000 10.560000 222 181 148 0
13.860000 16.280000 11.110000 221 180 147 0
14.080000 16.280000 11.110000 220 176 144 0
14.300000 16.280000 11.110000 215 171 139 0
14.520000 16.280000 11.110000 209 162 131 0
14.740000 16.280000 11.110000 204 157 126 0
14.960000 16.280000 11.220000 198 150 123 0
15.180000 16.280000 11.220000 194 146 119 0
15.400000 16.280000 11.220000 193 142 118 0
15.620000 16.280000 11.220000 191 140 116 0
15.840000 16.280000 11.220000 187 139 114 0
16.060000 16.280000 11.220000 187 139 114 0
16.280000 16.280000 11.220000 187 139 114 0
16.500000 16.280000 11.990000 187 139 114 0
16.720000 16.280000 11.990000 187 139 112 0
16.940000 16.280000 11.990000 189 141 114 0
17.160000 16.280000 11.990000 193 142 116 0
17.380000 16.280000 11.990000 194 143 117 0
17.600000 16.280000 11.990000 193 145 120 0
17.820000 16.280000 11.990000 193 145 120 0
18.040000 16.280000 11.990000 193 146 121 0
18.260000 16.280000 12.100000 194 147 122 0
18.480000 16.280000 12.100000 195 148 123 0
18.700000 16.280000 12.100000 196 149 124 0
18.920000 16.280000 12.100000 198 150 125 0
19.140000 16.280000 12.100000 200 152 127 0
19.360000 16.280000 12.100000 199 152 129 0
19.580000 16.280000 12.100000 199 152 129 0
19.800000 16.280000 12.210000 200 153 130 0
20.020000 16.280000 12.210000 200 153 130 0
20.240000 16.280000 12.210000 201 154 129 0
20.460000 16.280000 12.210000 201 154 129 0
20.680000 16.280000 12.210000 200 153 128 0
20.900000 16.280000 12.870000 199 152 127 0
21.120000 16.280000 12.980000 198 151 128 0
21.340000 16.280000 12.980000 196 149 126 0
21.560000 16.280000 12.980000 198 151 128 0
21.780000 16.280000 12.980000 196 149 126 0
22.000000 16.280000 12.980000 195 149 128 0
22.220000 16.280000 12.980000 195 149 128 0
22.440000 16.280000 12.980000 191 148 127 0
22.660000 16.280000 12.980000 190 147 126 0
22.880000 16.280000 13.090000 190 144 123 0
23.100000 16.280000 13.090000 189 143 122 0
23.320000 16.280000 13.090000 188 142 124 0
23.540000 16.280000 13.090000 188 142 124 0
23.760000 16.280000 13.090000 184 140 122 0
23.980000 16.280000 13.090000 186 142 124 0
24.200000 16.280000 13.090000 186 144 127 0
24.420000 16.280000 13.640000 183 141 124 0
24.640000 16.280000 14.080000 182 138 122 0
24.860000 16.280000 13.970000 179 135 119 0
25.080000 16.280000 13.860000 175 132 118 0
25.300000 16.280000 14.520000 176 133 119 0
25.520000 16.280000 14.520000 181 137 119 0
25.740000 16.280000 14.520000 185 141 123 0
25.960000 16.280000 14.630000 189 146 125 0
26.180000 16.280000 14.630000 194 151 130 0
26.400000 16.280000 14.630000 198 152 131 0
26.620000 16.280000 14.630000 200 154 133 0
26.840000 16.280000 14.630000 202 156 136 0
27.060000 16.280000 14.630000 204 158 138 0
27.280000 16.280000 14.740000 202 159 138 0
27.500000 16.280000 14.740000 201 158 137 0
27.720000 16.280000 14.740000 205 159 138 0
27.940000 16.280000 14.740000 202 156 135 0
28.160000 16.280000 14.740000 197 151 131 0
28.380000 16.280000 14.740000 198 152 132 0
28.600000 16.280000 14.740000 201 155 135 0
28.820000 16.280000 14.850000 205 159 139 0
29.040000 16.280000 15.510000 207 163 145 0
29.260000 16.280000 15.510000 217 173 155 0
29.480000 16.280000 15.620000 216 177 157 0
29.700000 16.280000 15.620000 221 182 162 0
29.920000 16.280000 15.730000 225 186 166 0
30.140000 16.280000 16.390000 227 188 168 0
30.360000 16.280000 16.500000 228 189 167 0
30.580000 16.280000 17.050000 230 191 169 0
30.800000 16.280000 17.490000 231 192 170 0
31.020000 16.280000 18.040000 231 192 170 0
31.240000 16.280000 18.150000 233 194 174 0
31.460000 16.280000 18.920000 235 196 176 0
31.680000 16.280000 18.920000 235 195 180 0
31.900000 16.280000 19.030000 234 194 179 0
32.120000 16.280000 19.030000 235 196 176 0
32.340000 16.280000 19.030000 233 194 174 0
32.560000 16.280000 19.140000 233 194 174 0
32.780000 16.280000 19.140000 231 192 172 0
33.000000 16.280000 19.140000 230 188 169 0
33.220000 16.280000 19.140000 230 188 169 0
33.440000 16.280000 19.250000 226 188 170 0
33.660000 16.280000 19.910000 227 189 171 0
33.880000 16.280000 19.910000 227 189 175 0
34.100000 16.280000 20.020000 225 187 173 0
34.320000 16.280000 20.020000 223 186 173 0
34.540000 16.280000 19.360000 220 183 170 0
34.760000 16.280000 18.590000 218 178 165 0
34.980000 16.280000 16.390000 219 179 166 0
35.200000 16.280000 13.970000 216 178 162 0
35.420000 16.280000 10.450000 218 180 164 0
35.640000 16.280000 8.470000 221 181 166 0
35.860000 16.280000 7.150000 224 184 169 0
36.080000 16.280000 7.150000 209 193 188 0
36.300000 16.280000 10.010000 215 199 194 0
36.520000 16.280000 12.210000 213 207 204 0
36.740000 16.280000 12.980000 216 210 207 0
36.960000 16.280000 12.980000 216 210 207 0
37.180000 16.280000 12.980000 216 210 207 0
0.000000 16.500000 6.710000 140 147 126 0
0.220000 16.500000 6.050000 138 145 124 0
0.440000 16.500000 6.710000 139 140 119 0
0.660000 16.500000 8.030000 136 137 116 0
0.880000 16.500000 7.370000 143 126 101 0
1.100000 16.500000 5.940000 140 123 98 0
1.320000 16.500000 7.370000 139 121 96 0
1.540000 16.500000 10.120000 139 121 96 0
1.760000 16.500000 10.780000 142 121 97 0
1.980000 16.500000 11.440000 141 120 96 0
2.200000 16.500000 11.440000 140 119 95 0
2.420000 16.500000 11.440000 140 119 95 0
2.640000 16.500000 10.780000 138 120 95 0
2.860000 16.500000 10.670000 138 120 95 0
3.080000 16.500000 10.670000 139 118 94 0
3.300000 16.500000 10.780000 140 119 95 0
3.520000 16.500000 11.440000 138 117 93 0
3.740000 16.500000 11.440000 139 118 94 0
3.960000 16.500000 11.440000 139 118 94 0
4.180000 16.500000 10.780000 139 118 94 0
4.400000 16.500000 10.120000 138 117 93 0
4.620000 16.500000 9.460000 139 118 94 0
4.840000 16.500000 9.460000 139 118 94 0
5.060000 16.500000 10.120000 140 119 95 0
5.280000 16.500000 10.120000 139 118 94 0
5.500000 16.500000 10.120000 139 118 94 0
5.720000 16.500000 10.780000 139 118 94 0
5.940000 16.500000 10.780000 139 118 94 0
6.160000 16.500000 10.120000 137 116 92 0
6.380000 16.500000 10.120000 138 117 93 0
6.600000 16.500000 10.780000 139 116 93 0
6.820000 16.500000 11.550000 138 115 92 0
7.040000 16.500000 10.890000 137 114 91 0
7.260000 16.500000 10.890000 138 115 92 0
7.480000 16.500000 10.230000 138 115 92 0
7.700000 16.500000 10.230000 137 114 91 0
7.920000 16.500000 10.890000 137 114 91 0
8.140000 16.500000 10.780000 136 113 90 0
8.360000 16.500000 10.120000 136 113 90 0
8.580000 16.500000 10.230000 136 113 90 0
8.800000 16.500000 10.230000 136 113 90 0
9.020000 16.500000 10.230000 136 113 90 0
9.240000 16.500000 10.230000 135 112 89 0
9.460000 16.500000 10.230000 135 112 89 0
9.680000 16.500000 10.230000 135 112 89 0
9.900000 16.500000 10.230000 135 112 89 0
10.120000 16.500000 9.460000 135 112 89 0
10.340000 16.500000 9.460000 136 113 90 0
10.560000 16.500000 9.460000 138 113 90 0
10.780000 16.500000 9.460000 140 115 92 0
11.000000 16.500000 9.460000 141 114 90 0
11.220000 16.500000 8.800000 143 116 92 0
11.440000 16.500000 8.800000 156 116 88 0
11.660000 16.500000 8.800000 164 124 96 0
11.880000 16.500000 8.800000 189 134 108 0
12.100000 16.500000 8.800000 205 150 124 0
12.320000 16.500000 8.800000 210 166 134 0
12.540000 16.500000 8.910000 220 176 144 0
12.760000 16.500000 8.910000 223 179 147 0
12.980000 16.500000 8.910000 223 179 147 0
13.200000 16.500000 8.910000 223 178 144 0
13.420000 16.500000 9.460000 224 179 145 0
13.640000 16.500000 10.560000 223 179 147 0
13.860000 16.500000 11.110000 223 179 147 0
14.080000 16.500000 11.110000 220 174 143 0
14.300000 16.500000 11.110000 218 172 141 0
14.520000 16.500000 11.110000 213 163 135 0
14.740000 16.500000 11.110000 207 157 129 0
14.960000 16.500000 11.220000 201 150 124 0
15.180000 16.500000 11.220000 197 146 120 0
15.400000 16.500000 11.220000 191 140 116 0
15.620000 16.500000 11.220000 189 138 114 0
15.840000 16.500000 11.220000 189 136 113 0
16.060000 16.500000 11.220000 189 136 113 0
16.280000 16.500000 11.220000 185 138 113 0
16.500000 16.500000 11.990000 187 140 115 0
16.720000 16.500000 11.990000 191 140 116 0
16.940000 16.500000 11.990000 192 141 117 0
17.160000 16.500000 11.990000 191 143 118 0
17.380000 16.500000 11.990000 192 144 119 0
17.600000 16.500000 11.990000 193 145 120 0
17.820000 16.500000 11.990000 193 145 120 0
18.040000 16.500000 11.990000 195 147 122 0
18.260000 16.500000 12.100000 195 147 122 0
18.480000 16.500000 12.100000 196 148 123 0
18.700000 16.500000 12.100000 199 151 126 0
18.920000 16.500000 12.100000 199 154 128 0
19.140000 16.500000 12.100000 200 155 129 0
19.360000 16.500000 12.100000 201 154 131 0
19.580000 16.500000 12.100000 201 154 131 0
19.800000 16.500000 12.210000 201 156 132 0
20.020000 16.500000 12.210000 202 157 133 0
20.240000 16.500000 12.210000 202 155 130 0
20.460000 16.500000 12.210000 202 155 130 0
20.680000 16.500000 12.210000 201 156 132 0
20.900000 16.500000 12.870000 200 155 131 0
21.120000 16.500000 12.980000 202 155 132 0
21.340000 16.500000 12.980000 202 155 132 0
21.560000 16.500000 12.980000 200 153 130 0
21.780000 16.500000 12.980000 198 151 128 0
22.000000 16.500000 12.980000 197 150 129 0
22.220000 16.500000 12.980000 194 147 126 0
22.440000 16.500000 12.980000 192 146 126 0
22.660000 16.500000 13.090000 190 144 124 0
22.880000 16.500000 13.090000 190 144 123 0
23.100000 16.500000 13.090000 189 143 122 0
23.320000 16.500000 13.090000 191 144 123 0
23.540000 16.500000 13.090000 191 144 123 0
23.760000 16.500000 13.090000 191 143 124 0
23.980000 16.500000 13.090000 194 146 127 0
24.200000 16.500000 12.980000 193 147 126 0
24.420000 16.500000 14.080000 193 147 126 0
24.640000 16.500000 14.520000 190 144 124 0
24.860000 16.500000 14.520000 188 142 122 0
25.080000 16.500000 14.520000 181 137 119 0
25.300000 16.500000 14.520000 181 137 119 0
25.520000 16.500000 14.520000 185 137 120 0
25.740000 16.500000 14.630000 189 141 124 0
25.960000 16.500000 14.630000 192 146 126 0
26.180000 16.500000 14.630000 196 150 130 0
26.400000 16.500000 14.630000 197 154 133 0
26.620000 16.500000 14.630000 199 156 135 0
26.840000 16.500000 14.630000 201 158 136 0
27.060000 16.500000 14.740000 201 158 136 0
27.280000 16.500000 14.740000 203 157 136 0
27.500000 16.500000 14.740000 205 159 138 0
27.720000 16.500000 14.740000 206 160 139 0
27.940000 16.500000 14.740000 204 158 137 0
28.160000 16.500000 14.740000 200 157 136 0
28.380000 16.500000 14.740000 198 155 134 0
28.600000 16.500000 14.850000 203 160 139 0
28.820000 16.500000 15.510000 206 163 142 0
29.040000 16.500000 15.510000 212 169 147 0
29.260000 16.500000 15.620000 218 175 153 0
29.480000 16.500000 15.620000 219 180 160 0
29.700000 16.500000 15.620000 223 184 164 0
29.920000 16.500000 15.730000 225 187 169 0
30.140000 16.500000 16.390000 227 189 171 0
30.360000 16.500000 16.500000 228 191 170 0
30.580000 16.500000 17.050000 229 192 171 0
30.800000 16.500000 18.260000 231 192 172 0
31.020000 16.500000 18.040000 233 194 174 0
31.240000 16.500000 18.810000 233 194 176 0
31.460000 16.500000 18.920000 234 195 177 0
31.680000 16.500000 18.920000 233 195 177 0
31.900000 16.500000 19.030000 234 196 178 0
32.120000 16.500000 19.030000 233 196 175 0
32.340000 16.500000 19.030000 233 196 175 0
32.560000 16.500000 19.140000 231 192 170 0
32.780000 16.500000 19.140000 230 191 169 0
33.000000 16.500000 19.140000 227 188 170 0
33.220000 16.500000 19.910000 226 187 169 0
33.440000 16.500000 19.910000 228 188 173 0
33.660000 16.500000 19.910000 228 188 173 0
33.880000 16.500000 20.020000 226 186 173 0
34.100000 16.500000 20.020000 223 183 170 0
34.320000 16.500000 18.590000 220 180 165 0
34.540000 16.500000 16.390000 217 177 162 0
34.760000 16.500000 13.530000 217 178 160 0
34.980000 16.500000 9.900000 217 178 160 0
35.200000 16.500000 7.810000 217 179 163 0
35.420000 16.500000 6.380000 222 184 168 0
35.640000 16.500000 6.380000 228 190 174 0
35.860000 16.500000 7.150000 229 191 175 0
36.080000 16.500000 7.810000 227 192 181 0
36.300000 16.500000 9.350000 231 196 185 0
36.520000 16.500000 11.440000 213 207 202 0
36.740000 16.500000 12.210000 216 210 205 0
36.960000 16.500000 12.980000 216 210 207 0
37.180000 16.500000 12.980000 216 210 207 0
0.000000 16.720000 2.530000 140 147 126 0
0.220000 16.720000 2.530000 138 145 124 0
0.440000 16.720000 5.280000 140 141 120 0
0.660000 16.720000 7.370000 136 137 116 0
0.880000 16.720000 8.800000 145 128 103 0
1.100000 16.720000 10.120000 141 124 99 0
1.320000 16.720000 10.120000 140 122 97 0
1.540000 16.720000 8.030000 140 122 97 0
1.760000 16.720000 6.710000 141 120 96 0
1.980000 16.720000 8.800000 141 120 96 0
2.200000 16.720000 9.460000 140 119 95 0
2.420000 16.720000 7.370000 141 120 96 0
2.640000 16.720000 8.690000 138 120 95 0
2.860000 16.720000 10.120000 139 121 96 0
3.080000 16.720000 10.120000 140 119 95 0
3.300000 16.720000 10.010000 140 119 95 0
3.520000 16.720000 11.440000 140 119 95 0
3.740000 16.720000 12.100000 139 118 94 0
3.960000 16.720000 12.100000 140 119 95 0
4.180000 16.720000 10.780000 138 117 93 0
4.400000 16.720000 10.120000 139 118 94 0
4.620000 16.720000 9.460000 138 117 93 0
4.840000 16.720000 9.460000 139 118 94 0
5.060000 16.720000 10.120000 139 118 94 0
5.280000 16.720000 10.120000 139 118 94 0
5.500000 16.720000 10.120000 140 119 95 0
5.720000 16.720000 10.120000 139 118 94 0
5.940000 16.720000 10.120000 139 118 94 0
6.160000 16.720000 10.120000 138 117 93 0
6.380000 16.720000 10.120000 137 116 92 0
6.600000 16.720000 10.890000 138 115 92 0
6.820000 16.720000 11.550000 138 115 92 0
7.040000 16.720000 10.890000 138 115 92 0
7.260000 16.720000 10.230000 139 116 93 0
7.480000 16.720000 10.120000 138 115 92 0
7.700000 16.720000 10.890000 138 115 92 0
7.920000 16.720000 10.890000 138 115 92 0
8.140000 16.720000 10.230000 138 115 92 0
8.360000 16.720000 10.230000 137 114 91 0
8.580000 16.720000 10.230000 137 114 91 0
8.800000 16.720000 10.230000 137 114 91 0
9.020000 16.720000 10.230000 137 114 91 0
9.240000 16.720000 10.230000 136 113 90 0
9.460000 16.720000 10.230000 135 112 89 0
9.680000 16.720000 10.230000 135 112 89 0
9.900000 16.720000 10.230000 134 111 88 0
10.120000 16.720000 10.230000 135 112 89 0
10.340000 16.720000 9.460000 135 112 89 0
10.560000 16.720000 9.460000 138 113 90 0
10.780000 16.720000 9.460000 139 114 91 0
11.000000 16.720000 9.460000 141 114 90 0
11.220000 16.720000 8.800000 144 117 93 0
11.440000 16.720000 8.800000 156 116 88 0
11.660000 16.720000 8.800000 161 121 93 0
11.880000 16.720000 8.800000 188 133 107 0
12.100000 16.720000 8.800000 200 145 119 0
12.320000 16.720000 8.800000 207 163 131 0
12.540000 16.720000 8.910000 216 172 140 0
12.760000 16.720000 8.910000 222 178 146 0
12.980000 16.720000 8.910000 221 177 145 0
13.200000 16.720000 8.910000 222 177 143 0
13.420000 16.720000 9.460000 222 177 143 0
13.640000 16.720000 10.560000 220 176 144 0
13.860000 16.720000 11.110000 221 177 145 0
14.080000 16.720000 11.110000 220 174 143 0
14.300000 16.720000 11.110000 219 173 142 0
14.520000 16.720000 11.110000 214 164 136 0
14.740000 16.720000 11.110000 208 158 130 0
14.960000 16.720000 11.220000 201 150 124 0
15.180000 16.720000 11.220000 195 144 118 0
15.400000 16.720000 11.220000 192 141 117 0
15.620000 16.720000 11.220000 190 139 115 0
15.840000 16.720000 11.220000 189 136 113 0
16.060000 16.720000 11.220000 188 135 112 0
16.280000 16.720000 11.990000 186 139 114 0
16.500000 16.720000 11.990000 186 139 114 0
16.720000 16.720000 11.990000 191 140 116 0
16.940000 16.720000 11.990000 192 141 117 0
17.160000 16.720000 11.990000 191 143 118 0
17.380000 16.720000 11.990000 192 144 119 0
17.600000 16.720000 11.990000 193 145 120 0
17.820000 16.720000 11.990000 194 146 121 0
18.040000 16.720000 11.990000 196 148 123 0
18.260000 16.720000 12.100000 197 149 124 0
18.480000 16.720000 12.100000 198 150 125 0
18.700000 16.720000 12.100000 200 152 127 0
18.920000 16.720000 12.100000 201 156 130 0
19.140000 16.720000 12.100000 202 157 131 0
19.360000 16.720000 12.100000 202 155 132 0
19.580000 16.720000 12.100000 202 155 132 0
19.800000 16.720000 12.210000 201 156 132 0
20.020000 16.720000 12.210000 203 158 134 0
20.240000 16.720000 12.210000 204 157 132 0
20.460000 16.720000 12.210000 205 158 133 0
20.680000 16.720000 12.210000 203 158 134 0
20.900000 16.720000 12.210000 203 158 134 0
21.120000 16.720000 12.980000 204 157 134 0
21.340000 16.720000 12.980000 204 157 134 0
21.560000 16.720000 12.980000 202 155 132 0
21.780000 16.720000 12.980000 199 152 129 0
22.000000 16.720000 12.980000 196 149 128 0
22.220000 16.720000 12.980000 194 147 126 0
22.440000 16.720000 12.980000 191 145 125 0
22.660000 16.720000 13.090000 190 144 124 0
22.880000 16.720000 13.090000 190 144 123 0
23.100000 16.720000 13.090000 191 145 124 0
23.320000 16.720000 13.090000 194 147 126 0
23.540000 16.720000 13.090000 196 149 128 0
23.760000 16.720000 13.090000 197 149 130 0
23.980000 16.720000 13.090000 198 150 131 0
24.200000 16.720000 12.980000 199 153 132 0
24.420000 16.720000 13.970000 199 153 132 0
24.640000 16.720000 14.520000 197 151 131 0
24.860000 16.720000 14.520000 193 147 127 0
25.080000 16.720000 14.520000 186 142 124 0
25.300000 16.720000 14.520000 184 140 122 0
25.520000 16.720000 14.630000 186 138 121 0
25.740000 16.720000 14.630000 190 142 125 0
25.960000 16.720000 14.630000 192 146 126 0
26.180000 16.720000 14.630000 196 150 130 0
26.400000 16.720000 14.630000 197 154 133 0
26.620000 16.720000 14.630000 199 156 135 0
26.840000 16.720000 14.740000 200 157 135 0
27.060000 16.720000 14.740000 201 158 136 0
27.280000 16.720000 14.740000 203 157 136 0
27.500000 16.720000 14.740000 203 157 136 0
27.720000 16.720000 14.740000 203 157 136 0
27.940000 16.720000 14.740000 205 159 138 0
28.160000 16.720000 14.740000 202 159 138 0
28.380000 16.720000 14.850000 202 159 138 0
28.600000 16.720000 14.850000 205 162 141 0
28.820000 16.720000 15.510000 209 166 145 0
29.040000 16.720000 15.620000 214 171 149 0
29.260000 16.720000 15.620000 218 175 153 0
29.480000 16.720000 15.620000 219 180 160 0
29.700000 16.720000 15.620000 223 184 164 0
29.920000 16.720000 15.730000 226 188 170 0
30.140000 16.720000 16.500000 229 191 173 0
30.360000 16.720000 16.500000 231 194 173 0
30.580000 16.720000 17.050000 232 195 174 0
30.800000 16.720000 18.260000 233 194 174 0
31.020000 16.720000 18.040000 234 195 175 0
31.240000 16.720000 18.810000 234 195 177 0
31.460000 16.720000 18.920000 233 194 176 0
31.680000 16.720000 18.920000 233 195 177 0
31.900000 16.720000 19.030000 233 195 177 0
32.120000 16.720000 19.030000 232 195 174 0
32.340000 16.720000 19.030000 231 194 173 0
32.560000 16.720000 19.140000 230 191 169 0
32.780000 16.720000 19.140000 227 188 166 0
33.000000 16.720000 19.910000 224 185 167 0
33.220000 16.720000 19.910000 226 187 169 0
33.440000 16.720000 19.910000 224 184 169 0
33.660000 16.720000 19.910000 222 182 167 0
33.880000 16.720000 18.590000 220 180 167 0
34.100000 16.720000 16.500000 216 176 163 0
34.320000 16.720000 12.980000 212 172 157 0
34.540000 16.720000 9.240000 215 175 160 0
34.760000 16.720000 7.810000 217 178 160 0
34.980000 16.720000 6.380000 221 182 164 0
35.200000 16.720000 6.380000 224 186 170 0
35.420000 16.720000 6.380000 231 193 177 0
35.640000 16.720000 7.150000 236 198 182 0
35.860000 16.720000 7.150000 237 199 183 0
36.080000 16.720000 7.810000 232 197 186 0
36.300000 16.720000 9.240000 233 198 187 0
36.520000 16.720000 11.440000 214 208 203 0
36.740000 16.720000 12.210000 217 211 206 0
36.960000 16.720000 12.980000 216 210 207 0
37.180000 16.720000 12.980000 217 211 208 0
0.220000 16.940000 0.440000 141 145 126 0
0.440000 16.940000 3.960000 141 142 123 0
0.660000 16.940000 7.370000 137 138 119 0
0.880000 16.940000 8.690000 145 128 105 0
1.100000 16.940000 10.120000 142 125 102 0
1.320000 16.940000 8.690000 142 121 97 0
1.540000 16.940000 3.850000 141 120 96 0
1.760000 16.940000 1.870000 140 122 97 0
1.980000 16.940000 5.280000 139 121 96 0
2.200000 16.940000 6.050000 140 119 95 0
2.420000 16.940000 4.620000 140 119 95 0
2.640000 16.940000 8.030000 141 120 96 0
2.860000 16.940000 10.890000 140 119 95 0
3.080000 16.940000 10.780000 141 120 96 0
3.300000 16.940000 9.350000 140 119 95 0
3.520000 16.940000 9.350000 139 118 94 0
3.740000 16.940000 11.330000 139 118 94 0
3.960000 16.940000 12.100000 140 119 95 0
4.180000 16.940000 10.780000 139 118 94 0
4.400000 16.940000 10.120000 139 118 94 0
4.620000 16.940000 10.120000 139 118 94 0
4.840000 16.940000 10.120000 139 118 94 0
5.060000 16.940000 10.780000 140 119 95 0
5.280000 16.940000 10.780000 140 119 95 0
5.500000 16.940000 10.120000 139 118 94 0
5.720000 16.940000 10.120000 138 117 93 0
5.940000 16.940000 10.120000 140 119 95 0
6.160000 16.940000 10.230000 138 117 93 0
6.380000 16.940000 10.230000 138 117 93 0
6.600000 16.940000 10.890000 138 117 93 0
6.820000 16.940000 10.890000 137 116 92 0
