ply
format ascii 1.0
element vertex 1128
property float x
property float y
property float z
property uchar red
property uchar green
property uchar blue
property uchar alpha
end_header
3.740000 9.240000 21.010000 178 182 180 0
3.960000 9.240000 20.350000 179 183 181 0
4.180000 9.240000 20.350000 180 186 183 0
4.400000 9.240000 20.350000 181 187 184 0
4.620000 9.240000 20.350000 184 190 187 0
4.840000 9.240000 20.350000 185 191 188 0
5.060000 9.240000 20.350000 186 190 188 0
5.280000 9.240000 20.460000 187 191 189 0
5.500000 9.240000 20.460000 189 193 191 0
5.720000 9.240000 20.460000 189 193 191 0
5.940000 9.240000 20.460000 190 196 193 0
6.160000 9.240000 20.460000 190 196 193 0
6.380000 9.240000 20.460000 191 197 194 0
6.600000 9.240000 20.460000 192 198 195 0
6.820000 9.240000 20.460000 192 198 195 0
7.040000 9.240000 20.570000 193 199 196 0
7.260000 9.240000 20.570000 194 198 196 0
7.480000 9.240000 20.570000 195 199 197 0
7.700000 9.240000 20.570000 193 199 196 0
7.920000 9.240000 20.570000 194 200 197 0
8.140000 9.240000 15.070000 196 200 198 0
8.360000 9.240000 4.070000 195 199 197 0
11.000000 9.240000 0.660000 195 198 198 0
11.220000 9.240000 0.660000 194 199 198 0
11.440000 9.240000 1.210000 194 199 198 0
11.660000 9.240000 1.650000 195 198 198 0
11.880000 9.240000 2.090000 196 199 199 0
12.100000 9.240000 2.090000 196 199 199 0
12.320000 9.240000 2.090000 196 199 199 0
12.540000 9.240000 2.090000 196 199 199 0
12.760000 9.240000 1.430000 195 198 198 0
12.980000 9.240000 1.430000 195 200 199 0
13.200000 9.240000 1.430000 195 200 199 0
13.420000 9.240000 0.770000 195 200 199 0
13.640000 9.240000 0.770000 196 201 200 0
14.740000 9.240000 0.110000 196 201 200 0
14.960000 9.240000 0.110000 196 201 200 0
15.180000 9.240000 0.110000 196 201 200 0
15.400000 9.240000 0.110000 197 202 201 0
15.620000 9.240000 0.110000 198 201 201 0
15.840000 9.240000 0.110000 197 200 200 0
16.060000 9.240000 0.110000 196 201 200 0
16.280000 9.240000 0.110000 196 201 200 0
16.500000 9.240000 0.220000 196 201 200 0
16.720000 9.240000 0.220000 196 201 200 0
16.940000 9.240000 0.220000 197 202 201 0
17.160000 9.240000 0.220000 197 202 201 0
17.380000 9.240000 0.220000 197 202 201 0
17.600000 9.240000 0.220000 196 201 200 0
17.820000 9.240000 0.220000 197 202 201 0
18.040000 9.240000 0.990000 196 201 200 0
18.260000 9.240000 0.990000 198 201 201 0
18.480000 9.240000 0.990000 198 201 201 0
18.700000 9.240000 0.990000 198 201 201 0
18.920000 9.240000 0.990000 198 201 201 0
19.140000 9.240000 0.990000 197 202 201 0
19.360000 9.240000 1.100000 197 202 201 0
19.580000 9.240000 1.100000 198 203 202 0
19.800000 9.240000 1.100000 197 202 201 0
20.020000 9.240000 1.100000 199 202 202 0
20.240000 9.240000 1.100000 199 202 202 0
20.460000 9.240000 1.100000 199 202 202 0
20.680000 9.240000 1.100000 199 202 202 0
20.900000 9.240000 1.210000 199 204 203 0
21.120000 9.240000 1.210000 199 204 203 0
21.340000 9.240000 1.210000 199 204 203 0
21.560000 9.240000 1.210000 199 204 203 0
21.780000 9.240000 1.210000 200 203 203 0
22.000000 9.240000 1.210000 200 203 203 0
22.220000 9.240000 1.210000 201 204 204 0
22.440000 9.240000 1.980000 200 203 203 0
22.660000 9.240000 1.980000 200 203 203 0
22.880000 9.240000 1.980000 199 202 202 0
23.100000 9.240000 1.980000 198 201 201 0
23.320000 9.240000 2.090000 199 202 202 0
23.540000 9.240000 1.870000 200 203 203 0
23.760000 9.240000 2.970000 201 204 204 0
23.980000 9.240000 3.520000 201 204 204 0
24.200000 9.240000 3.520000 200 203 203 0
24.420000 9.240000 3.520000 200 203 203 0
24.640000 9.240000 3.520000 201 204 204 0
24.860000 9.240000 4.180000 201 204 204 0
25.080000 9.240000 4.180000 201 204 204 0
25.300000 9.240000 4.290000 201 205 203 0
25.520000 9.240000 4.290000 201 205 203 0
25.740000 9.240000 4.290000 201 202 202 0
25.960000 9.240000 4.290000 202 203 203 0
26.180000 9.240000 4.290000 199 203 201 0
26.400000 9.240000 4.400000 200 204 202 0
26.620000 9.240000 4.400000 199 203 201 0
26.840000 9.240000 4.400000 199 203 201 0
27.060000 9.240000 4.400000 200 203 203 0
27.280000 9.240000 4.400000 199 202 202 0
27.500000 9.240000 4.400000 201 202 202 0
27.720000 9.240000 4.400000 201 202 202 0
27.940000 9.240000 4.400000 201 202 201 0
28.160000 9.240000 4.400000 202 203 202 0
28.380000 9.240000 4.510000 200 201 200 0
28.600000 9.240000 4.510000 199 200 199 0
28.820000 9.240000 4.510000 199 203 201 0
29.040000 9.240000 4.510000 198 202 200 0
29.260000 9.240000 4.510000 201 202 202 0
29.480000 9.240000 4.620000 201 202 202 0
29.700000 9.240000 5.280000 202 203 202 0
29.920000 9.240000 5.280000 203 204 203 0
30.140000 9.240000 5.280000 206 201 200 0
30.360000 9.240000 5.280000 196 191 190 0
30.580000 9.240000 4.620000 198 179 176 0
30.800000 9.240000 4.620000 187 168 165 0
31.020000 9.240000 4.730000 183 161 158 0
31.240000 9.240000 4.730000 184 162 159 0
31.460000 9.240000 4.730000 188 166 163 0
31.680000 9.240000 4.730000 190 168 165 0
31.900000 9.240000 4.730000 188 168 164 0
32.120000 9.240000 4.730000 189 169 165 0
32.340000 9.240000 4.730000 189 169 165 0
32.560000 9.240000 5.280000 189 169 165 0
32.780000 9.240000 5.720000 190 169 169 0
33.000000 9.240000 6.270000 192 171 171 0
33.220000 9.240000 6.270000 192 171 171 0
33.440000 9.240000 6.270000 193 172 172 0
33.660000 9.240000 6.270000 194 175 176 0
33.880000 9.240000 6.270000 194 175 176 0
34.100000 9.240000 5.610000 191 176 176 0
34.320000 9.240000 5.610000 193 178 178 0
34.540000 9.240000 5.720000 197 177 181 0
34.760000 9.240000 5.720000 197 177 181 0
34.980000 9.240000 5.720000 198 178 182 0
35.200000 9.240000 6.490000 199 179 183 0
35.420000 9.240000 6.490000 194 182 189 0
35.640000 9.240000 6.490000 193 181 188 0
35.860000 9.240000 6.490000 195 184 187 0
36.080000 9.240000 6.490000 193 182 185 0
36.300000 9.240000 6.490000 193 187 196 0
36.520000 9.240000 6.490000 194 188 197 0
36.740000 9.240000 6.490000 190 188 194 0
36.960000 9.240000 6.600000 194 192 198 0
37.180000 9.240000 6.600000 196 193 199 0
0.000000 9.460000 0.990000 130 122 114 0
0.220000 9.460000 0.990000 130 123 112 0
0.440000 9.460000 0.990000 131 124 113 0
0.660000 9.460000 0.990000 132 125 114 0
0.880000 9.460000 0.990000 132 125 114 0
1.100000 9.460000 0.990000 133 125 117 0
1.320000 9.460000 0.990000 132 124 116 0
1.540000 9.460000 0.990000 134 125 117 0
1.760000 9.460000 0.990000 133 124 116 0
1.980000 9.460000 0.990000 134 127 116 0
2.200000 9.460000 0.990000 133 126 115 0
2.420000 9.460000 0.990000 131 126 118 0
2.640000 9.460000 0.220000 143 138 130 0
2.860000 9.460000 5.060000 149 154 153 0
3.080000 9.460000 15.510000 170 175 174 0
3.300000 9.460000 21.010000 175 179 177 0
3.520000 9.460000 21.010000 176 180 178 0
3.740000 9.460000 20.350000 178 182 180 0
3.960000 9.460000 20.350000 181 185 183 0
4.180000 9.460000 20.350000 180 186 183 0
4.400000 9.460000 20.350000 182 188 185 0
4.620000 9.460000 20.350000 183 189 186 0
4.840000 9.460000 20.350000 184 190 187 0
5.060000 9.460000 20.350000 187 191 189 0
5.280000 9.460000 20.460000 187 191 189 0
5.500000 9.460000 20.460000 188 192 190 0
5.720000 9.460000 20.460000 190 194 192 0
5.940000 9.460000 20.460000 190 196 193 0
6.160000 9.460000 20.460000 190 196 193 0
6.380000 9.460000 20.460000 191 197 194 0
6.600000 9.460000 20.460000 191 197 194 0
6.820000 9.460000 20.460000 192 198 195 0
7.040000 9.460000 20.570000 192 198 195 0
7.260000 9.460000 20.570000 194 198 196 0
7.480000 9.460000 20.570000 194 198 196 0
7.700000 9.460000 20.570000 193 199 196 0
7.920000 9.460000 20.570000 194 200 197 0
8.140000 9.460000 15.070000 195 199 197 0
8.360000 9.460000 4.070000 195 199 197 0
11.000000 9.460000 0.660000 195 198 198 0
11.220000 9.460000 0.660000 195 200 199 0
11.440000 9.460000 0.660000 194 199 198 0
11.660000 9.460000 1.100000 196 199 199 0
11.880000 9.460000 1.540000 196 199 199 0
12.100000 9.460000 2.090000 196 199 199 0
12.320000 9.460000 2.090000 196 199 199 0
12.540000 9.460000 2.090000 196 199 199 0
12.760000 9.460000 1.430000 195 198 198 0
12.980000 9.460000 1.430000 194 199 198 0
13.200000 9.460000 1.430000 195 200 199 0
13.420000 9.460000 0.770000 195 200 199 0
13.640000 9.460000 0.770000 195 200 199 0
14.740000 9.460000 0.110000 195 200 199 0
14.960000 9.460000 0.110000 196 201 200 0
15.180000 9.460000 0.110000 196 201 200 0
15.400000 9.460000 0.110000 196 201 200 0
15.620000 9.460000 0.110000 198 201 201 0
15.840000 9.460000 0.110000 198 201 201 0
16.060000 9.460000 0.110000 195 200 199 0
16.280000 9.460000 0.110000 196 201 200 0
16.500000 9.460000 0.220000 196 201 200 0
16.720000 9.460000 0.220000 196 201 200 0
16.940000 9.460000 0.220000 196 201 200 0
17.160000 9.460000 0.220000 196 201 200 0
17.380000 9.460000 0.220000 196 201 200 0
17.600000 9.460000 0.880000 196 201 200 0
17.820000 9.460000 0.990000 196 201 200 0
18.040000 9.460000 0.990000 196 201 200 0
18.260000 9.460000 0.990000 197 200 200 0
18.480000 9.460000 0.990000 197 200 200 0
18.700000 9.460000 0.990000 198 201 201 0
18.920000 9.460000 0.990000 198 201 201 0
19.140000 9.460000 0.990000 198 203 202 0
19.360000 9.460000 1.100000 197 202 201 0
19.580000 9.460000 1.100000 197 202 201 0
19.800000 9.460000 1.100000 198 203 202 0
20.020000 9.460000 1.100000 199 202 202 0
20.240000 9.460000 1.100000 199 202 202 0
20.460000 9.460000 1.100000 200 203 203 0
20.680000 9.460000 1.100000 199 202 202 0
20.900000 9.460000 1.210000 198 203 202 0
21.120000 9.460000 1.210000 198 203 202 0
21.340000 9.460000 1.210000 198 203 202 0
21.560000 9.460000 1.210000 199 204 203 0
21.780000 9.460000 1.210000 200 203 203 0
22.000000 9.460000 1.980000 200 203 203 0
22.220000 9.460000 1.980000 200 203 203 0
22.440000 9.460000 1.980000 200 203 203 0
22.660000 9.460000 1.980000 198 201 201 0
22.880000 9.460000 1.980000 199 202 202 0
23.100000 9.460000 1.980000 198 201 201 0
23.320000 9.460000 2.090000 199 202 202 0
23.540000 9.460000 2.530000 200 203 203 0
23.760000 9.460000 2.970000 201 204 204 0
23.980000 9.460000 3.520000 201 204 204 0
24.200000 9.460000 3.520000 200 203 203 0
24.420000 9.460000 3.520000 200 203 203 0
24.640000 9.460000 3.520000 200 203 203 0
24.860000 9.460000 3.520000 201 204 204 0
25.080000 9.460000 4.290000 201 204 204 0
25.300000 9.460000 4.290000 201 205 203 0
25.520000 9.460000 4.290000 201 205 203 0
25.740000 9.460000 4.290000 200 201 201 0
25.960000 9.460000 4.290000 200 201 201 0
26.180000 9.460000 4.290000 198 202 200 0
26.400000 9.460000 4.400000 198 202 200 0
26.620000 9.460000 4.400000 196 200 198 0
26.840000 9.460000 4.400000 197 201 199 0
27.060000 9.460000 4.400000 196 199 199 0
27.280000 9.460000 4.400000 197 200 200 0
27.500000 9.460000 4.400000 200 201 201 0
27.720000 9.460000 4.400000 199 200 200 0
27.940000 9.460000 4.400000 198 199 198 0
28.160000 9.460000 4.510000 199 200 199 0
28.380000 9.460000 4.510000 197 198 197 0
28.600000 9.460000 4.510000 197 198 197 0
28.820000 9.460000 4.510000 197 201 199 0
29.040000 9.460000 4.510000 196 200 198 0
29.260000 9.460000 4.510000 198 199 199 0
29.480000 9.460000 5.280000 197 198 198 0
29.700000 9.460000 5.280000 197 198 197 0
29.920000 9.460000 5.280000 199 200 199 0
30.140000 9.460000 5.280000 202 197 196 0
30.360000 9.460000 5.390000 192 187 186 0
30.580000 9.460000 5.390000 194 175 172 0
30.800000 9.460000 4.730000 183 164 161 0
31.020000 9.460000 4.730000 175 153 150 0
31.240000 9.460000 4.730000 174 152 149 0
31.460000 9.460000 4.730000 178 156 153 0
31.680000 9.460000 4.730000 179 157 154 0
31.900000 9.460000 4.730000 179 159 155 0
32.120000 9.460000 4.840000 180 160 156 0
32.340000 9.460000 5.390000 179 159 155 0
32.560000 9.460000 5.830000 180 160 156 0
32.780000 9.460000 6.270000 178 157 157 0
33.000000 9.460000 6.270000 179 158 158 0
33.220000 9.460000 6.270000 178 157 157 0
33.440000 9.460000 6.270000 180 159 159 0
33.660000 9.460000 6.270000 179 160 161 0
33.880000 9.460000 6.380000 181 162 163 0
34.100000 9.460000 6.380000 178 163 163 0
34.320000 9.460000 6.380000 180 165 165 0
34.540000 9.460000 6.380000 183 163 167 0
34.760000 9.460000 6.380000 183 163 167 0
34.980000 9.460000 6.490000 182 162 166 0
35.200000 9.460000 6.490000 185 165 169 0
35.420000 9.460000 6.490000 181 169 176 0
35.640000 9.460000 6.490000 181 169 176 0
35.860000 9.460000 6.490000 179 168 171 0
36.080000 9.460000 6.490000 181 170 173 0
36.300000 9.460000 6.600000 179 173 182 0
36.520000 9.460000 6.600000 182 176 185 0
36.740000 9.460000 6.600000 181 179 185 0
36.960000 9.460000 6.600000 181 179 185 0
37.180000 9.460000 7.260000 184 181 187 0
0.000000 9.680000 0.990000 129 122 111 0
0.220000 9.680000 0.990000 130 122 114 0
0.440000 9.680000 0.990000 131 123 115 0
0.660000 9.680000 0.990000 131 123 115 0
0.880000 9.680000 0.990000 132 124 116 0
1.100000 9.680000 0.990000 133 126 115 0
1.320000 9.680000 0.990000 132 125 114 0
1.540000 9.680000 0.990000 132 125 114 0
1.760000 9.680000 0.990000 131 124 113 0
1.980000 9.680000 0.990000 132 124 116 0
2.200000 9.680000 0.990000 132 124 116 0
2.420000 9.680000 0.990000 133 125 117 0
2.640000 9.680000 0.220000 144 136 128 0
2.860000 9.680000 5.060000 146 154 151 0
3.080000 9.680000 15.510000 165 173 170 0
3.300000 9.680000 21.010000 173 177 175 0
3.520000 9.680000 21.010000 176 180 178 0
3.740000 9.680000 20.350000 178 182 180 0
3.960000 9.680000 20.350000 180 184 182 0
4.180000 9.680000 20.350000 179 184 183 0
4.400000 9.680000 20.350000 181 186 185 0
4.620000 9.680000 20.350000 183 189 186 0
4.840000 9.680000 20.350000 183 189 186 0
5.060000 9.680000 20.350000 186 192 189 0
5.280000 9.680000 20.460000 185 191 188 0
5.500000 9.680000 20.460000 186 192 189 0
5.720000 9.680000 20.460000 188 194 191 0
5.940000 9.680000 20.460000 189 195 192 0
6.160000 9.680000 20.460000 189 195 192 0
6.380000 9.680000 20.460000 190 196 193 0
6.600000 9.680000 20.460000 190 196 193 0
6.820000 9.680000 20.460000 192 197 196 0
7.040000 9.680000 20.570000 192 197 196 0
7.260000 9.680000 20.570000 193 199 196 0
7.480000 9.680000 20.570000 192 198 195 0
7.700000 9.680000 20.570000 193 199 196 0
7.920000 9.680000 20.570000 192 198 195 0
8.140000 9.680000 15.070000 194 199 198 0
8.360000 9.680000 4.070000 193 198 197 0
11.000000 9.680000 0.660000 194 199 198 0
11.220000 9.680000 0.660000 195 201 198 0
11.440000 9.680000 0.660000 194 200 197 0
11.660000 9.680000 1.210000 194 199 198 0
11.880000 9.680000 1.650000 195 200 199 0
12.100000 9.680000 2.090000 194 199 198 0
12.320000 9.680000 2.090000 194 199 198 0
12.540000 9.680000 2.090000 193 198 197 0
12.760000 9.680000 1.430000 194 199 198 0
12.980000 9.680000 1.430000 194 200 197 0
13.200000 9.680000 1.430000 195 201 198 0
13.420000 9.680000 0.770000 195 200 199 0
13.640000 9.680000 0.770000 195 200 199 0
14.740000 9.680000 0.110000 195 200 199 0
14.960000 9.680000 0.110000 196 201 200 0
15.180000 9.680000 0.110000 196 201 200 0
15.400000 9.680000 0.110000 197 202 201 0
15.620000 9.680000 0.110000 196 201 200 0
15.840000 9.680000 0.110000 195 200 199 0
16.060000 9.680000 0.110000 195 200 199 0
16.280000 9.680000 0.110000 195 200 199 0
16.500000 9.680000 0.220000 196 201 200 0
16.720000 9.680000 0.220000 196 201 200 0
16.940000 9.680000 0.220000 196 201 200 0
17.160000 9.680000 0.220000 195 200 199 0
17.380000 9.680000 0.880000 195 200 199 0
17.600000 9.680000 0.880000 195 200 199 0
17.820000 9.680000 0.990000 196 201 200 0
18.040000 9.680000 0.990000 195 200 199 0
18.260000 9.680000 0.990000 195 200 199 0
18.480000 9.680000 0.990000 196 201 200 0
18.700000 9.680000 0.990000 197 202 201 0
18.920000 9.680000 0.990000 197 202 201 0
19.140000 9.680000 0.990000 197 202 201 0
19.360000 9.680000 1.100000 196 201 200 0
19.580000 9.680000 1.100000 197 202 201 0
19.800000 9.680000 1.100000 197 202 201 0
20.020000 9.680000 1.100000 197 202 201 0
20.240000 9.680000 1.100000 198 203 202 0
20.460000 9.680000 1.100000 197 202 201 0
20.680000 9.680000 1.100000 198 203 202 0
20.900000 9.680000 1.210000 198 203 202 0
21.120000 9.680000 1.210000 198 203 202 0
21.340000 9.680000 1.210000 197 202 201 0
21.560000 9.680000 1.210000 198 203 202 0
21.780000 9.680000 1.210000 198 203 202 0
22.000000 9.680000 1.980000 198 203 202 0
22.220000 9.680000 1.980000 200 203 203 0
22.440000 9.680000 1.980000 200 203 203 0
22.660000 9.680000 1.980000 198 201 201 0
22.880000 9.680000 1.980000 198 201 201 0
23.100000 9.680000 1.980000 197 202 203 0
23.320000 9.680000 2.090000 197 202 203 0
23.540000 9.680000 2.530000 199 202 202 0
23.760000 9.680000 2.970000 202 205 205 0
23.980000 9.680000 3.520000 202 205 205 0
24.200000 9.680000 3.520000 201 204 204 0
24.420000 9.680000 3.520000 201 204 204 0
24.640000 9.680000 3.520000 200 203 203 0
24.860000 9.680000 3.520000 201 204 204 0
25.080000 9.680000 4.290000 202 205 205 0
25.300000 9.680000 4.290000 201 205 203 0
25.520000 9.680000 4.290000 199 203 201 0
25.740000 9.680000 4.290000 200 201 200 0
25.960000 9.680000 4.290000 198 199 198 0
26.180000 9.680000 4.400000 200 196 190 0
26.400000 9.680000 4.400000 199 195 189 0
26.620000 9.680000 4.400000 197 193 187 0
26.840000 9.680000 4.400000 196 192 186 0
27.060000 9.680000 4.400000 195 193 189 0
27.280000 9.680000 4.400000 195 193 189 0
27.500000 9.680000 4.400000 193 195 187 0
27.720000 9.680000 4.400000 194 196 188 0
27.940000 9.680000 4.400000 197 195 191 0
28.160000 9.680000 4.510000 197 195 191 0
28.380000 9.680000 4.510000 193 193 186 0
28.600000 9.680000 4.510000 192 192 185 0
28.820000 9.680000 4.510000 195 193 189 0
29.040000 9.680000 4.510000 195 193 189 0
29.260000 9.680000 4.620000 193 195 187 0
29.480000 9.680000 5.280000 192 194 186 0
29.700000 9.680000 5.280000 194 190 186 0
29.920000 9.680000 5.280000 193 189 185 0
30.140000 9.680000 5.280000 198 186 181 0
30.360000 9.680000 5.390000 190 178 173 0
30.580000 9.680000 5.390000 188 164 159 0
30.800000 9.680000 5.390000 177 153 148 0
31.020000 9.680000 4.730000 172 143 140 0
31.240000 9.680000 4.730000 166 137 134 0
31.460000 9.680000 4.730000 167 139 133 0
31.680000 9.680000 4.730000 169 141 135 0
31.900000 9.680000 4.840000 171 141 134 0
32.120000 9.680000 4.840000 172 142 135 0
32.340000 9.680000 5.390000 172 144 138 0
32.560000 9.680000 5.720000 175 147 141 0
32.780000 9.680000 6.270000 174 144 141 0
33.000000 9.680000 6.270000 176 146 143 0
33.220000 9.680000 6.270000 176 146 141 0
33.440000 9.680000 6.270000 178 148 143 0
33.660000 9.680000 6.380000 177 148 139 0
33.880000 9.680000 6.380000 180 151 142 0
34.100000 9.680000 6.380000 179 151 145 0
34.320000 9.680000 6.380000 178 150 144 0
34.540000 9.680000 6.380000 179 150 147 0
34.760000 9.680000 6.490000 179 150 147 0
34.980000 9.680000 6.490000 182 152 147 0
35.200000 9.680000 6.490000 181 151 146 0
35.420000 9.680000 6.490000 181 151 144 0
35.640000 9.680000 6.490000 183 153 146 0
35.860000 9.680000 6.490000 182 153 150 0
36.080000 9.680000 6.600000 184 155 152 0
36.300000 9.680000 7.260000 186 157 154 0
36.520000 9.680000 7.260000 188 159 156 0
36.740000 9.680000 7.260000 188 161 163 0
36.960000 9.680000 7.370000 189 162 164 0
37.180000 9.680000 7.370000 190 165 164 0
0.000000 9.900000 0.990000 129 122 111 0
0.220000 9.900000 0.990000 130 122 114 0
0.440000 9.900000 0.990000 131 123 115 0
0.660000 9.900000 0.990000 132 124 116 0
0.880000 9.900000 0.990000 133 125 117 0
1.100000 9.900000 0.990000 133 126 115 0
1.320000 9.900000 0.990000 133 126 115 0
1.540000 9.900000 0.990000 131 124 113 0
1.760000 9.900000 0.990000 132 125 114 0
1.980000 9.900000 0.990000 132 124 116 0
2.200000 9.900000 0.990000 132 124 116 0
2.420000 9.900000 0.990000 134 126 118 0
2.640000 9.900000 0.220000 143 135 127 0
2.860000 9.900000 5.060000 146 154 151 0
3.080000 9.900000 15.510000 164 172 169 0
3.300000 9.900000 21.010000 172 176 174 0
3.520000 9.900000 21.010000 175 179 177 0
3.740000 9.900000 20.350000 177 181 179 0
3.960000 9.900000 20.350000 178 182 180 0
4.180000 9.900000 20.350000 179 184 183 0
4.400000 9.900000 20.350000 181 186 185 0
4.620000 9.900000 20.350000 183 189 186 0
4.840000 9.900000 20.350000 183 189 186 0
5.060000 9.900000 20.350000 185 191 188 0
5.280000 9.900000 20.460000 186 192 189 0
5.500000 9.900000 20.460000 187 193 190 0
5.720000 9.900000 20.460000 188 194 191 0
5.940000 9.900000 20.460000 188 194 191 0
6.160000 9.900000 20.460000 188 194 191 0
6.380000 9.900000 20.460000 190 196 193 0
6.600000 9.900000 20.460000 191 197 194 0
6.820000 9.900000 20.460000 192 197 196 0
7.040000 9.900000 20.570000 192 197 196 0
7.260000 9.900000 20.570000 191 197 194 0
7.480000 9.900000 20.570000 192 198 195 0
7.700000 9.900000 20.570000 191 197 194 0
7.920000 9.900000 20.570000 192 198 195 0
8.140000 9.900000 15.070000 192 197 196 0
8.360000 9.900000 4.070000 193 198 197 0
11.000000 9.900000 0.660000 194 199 198 0
11.220000 9.900000 0.660000 194 200 197 0
11.440000 9.900000 0.550000 194 200 197 0
11.660000 9.900000 1.210000 194 199 198 0
11.880000 9.900000 1.100000 194 199 198 0
12.100000 9.900000 2.200000 194 199 198 0
12.320000 9.900000 2.090000 193 198 197 0
12.540000 9.900000 2.090000 194 199 198 0
12.760000 9.900000 1.430000 194 199 198 0
12.980000 9.900000 1.430000 195 201 198 0
13.200000 9.900000 1.430000 195 201 198 0
13.420000 9.900000 0.770000 196 201 200 0
13.640000 9.900000 0.770000 196 201 200 0
14.960000 9.900000 0.110000 196 201 200 0
15.180000 9.900000 0.110000 196 201 200 0
15.400000 9.900000 0.110000 196 201 200 0
15.620000 9.900000 0.110000 196 201 200 0
15.840000 9.900000 0.110000 195 200 199 0
16.060000 9.900000 0.110000 195 200 199 0
16.280000 9.900000 0.110000 195 200 199 0
16.500000 9.900000 0.220000 194 199 198 0
16.720000 9.900000 0.220000 195 200 199 0
16.940000 9.900000 0.880000 196 201 200 0
17.160000 9.900000 0.880000 195 200 199 0
17.380000 9.900000 0.880000 195 200 199 0
17.600000 9.900000 0.880000 196 201 200 0
17.820000 9.900000 0.990000 196 201 200 0
18.040000 9.900000 0.990000 195 200 199 0
18.260000 9.900000 0.990000 195 200 199 0
18.480000 9.900000 0.990000 195 200 199 0
18.700000 9.900000 0.990000 196 201 200 0
18.920000 9.900000 0.990000 196 201 200 0
19.140000 9.900000 0.990000 196 201 200 0
19.360000 9.900000 1.100000 196 201 200 0
19.580000 9.900000 1.100000 196 201 200 0
19.800000 9.900000 1.100000 197 202 201 0
20.020000 9.900000 1.100000 196 201 200 0
20.240000 9.900000 1.100000 197 202 201 0
20.460000 9.900000 1.100000 197 202 201 0
20.680000 9.900000 1.100000 197 202 201 0
20.900000 9.900000 1.210000 198 203 202 0
21.120000 9.900000 1.210000 197 202 201 0
21.340000 9.900000 1.210000 197 202 201 0
21.560000 9.900000 1.210000 198 203 202 0
21.780000 9.900000 1.870000 198 203 202 0
22.000000 9.900000 1.980000 198 203 202 0
22.220000 9.900000 1.980000 200 203 203 0
22.440000 9.900000 1.980000 199 202 202 0
22.660000 9.900000 1.980000 198 201 201 0
22.880000 9.900000 1.980000 198 201 201 0
23.100000 9.900000 1.980000 196 201 202 0
23.320000 9.900000 2.090000 199 204 205 0
23.540000 9.900000 2.530000 201 204 204 0
23.760000 9.900000 2.970000 204 207 207 0
23.980000 9.900000 3.520000 206 209 209 0
24.200000 9.900000 3.520000 204 207 207 0
24.420000 9.900000 3.520000 203 206 206 0
24.640000 9.900000 3.520000 201 204 204 0
24.860000 9.900000 3.520000 202 205 205 0
25.080000 9.900000 4.290000 203 206 206 0
25.300000 9.900000 4.290000 202 206 204 0
25.520000 9.900000 4.290000 200 204 202 0
25.740000 9.900000 4.290000 199 200 199 0
25.960000 9.900000 4.400000 197 198 197 0
26.180000 9.900000 4.400000 198 194 188 0
26.400000 9.900000 4.400000 196 192 186 0
26.620000 9.900000 4.400000 189 185 179 0
26.840000 9.900000 4.400000 186 182 176 0
27.060000 9.900000 4.400000 183 181 177 0
27.280000 9.900000 4.400000 183 181 177 0
27.500000 9.900000 4.400000 181 183 175 0
27.720000 9.900000 4.510000 181 183 175 0
27.940000 9.900000 4.510000 184 182 178 0
28.160000 9.900000 4.510000 183 181 177 0
28.380000 9.900000 4.510000 183 183 176 0
28.600000 9.900000 4.510000 185 185 178 0
28.820000 9.900000 4.510000 185 183 179 0
29.040000 9.900000 4.620000 186 184 180 0
29.260000 9.900000 4.620000 183 185 177 0
29.480000 9.900000 5.280000 180 182 174 0
29.700000 9.900000 5.280000 182 178 174 0
29.920000 9.900000 5.280000 181 177 173 0
30.140000 9.900000 5.390000 182 170 165 0
30.360000 9.900000 5.390000 180 168 163 0
30.580000 9.900000 5.390000 175 151 146 0
30.800000 9.900000 4.730000 167 143 138 0
31.020000 9.900000 4.730000 159 130 127 0
31.240000 9.900000 4.730000 153 124 121 0
31.460000 9.900000 4.730000 154 126 120 0
31.680000 9.900000 4.730000 158 130 124 0
31.900000 9.900000 4.840000 164 134 127 0
32.120000 9.900000 4.840000 165 135 128 0
32.340000 9.900000 5.390000 166 138 132 0
32.560000 9.900000 5.830000 169 141 135 0
32.780000 9.900000 6.270000 170 140 137 0
33.000000 9.900000 6.270000 170 140 137 0
33.220000 9.900000 6.270000 173 143 138 0
33.440000 9.900000 6.270000 176 146 141 0
33.660000 9.900000 6.270000 176 147 138 0
33.880000 9.900000 6.380000 177 148 139 0
34.100000 9.900000 6.380000 177 149 143 0
34.320000 9.900000 6.380000 177 149 143 0
34.540000 9.900000 6.380000 177 148 145 0
34.760000 9.900000 6.490000 178 149 146 0
34.980000 9.900000 7.150000 179 149 144 0
35.200000 9.900000 7.150000 180 150 145 0
35.420000 9.900000 7.260000 180 150 143 0
35.640000 9.900000 7.260000 180 150 143 0
35.860000 9.900000 7.260000 180 151 148 0
36.080000 9.900000 7.260000 183 154 151 0
36.300000 9.900000 7.260000 183 154 151 0
36.520000 9.900000 7.370000 183 154 151 0
36.740000 9.900000 7.370000 183 156 158 0
36.960000 9.900000 7.370000 182 155 157 0
37.180000 9.900000 7.370000 181 156 155 0
0.000000 10.120000 0.990000 130 123 112 0
0.220000 10.120000 0.990000 130 123 112 0
0.440000 10.120000 0.990000 130 123 112 0
0.660000 10.120000 0.990000 131 124 113 0
0.880000 10.120000 0.990000 132 125 114 0
1.100000 10.120000 0.990000 132 125 114 0
1.320000 10.120000 0.990000 131 124 113 0
1.540000 10.120000 0.990000 131 124 113 0
1.760000 10.120000 0.990000 131 124 113 0
1.980000 10.120000 0.990000 133 124 114 0
2.200000 10.120000 0.990000 133 124 114 0
2.420000 10.120000 0.990000 133 125 117 0
2.640000 10.120000 0.220000 143 135 127 0
2.860000 10.120000 3.740000 147 153 148 0
3.080000 10.120000 12.650000 166 172 167 0
3.300000 10.120000 19.580000 173 177 173 0
3.520000 10.120000 21.010000 175 179 175 0
3.740000 10.120000 21.010000 176 180 176 0
3.960000 10.120000 20.350000 178 182 178 0
4.180000 10.120000 20.350000 179 183 181 0
4.400000 10.120000 20.350000 182 186 184 0
4.620000 10.120000 20.350000 184 188 186 0
4.840000 10.120000 20.350000 185 189 187 0
5.060000 10.120000 20.350000 186 190 188 0
5.280000 10.120000 20.460000 186 190 188 0
5.500000 10.120000 20.460000 189 193 189 0
5.720000 10.120000 20.460000 190 194 190 0
5.940000 10.120000 20.460000 191 195 193 0
6.160000 10.120000 20.460000 191 195 193 0
6.380000 10.120000 20.460000 192 196 194 0
6.600000 10.120000 20.460000 193 197 195 0
6.820000 10.120000 20.460000 192 198 195 0
7.040000 10.120000 20.570000 191 197 194 0
7.260000 10.120000 20.570000 192 196 194 0
7.480000 10.120000 20.570000 192 196 194 0
7.700000 10.120000 20.570000 193 197 195 0
7.920000 10.120000 20.570000 194 198 196 0
8.140000 10.120000 15.070000 194 198 196 0
8.360000 10.120000 4.070000 194 198 196 0
11.000000 10.120000 0.660000 192 198 195 0
11.220000 10.120000 0.660000 195 199 197 0
11.440000 10.120000 1.210000 194 198 196 0
11.660000 10.120000 1.210000 194 200 197 0
11.880000 10.120000 1.100000 195 201 198 0
12.100000 10.120000 1.650000 194 199 198 0
12.320000 10.120000 2.090000 194 199 198 0
12.540000 10.120000 2.090000 194 200 197 0
12.760000 10.120000 1.430000 195 201 198 0
12.980000 10.120000 1.430000 196 200 198 0
13.200000 10.120000 1.430000 196 200 198 0
13.420000 10.120000 0.770000 196 202 199 0
13.640000 10.120000 0.770000 196 202 199 0
14.960000 10.120000 0.110000 197 200 200 0
15.180000 10.120000 0.110000 197 201 199 0
15.400000 10.120000 0.110000 196 200 198 0
15.620000 10.120000 0.110000 195 200 199 0
15.840000 10.120000 0.110000 195 200 199 0
16.060000 10.120000 0.110000 195 200 199 0
16.280000 10.120000 0.110000 195 200 199 0
16.500000 10.120000 0.220000 196 199 199 0
16.720000 10.120000 0.220000 197 200 200 0
16.940000 10.120000 0.880000 196 200 198 0
17.160000 10.120000 0.880000 197 201 199 0
17.380000 10.120000 0.880000 196 199 199 0
17.600000 10.120000 0.880000 197 200 200 0
17.820000 10.120000 0.990000 196 201 200 0
18.040000 10.120000 0.990000 196 201 200 0
18.260000 10.120000 0.990000 197 200 200 0
18.480000 10.120000 0.990000 197 200 200 0
18.700000 10.120000 0.990000 197 200 200 0
18.920000 10.120000 0.990000 197 200 200 0
19.140000 10.120000 0.990000 198 201 201 0
19.360000 10.120000 1.100000 198 201 201 0
19.580000 10.120000 1.100000 197 202 201 0
19.800000 10.120000 1.100000 197 202 201 0
20.020000 10.120000 1.100000 198 201 201 0
20.240000 10.120000 1.100000 198 201 201 0
20.460000 10.120000 1.100000 199 202 202 0
20.680000 10.120000 1.100000 199 202 202 0
20.900000 10.120000 1.210000 198 201 201 0
21.120000 10.120000 1.210000 199 202 202 0
21.340000 10.120000 1.210000 199 202 202 0
21.560000 10.120000 1.210000 198 201 201 0
21.780000 10.120000 1.870000 199 202 202 0
22.000000 10.120000 1.980000 199 202 202 0
22.220000 10.120000 1.980000 199 202 202 0
22.440000 10.120000 1.980000 199 202 202 0
22.660000 10.120000 1.980000 198 201 201 0
22.880000 10.120000 1.980000 199 202 202 0
23.100000 10.120000 1.980000 198 201 201 0
23.320000 10.120000 2.090000 200 203 203 0
23.540000 10.120000 2.640000 203 208 207 0
23.760000 10.120000 2.970000 206 211 210 0
23.980000 10.120000 3.520000 209 210 209 0
24.200000 10.120000 3.520000 207 208 207 0
24.420000 10.120000 3.520000 205 206 205 0
24.640000 10.120000 3.520000 204 205 204 0
24.860000 10.120000 3.520000 202 206 204 0
25.080000 10.120000 4.290000 204 208 206 0
25.300000 10.120000 4.290000 205 206 203 0
25.520000 10.120000 4.290000 201 202 199 0
25.740000 10.120000 4.290000 203 199 193 0
25.960000 10.120000 4.400000 200 196 190 0
26.180000 10.120000 4.400000 204 190 182 0
26.400000 10.120000 4.400000 200 186 178 0
26.620000 10.120000 4.400000 196 178 171 0
26.840000 10.120000 4.400000 188 170 163 0
27.060000 10.120000 4.400000 187 162 153 0
27.280000 10.120000 4.400000 182 157 148 0
27.500000 10.120000 4.400000 178 158 154 0
27.720000 10.120000 4.510000 179 159 155 0
27.940000 10.120000 4.510000 178 162 158 0
28.160000 10.120000 4.510000 181 165 161 0
28.380000 10.120000 4.510000 180 171 163 0
28.600000 10.120000 4.510000 184 175 167 0
28.820000 10.120000 4.510000 189 176 178 0
29.040000 10.120000 4.620000 189 176 178 0
29.260000 10.120000 4.620000 187 175 172 0
29.480000 10.120000 5.280000 186 174 171 0
29.700000 10.120000 5.280000 182 170 165 0
29.920000 10.120000 5.280000 179 167 162 0
30.140000 10.120000 5.280000 181 163 158 0
30.360000 10.120000 5.390000 177 159 154 0
30.580000 10.120000 5.390000 172 143 140 0
30.800000 10.120000 4.730000 158 129 126 0
31.020000 10.120000 4.730000 149 117 115 0
31.240000 10.120000 4.730000 146 114 112 0
31.460000 10.120000 4.730000 154 120 114 0
31.680000 10.120000 4.730000 160 126 120 0
31.900000 10.120000 4.730000 169 131 125 0
32.120000 10.120000 4.730000 172 134 128 0
32.340000 10.120000 5.500000 173 138 127 0
32.560000 10.120000 5.280000 174 139 128 0
32.780000 10.120000 6.490000 173 142 135 0
33.000000 10.120000 6.270000 175 144 137 0
33.220000 10.120000 6.930000 179 146 134 0
33.440000 10.120000 6.930000 182 149 137 0
33.660000 10.120000 6.930000 183 150 136 0
33.880000 10.120000 7.040000 185 152 138 0
34.100000 10.120000 7.040000 186 153 141 0
34.320000 10.120000 7.040000 187 154 142 0
34.540000 10.120000 7.040000 190 157 145 0
34.760000 10.120000 7.150000 189 156 144 0
34.980000 10.120000 7.150000 190 157 145 0
35.200000 10.120000 7.150000 189 156 144 0
35.420000 10.120000 7.150000 190 157 143 0
35.640000 10.120000 7.260000 191 158 144 0
35.860000 10.120000 7.260000 188 153 142 0
36.080000 10.120000 7.260000 191 156 145 0
36.300000 10.120000 7.260000 189 156 146 0
36.520000 10.120000 7.370000 188 155 145 0
36.740000 10.120000 7.370000 190 155 146 0
36.960000 10.120000 7.370000 188 153 144 0
37.180000 10.120000 7.370000 192 151 150 0
0.000000 10.340000 0.990000 131 124 113 0
0.220000 10.340000 0.990000 130 123 112 0
0.440000 10.340000 0.990000 131 124 113 0
0.660000 10.340000 0.990000 132 125 114 0
0.880000 10.340000 0.990000 132 125 114 0
1.100000 10.340000 0.990000 132 125 114 0
1.320000 10.340000 0.990000 131 124 113 0
1.540000 10.340000 0.990000 132 125 114 0
1.760000 10.340000 0.990000 131 124 113 0
1.980000 10.340000 0.990000 132 123 113 0
2.200000 10.340000 0.990000 133 124 114 0
2.420000 10.340000 0.990000 133 125 117 0
2.640000 10.340000 0.330000 141 133 125 0
2.860000 10.340000 0.990000 147 153 148 0
3.080000 10.340000 7.810000 167 173 168 0
3.300000 10.340000 16.830000 173 177 173 0
3.520000 10.340000 21.010000 174 178 174 0
3.740000 10.340000 21.010000 176 180 176 0
3.960000 10.340000 20.350000 178 182 178 0
4.180000 10.340000 20.350000 180 184 182 0
4.400000 10.340000 20.350000 182 186 184 0
4.620000 10.340000 20.350000 185 189 187 0
4.840000 10.340000 20.350000 185 189 187 0
5.060000 10.340000 20.350000 187 191 189 0
5.280000 10.340000 20.460000 188 192 190 0
5.500000 10.340000 20.460000 189 193 189 0
5.720000 10.340000 20.460000 190 194 190 0
5.940000 10.340000 20.460000 190 194 192 0
6.160000 10.340000 20.460000 191 195 193 0
6.380000 10.340000 20.460000 192 196 194 0
6.600000 10.340000 20.460000 192 196 194 0
6.820000 10.340000 20.460000 192 198 195 0
7.040000 10.340000 20.570000 193 199 196 0
7.260000 10.340000 20.570000 193 197 195 0
7.480000 10.340000 20.570000 193 197 195 0
7.700000 10.340000 20.570000 194 198 196 0
7.920000 10.340000 20.570000 194 198 196 0
8.140000 10.340000 15.070000 195 199 197 0
8.360000 10.340000 4.070000 195 199 197 0
11.000000 10.340000 0.660000 192 198 195 0
11.220000 10.340000 0.660000 194 198 196 0
11.440000 10.340000 0.660000 194 198 196 0
11.660000 10.340000 0.550000 195 201 198 0
11.880000 10.340000 0.550000 194 200 197 0
12.100000 10.340000 1.100000 195 200 199 0
12.320000 10.340000 1.540000 195 200 199 0
12.540000 10.340000 2.090000 195 201 198 0
12.760000 10.340000 2.090000 195 201 198 0
12.980000 10.340000 1.430000 197 201 199 0
13.200000 10.340000 1.430000 197 201 199 0
13.420000 10.340000 0.770000 196 202 199 0
13.640000 10.340000 0.770000 196 202 199 0
14.960000 10.340000 0.110000 197 200 200 0
15.180000 10.340000 0.110000 197 201 199 0
15.400000 10.340000 0.110000 197 201 199 0
15.620000 10.340000 0.110000 195 200 199 0
15.840000 10.340000 0.110000 195 200 199 0
16.060000 10.340000 0.110000 195 200 199 0
16.280000 10.340000 0.110000 195 200 199 0
16.500000 10.340000 0.220000 196 199 199 0
16.720000 10.340000 0.880000 196 199 199 0
16.940000 10.340000 0.880000 197 201 199 0
17.160000 10.340000 0.880000 196 200 198 0
17.380000 10.340000 0.880000 197 200 200 0
17.600000 10.340000 0.880000 197 200 200 0
17.820000 10.340000 0.990000 196 201 200 0
18.040000 10.340000 0.990000 196 201 200 0
18.260000 10.340000 0.990000 197 200 200 0
18.480000 10.340000 0.990000 197 200 200 0
18.700000 10.340000 0.990000 197 200 200 0
18.920000 10.340000 0.990000 197 200 200 0
19.140000 10.340000 0.990000 198 201 201 0
19.360000 10.340000 1.100000 198 201 201 0
19.580000 10.340000 1.100000 196 201 200 0
19.800000 10.340000 1.100000 198 203 202 0
20.020000 10.340000 1.100000 198 201 201 0
20.240000 10.340000 1.100000 199 202 202 0
20.460000 10.340000 1.100000 199 202 202 0
20.680000 10.340000 1.100000 199 202 202 0
20.900000 10.340000 1.210000 199 202 202 0
21.120000 10.340000 1.210000 199 202 202 0
21.340000 10.340000 1.210000 199 202 202 0
21.560000 10.340000 1.870000 199 202 202 0
21.780000 10.340000 1.870000 199 202 202 0
22.000000 10.340000 1.980000 199 202 202 0
22.220000 10.340000 1.980000 199 202 202 0
22.440000 10.340000 1.980000 200 203 203 0
22.660000 10.340000 1.980000 198 201 201 0
22.880000 10.340000 1.980000 199 202 202 0
23.100000 10.340000 1.980000 199 202 202 0
23.320000 10.340000 2.090000 203 206 206 0
23.540000 10.340000 2.640000 203 208 207 0
23.760000 10.340000 2.970000 206 211 210 0
23.980000 10.340000 3.520000 209 210 209 0
24.200000 10.340000 3.520000 208 209 208 0
24.420000 10.340000 3.520000 206 207 206 0
24.640000 10.340000 3.520000 204 205 204 0
24.860000 10.340000 4.290000 202 206 204 0
25.080000 10.340000 4.290000 202 206 204 0
25.300000 10.340000 4.290000 202 203 200 0
25.520000 10.340000 4.290000 201 202 199 0
25.740000 10.340000 4.290000 203 199 193 0
25.960000 10.340000 4.400000 201 197 191 0
26.180000 10.340000 4.400000 206 192 184 0
26.400000 10.340000 4.400000 201 187 179 0
26.620000 10.340000 4.400000 195 177 170 0
26.840000 10.340000 4.400000 189 171 164 0
27.060000 10.340000 4.400000 186 161 152 0
27.280000 10.340000 4.400000 179 154 145 0
27.500000 10.340000 4.510000 173 153 149 0
27.720000 10.340000 4.510000 173 153 149 0
27.940000 10.340000 4.510000 170 154 150 0
28.160000 10.340000 4.510000 176 160 156 0
28.380000 10.340000 4.510000 176 167 159 0
28.600000 10.340000 4.510000 183 174 166 0
28.820000 10.340000 4.510000 188 175 177 0
29.040000 10.340000 4.510000 190 177 179 0
29.260000 10.340000 4.620000 188 176 173 0
29.480000 10.340000 4.620000 187 175 172 0
29.700000 10.340000 5.280000 185 173 168 0
29.920000 10.340000 5.280000 184 172 167 0
30.140000 10.340000 5.280000 184 166 161 0
30.360000 10.340000 5.280000 176 158 153 0
30.580000 10.340000 5.390000 170 141 138 0
30.800000 10.340000 5.390000 156 127 124 0
31.020000 10.340000 4.730000 146 114 112 0
31.240000 10.340000 4.730000 147 115 113 0
31.460000 10.340000 4.730000 159 125 119 0
31.680000 10.340000 5.390000 166 132 126 0
31.900000 10.340000 5.390000 174 136 130 0
32.120000 10.340000 5.500000 179 141 135 0
32.340000 10.340000 5.500000 177 142 131 0
32.560000 10.340000 5.500000 181 146 135 0
32.780000 10.340000 5.940000 180 149 142 0
33.000000 10.340000 6.490000 181 150 143 0
33.220000 10.340000 6.380000 186 153 141 0
33.440000 10.340000 7.040000 191 158 146 0
33.660000 10.340000 6.930000 194 161 147 0
33.880000 10.340000 6.930000 195 162 148 0
34.100000 10.340000 7.040000 198 165 153 0
34.320000 10.340000 7.040000 198 165 153 0
34.540000 10.340000 7.040000 200 167 155 0
34.760000 10.340000 7.040000 201 168 156 0
34.980000 10.340000 7.150000 202 169 157 0
35.200000 10.340000 7.150000 203 170 158 0
35.420000 10.340000 7.150000 204 171 157 0
35.640000 10.340000 7.150000 201 168 154 0
35.860000 10.340000 7.260000 202 167 156 0
36.080000 10.340000 7.260000 200 165 154 0
36.300000 10.340000 7.260000 198 165 155 0
36.520000 10.340000 7.370000 199 166 156 0
36.740000 10.340000 7.370000 196 161 152 0
36.960000 10.340000 7.370000 194 159 150 0
37.180000 10.340000 7.370000 193 152 151 0
0.000000 10.560000 0.990000 131 124 113 0
0.220000 10.560000 0.990000 131 124 113 0
0.440000 10.560000 0.990000 131 124 113 0
0.660000 10.560000 0.990000 132 124 116 0
0.880000 10.560000 0.990000 131 123 115 0
1.100000 10.560000 0.990000 133 126 115 0
1.320000 10.560000 0.990000 132 125 114 0
1.540000 10.560000 1.100000 133 126 115 0
1.760000 10.560000 0.990000 131 124 113 0
1.980000 10.560000 0.990000 132 125 114 0
2.200000 10.560000 1.100000 132 125 114 0
2.420000 10.560000 0.990000 131 126 117 0
2.640000 10.560000 0.330000 140 135 126 0
2.860000 10.560000 0.990000 144 152 149 0
3.080000 10.560000 7.810000 162 170 167 0
3.300000 10.560000 16.830000 170 176 171 0
3.520000 10.560000 21.010000 174 180 175 0
3.740000 10.560000 21.010000 176 180 174 0
3.960000 10.560000 20.350000 179 183 177 0
4.180000 10.560000 20.350000 181 185 181 0
4.400000 10.560000 20.350000 181 185 181 0
4.620000 10.560000 20.350000 183 187 183 0
4.840000 10.560000 20.350000 184 188 184 0
5.060000 10.560000 20.350000 187 191 187 0
5.280000 10.560000 20.460000 187 191 187 0
5.500000 10.560000 20.460000 189 193 189 0
5.720000 10.560000 20.460000 190 194 190 0
5.940000 10.560000 20.460000 190 194 192 0
6.160000 10.560000 20.460000 190 194 192 0
6.380000 10.560000 20.460000 192 196 194 0
6.600000 10.560000 20.460000 193 197 195 0
6.820000 10.560000 20.460000 192 198 195 0
7.040000 10.560000 20.570000 192 198 195 0
7.260000 10.560000 20.570000 193 197 195 0
7.480000 10.560000 20.570000 193 197 195 0
7.700000 10.560000 20.570000 193 197 195 0
7.920000 10.560000 20.570000 194 198 196 0
8.140000 10.560000 15.070000 194 198 196 0
8.360000 10.560000 4.070000 194 198 196 0
11.000000 10.560000 0.660000 191 197 194 0
11.220000 10.560000 0.660000 192 198 195 0
11.440000 10.560000 0.660000 193 199 196 0
11.660000 10.560000 0.660000 194 200 197 0
11.880000 10.560000 0.660000 194 200 197 0
12.100000 10.560000 1.100000 194 200 197 0
12.320000 10.560000 1.540000 194 200 197 0
12.540000 10.560000 2.090000 196 200 198 0
12.760000 10.560000 2.090000 196 200 198 0
12.980000 10.560000 1.430000 195 201 198 0
13.200000 10.560000 1.430000 195 201 198 0
13.420000 10.560000 0.770000 197 201 199 0
13.640000 10.560000 0.770000 196 200 198 0
14.960000 10.560000 0.110000 196 201 200 0
15.180000 10.560000 0.110000 198 202 200 0
15.400000 10.560000 0.110000 197 201 199 0
15.620000 10.560000 0.770000 197 201 199 0
15.840000 10.560000 0.770000 195 199 197 0
16.060000 10.560000 0.110000 196 199 199 0
16.280000 10.560000 0.110000 197 200 200 0
16.500000 10.560000 0.220000 196 201 200 0
16.720000 10.560000 0.880000 195 200 199 0
16.940000 10.560000 0.880000 197 201 199 0
17.160000 10.560000 0.880000 196 200 198 0
17.380000 10.560000 0.880000 197 200 200 0
17.600000 10.560000 0.880000 197 200 200 0
17.820000 10.560000 0.990000 197 200 200 0
18.040000 10.560000 0.990000 197 200 200 0
18.260000 10.560000 0.990000 197 200 200 0
18.480000 10.560000 0.990000 197 200 200 0
18.700000 10.560000 0.990000 197 200 200 0
18.920000 10.560000 0.990000 197 200 200 0
19.140000 10.560000 1.100000 198 201 201 0
19.360000 10.560000 1.100000 198 201 201 0
19.580000 10.560000 1.100000 198 201 201 0
19.800000 10.560000 1.100000 198 201 201 0
20.020000 10.560000 1.100000 198 201 201 0
20.240000 10.560000 1.100000 198 201 201 0
20.460000 10.560000 1.100000 199 202 202 0
20.680000 10.560000 1.100000 199 202 202 0
20.900000 10.560000 1.210000 199 203 201 0
21.120000 10.560000 1.210000 199 203 201 0
21.340000 10.560000 1.210000 199 203 201 0
21.560000 10.560000 1.870000 199 203 201 0
21.780000 10.560000 1.870000 199 202 202 0
22.000000 10.560000 1.980000 199 202 202 0
22.220000 10.560000 1.980000 199 202 202 0
22.440000 10.560000 1.980000 199 202 202 0
22.660000 10.560000 1.980000 198 201 201 0
22.880000 10.560000 1.980000 199 202 202 0
23.100000 10.560000 1.980000 199 203 201 0
23.320000 10.560000 2.090000 200 204 202 0
23.540000 10.560000 2.530000 203 206 206 0
23.760000 10.560000 2.970000 205 208 208 0
23.980000 10.560000 3.520000 206 210 208 0
24.200000 10.560000 3.520000 203 207 205 0
24.420000 10.560000 3.520000 200 204 202 0
24.640000 10.560000 3.520000 201 205 203 0
24.860000 10.560000 4.290000 202 206 204 0
25.080000 10.560000 4.290000 199 203 201 0
25.300000 10.560000 4.290000 198 202 200 0
25.520000 10.560000 4.290000 198 202 200 0
25.740000 10.560000 4.290000 201 202 201 0
25.960000 10.560000 4.290000 200 201 200 0
26.180000 10.560000 4.400000 198 197 197 0
26.400000 10.560000 4.400000 192 191 191 0
26.620000 10.560000 4.400000 193 185 178 0
26.840000 10.560000 4.400000 188 180 173 0
27.060000 10.560000 4.400000 188 168 162 0
27.280000 10.560000 4.400000 181 161 155 0
27.500000 10.560000 4.400000 179 155 142 0
27.720000 10.560000 4.400000 178 154 141 0
27.940000 10.560000 4.510000 169 156 145 0
28.160000 10.560000 4.510000 176 163 152 0
28.380000 10.560000 4.510000 173 169 165 0
28.600000 10.560000 4.510000 182 178 174 0
28.820000 10.560000 4.510000 182 186 184 0
29.040000 10.560000 4.510000 184 188 186 0
29.260000 10.560000 4.510000 188 189 188 0
29.480000 10.560000 4.620000 187 188 187 0
29.700000 10.560000 5.280000 185 186 185 0
29.920000 10.560000 5.280000 185 186 185 0
30.140000 10.560000 5.280000 187 181 178 0
30.360000 10.560000 5.280000 174 168 165 0
30.580000 10.560000 5.280000 177 152 143 0
30.800000 10.560000 5.390000 163 138 129 0
31.020000 10.560000 5.390000 154 123 115 0
31.240000 10.560000 5.390000 160 129 121 0
31.460000 10.560000 5.390000 169 136 122 0
31.680000 10.560000 5.390000 178 145 131 0
31.900000 10.560000 5.390000 184 152 136 0
32.120000 10.560000 5.390000 188 156 140 0
32.340000 10.560000 5.500000 190 157 143 0
32.560000 10.560000 5.500000 191 158 144 0
32.780000 10.560000 5.500000 192 160 144 0
33.000000 10.560000 5.390000 193 161 145 0
33.220000 10.560000 5.940000 194 164 151 0
33.440000 10.560000 6.380000 199 169 156 0
33.660000 10.560000 6.930000 200 174 157 0
33.880000 10.560000 6.930000 203 177 160 0
34.100000 10.560000 7.040000 207 180 168 0
34.320000 10.560000 7.040000 208 181 169 0
34.540000 10.560000 7.040000 210 183 169 0
34.760000 10.560000 7.040000 212 185 171 0
34.980000 10.560000 7.150000 212 183 170 0
35.200000 10.560000 7.150000 211 182 169 0
35.420000 10.560000 7.150000 213 184 171 0
35.640000 10.560000 7.150000 210 181 168 0
35.860000 10.560000 7.260000 212 183 170 0
36.080000 10.560000 7.260000 210 181 168 0
36.300000 10.560000 7.260000 210 181 168 0
36.520000 10.560000 7.370000 208 179 166 0
36.740000 10.560000 7.370000 206 176 163 0
36.960000 10.560000 7.370000 204 174 161 0
37.180000 10.560000 7.370000 202 169 159 0
0.000000 10.780000 1.100000 131 124 113 0
0.220000 10.780000 1.100000 131 124 113 0
0.440000 10.780000 1.100000 132 125 114 0
0.660000 10.780000 1.100000 132 124 116 0
0.880000 10.780000 0.990000 131 123 115 0
1.100000 10.780000 0.990000 131 124 113 0
1.320000 10.780000 1.100000 132 125 114 0
1.540000 10.780000 1.100000 131 124 113 0
1.760000 10.780000 1.100000 132 125 114 0
1.980000 10.780000 1.100000 131 124 113 0
2.200000 10.780000 1.100000 131 124 113 0
2.420000 10.780000 0.990000 131 126 117 0
2.640000 10.780000 0.330000 138 133 124 0
2.860000 10.780000 3.740000 143 151 148 0
3.080000 10.780000 12.650000 162 170 167 0
3.300000 10.780000 19.580000 169 175 170 0
3.520000 10.780000 21.010000 171 177 172 0
3.740000 10.780000 21.010000 176 180 174 0
3.960000 10.780000 20.350000 178 182 176 0
4.180000 10.780000 20.350000 180 184 180 0
4.400000 10.780000 20.350000 181 185 181 0
4.620000 10.780000 20.350000 183 187 183 0
4.840000 10.780000 20.350000 184 188 184 0
5.060000 10.780000 20.460000 185 189 185 0
5.280000 10.780000 20.460000 188 192 188 0
5.500000 10.780000 20.460000 186 190 186 0
5.720000 10.780000 20.460000 189 193 189 0
5.940000 10.780000 20.460000 189 193 191 0
6.160000 10.780000 20.460000 190 194 192 0
6.380000 10.780000 20.460000 191 195 193 0
6.600000 10.780000 20.460000 192 196 194 0
6.820000 10.780000 20.460000 191 197 194 0
7.040000 10.780000 20.570000 191 197 194 0
7.260000 10.780000 20.570000 194 198 196 0
7.480000 10.780000 20.570000 193 197 195 0
7.700000 10.780000 20.570000 194 198 196 0
7.920000 10.780000 19.140000 194 198 196 0
8.140000 10.780000 12.320000 194 198 196 0
8.360000 10.780000 2.640000 194 198 196 0
10.780000 10.780000 0.660000 191 197 194 0
11.000000 10.780000 0.660000 190 196 193 0
11.220000 10.780000 0.660000 191 197 194 0
11.440000 10.780000 0.550000 191 197 194 0
11.660000 10.780000 1.210000 193 199 196 0
11.880000 10.780000 1.100000 194 200 197 0
12.100000 10.780000 1.540000 194 200 197 0
12.320000 10.780000 2.090000 194 200 197 0
12.540000 10.780000 2.090000 196 200 198 0
12.760000 10.780000 2.090000 195 199 197 0
12.980000 10.780000 1.430000 195 201 198 0
13.200000 10.780000 1.430000 195 201 198 0
13.420000 10.780000 0.770000 196 200 198 0
13.640000 10.780000 0.770000 195 199 197 0
14.960000 10.780000 0.110000 197 202 201 0
15.180000 10.780000 0.110000 197 201 199 0
15.400000 10.780000 0.770000 197 201 199 0
15.620000 10.780000 0.770000 196 200 198 0
15.840000 10.780000 0.770000 196 200 198 0
16.060000 10.780000 0.880000 196 199 199 0
16.280000 10.780000 0.880000 197 200 200 0
16.500000 10.780000 0.880000 195 200 199 0
16.720000 10.780000 0.880000 195 200 199 0
16.940000 10.780000 0.880000 196 200 198 0
17.160000 10.780000 0.880000 196 200 198 0
