ply
format ascii 1.0
element vertex 1125
property float x
property float y
property float z
property uchar red
property uchar green
property uchar blue
property uchar alpha
end_header
26.400000 8.360000 34.760000 224 243 244 0
26.620000 8.360000 34.760000 224 243 244 0
26.840000 8.360000 34.760000 229 243 241 0
27.060000 8.360000 34.760000 230 244 242 0
27.280000 8.360000 34.760000 225 246 246 0
27.500000 8.360000 34.760000 226 247 247 0
27.720000 8.360000 34.760000 223 247 246 0
27.940000 8.360000 36.080000 224 248 247 0
28.160000 8.360000 36.080000 235 243 241 0
28.380000 8.360000 36.080000 235 243 241 0
28.600000 8.360000 36.080000 238 241 241 0
28.820000 8.360000 36.080000 238 241 241 0
29.040000 8.360000 37.400000 237 242 241 0
29.260000 8.360000 37.620000 237 242 241 0
29.480000 8.360000 37.620000 238 242 240 0
29.700000 8.360000 37.400000 238 242 240 0
29.920000 8.360000 37.400000 238 242 240 0
30.140000 8.360000 37.400000 238 242 240 0
30.360000 8.360000 37.400000 238 241 241 0
30.580000 8.360000 37.620000 238 241 241 0
30.800000 8.360000 37.620000 224 248 247 0
31.020000 8.360000 38.940000 223 247 246 0
31.240000 8.360000 38.940000 217 246 245 0
31.460000 8.360000 37.620000 216 245 244 0
31.680000 8.360000 37.620000 216 245 244 0
31.900000 8.360000 37.620000 216 245 244 0
32.120000 8.360000 37.620000 209 244 243 0
32.340000 8.360000 37.620000 208 243 242 0
32.560000 8.360000 38.940000 207 242 241 0
32.780000 8.360000 37.620000 208 243 242 0
33.000000 8.360000 38.940000 211 242 240 0
33.220000 8.360000 38.940000 212 243 241 0
33.440000 8.360000 37.620000 217 245 243 0
33.660000 8.360000 37.620000 217 245 243 0
33.880000 8.360000 37.620000 208 246 244 0
34.100000 8.360000 38.940000 205 243 241 0
34.320000 8.360000 38.940000 203 241 239 0
34.540000 8.360000 38.940000 203 241 239 0
34.760000 8.360000 38.940000 209 240 238 0
34.980000 8.360000 38.940000 209 240 238 0
35.200000 8.360000 38.940000 211 240 239 0
35.420000 8.360000 38.940000 211 240 239 0
35.640000 8.360000 38.940000 211 240 239 0
35.860000 8.360000 40.260000 212 241 240 0
36.080000 8.360000 40.260000 215 240 239 0
36.300000 8.360000 38.940000 216 241 240 0
36.520000 8.360000 38.940000 212 241 240 0
36.740000 8.360000 38.940000 212 241 240 0
36.960000 8.360000 38.940000 213 241 240 0
37.180000 8.360000 37.620000 212 240 239 0
0.000000 8.580000 15.620000 170 136 122 0
0.220000 8.580000 15.620000 169 135 121 0
0.440000 8.580000 15.620000 170 136 122 0
0.660000 8.580000 15.620000 171 137 123 0
0.880000 8.580000 15.620000 171 134 121 0
1.100000 8.580000 15.620000 176 139 126 0
1.320000 8.580000 15.620000 175 138 125 0
1.540000 8.580000 15.840000 175 138 125 0
1.760000 8.580000 15.840000 173 136 123 0
1.980000 8.580000 15.840000 172 135 122 0
2.200000 8.580000 15.840000 171 137 123 0
2.420000 8.580000 15.840000 172 138 124 0
2.640000 8.580000 15.840000 171 137 123 0
2.860000 8.580000 17.380000 171 137 123 0
3.080000 8.580000 17.380000 175 136 124 0
3.300000 8.580000 17.380000 175 136 124 0
3.520000 8.580000 17.380000 176 138 124 0
3.740000 8.580000 17.600000 176 138 124 0
3.960000 8.580000 17.600000 176 137 125 0
4.180000 8.580000 17.600000 178 139 127 0
4.400000 8.580000 17.600000 180 140 127 0
4.620000 8.580000 17.820000 179 139 126 0
4.840000 8.580000 17.820000 185 142 131 0
5.060000 8.580000 17.820000 183 140 129 0
5.280000 8.580000 19.140000 185 145 132 0
5.500000 8.580000 19.140000 183 143 130 0
5.720000 8.580000 20.240000 183 145 129 0
5.940000 8.580000 21.340000 184 146 130 0
6.160000 8.580000 21.120000 185 142 128 0
6.380000 8.580000 22.220000 189 146 132 0
6.600000 8.580000 22.220000 192 147 137 0
6.820000 8.580000 22.220000 190 145 135 0
7.040000 8.580000 22.440000 187 147 134 0
7.260000 8.580000 22.440000 187 147 134 0
7.480000 8.580000 22.440000 187 147 132 0
7.700000 8.580000 22.440000 186 146 131 0
7.920000 8.580000 23.980000 190 147 133 0
8.140000 8.580000 23.980000 190 147 133 0
8.360000 8.580000 23.980000 191 146 136 0
8.580000 8.580000 23.980000 191 146 136 0
8.800000 8.580000 23.980000 189 149 136 0
9.020000 8.580000 24.200000 187 147 134 0
9.240000 8.580000 24.200000 190 147 133 0
9.460000 8.580000 24.200000 191 148 134 0
9.680000 8.580000 24.200000 192 149 135 0
9.900000 8.580000 24.200000 194 151 137 0
10.120000 8.580000 24.420000 194 151 139 0
10.340000 8.580000 24.420000 195 152 140 0
10.560000 8.580000 24.420000 193 154 146 0
10.780000 8.580000 24.420000 193 154 146 0
11.000000 8.580000 24.640000 196 158 152 0
11.220000 8.580000 24.640000 200 162 156 0
11.440000 8.580000 24.640000 195 170 169 0
11.660000 8.580000 24.640000 199 174 173 0
11.880000 8.580000 24.640000 200 180 186 0
12.100000 8.580000 25.960000 205 185 191 0
12.320000 8.580000 25.960000 202 191 194 0
12.540000 8.580000 25.960000 205 194 197 0
12.760000 8.580000 27.060000 204 197 200 0
12.980000 8.580000 26.620000 205 198 201 0
13.200000 8.580000 27.720000 202 199 203 0
13.420000 8.580000 27.720000 203 200 204 0
13.640000 8.580000 27.720000 203 203 208 0
13.860000 8.580000 27.720000 204 204 209 0
14.080000 8.580000 29.260000 202 209 215 0
14.300000 8.580000 29.260000 203 210 216 0
14.520000 8.580000 29.260000 202 209 222 0
14.740000 8.580000 27.940000 203 210 223 0
14.960000 8.580000 27.940000 196 215 227 0
15.180000 8.580000 27.940000 198 217 229 0
15.400000 8.580000 27.940000 197 218 232 0
15.620000 8.580000 27.940000 196 217 231 0
15.840000 8.580000 27.940000 192 220 229 0
16.060000 8.580000 27.940000 195 223 232 0
16.280000 8.580000 27.940000 191 229 237 0
16.500000 8.580000 29.480000 190 228 236 0
16.720000 8.580000 29.480000 196 225 236 0
16.940000 8.580000 29.260000 194 223 234 0
17.160000 8.580000 29.260000 188 228 235 0
17.380000 8.580000 29.480000 193 233 240 0
17.600000 8.580000 29.260000 194 237 241 0
17.820000 8.580000 30.580000 193 236 240 0
18.040000 8.580000 30.580000 194 236 243 0
18.260000 8.580000 30.580000 190 232 239 0
18.480000 8.580000 30.580000 189 231 240 0
18.700000 8.580000 30.580000 189 231 240 0
18.920000 8.580000 30.580000 189 232 236 0
19.140000 8.580000 30.580000 193 236 240 0
19.360000 8.580000 31.900000 195 235 240 0
19.580000 8.580000 31.900000 194 234 239 0
19.800000 8.580000 31.900000 191 233 240 0
20.020000 8.580000 30.580000 192 234 241 0
20.240000 8.580000 30.580000 190 232 241 0
20.460000 8.580000 30.580000 189 231 240 0
20.680000 8.580000 31.900000 189 229 236 0
20.900000 8.580000 31.900000 190 230 237 0
21.120000 8.580000 30.580000 187 229 236 0
21.340000 8.580000 30.580000 188 230 237 0
21.560000 8.580000 31.900000 188 232 238 0
21.780000 8.580000 31.900000 187 231 237 0
22.000000 8.580000 30.580000 186 228 239 0
22.220000 8.580000 30.580000 182 224 235 0
22.440000 8.580000 30.580000 184 219 233 0
22.660000 8.580000 30.580000 188 223 237 0
22.880000 8.580000 31.900000 188 231 235 0
23.100000 8.580000 31.900000 192 235 239 0
23.320000 8.580000 33.440000 207 235 234 0
23.540000 8.580000 34.760000 212 240 239 0
23.760000 8.580000 34.760000 214 239 238 0
23.980000 8.580000 34.760000 214 239 238 0
24.200000 8.580000 34.760000 219 238 237 0
24.420000 8.580000 34.760000 221 240 239 0
24.640000 8.580000 34.760000 228 242 240 0
24.860000 8.580000 36.080000 227 241 239 0
25.080000 8.580000 36.080000 218 242 241 0
25.300000 8.580000 36.080000 217 241 240 0
25.520000 8.580000 36.080000 220 241 241 0
25.740000 8.580000 34.760000 219 240 240 0
25.960000 8.580000 34.760000 220 241 241 0
26.180000 8.580000 34.760000 218 239 239 0
26.400000 8.580000 34.760000 219 238 239 0
26.620000 8.580000 34.760000 220 239 240 0
26.840000 8.580000 34.760000 224 238 236 0
27.060000 8.580000 36.080000 226 240 238 0
27.280000 8.580000 36.080000 221 242 242 0
27.500000 8.580000 36.080000 219 240 240 0
27.720000 8.580000 33.440000 217 241 240 0
27.940000 8.580000 31.900000 217 241 240 0
28.160000 8.580000 34.760000 230 238 236 0
28.380000 8.580000 36.080000 233 241 239 0
28.600000 8.580000 37.400000 237 240 240 0
28.820000 8.580000 37.400000 238 241 241 0
29.040000 8.580000 36.080000 237 242 241 0
29.260000 8.580000 31.900000 236 241 240 0
29.480000 8.580000 29.260000 237 241 239 0
29.700000 8.580000 31.900000 238 242 240 0
29.920000 8.580000 34.760000 238 242 240 0
30.140000 8.580000 31.900000 238 242 240 0
30.360000 8.580000 29.260000 238 241 241 0
30.580000 8.580000 29.260000 237 240 240 0
30.800000 8.580000 32.120000 220 244 243 0
31.020000 8.580000 34.760000 217 241 240 0
31.240000 8.580000 33.440000 211 240 239 0
31.460000 8.580000 29.260000 211 240 239 0
31.680000 8.580000 29.260000 211 240 239 0
31.900000 8.580000 29.260000 211 240 239 0
32.120000 8.580000 29.260000 206 241 240 0
32.340000 8.580000 29.260000 205 240 239 0
32.560000 8.580000 29.260000 204 239 238 0
32.780000 8.580000 29.260000 205 240 239 0
33.000000 8.580000 30.580000 207 238 236 0
33.220000 8.580000 30.580000 209 240 238 0
33.440000 8.580000 30.580000 214 242 240 0
33.660000 8.580000 29.260000 214 242 240 0
33.880000 8.580000 29.260000 205 243 241 0
34.100000 8.580000 30.580000 202 240 238 0
34.320000 8.580000 30.580000 201 239 237 0
34.540000 8.580000 30.580000 202 240 238 0
34.760000 8.580000 30.580000 208 239 237 0
34.980000 8.580000 30.580000 209 240 238 0
35.200000 8.580000 30.580000 210 239 238 0
35.420000 8.580000 30.580000 211 240 239 0
35.640000 8.580000 30.580000 211 240 239 0
35.860000 8.580000 30.580000 212 241 240 0
36.080000 8.580000 30.580000 216 241 240 0
36.300000 8.580000 29.260000 216 241 240 0
36.520000 8.580000 29.260000 213 242 241 0
36.740000 8.580000 30.580000 212 241 240 0
36.960000 8.580000 30.580000 213 241 240 0
37.180000 8.580000 29.260000 213 241 240 0
0.000000 8.800000 15.620000 162 123 111 0
0.220000 8.800000 15.620000 163 124 112 0
0.440000 8.800000 15.620000 162 125 111 0
0.660000 8.800000 15.620000 162 125 111 0
0.880000 8.800000 15.620000 162 124 110 0
1.100000 8.800000 15.840000 164 126 112 0
1.320000 8.800000 15.840000 164 127 113 0
1.540000 8.800000 15.840000 163 126 112 0
1.760000 8.800000 15.840000 166 126 114 0
1.980000 8.800000 15.840000 165 125 113 0
2.200000 8.800000 15.840000 166 126 113 0
2.420000 8.800000 15.840000 164 124 111 0
2.640000 8.800000 16.060000 166 123 111 0
2.860000 8.800000 17.380000 165 122 110 0
3.080000 8.800000 17.380000 165 125 112 0
3.300000 8.800000 17.600000 167 127 114 0
3.520000 8.800000 17.600000 175 127 112 0
3.740000 8.800000 17.600000 176 128 113 0
3.960000 8.800000 17.600000 178 130 115 0
4.180000 8.800000 17.600000 179 131 116 0
4.400000 8.800000 17.820000 180 132 117 0
4.620000 8.800000 17.820000 180 132 117 0
4.840000 8.800000 17.820000 184 134 120 0
5.060000 8.800000 17.820000 184 134 120 0
5.280000 8.800000 19.140000 184 135 123 0
5.500000 8.800000 20.020000 183 134 122 0
5.720000 8.800000 21.120000 183 135 120 0
5.940000 8.800000 22.220000 182 134 119 0
6.160000 8.800000 22.220000 183 135 120 0
6.380000 8.800000 22.220000 184 136 121 0
6.600000 8.800000 22.220000 183 135 120 0
6.820000 8.800000 22.440000 186 138 123 0
7.040000 8.800000 22.440000 184 135 123 0
7.260000 8.800000 22.440000 185 136 124 0
7.480000 8.800000 22.440000 184 136 121 0
7.700000 8.800000 23.980000 187 139 124 0
7.920000 8.800000 23.980000 185 138 123 0
8.140000 8.800000 23.980000 186 139 124 0
8.360000 8.800000 23.980000 188 139 127 0
8.580000 8.800000 24.200000 188 139 127 0
8.800000 8.800000 24.200000 187 138 126 0
9.020000 8.800000 24.200000 186 137 125 0
9.240000 8.800000 24.200000 188 140 125 0
9.460000 8.800000 24.200000 188 140 125 0
9.680000 8.800000 24.420000 189 142 127 0
9.900000 8.800000 24.420000 190 143 128 0
10.120000 8.800000 24.420000 193 144 132 0
10.340000 8.800000 24.420000 193 144 132 0
10.560000 8.800000 24.640000 195 146 134 0
10.780000 8.800000 24.640000 196 147 135 0
11.000000 8.800000 24.640000 194 147 134 0
11.220000 8.800000 24.640000 193 146 133 0
11.440000 8.800000 24.640000 197 150 135 0
11.660000 8.800000 24.640000 197 150 135 0
11.880000 8.800000 25.960000 198 153 142 0
12.100000 8.800000 25.740000 200 155 144 0
12.320000 8.800000 26.840000 203 158 147 0
12.540000 8.800000 27.940000 208 163 152 0
12.760000 8.800000 27.940000 206 169 156 0
12.980000 8.800000 27.940000 207 170 157 0
13.200000 8.800000 27.720000 206 173 161 0
13.420000 8.800000 27.940000 205 172 160 0
13.640000 8.800000 27.940000 209 174 167 0
13.860000 8.800000 27.940000 211 176 169 0
14.080000 8.800000 27.940000 210 178 176 0
14.300000 8.800000 27.940000 211 179 177 0
14.520000 8.800000 27.940000 208 179 176 0
14.740000 8.800000 27.940000 209 180 177 0
14.960000 8.800000 27.940000 205 184 184 0
15.180000 8.800000 27.940000 207 186 186 0
15.400000 8.800000 28.160000 206 186 190 0
15.620000 8.800000 28.160000 205 185 189 0
15.840000 8.800000 28.160000 204 190 198 0
16.060000 8.800000 28.160000 207 193 201 0
16.280000 8.800000 28.160000 202 199 205 0
16.500000 8.800000 28.160000 202 199 205 0
16.720000 8.800000 28.160000 200 193 204 0
16.940000 8.800000 28.160000 201 194 205 0
17.160000 8.800000 28.160000 193 199 208 0
17.380000 8.800000 28.160000 199 205 214 0
17.600000 8.800000 29.480000 194 209 223 0
17.820000 8.800000 29.480000 195 210 224 0
18.040000 8.800000 29.480000 194 211 222 0
18.260000 8.800000 29.480000 192 209 220 0
18.480000 8.800000 29.260000 189 208 220 0
18.700000 8.800000 29.260000 189 208 220 0
18.920000 8.800000 30.580000 188 209 223 0
19.140000 8.800000 30.580000 191 212 226 0
19.360000 8.800000 30.580000 191 212 226 0
19.580000 8.800000 30.580000 191 212 226 0
19.800000 8.800000 30.580000 188 214 226 0
20.020000 8.800000 30.580000 187 213 225 0
20.240000 8.800000 30.580000 189 212 223 0
20.460000 8.800000 30.580000 188 211 222 0
20.680000 8.800000 30.580000 187 212 227 0
20.900000 8.800000 30.580000 187 212 227 0
21.120000 8.800000 30.580000 186 209 222 0
21.340000 8.800000 30.580000 188 211 224 0
21.560000 8.800000 30.580000 188 211 224 0
21.780000 8.800000 30.580000 189 212 225 0
22.000000 8.800000 30.580000 185 207 218 0
22.220000 8.800000 30.580000 183 205 216 0
22.440000 8.800000 30.580000 181 202 216 0
22.660000 8.800000 30.580000 183 204 218 0
22.880000 8.800000 30.580000 182 207 222 0
23.100000 8.800000 31.900000 188 213 228 0
23.320000 8.800000 33.440000 193 220 236 0
23.540000 8.800000 33.440000 197 224 240 0
23.760000 8.800000 33.440000 194 224 243 0
23.980000 8.800000 33.440000 193 223 242 0
24.200000 8.800000 33.440000 197 225 244 0
24.420000 8.800000 34.760000 201 229 248 0
24.640000 8.800000 36.080000 197 233 252 0
24.860000 8.800000 36.080000 197 233 252 0
25.080000 8.800000 34.760000 190 235 253 0
25.300000 8.800000 36.080000 191 236 254 0
25.520000 8.800000 34.760000 196 232 251 0
25.740000 8.800000 34.760000 196 232 251 0
25.960000 8.800000 34.980000 197 234 250 0
26.180000 8.800000 35.200000 196 233 249 0
26.400000 8.800000 35.200000 195 231 250 0
26.620000 8.800000 36.300000 195 231 250 0
26.840000 8.800000 33.440000 190 235 253 0
27.060000 8.800000 31.900000 190 235 253 0
27.280000 8.800000 33.220000 194 232 252 0
27.500000 8.800000 30.580000 191 229 249 0
27.720000 8.800000 23.760000 191 228 244 0
27.940000 8.800000 22.220000 192 229 245 0
28.160000 8.800000 31.900000 196 231 246 0
28.380000 8.800000 36.080000 203 238 253 0
28.600000 8.800000 33.440000 205 240 255 0
28.820000 8.800000 33.440000 206 241 255 0
29.040000 8.800000 27.940000 207 239 255 0
29.260000 8.800000 15.400000 207 239 255 0
29.480000 8.800000 9.900000 206 242 253 0
29.700000 8.800000 15.400000 209 245 255 0
29.920000 8.800000 20.900000 210 246 255 0
30.140000 8.800000 15.400000 210 246 255 0
30.360000 8.800000 9.900000 199 247 255 0
30.580000 8.800000 9.900000 195 243 255 0
30.800000 8.800000 15.400000 181 242 255 0
31.020000 8.800000 20.900000 177 238 251 0
31.240000 8.800000 16.720000 171 241 251 0
31.460000 8.800000 11.220000 172 242 252 0
31.680000 8.800000 11.220000 171 245 251 0
31.900000 8.800000 11.220000 170 244 250 0
32.120000 8.800000 11.220000 175 241 250 0
32.340000 8.800000 11.440000 174 240 249 0
32.560000 8.800000 11.440000 171 241 251 0
32.780000 8.800000 11.220000 172 242 252 0
33.000000 8.800000 12.760000 170 242 249 0
33.220000 8.800000 12.760000 171 243 250 0
33.440000 8.800000 12.540000 172 244 251 0
33.660000 8.800000 11.220000 173 245 252 0
33.880000 8.800000 11.220000 175 241 252 0
34.100000 8.800000 12.540000 174 240 251 0
34.320000 8.800000 12.540000 168 238 248 0
34.540000 8.800000 12.540000 172 242 252 0
34.760000 8.800000 12.540000 171 243 252 0
34.980000 8.800000 12.760000 173 245 254 0
35.200000 8.800000 11.220000 174 246 253 0
35.420000 8.800000 11.220000 173 245 252 0
35.640000 8.800000 11.220000 175 249 253 0
35.860000 8.800000 11.440000 175 249 253 0
36.080000 8.800000 11.440000 178 250 251 0
36.300000 8.800000 9.900000 179 251 252 0
36.520000 8.800000 9.900000 186 249 249 0
36.740000 8.800000 11.220000 187 250 250 0
36.960000 8.800000 11.220000 193 247 245 0
37.180000 8.800000 11.220000 192 246 244 0
0.000000 9.020000 15.620000 159 120 108 0
0.220000 9.020000 15.620000 160 121 109 0
0.440000 9.020000 15.620000 159 122 108 0
0.660000 9.020000 15.620000 158 121 107 0
0.880000 9.020000 15.620000 159 121 107 0
1.100000 9.020000 15.840000 161 123 109 0
1.320000 9.020000 15.840000 161 124 110 0
1.540000 9.020000 15.840000 164 127 113 0
1.760000 9.020000 15.840000 165 125 113 0
1.980000 9.020000 15.840000 163 123 111 0
2.200000 9.020000 15.840000 164 124 111 0
2.420000 9.020000 16.060000 163 123 110 0
2.640000 9.020000 16.060000 163 120 108 0
2.860000 9.020000 17.380000 163 120 108 0
3.080000 9.020000 17.380000 162 122 109 0
3.300000 9.020000 17.600000 167 127 114 0
3.520000 9.020000 17.600000 177 129 114 0
3.740000 9.020000 17.600000 180 132 117 0
3.960000 9.020000 17.600000 183 135 120 0
4.180000 9.020000 17.600000 184 136 121 0
4.400000 9.020000 17.820000 186 138 123 0
4.620000 9.020000 17.820000 186 138 123 0
4.840000 9.020000 17.820000 185 135 121 0
5.060000 9.020000 17.820000 187 137 123 0
5.280000 9.020000 19.140000 187 138 126 0
5.500000 9.020000 19.800000 186 137 125 0
5.720000 9.020000 20.900000 182 134 119 0
5.940000 9.020000 22.220000 184 136 121 0
6.160000 9.020000 22.220000 183 135 120 0
6.380000 9.020000 22.220000 183 135 120 0
6.600000 9.020000 22.440000 183 135 120 0
6.820000 9.020000 22.440000 182 134 119 0
7.040000 9.020000 22.440000 184 135 123 0
7.260000 9.020000 22.440000 183 134 122 0
7.480000 9.020000 22.440000 183 135 120 0
7.700000 9.020000 22.660000 180 132 117 0
7.920000 9.020000 23.980000 180 133 118 0
8.140000 9.020000 23.980000 182 135 120 0
8.360000 9.020000 24.200000 182 133 121 0
8.580000 9.020000 24.200000 182 133 121 0
8.800000 9.020000 24.200000 181 132 120 0
9.020000 9.020000 24.200000 182 133 121 0
9.240000 9.020000 24.420000 182 134 119 0
9.460000 9.020000 24.420000 182 134 119 0
9.680000 9.020000 24.420000 181 134 119 0
9.900000 9.020000 24.420000 181 134 119 0
10.120000 9.020000 24.640000 184 135 123 0
10.340000 9.020000 24.640000 183 134 122 0
10.560000 9.020000 24.640000 184 135 123 0
10.780000 9.020000 24.640000 185 136 124 0
11.000000 9.020000 24.640000 183 136 123 0
11.220000 9.020000 24.640000 185 138 125 0
11.440000 9.020000 25.960000 186 139 124 0
11.660000 9.020000 25.740000 187 140 125 0
11.880000 9.020000 26.840000 187 142 131 0
12.100000 9.020000 27.940000 187 142 131 0
12.320000 9.020000 27.940000 187 142 131 0
12.540000 9.020000 27.720000 189 144 133 0
12.760000 9.020000 27.720000 187 150 137 0
12.980000 9.020000 27.940000 187 150 137 0
13.200000 9.020000 27.940000 183 150 138 0
13.420000 9.020000 27.940000 184 151 139 0
13.640000 9.020000 27.940000 187 152 145 0
13.860000 9.020000 27.940000 188 153 146 0
14.080000 9.020000 27.940000 187 155 153 0
14.300000 9.020000 29.480000 186 154 152 0
14.520000 9.020000 28.160000 186 157 154 0
14.740000 9.020000 28.160000 186 157 154 0
14.960000 9.020000 28.160000 181 160 160 0
15.180000 9.020000 28.160000 183 162 162 0
15.400000 9.020000 28.160000 181 161 165 0
15.620000 9.020000 28.160000 181 161 165 0
15.840000 9.020000 28.160000 179 165 173 0
16.060000 9.020000 28.160000 179 165 173 0
16.280000 9.020000 28.160000 172 169 175 0
16.500000 9.020000 28.380000 172 169 175 0
16.720000 9.020000 28.380000 173 166 177 0
16.940000 9.020000 27.060000 174 167 178 0
17.160000 9.020000 27.280000 166 172 181 0
17.380000 9.020000 28.600000 171 177 186 0
17.600000 9.020000 28.600000 165 180 194 0
17.820000 9.020000 28.380000 167 182 196 0
18.040000 9.020000 28.380000 168 185 196 0
18.260000 9.020000 29.480000 169 186 197 0
18.480000 9.020000 29.480000 164 183 195 0
18.700000 9.020000 29.480000 164 183 195 0
18.920000 9.020000 29.260000 164 185 199 0
19.140000 9.020000 30.360000 167 188 202 0
19.360000 9.020000 30.580000 168 189 203 0
19.580000 9.020000 30.580000 169 190 204 0
19.800000 9.020000 30.580000 165 191 203 0
20.020000 9.020000 30.580000 163 189 201 0
20.240000 9.020000 29.040000 164 187 198 0
20.460000 9.020000 29.260000 164 187 198 0
20.680000 9.020000 29.260000 162 187 202 0
20.900000 9.020000 29.260000 164 189 204 0
21.120000 9.020000 29.260000 166 189 202 0
21.340000 9.020000 30.580000 164 187 200 0
21.560000 9.020000 30.580000 166 189 202 0
21.780000 9.020000 30.580000 165 188 201 0
22.000000 9.020000 30.580000 163 185 196 0
22.220000 9.020000 29.260000 162 184 195 0
22.440000 9.020000 29.260000 162 183 197 0
22.660000 9.020000 29.040000 161 182 196 0
22.880000 9.020000 30.580000 161 186 201 0
23.100000 9.020000 30.580000 161 186 201 0
23.320000 9.020000 31.900000 163 190 206 0
23.540000 9.020000 31.900000 166 193 209 0
23.760000 9.020000 32.120000 166 196 215 0
23.980000 9.020000 30.580000 168 198 217 0
24.200000 9.020000 32.120000 169 197 216 0
24.420000 9.020000 33.440000 170 198 217 0
24.640000 9.020000 33.440000 167 203 222 0
24.860000 9.020000 34.760000 169 205 224 0
25.080000 9.020000 34.760000 164 209 227 0
25.300000 9.020000 34.760000 166 211 229 0
25.520000 9.020000 33.440000 175 211 230 0
25.740000 9.020000 33.440000 173 209 228 0
25.960000 9.020000 34.980000 174 211 227 0
26.180000 9.020000 35.200000 179 216 232 0
26.400000 9.020000 35.420000 178 214 233 0
26.620000 9.020000 36.740000 178 214 233 0
26.840000 9.020000 30.800000 171 216 234 0
27.060000 9.020000 23.760000 170 215 233 0
27.280000 9.020000 25.080000 174 212 232 0
27.500000 9.020000 16.720000 176 214 234 0
27.720000 9.020000 11.220000 177 214 230 0
27.940000 9.020000 16.720000 177 214 230 0
28.160000 9.020000 25.080000 180 215 230 0
28.380000 9.020000 25.080000 184 219 234 0
28.600000 9.020000 19.580000 187 222 239 0
28.820000 9.020000 20.900000 186 221 238 0
29.040000 9.020000 14.080000 186 218 236 0
29.260000 9.020000 3.300000 189 221 239 0
29.480000 9.020000 0.440000 191 227 238 0
29.700000 9.020000 4.400000 192 228 239 0
29.920000 9.020000 7.040000 193 229 240 0
30.140000 9.020000 5.500000 193 229 240 0
30.360000 9.020000 2.860000 181 229 244 0
30.580000 9.020000 1.540000 177 225 240 0
30.800000 9.020000 4.180000 165 226 239 0
31.020000 9.020000 8.360000 165 226 239 0
31.240000 9.020000 5.720000 157 227 237 0
31.460000 9.020000 2.860000 159 229 239 0
31.680000 9.020000 3.080000 158 232 238 0
31.900000 9.020000 3.080000 157 231 237 0
32.120000 9.020000 3.080000 163 229 238 0
32.340000 9.020000 3.080000 165 231 240 0
32.560000 9.020000 1.760000 160 230 240 0
32.780000 9.020000 3.080000 160 230 240 0
33.000000 9.020000 4.400000 159 231 238 0
33.220000 9.020000 4.400000 161 233 240 0
33.440000 9.020000 4.400000 161 233 240 0
33.660000 9.020000 4.400000 161 233 240 0
33.880000 9.020000 4.400000 164 230 241 0
34.100000 9.020000 4.400000 162 228 239 0
34.320000 9.020000 4.400000 159 229 239 0
34.540000 9.020000 4.400000 160 230 240 0
34.760000 9.020000 4.400000 160 232 241 0
34.980000 9.020000 3.080000 161 233 242 0
35.200000 9.020000 4.400000 162 234 241 0
35.420000 9.020000 4.400000 161 233 240 0
35.640000 9.020000 3.080000 163 237 241 0
35.860000 9.020000 3.080000 164 238 242 0
36.080000 9.020000 3.080000 167 239 240 0
36.300000 9.020000 1.760000 168 240 241 0
36.520000 9.020000 1.980000 177 240 240 0
36.740000 9.020000 3.080000 177 240 240 0
36.960000 9.020000 2.860000 184 238 236 0
37.180000 9.020000 2.860000 187 241 239 0
0.000000 9.240000 15.620000 167 125 108 0
0.220000 9.240000 15.620000 167 125 108 0
0.440000 9.240000 15.620000 168 126 109 0
0.660000 9.240000 15.620000 168 126 109 0
0.880000 9.240000 15.620000 168 126 109 0
1.100000 9.240000 15.620000 170 128 111 0
1.320000 9.240000 15.840000 171 132 114 0
1.540000 9.240000 15.840000 174 135 117 0
1.760000 9.240000 15.840000 176 136 121 0
1.980000 9.240000 15.840000 177 137 122 0
2.200000 9.240000 15.840000 176 132 114 0
2.420000 9.240000 15.840000 173 129 111 0
2.640000 9.240000 16.060000 171 129 112 0
2.860000 9.240000 16.060000 170 128 111 0
3.080000 9.240000 16.060000 173 131 112 0
3.300000 9.240000 17.380000 179 137 118 0
3.520000 9.240000 17.600000 183 144 122 0
3.740000 9.240000 17.600000 187 148 126 0
3.960000 9.240000 17.600000 190 153 130 0
4.180000 9.240000 17.600000 193 156 133 0
4.400000 9.240000 17.600000 194 155 133 0
4.620000 9.240000 17.820000 195 156 134 0
4.840000 9.240000 17.820000 194 155 135 0
5.060000 9.240000 17.820000 194 155 135 0
5.280000 9.240000 19.140000 192 153 133 0
5.500000 9.240000 20.240000 194 155 135 0
5.720000 9.240000 21.120000 191 152 132 0
5.940000 9.240000 22.220000 186 147 127 0
6.160000 9.240000 22.220000 189 150 128 0
6.380000 9.240000 22.220000 188 149 127 0
6.600000 9.240000 22.440000 190 148 129 0
6.820000 9.240000 22.440000 188 146 127 0
7.040000 9.240000 22.440000 187 145 126 0
7.260000 9.240000 22.440000 186 144 125 0
7.480000 9.240000 22.660000 187 145 128 0
7.700000 9.240000 22.660000 183 141 124 0
7.920000 9.240000 23.980000 185 141 125 0
8.140000 9.240000 24.200000 184 140 124 0
8.360000 9.240000 24.200000 185 141 127 0
8.580000 9.240000 24.200000 182 138 124 0
8.800000 9.240000 24.200000 186 136 124 0
9.020000 9.240000 24.420000 185 135 123 0
9.240000 9.240000 24.420000 185 132 119 0
9.460000 9.240000 24.420000 184 131 118 0
9.680000 9.240000 24.420000 183 130 121 0
9.900000 9.240000 24.420000 183 130 121 0
10.120000 9.240000 24.640000 183 129 122 0
10.340000 9.240000 24.640000 183 129 122 0
10.560000 9.240000 24.640000 183 130 119 0
10.780000 9.240000 24.640000 184 131 120 0
11.000000 9.240000 24.640000 183 133 121 0
11.220000 9.240000 25.740000 182 132 120 0
11.440000 9.240000 26.840000 181 132 123 0
11.660000 9.240000 27.940000 181 132 123 0
11.880000 9.240000 27.940000 181 133 124 0
12.100000 9.240000 27.720000 180 132 123 0
12.320000 9.240000 27.940000 182 134 125 0
12.540000 9.240000 27.940000 184 136 127 0
12.760000 9.240000 29.260000 185 136 126 0
12.980000 9.240000 29.260000 185 136 126 0
13.200000 9.240000 29.480000 183 138 128 0
13.420000 9.240000 29.480000 184 139 129 0
13.640000 9.240000 29.480000 181 140 133 0
13.860000 9.240000 29.480000 180 139 132 0
14.080000 9.240000 29.480000 180 139 130 0
14.300000 9.240000 29.480000 179 138 129 0
14.520000 9.240000 29.480000 175 140 131 0
14.740000 9.240000 29.700000 175 140 131 0
14.960000 9.240000 28.160000 175 137 131 0
15.180000 9.240000 28.380000 172 134 128 0
15.400000 9.240000 28.380000 165 134 127 0
15.620000 9.240000 28.380000 165 134 127 0
15.840000 9.240000 28.380000 162 136 130 0
16.060000 9.240000 28.380000 161 135 129 0
16.280000 9.240000 28.380000 164 136 130 0
16.500000 9.240000 28.600000 162 134 128 0
16.720000 9.240000 28.600000 159 135 132 0
16.940000 9.240000 28.600000 160 136 133 0
17.160000 9.240000 28.820000 158 136 134 0
17.380000 9.240000 28.820000 158 136 134 0
17.600000 9.240000 28.820000 159 139 136 0
17.820000 9.240000 28.600000 159 139 136 0
18.040000 9.240000 28.380000 160 138 136 0
18.260000 9.240000 29.480000 162 140 138 0
18.480000 9.240000 29.260000 161 139 137 0
18.700000 9.240000 29.260000 161 139 137 0
18.920000 9.240000 29.260000 160 138 138 0
19.140000 9.240000 30.360000 163 141 141 0
19.360000 9.240000 30.580000 161 142 141 0
19.580000 9.240000 30.580000 160 141 140 0
19.800000 9.240000 29.040000 161 139 137 0
20.020000 9.240000 29.260000 160 138 136 0
20.240000 9.240000 29.260000 162 140 140 0
20.460000 9.240000 29.040000 164 142 142 0
20.680000 9.240000 29.260000 163 142 142 0
20.900000 9.240000 29.260000 163 142 142 0
21.120000 9.240000 29.260000 164 144 141 0
21.340000 9.240000 29.260000 164 144 141 0
21.560000 9.240000 29.260000 166 141 140 0
21.780000 9.240000 29.260000 165 140 139 0
22.000000 9.240000 29.260000 164 139 138 0
22.220000 9.240000 29.260000 163 138 137 0
22.440000 9.240000 29.260000 161 139 137 0
22.660000 9.240000 29.260000 162 140 138 0
22.880000 9.240000 30.580000 162 140 137 0
23.100000 9.240000 30.580000 162 140 137 0
23.320000 9.240000 30.580000 163 138 137 0
23.540000 9.240000 30.580000 164 139 138 0
23.760000 9.240000 30.580000 167 142 141 0
23.980000 9.240000 30.580000 170 145 144 0
24.200000 9.240000 30.800000 169 150 149 0
24.420000 9.240000 30.800000 170 151 150 0
24.640000 9.240000 30.580000 170 154 159 0
24.860000 9.240000 31.900000 172 156 161 0
25.080000 9.240000 34.760000 169 157 162 0
25.300000 9.240000 34.760000 172 160 165 0
25.520000 9.240000 33.880000 177 163 173 0
25.740000 9.240000 33.880000 180 166 176 0
25.960000 9.240000 34.980000 174 170 182 0
26.180000 9.240000 36.300000 176 172 184 0
26.400000 9.240000 36.520000 172 181 193 0
26.620000 9.240000 36.520000 175 184 196 0
26.840000 9.240000 31.020000 173 184 199 0
27.060000 9.240000 23.980000 176 187 202 0
27.280000 9.240000 23.980000 175 195 214 0
27.500000 9.240000 18.260000 175 195 214 0
27.720000 9.240000 13.860000 181 199 216 0
27.940000 9.240000 15.400000 181 199 216 0
28.160000 9.240000 12.540000 181 198 213 0
28.380000 9.240000 7.040000 181 198 213 0
28.600000 9.240000 5.940000 176 198 217 0
28.820000 9.240000 5.720000 177 199 218 0
29.040000 9.240000 4.400000 178 200 221 0
29.260000 9.240000 0.440000 182 204 225 0
29.480000 9.240000 1.760000 182 207 225 0
29.700000 9.240000 1.760000 182 207 225 0
29.920000 9.240000 2.860000 174 208 231 0
30.140000 9.240000 4.180000 177 211 234 0
30.360000 9.240000 4.180000 174 207 233 0
30.580000 9.240000 4.180000 171 204 230 0
30.800000 9.240000 4.180000 168 209 234 0
31.020000 9.240000 4.400000 167 208 233 0
31.240000 9.240000 4.400000 155 212 240 0
31.460000 9.240000 4.400000 155 212 240 0
31.680000 9.240000 4.400000 158 213 241 0
31.900000 9.240000 4.400000 156 211 239 0
32.120000 9.240000 4.400000 150 213 243 0
32.340000 9.240000 4.400000 151 214 244 0
32.560000 9.240000 4.620000 152 217 244 0
32.780000 9.240000 4.620000 151 216 243 0
33.000000 9.240000 5.940000 150 215 242 0
33.220000 9.240000 5.940000 149 214 241 0
33.440000 9.240000 5.720000 154 214 243 0
33.660000 9.240000 5.720000 155 215 244 0
33.880000 9.240000 5.720000 151 214 244 0
34.100000 9.240000 5.940000 149 212 242 0
34.320000 9.240000 5.940000 147 212 239 0
34.540000 9.240000 5.940000 147 212 239 0
34.760000 9.240000 4.620000 151 214 242 0
34.980000 9.240000 4.620000 151 214 242 0
35.200000 9.240000 5.940000 148 215 242 0
35.420000 9.240000 5.940000 149 216 243 0
35.640000 9.240000 4.620000 155 219 249 0
35.860000 9.240000 4.620000 158 222 252 0
36.080000 9.240000 4.620000 157 224 251 0
36.300000 9.240000 4.620000 159 226 253 0
36.520000 9.240000 4.620000 159 228 254 0
36.740000 9.240000 5.720000 161 230 255 0
36.960000 9.240000 4.400000 158 234 253 0
37.180000 9.240000 4.400000 159 235 254 0
0.000000 9.460000 15.620000 184 142 125 0
0.220000 9.460000 15.620000 187 145 128 0
0.440000 9.460000 15.620000 188 146 129 0
0.660000 9.460000 15.620000 185 143 126 0
0.880000 9.460000 15.620000 186 144 127 0
1.100000 9.460000 15.620000 187 145 128 0
1.320000 9.460000 15.620000 186 147 129 0
1.540000 9.460000 15.840000 192 153 135 0
1.760000 9.460000 15.840000 191 151 136 0
1.980000 9.460000 15.840000 191 151 136 0
2.200000 9.460000 15.840000 193 149 131 0
2.420000 9.460000 15.840000 189 145 127 0
2.640000 9.460000 15.840000 186 144 127 0
2.860000 9.460000 16.060000 184 142 125 0
3.080000 9.460000 16.060000 188 146 127 0
3.300000 9.460000 16.060000 195 153 134 0
3.520000 9.460000 16.060000 201 162 140 0
3.740000 9.460000 17.600000 205 166 144 0
3.960000 9.460000 17.600000 206 169 146 0
4.180000 9.460000 17.600000 208 171 148 0
4.400000 9.460000 17.600000 213 174 152 0
4.620000 9.460000 17.600000 211 172 150 0
4.840000 9.460000 17.820000 211 172 152 0
5.060000 9.460000 17.820000 210 171 151 0
5.280000 9.460000 17.820000 209 170 150 0
5.500000 9.460000 19.140000 209 170 150 0
5.720000 9.460000 19.800000 207 168 148 0
5.940000 9.460000 20.900000 205 166 146 0
6.160000 9.460000 22.220000 205 166 144 0
6.380000 9.460000 22.220000 204 165 143 0
6.600000 9.460000 22.220000 206 164 145 0
6.820000 9.460000 22.440000 205 163 144 0
7.040000 9.460000 22.440000 204 162 143 0
7.260000 9.460000 22.440000 202 160 141 0
7.480000 9.460000 22.440000 202 160 143 0
7.700000 9.460000 22.660000 200 158 141 0
7.920000 9.460000 23.980000 201 157 141 0
8.140000 9.460000 23.980000 200 156 140 0
8.360000 9.460000 24.200000 200 156 142 0
8.580000 9.460000 24.200000 198 154 140 0
8.800000 9.460000 24.200000 198 148 136 0
9.020000 9.460000 24.200000 196 146 134 0
9.240000 9.460000 24.420000 195 142 129 0
9.460000 9.460000 24.420000 192 139 126 0
9.680000 9.460000 24.420000 190 137 128 0
9.900000 9.460000 24.420000 189 136 127 0
10.120000 9.460000 24.640000 188 134 127 0
10.340000 9.460000 24.640000 189 135 128 0
10.560000 9.460000 24.640000 187 134 123 0
10.780000 9.460000 24.640000 188 135 124 0
11.000000 9.460000 25.960000 185 135 123 0
11.220000 9.460000 26.840000 181 131 119 0
11.440000 9.460000 27.940000 179 130 121 0
11.660000 9.460000 29.040000 178 129 120 0
11.880000 9.460000 29.260000 178 130 121 0
12.100000 9.460000 29.260000 178 130 121 0
12.320000 9.460000 29.260000 178 130 121 0
12.540000 9.460000 29.260000 178 130 121 0
12.760000 9.460000 29.260000 178 129 119 0
12.980000 9.460000 29.480000 178 129 119 0
13.200000 9.460000 29.480000 175 130 120 0
13.420000 9.460000 29.480000 174 129 119 0
13.640000 9.460000 29.480000 172 131 124 0
13.860000 9.460000 29.480000 170 129 122 0
14.080000 9.460000 29.700000 171 130 121 0
14.300000 9.460000 29.700000 170 129 120 0
14.520000 9.460000 29.700000 164 129 120 0
14.740000 9.460000 29.700000 162 127 118 0
14.960000 9.460000 29.700000 161 123 117 0
15.180000 9.460000 29.700000 157 119 113 0
15.400000 9.460000 28.380000 150 119 112 0
15.620000 9.460000 28.380000 151 120 113 0
15.840000 9.460000 28.380000 144 118 112 0
16.060000 9.460000 28.600000 142 116 110 0
16.280000 9.460000 28.600000 145 117 111 0
16.500000 9.460000 28.600000 145 117 111 0
16.720000 9.460000 28.600000 138 114 111 0
16.940000 9.460000 27.280000 138 114 111 0
17.160000 9.460000 27.280000 136 114 112 0
17.380000 9.460000 27.500000 137 115 113 0
17.600000 9.460000 27.280000 136 116 113 0
17.820000 9.460000 28.380000 135 115 112 0
18.040000 9.460000 28.160000 136 114 112 0
18.260000 9.460000 29.260000 134 112 110 0
18.480000 9.460000 29.040000 134 112 110 0
18.700000 9.460000 29.040000 134 112 110 0
18.920000 9.460000 29.260000 133 111 111 0
19.140000 9.460000 29.260000 132 110 110 0
19.360000 9.460000 29.260000 130 111 110 0
19.580000 9.460000 29.040000 129 110 109 0
19.800000 9.460000 29.040000 131 109 107 0
20.020000 9.460000 29.260000 131 109 107 0
20.240000 9.460000 29.260000 132 110 110 0
20.460000 9.460000 29.260000 130 108 108 0
20.680000 9.460000 29.260000 130 109 109 0
20.900000 9.460000 27.940000 129 108 108 0
21.120000 9.460000 28.160000 129 109 106 0
21.340000 9.460000 29.260000 128 108 105 0
21.560000 9.460000 29.260000 131 106 105 0
21.780000 9.460000 27.940000 132 107 106 0
22.000000 9.460000 27.940000 132 107 106 0
22.220000 9.460000 29.260000 133 108 107 0
22.440000 9.460000 27.940000 131 109 107 0
22.660000 9.460000 27.940000 129 107 105 0
22.880000 9.460000 29.260000 131 109 106 0
23.100000 9.460000 30.580000 130 108 105 0
23.320000 9.460000 29.260000 134 109 108 0
23.540000 9.460000 29.260000 137 112 111 0
23.760000 9.460000 30.580000 137 112 111 0
23.980000 9.460000 31.900000 138 113 112 0
24.200000 9.460000 30.800000 134 115 114 0
24.420000 9.460000 29.480000 135 116 115 0
24.640000 9.460000 29.480000 134 118 123 0
24.860000 9.460000 29.260000 134 118 123 0
25.080000 9.460000 30.800000 133 121 126 0
25.300000 9.460000 32.340000 135 123 128 0
25.520000 9.460000 32.340000 139 125 135 0
25.740000 9.460000 32.560000 142 128 138 0
25.960000 9.460000 34.980000 140 136 148 0
26.180000 9.460000 36.080000 146 142 154 0
26.400000 9.460000 36.080000 140 149 161 0
26.620000 9.460000 36.300000 146 155 167 0
26.840000 9.460000 34.980000 151 162 177 0
27.060000 9.460000 33.440000 157 168 183 0
27.280000 9.460000 33.440000 159 179 198 0
27.500000 9.460000 29.260000 168 188 207 0
27.720000 9.460000 22.440000 175 193 210 0
27.940000 9.460000 15.400000 179 197 214 0
28.160000 9.460000 4.400000 181 198 213 0
28.380000 9.460000 0.220000 183 200 215 0
28.600000 9.460000 0.440000 179 201 220 0
28.820000 9.460000 0.440000 179 201 220 0
29.040000 9.460000 0.220000 180 202 223 0
29.260000 9.460000 1.540000 181 203 224 0
29.480000 9.460000 1.540000 179 204 222 0
29.700000 9.460000 2.860000 177 202 220 0
29.920000 9.460000 4.180000 170 204 227 0
30.140000 9.460000 4.180000 168 202 225 0
30.360000 9.460000 4.180000 166 199 225 0
30.580000 9.460000 4.180000 167 200 226 0
30.800000 9.460000 4.400000 160 201 226 0
31.020000 9.460000 5.720000 161 202 227 0
31.240000 9.460000 5.720000 149 206 234 0
31.460000 9.460000 5.720000 148 205 233 0
31.680000 9.460000 5.720000 150 205 233 0
31.900000 9.460000 4.400000 150 205 233 0
32.120000 9.460000 5.940000 145 208 238 0
32.340000 9.460000 5.720000 144 207 237 0
32.560000 9.460000 7.260000 145 210 237 0
32.780000 9.460000 7.260000 146 211 238 0
33.000000 9.460000 7.260000 147 212 239 0
33.220000 9.460000 7.260000 145 210 237 0
33.440000 9.460000 7.260000 147 207 236 0
33.660000 9.460000 7.260000 147 207 236 0
33.880000 9.460000 7.260000 144 207 237 0
34.100000 9.460000 7.260000 144 207 237 0
34.320000 9.460000 7.260000 141 206 233 0
34.540000 9.460000 7.480000 143 208 235 0
34.760000 9.460000 5.940000 144 207 235 0
34.980000 9.460000 5.940000 144 207 235 0
35.200000 9.460000 7.260000 142 209 236 0
35.420000 9.460000 5.940000 142 209 236 0
35.640000 9.460000 5.940000 143 207 237 0
35.860000 9.460000 5.940000 146 210 240 0
36.080000 9.460000 5.940000 143 210 237 0
36.300000 9.460000 5.940000 145 212 239 0
36.520000 9.460000 5.720000 144 213 239 0
36.740000 9.460000 5.720000 145 214 240 0
36.960000 9.460000 5.720000 141 217 236 0
37.180000 9.460000 5.940000 144 220 239 0
0.000000 9.680000 15.620000 202 165 142 0
0.220000 9.680000 15.620000 204 167 144 0
0.440000 9.680000 15.620000 203 166 142 0
0.660000 9.680000 15.620000 203 166 142 0
0.880000 9.680000 15.620000 200 163 140 0
1.100000 9.680000 15.620000 197 160 137 0
1.320000 9.680000 15.620000 200 163 140 0
1.540000 9.680000 15.620000 202 165 142 0
1.760000 9.680000 15.840000 202 165 144 0
1.980000 9.680000 15.840000 199 162 141 0
2.200000 9.680000 15.840000 198 161 140 0
2.420000 9.680000 15.840000 197 160 139 0
2.640000 9.680000 15.840000 195 158 137 0
2.860000 9.680000 16.060000 195 158 137 0
3.080000 9.680000 16.060000 198 162 141 0
3.300000 9.680000 16.060000 207 171 150 0
3.520000 9.680000 16.060000 210 175 151 0
3.740000 9.680000 17.600000 214 179 155 0
3.960000 9.680000 17.600000 216 181 157 0
4.180000 9.680000 17.600000 217 182 158 0
4.400000 9.680000 17.600000 219 183 162 0
4.620000 9.680000 17.600000 219 183 162 0
4.840000 9.680000 17.820000 221 184 161 0
5.060000 9.680000 17.820000 221 184 161 0
5.280000 9.680000 17.820000 219 184 160 0
5.500000 9.680000 17.820000 219 184 160 0
5.720000 9.680000 18.920000 217 181 160 0
5.940000 9.680000 21.120000 219 183 162 0
6.160000 9.680000 22.220000 218 182 161 0
6.380000 9.680000 22.220000 217 181 160 0
6.600000 9.680000 22.220000 218 181 158 0
6.820000 9.680000 22.440000 216 179 156 0
7.040000 9.680000 22.440000 215 180 156 0
7.260000 9.680000 22.440000 213 178 154 0
7.480000 9.680000 22.440000 212 176 155 0
7.700000 9.680000 22.660000 213 177 156 0
7.920000 9.680000 22.660000 213 177 156 0
8.140000 9.680000 23.980000 211 175 154 0
8.360000 9.680000 23.980000 210 173 152 0
8.580000 9.680000 24.200000 209 172 151 0
8.800000 9.680000 24.200000 205 169 148 0
9.020000 9.680000 24.200000 202 166 145 0
9.240000 9.680000 24.420000 202 165 144 0
9.460000 9.680000 24.420000 199 162 141 0
9.680000 9.680000 24.420000 197 160 139 0
9.900000 9.680000 24.420000 196 159 138 0
10.120000 9.680000 24.640000 197 155 138 0
10.340000 9.680000 24.640000 193 151 134 0
10.560000 9.680000 24.640000 194 151 137 0
10.780000 9.680000 24.640000 191 148 134 0
11.000000 9.680000 26.180000 188 145 133 0
11.220000 9.680000 25.740000 187 144 132 0
11.440000 9.680000 26.620000 186 139 128 0
11.660000 9.680000 27.720000 185 138 127 0
11.880000 9.680000 29.260000 184 135 126 0
12.100000 9.680000 29.260000 185 136 127 0
12.320000 9.680000 29.260000 181 132 122 0
12.540000 9.680000 29.260000 180 131 121 0
12.760000 9.680000 29.260000 178 131 118 0
12.980000 9.680000 29.480000 178 131 118 0
13.200000 9.680000 29.480000 179 128 119 0
13.420000 9.680000 29.480000 178 127 118 0
13.640000 9.680000 29.480000 176 127 118 0
13.860000 9.680000 29.700000 175 126 117 0
14.080000 9.680000 29.700000 173 125 118 0
14.300000 9.680000 29.700000 170 122 115 0
14.520000 9.680000 29.700000 165 121 115 0
14.740000 9.680000 29.700000 162 118 112 0
14.960000 9.680000 29.700000 152 114 108 0
15.180000 9.680000 29.920000 147 109 103 0
15.400000 9.680000 28.380000 139 104 105 0
15.620000 9.680000 28.600000 134 99 100 0
15.840000 9.680000 28.600000 129 97 97 0
16.060000 9.680000 28.600000 127 95 95 0
16.280000 9.680000 28.600000 125 96 96 0
16.500000 9.680000 28.600000 123 94 94 0
16.720000 9.680000 27.280000 119 94 95 0
16.940000 9.680000 27.280000 118 93 94 0
17.160000 9.680000 27.280000 116 91 92 0
17.380000 9.680000 27.280000 116 91 92 0
17.600000 9.680000 27.280000 117 90 92 0
17.820000 9.680000 27.060000 116 89 91 0
18.040000 9.680000 28.160000 114 89 88 0
18.260000 9.680000 27.940000 114 89 88 0
18.480000 9.680000 29.260000 113 88 89 0
18.700000 9.680000 27.720000 113 88 89 0
18.920000 9.680000 27.940000 112 90 90 0
19.140000 9.680000 27.940000 110 88 88 0
19.360000 9.680000 27.940000 113 86 88 0
19.580000 9.680000 27.720000 112 85 87 0
19.800000 9.680000 27.720000 108 86 84 0
20.020000 9.680000 27.720000 108 86 84 0
20.240000 9.680000 27.720000 111 86 85 0
20.460000 9.680000 27.940000 112 87 86 0
20.680000 9.680000 27.940000 109 87 87 0
20.900000 9.680000 27.940000 109 87 87 0
21.120000 9.680000 29.260000 113 86 88 0
21.340000 9.680000 29.260000 113 86 88 0
21.560000 9.680000 29.260000 112 90 88 0
21.780000 9.680000 27.940000 111 89 87 0
22.000000 9.680000 27.940000 116 91 90 0
22.220000 9.680000 29.260000 116 91 90 0
22.440000 9.680000 28.160000 115 93 93 0
22.660000 9.680000 27.940000 114 92 92 0
22.880000 9.680000 29.260000 115 90 89 0
23.100000 9.680000 29.260000 118 93 92 0
23.320000 9.680000 29.260000 118 96 94 0
23.540000 9.680000 29.260000 116 94 92 0
23.760000 9.680000 29.480000 122 97 96 0
23.980000 9.680000 30.800000 124 99 98 0
24.200000 9.680000 30.800000 122 100 100 0
24.420000 9.680000 29.700000 121 99 99 0
24.640000 9.680000 29.700000 124 99 98 0
24.860000 9.680000 28.380000 127 102 101 0
25.080000 9.680000 28.380000 127 102 101 0
25.300000 9.680000 29.700000 128 103 102 0
25.520000 9.680000 31.020000 132 103 102 0
25.740000 9.680000 32.340000 135 106 105 0
25.960000 9.680000 34.760000 140 108 106 0
26.180000 9.680000 36.080000 144 112 110 0
26.400000 9.680000 36.080000 151 120 123 0
26.620000 9.680000 34.760000 163 132 135 0
26.840000 9.680000 36.080000 166 146 152 0
27.060000 9.680000 37.400000 179 159 165 0
27.280000 9.680000 38.720000 179 177 186 0
27.500000 9.680000 33.220000 189 187 196 0
27.720000 9.680000 26.400000 189 195 206 0
27.940000 9.680000 21.120000 192 198 209 0
28.160000 9.680000 14.080000 189 202 216 0
28.380000 9.680000 9.900000 193 206 220 0
28.600000 9.680000 10.120000 193 204 217 0
28.820000 9.680000 10.120000 195 206 219 0
29.040000 9.680000 9.900000 197 204 220 0
29.260000 9.680000 11.220000 197 204 220 0
29.480000 9.680000 11.220000 190 205 221 0
29.700000 9.680000 9.680000 190 205 221 0
29.920000 9.680000 5.500000 187 204 217 0
30.140000 9.680000 4.400000 187 204 217 0
30.360000 9.680000 4.400000 182 202 222 0
30.580000 9.680000 4.400000 180 200 220 0
30.800000 9.680000 5.720000 174 199 217 0
31.020000 9.680000 5.720000 172 197 215 0
31.240000 9.680000 5.720000 166 196 217 0
31.460000 9.680000 5.720000 166 196 217 0
31.680000 9.680000 5.720000 163 197 219 0
31.900000 9.680000 5.720000 162 196 218 0
32.120000 9.680000 7.260000 155 200 226 0
32.340000 9.680000 7.040000 155 200 226 0
32.560000 9.680000 7.040000 149 203 234 0
32.780000 9.680000 8.580000 149 203 234 0
33.000000 9.680000 8.580000 151 203 235 0
33.220000 9.680000 8.580000 153 205 237 0
33.440000 9.680000 8.580000 150 207 239 0
33.660000 9.680000 8.580000 148 205 237 0
33.880000 9.680000 8.580000 147 204 234 0
34.100000 9.680000 8.580000 147 204 234 0
34.320000 9.680000 8.580000 146 205 234 0
34.540000 9.680000 7.260000 146 205 234 0
34.760000 9.680000 7.260000 148 205 235 0
34.980000 9.680000 7.260000 149 206 236 0
35.200000 9.680000 7.260000 149 206 238 0
35.420000 9.680000 7.260000 149 206 238 0
35.640000 9.680000 7.260000 150 208 240 0
35.860000 9.680000 7.260000 149 207 239 0
36.080000 9.680000 7.260000 148 207 236 0
36.300000 9.680000 7.260000 146 205 234 0
36.520000 9.680000 8.580000 145 202 232 0
36.740000 9.680000 7.260000 147 204 234 0
36.960000 9.680000 7.260000 148 205 237 0
37.180000 9.680000 7.260000 148 205 237 0
0.000000 9.900000 15.620000 210 173 150 0
0.220000 9.900000 15.620000 212 175 152 0
0.440000 9.900000 15.620000 210 173 149 0
0.660000 9.900000 15.620000 207 170 146 0
0.880000 9.900000 15.620000 205 168 145 0
1.100000 9.900000 15.620000 204 167 144 0
1.320000 9.900000 15.620000 203 166 143 0
1.540000 9.900000 15.840000 202 165 142 0
1.760000 9.900000 15.840000 199 162 141 0
1.980000 9.900000 15.840000 199 162 141 0
2.200000 9.900000 15.840000 198 161 140 0
2.420000 9.900000 15.840000 197 160 139 0
2.640000 9.900000 15.840000 198 161 140 0
2.860000 9.900000 16.060000 202 165 144 0
3.080000 9.900000 16.060000 206 170 149 0
3.300000 9.900000 16.060000 209 173 152 0
3.520000 9.900000 16.060000 211 176 152 0
3.740000 9.900000 17.600000 213 178 154 0
3.960000 9.900000 17.600000 215 180 156 0
4.180000 9.900000 17.600000 217 182 158 0
4.400000 9.900000 17.600000 219 183 162 0
4.620000 9.900000 17.600000 218 182 161 0
4.840000 9.900000 17.820000 220 183 160 0
5.060000 9.900000 17.820000 219 182 159 0
5.280000 9.900000 17.820000 218 183 159 0
5.500000 9.900000 17.820000 219 184 160 0
5.720000 9.900000 18.920000 220 184 163 0
5.940000 9.900000 21.120000 221 185 164 0
6.160000 9.900000 22.220000 220 184 163 0
6.380000 9.900000 22.220000 221 185 164 0
6.600000 9.900000 22.220000 220 183 160 0
6.820000 9.900000 22.440000 219 182 159 0
7.040000 9.900000 22.440000 218 183 159 0
7.260000 9.900000 22.440000 219 184 160 0
7.480000 9.900000 22.440000 220 184 163 0
7.700000 9.900000 22.440000 220 184 163 0
7.920000 9.900000 22.660000 218 182 161 0
8.140000 9.900000 23.980000 219 183 162 0
8.360000 9.900000 23.980000 219 182 161 0
8.580000 9.900000 24.200000 217 180 159 0
8.800000 9.900000 24.200000 215 179 158 0
9.020000 9.900000 24.200000 214 178 157 0
9.240000 9.900000 24.200000 214 177 156 0
9.460000 9.900000 24.420000 214 177 156 0
9.680000 9.900000 24.420000 212 175 154 0
9.900000 9.900000 24.420000 210 173 152 0
10.120000 9.900000 24.420000 211 169 152 0
10.340000 9.900000 24.640000 208 166 149 0
10.560000 9.900000 24.640000 208 165 151 0
10.780000 9.900000 24.640000 205 162 148 0
11.000000 9.900000 24.640000 203 160 148 0
11.220000 9.900000 24.640000 201 158 146 0
11.440000 9.900000 25.740000 200 153 142 0
11.660000 9.900000 26.620000 198 151 140 0
11.880000 9.900000 27.720000 197 148 139 0
