ply
format ascii 1.0
element vertex 1109
property float x
property float y
property float z
property uchar red
property uchar green
property uchar blue
property uchar alpha
end_header
10.340000 26.400000 1.540000 186 188 172 0
10.560000 26.400000 1.540000 185 187 171 0
11.660000 26.400000 0.220000 199 200 187 0
11.880000 26.400000 0.220000 200 201 188 0
12.100000 26.400000 1.540000 200 203 189 0
12.320000 26.400000 1.540000 200 203 189 0
12.540000 26.400000 1.540000 202 204 188 0
12.760000 26.400000 1.760000 195 197 181 0
12.980000 26.400000 1.760000 191 191 176 0
13.200000 26.400000 1.760000 188 188 173 0
13.420000 26.400000 1.760000 190 191 178 0
13.640000 26.400000 1.760000 192 193 180 0
13.860000 26.400000 1.760000 194 197 183 0
14.080000 26.400000 1.760000 196 199 185 0
14.300000 26.400000 1.760000 197 198 185 0
14.520000 26.400000 1.760000 198 199 186 0
14.740000 26.400000 1.980000 198 199 186 0
14.960000 26.400000 1.980000 198 199 186 0
15.180000 26.400000 1.980000 198 199 186 0
15.400000 26.400000 1.980000 198 199 186 0
15.620000 26.400000 1.980000 199 200 187 0
15.840000 26.400000 1.980000 201 202 189 0
16.060000 26.400000 1.980000 201 202 189 0
16.280000 26.400000 2.200000 200 201 188 0
16.500000 26.400000 2.200000 197 198 185 0
16.720000 26.400000 2.200000 194 195 182 0
16.940000 26.400000 2.200000 195 196 183 0
17.160000 26.400000 2.200000 197 198 185 0
17.380000 26.400000 2.200000 198 201 187 0
17.600000 26.400000 2.200000 197 200 186 0
17.820000 26.400000 2.420000 200 201 188 0
18.040000 26.400000 2.420000 201 202 189 0
18.260000 26.400000 2.420000 200 201 188 0
18.480000 26.400000 2.420000 201 202 189 0
18.700000 26.400000 3.740000 200 201 190 0
18.920000 26.400000 3.960000 200 201 190 0
19.140000 26.400000 3.960000 199 202 188 0
19.360000 26.400000 3.960000 199 202 188 0
19.580000 26.400000 3.960000 200 201 188 0
19.800000 26.400000 3.960000 200 201 188 0
20.020000 26.400000 3.960000 200 201 188 0
20.240000 26.400000 4.180000 200 201 188 0
20.460000 26.400000 4.180000 198 201 187 0
20.680000 26.400000 5.060000 198 201 187 0
20.900000 26.400000 5.940000 199 202 190 0
21.120000 26.400000 7.040000 199 202 190 0
21.340000 26.400000 7.040000 199 200 189 0
21.560000 26.400000 7.040000 200 201 190 0
21.780000 26.400000 7.040000 200 201 188 0
22.000000 26.400000 7.040000 199 200 187 0
22.220000 26.400000 7.040000 199 200 187 0
22.440000 26.400000 7.040000 199 200 187 0
22.660000 26.400000 7.260000 199 200 187 0
22.880000 26.400000 7.260000 200 201 188 0
23.100000 26.400000 7.260000 199 200 187 0
23.320000 26.400000 7.260000 199 200 187 0
23.540000 26.400000 8.580000 199 200 187 0
23.760000 26.400000 8.800000 199 200 187 0
23.980000 26.400000 8.800000 199 200 187 0
24.200000 26.400000 8.800000 199 200 187 0
24.420000 26.400000 8.800000 199 200 189 0
24.640000 26.400000 8.800000 199 200 189 0
24.860000 26.400000 8.800000 199 200 189 0
25.080000 26.400000 8.800000 200 201 190 0
25.300000 26.400000 8.800000 200 201 188 0
25.520000 26.400000 9.020000 200 201 188 0
25.740000 26.400000 9.020000 200 201 188 0
25.960000 26.400000 9.020000 200 201 188 0
26.180000 26.400000 9.020000 200 201 190 0
26.400000 26.400000 9.020000 200 201 190 0
26.620000 26.400000 9.020000 199 200 189 0
26.840000 26.400000 9.240000 199 200 189 0
27.060000 26.400000 9.240000 199 200 187 0
27.280000 26.400000 10.560000 199 200 187 0
27.500000 26.400000 10.560000 199 200 187 0
27.720000 26.400000 10.560000 199 200 187 0
27.940000 26.400000 10.560000 199 200 187 0
28.160000 26.400000 10.780000 199 200 187 0
28.380000 26.400000 10.780000 199 200 189 0
28.600000 26.400000 10.780000 199 200 189 0
28.820000 26.400000 10.780000 201 201 188 0
29.040000 26.400000 10.780000 200 200 187 0
29.260000 26.400000 10.780000 199 200 187 0
29.480000 26.400000 11.000000 199 200 187 0
29.700000 26.400000 11.000000 198 199 188 0
29.920000 26.400000 11.000000 199 200 189 0
30.140000 26.400000 11.000000 199 200 189 0
30.360000 26.400000 11.000000 200 201 190 0
30.580000 26.400000 11.880000 201 201 188 0
30.800000 26.400000 12.760000 201 201 188 0
31.020000 26.400000 13.860000 202 202 189 0
31.240000 26.400000 13.860000 201 201 188 0
31.460000 26.400000 13.860000 201 200 190 0
31.680000 26.400000 13.860000 201 200 190 0
31.900000 26.400000 14.080000 201 201 188 0
32.120000 26.400000 14.080000 200 200 187 0
32.340000 26.400000 14.080000 203 199 185 0
32.560000 26.400000 14.080000 197 193 179 0
32.780000 26.400000 14.080000 210 178 152 0
33.000000 26.400000 14.080000 199 167 141 0
33.220000 26.400000 14.300000 195 157 129 0
33.440000 26.400000 14.300000 198 160 132 0
33.660000 26.400000 14.300000 198 160 134 0
33.880000 26.400000 14.300000 197 159 133 0
34.100000 26.400000 14.300000 198 160 134 0
34.320000 26.400000 14.300000 197 159 133 0
34.540000 26.400000 14.300000 197 161 134 0
34.760000 26.400000 14.300000 198 162 135 0
34.980000 26.400000 14.520000 200 162 134 0
35.200000 26.400000 14.520000 199 161 133 0
35.420000 26.400000 14.520000 198 160 132 0
35.640000 26.400000 14.520000 198 160 132 0
35.860000 26.400000 14.520000 197 159 131 0
36.080000 26.400000 14.520000 196 158 130 0
36.300000 26.400000 14.740000 195 159 130 0
36.520000 26.400000 14.740000 196 160 131 0
36.740000 26.400000 14.740000 199 161 133 0
36.960000 26.400000 14.740000 200 162 134 0
37.180000 26.400000 14.740000 200 162 136 0
0.000000 26.620000 3.080000 125 129 110 0
0.220000 26.620000 3.300000 124 128 109 0
0.440000 26.620000 3.300000 122 126 107 0
0.660000 26.620000 3.080000 124 128 109 0
0.880000 26.620000 3.080000 124 128 109 0
1.100000 26.620000 3.080000 126 130 111 0
1.320000 26.620000 3.080000 125 129 110 0
1.540000 26.620000 3.080000 126 130 110 0
1.760000 26.620000 4.400000 126 130 110 0
1.980000 26.620000 3.080000 126 130 110 0
2.200000 26.620000 3.520000 126 130 110 0
2.420000 26.620000 2.200000 121 132 111 0
2.640000 26.620000 2.200000 120 131 110 0
2.860000 26.620000 0.880000 111 135 114 0
3.080000 26.620000 1.100000 111 135 114 0
5.500000 26.620000 1.100000 100 140 111 0
5.720000 26.620000 1.980000 85 125 96 0
5.940000 26.620000 3.080000 105 119 97 0
6.160000 26.620000 4.180000 121 135 113 0
6.380000 26.620000 5.500000 148 151 135 0
6.600000 26.620000 5.500000 155 158 142 0
6.820000 26.620000 5.500000 160 162 144 0
7.040000 26.620000 5.720000 164 166 148 0
7.260000 26.620000 5.720000 170 172 156 0
7.480000 26.620000 4.180000 174 176 160 0
7.700000 26.620000 4.180000 175 177 161 0
7.920000 26.620000 4.180000 176 178 162 0
8.140000 26.620000 4.400000 178 180 164 0
8.360000 26.620000 4.400000 179 181 165 0
8.580000 26.620000 4.400000 180 182 164 0
8.800000 26.620000 4.400000 181 183 165 0
9.020000 26.620000 4.400000 182 184 166 0
9.240000 26.620000 4.400000 183 185 167 0
9.460000 26.620000 4.400000 183 185 169 0
9.680000 26.620000 2.860000 181 183 167 0
9.900000 26.620000 2.860000 183 183 168 0
10.120000 26.620000 2.860000 183 183 168 0
10.340000 26.620000 1.540000 182 184 166 0
10.560000 26.620000 1.540000 185 187 169 0
11.660000 26.620000 0.220000 198 199 186 0
11.880000 26.620000 0.220000 197 198 185 0
12.100000 26.620000 1.540000 196 198 182 0
12.320000 26.620000 1.540000 196 198 182 0
12.540000 26.620000 1.540000 196 198 182 0
12.760000 26.620000 1.760000 194 196 180 0
12.980000 26.620000 1.760000 192 193 180 0
13.200000 26.620000 1.760000 192 193 180 0
13.420000 26.620000 1.760000 192 195 181 0
13.640000 26.620000 1.760000 193 196 182 0
13.860000 26.620000 1.760000 194 197 183 0
14.080000 26.620000 1.760000 195 198 184 0
14.300000 26.620000 1.760000 196 199 185 0
14.520000 26.620000 1.760000 197 200 186 0
14.740000 26.620000 1.980000 198 199 186 0
14.960000 26.620000 1.980000 199 200 187 0
15.180000 26.620000 1.980000 198 201 189 0
15.400000 26.620000 1.980000 198 201 189 0
15.620000 26.620000 1.980000 198 201 189 0
15.840000 26.620000 1.980000 199 202 190 0
16.060000 26.620000 1.980000 199 202 188 0
16.280000 26.620000 2.200000 198 201 187 0
16.500000 26.620000 2.200000 199 200 187 0
16.720000 26.620000 2.200000 198 199 186 0
16.940000 26.620000 2.200000 196 199 187 0
17.160000 26.620000 2.200000 197 200 188 0
17.380000 26.620000 2.200000 198 201 189 0
17.600000 26.620000 2.200000 199 202 190 0
17.820000 26.620000 2.420000 199 202 190 0
18.040000 26.620000 2.420000 201 204 192 0
18.260000 26.620000 2.420000 200 201 190 0
18.480000 26.620000 2.420000 201 202 191 0
18.700000 26.620000 3.740000 199 202 190 0
18.920000 26.620000 3.960000 200 203 191 0
19.140000 26.620000 3.960000 200 203 191 0
19.360000 26.620000 3.960000 200 203 191 0
19.580000 26.620000 3.960000 200 203 191 0
19.800000 26.620000 3.960000 200 203 191 0
20.020000 26.620000 3.960000 199 200 189 0
20.240000 26.620000 4.180000 200 201 190 0
20.460000 26.620000 4.180000 199 202 190 0
20.680000 26.620000 5.060000 199 202 190 0
20.900000 26.620000 5.940000 199 202 190 0
21.120000 26.620000 7.040000 199 202 190 0
21.340000 26.620000 7.040000 199 202 190 0
21.560000 26.620000 7.040000 199 202 190 0
21.780000 26.620000 7.040000 200 201 190 0
22.000000 26.620000 7.040000 199 200 189 0
22.220000 26.620000 7.040000 200 201 190 0
22.440000 26.620000 7.040000 200 201 190 0
22.660000 26.620000 7.260000 200 201 190 0
22.880000 26.620000 7.260000 199 200 189 0
23.100000 26.620000 7.260000 200 201 190 0
23.320000 26.620000 8.580000 199 200 189 0
23.540000 26.620000 8.580000 199 200 189 0
23.760000 26.620000 8.800000 199 200 189 0
23.980000 26.620000 8.800000 199 200 189 0
24.200000 26.620000 8.800000 199 200 189 0
24.420000 26.620000 8.800000 199 200 189 0
24.640000 26.620000 8.800000 199 200 189 0
24.860000 26.620000 8.800000 199 200 189 0
25.080000 26.620000 8.800000 200 201 190 0
25.300000 26.620000 8.800000 199 200 189 0
25.520000 26.620000 9.020000 200 201 190 0
25.740000 26.620000 9.020000 200 201 190 0
25.960000 26.620000 9.020000 200 201 190 0
26.180000 26.620000 9.020000 200 201 190 0
26.400000 26.620000 9.020000 201 202 191 0
26.620000 26.620000 9.020000 200 201 190 0
26.840000 26.620000 9.240000 200 201 190 0
27.060000 26.620000 9.240000 200 201 190 0
27.280000 26.620000 10.560000 199 200 189 0
27.500000 26.620000 10.560000 199 200 189 0
27.720000 26.620000 10.560000 199 200 189 0
27.940000 26.620000 10.560000 199 200 189 0
28.160000 26.620000 10.780000 200 201 190 0
28.380000 26.620000 10.780000 200 201 188 0
28.600000 26.620000 10.780000 200 201 188 0
28.820000 26.620000 10.780000 200 199 189 0
29.040000 26.620000 10.780000 201 200 190 0
29.260000 26.620000 10.780000 199 200 189 0
29.480000 26.620000 11.000000 198 199 188 0
29.700000 26.620000 11.000000 199 200 189 0
29.920000 26.620000 11.000000 199 200 189 0
30.140000 26.620000 11.000000 200 201 190 0
30.360000 26.620000 10.780000 200 201 190 0
30.580000 26.620000 12.980000 201 200 190 0
30.800000 26.620000 13.860000 201 200 190 0
31.020000 26.620000 13.860000 201 202 191 0
31.240000 26.620000 13.860000 200 201 190 0
31.460000 26.620000 13.860000 200 201 190 0
31.680000 26.620000 13.860000 200 201 190 0
31.900000 26.620000 14.080000 200 201 190 0
32.120000 26.620000 14.080000 199 200 189 0
32.340000 26.620000 14.080000 201 201 188 0
32.560000 26.620000 14.080000 196 196 183 0
32.780000 26.620000 14.080000 210 175 151 0
33.000000 26.620000 14.080000 202 167 143 0
33.220000 26.620000 14.300000 195 157 131 0
33.440000 26.620000 14.300000 196 158 132 0
33.660000 26.620000 14.300000 197 159 133 0
33.880000 26.620000 14.300000 198 160 134 0
34.100000 26.620000 14.300000 197 159 133 0
34.320000 26.620000 14.300000 198 160 134 0
34.540000 26.620000 14.300000 197 159 135 0
34.760000 26.620000 14.300000 198 160 136 0
34.980000 26.620000 14.520000 199 161 135 0
35.200000 26.620000 14.520000 199 161 135 0
35.420000 26.620000 14.520000 198 160 134 0
35.640000 26.620000 14.520000 198 160 134 0
35.860000 26.620000 14.520000 197 159 131 0
36.080000 26.620000 14.740000 197 159 131 0
36.300000 26.620000 14.740000 197 159 133 0
36.520000 26.620000 14.740000 197 159 133 0
36.740000 26.620000 14.740000 199 161 135 0
36.960000 26.620000 14.740000 199 161 135 0
37.180000 26.620000 14.740000 200 162 136 0
0.000000 26.840000 3.080000 125 129 110 0
0.220000 26.840000 3.080000 124 128 109 0
0.440000 26.840000 3.080000 124 128 109 0
0.660000 26.840000 3.080000 125 129 110 0
0.880000 26.840000 3.080000 126 130 111 0
1.100000 26.840000 3.080000 126 130 111 0
1.320000 26.840000 3.080000 126 130 111 0
1.540000 26.840000 3.080000 127 131 111 0
1.760000 26.840000 3.080000 126 130 110 0
1.980000 26.840000 3.300000 126 130 110 0
2.200000 26.840000 2.200000 126 130 110 0
2.420000 26.840000 0.880000 120 131 110 0
2.640000 26.840000 1.100000 120 131 110 0
5.720000 26.840000 1.980000 88 128 99 0
5.940000 26.840000 3.080000 100 114 92 0
6.160000 26.840000 4.400000 117 131 109 0
6.380000 26.840000 5.500000 145 148 132 0
6.600000 26.840000 5.500000 157 160 144 0
6.820000 26.840000 5.500000 161 163 145 0
7.040000 26.840000 5.500000 165 167 149 0
7.260000 26.840000 5.500000 170 172 156 0
7.480000 26.840000 4.180000 174 176 160 0
7.700000 26.840000 4.180000 175 177 161 0
7.920000 26.840000 4.400000 177 179 163 0
8.140000 26.840000 4.400000 178 180 164 0
8.360000 26.840000 4.400000 179 181 165 0
8.580000 26.840000 4.400000 181 183 165 0
8.800000 26.840000 4.400000 182 184 166 0
9.020000 26.840000 4.400000 183 185 167 0
9.240000 26.840000 4.180000 183 185 167 0
9.460000 26.840000 4.180000 184 186 170 0
9.680000 26.840000 2.860000 181 183 167 0
9.900000 26.840000 2.860000 181 181 166 0
10.120000 26.840000 2.860000 181 181 166 0
10.340000 26.840000 1.540000 181 183 165 0
11.660000 26.840000 0.220000 196 197 184 0
11.880000 26.840000 0.220000 195 196 183 0
12.100000 26.840000 1.540000 194 196 180 0
12.320000 26.840000 1.540000 191 193 177 0
12.540000 26.840000 1.540000 193 195 179 0
12.760000 26.840000 1.760000 194 196 180 0
12.980000 26.840000 1.760000 194 195 182 0
13.200000 26.840000 1.760000 194 195 182 0
13.420000 26.840000 1.760000 193 196 182 0
13.640000 26.840000 1.760000 194 197 183 0
13.860000 26.840000 1.760000 194 197 183 0
14.080000 26.840000 1.760000 195 198 184 0
14.300000 26.840000 1.760000 196 199 185 0
14.520000 26.840000 1.760000 197 200 186 0
14.740000 26.840000 1.980000 198 199 186 0
14.960000 26.840000 1.980000 199 200 187 0
15.180000 26.840000 1.980000 198 201 189 0
15.400000 26.840000 1.980000 198 201 189 0
15.620000 26.840000 1.980000 198 201 189 0
15.840000 26.840000 1.980000 199 202 190 0
16.060000 26.840000 1.980000 198 201 187 0
16.280000 26.840000 2.200000 198 201 187 0
16.500000 26.840000 2.200000 198 199 186 0
16.720000 26.840000 2.200000 199 200 187 0
16.940000 26.840000 2.200000 197 200 188 0
17.160000 26.840000 2.200000 199 202 190 0
17.380000 26.840000 2.200000 199 202 190 0
17.600000 26.840000 2.200000 199 202 190 0
17.820000 26.840000 2.420000 200 203 191 0
18.040000 26.840000 2.420000 199 202 190 0
18.260000 26.840000 2.420000 201 202 191 0
18.480000 26.840000 2.420000 200 201 190 0
18.700000 26.840000 3.740000 199 202 190 0
18.920000 26.840000 3.960000 200 203 191 0
19.140000 26.840000 3.960000 200 203 191 0
19.360000 26.840000 3.960000 199 202 190 0
19.580000 26.840000 3.960000 199 202 190 0
19.800000 26.840000 3.960000 199 202 190 0
20.020000 26.840000 3.960000 200 201 190 0
20.240000 26.840000 4.180000 200 201 190 0
20.460000 26.840000 4.180000 198 201 189 0
20.680000 26.840000 5.060000 199 202 190 0
20.900000 26.840000 5.940000 199 202 190 0
21.120000 26.840000 7.040000 199 202 190 0
21.340000 26.840000 7.040000 199 202 190 0
21.560000 26.840000 7.040000 199 202 190 0
21.780000 26.840000 7.040000 199 200 189 0
22.000000 26.840000 7.040000 200 201 190 0
22.220000 26.840000 7.040000 200 201 190 0
22.440000 26.840000 7.040000 200 201 190 0
22.660000 26.840000 7.260000 199 200 189 0
22.880000 26.840000 7.260000 199 200 189 0
23.100000 26.840000 7.260000 199 200 189 0
23.320000 26.840000 8.580000 200 201 190 0
23.540000 26.840000 8.580000 199 200 189 0
23.760000 26.840000 8.800000 200 201 190 0
23.980000 26.840000 8.800000 199 200 189 0
24.200000 26.840000 8.800000 200 201 190 0
24.420000 26.840000 8.800000 199 200 189 0
24.640000 26.840000 8.800000 199 200 189 0
24.860000 26.840000 8.800000 199 200 189 0
25.080000 26.840000 8.800000 199 200 189 0
25.300000 26.840000 8.800000 200 201 190 0
25.520000 26.840000 9.020000 200 201 190 0
25.740000 26.840000 9.020000 201 202 191 0
25.960000 26.840000 9.020000 200 201 190 0
26.180000 26.840000 9.020000 200 201 190 0
26.400000 26.840000 9.020000 201 202 191 0
26.620000 26.840000 9.020000 200 201 190 0
26.840000 26.840000 9.240000 199 200 189 0
27.060000 26.840000 9.240000 199 200 189 0
27.280000 26.840000 10.560000 199 200 189 0
27.500000 26.840000 10.560000 199 200 189 0
27.720000 26.840000 10.560000 199 200 189 0
27.940000 26.840000 10.560000 200 201 190 0
28.160000 26.840000 10.780000 200 201 190 0
28.380000 26.840000 10.780000 200 201 188 0
28.600000 26.840000 10.780000 199 200 187 0
28.820000 26.840000 10.780000 199 198 188 0
29.040000 26.840000 10.780000 200 199 189 0
29.260000 26.840000 10.780000 199 200 189 0
29.480000 26.840000 11.000000 198 199 188 0
29.700000 26.840000 11.000000 199 200 189 0
29.920000 26.840000 11.000000 200 201 190 0
30.140000 26.840000 11.000000 199 200 189 0
30.360000 26.840000 10.780000 199 200 189 0
30.580000 26.840000 12.760000 201 200 190 0
30.800000 26.840000 13.860000 201 200 190 0
31.020000 26.840000 13.860000 200 201 190 0
31.240000 26.840000 13.860000 200 201 190 0
31.460000 26.840000 13.860000 200 201 190 0
31.680000 26.840000 13.860000 200 201 190 0
31.900000 26.840000 14.080000 200 201 190 0
32.120000 26.840000 14.080000 200 201 190 0
32.340000 26.840000 14.080000 200 200 187 0
32.560000 26.840000 14.080000 198 198 185 0
32.780000 26.840000 14.080000 209 174 150 0
33.000000 26.840000 14.080000 201 166 142 0
33.220000 26.840000 14.300000 194 156 130 0
33.440000 26.840000 14.300000 195 157 131 0
33.660000 26.840000 14.300000 197 159 133 0
33.880000 26.840000 14.300000 198 160 134 0
34.100000 26.840000 14.300000 198 160 134 0
34.320000 26.840000 14.300000 197 159 133 0
34.540000 26.840000 14.300000 197 159 135 0
34.760000 26.840000 14.300000 198 160 136 0
34.980000 26.840000 14.520000 198 160 134 0
35.200000 26.840000 14.520000 197 159 133 0
35.420000 26.840000 14.520000 197 159 133 0
35.640000 26.840000 14.520000 196 158 132 0
35.860000 26.840000 14.520000 197 159 131 0
36.080000 26.840000 14.740000 198 160 132 0
36.300000 26.840000 14.740000 197 159 133 0
36.520000 26.840000 14.740000 198 160 134 0
36.740000 26.840000 14.740000 199 161 135 0
36.960000 26.840000 14.740000 200 162 136 0
37.180000 26.840000 14.740000 201 163 137 0
0.000000 27.060000 3.080000 126 130 110 0
0.220000 27.060000 3.080000 125 129 110 0
0.440000 27.060000 3.080000 124 128 109 0
0.660000 27.060000 3.080000 126 128 109 0
0.880000 27.060000 3.080000 127 129 110 0
1.100000 27.060000 3.080000 125 129 110 0
1.320000 27.060000 3.080000 126 130 111 0
1.540000 27.060000 3.080000 124 131 110 0
1.760000 27.060000 3.300000 123 130 109 0
1.980000 27.060000 1.980000 120 131 110 0
2.200000 27.060000 2.200000 120 131 110 0
2.420000 27.060000 1.100000 103 140 117 0
5.720000 27.060000 0.660000 84 133 107 0
5.940000 27.060000 1.980000 94 115 97 0
6.160000 27.060000 3.080000 108 129 111 0
6.380000 27.060000 4.180000 141 144 128 0
6.600000 27.060000 4.180000 156 159 143 0
6.820000 27.060000 4.400000 163 163 146 0
7.040000 27.060000 4.180000 168 168 151 0
7.260000 27.060000 5.500000 171 173 155 0
7.480000 27.060000 4.180000 172 174 156 0
7.700000 27.060000 4.180000 174 176 158 0
7.920000 27.060000 4.400000 177 179 161 0
8.140000 27.060000 4.400000 179 181 163 0
8.360000 27.060000 4.400000 181 183 165 0
8.580000 27.060000 4.400000 182 184 166 0
8.800000 27.060000 4.400000 184 186 168 0
9.020000 27.060000 4.400000 185 187 169 0
9.240000 27.060000 4.180000 184 186 168 0
9.460000 27.060000 4.180000 184 186 167 0
9.680000 27.060000 2.860000 183 185 166 0
9.900000 27.060000 2.860000 182 184 166 0
10.120000 27.060000 1.540000 179 181 163 0
10.340000 27.060000 1.540000 179 181 165 0
11.660000 27.060000 0.220000 195 197 179 0
11.880000 27.060000 0.220000 194 196 178 0
12.100000 27.060000 1.540000 192 195 179 0
12.320000 27.060000 1.540000 191 194 178 0
12.540000 27.060000 1.540000 194 196 178 0
12.760000 27.060000 1.760000 194 196 178 0
12.980000 27.060000 1.760000 194 196 180 0
13.200000 27.060000 1.760000 194 196 180 0
13.420000 27.060000 1.760000 194 198 179 0
13.640000 27.060000 1.760000 193 197 178 0
13.860000 27.060000 1.760000 194 197 181 0
14.080000 27.060000 1.760000 195 198 182 0
14.300000 27.060000 1.760000 197 199 183 0
14.520000 27.060000 1.760000 197 199 183 0
14.740000 27.060000 1.980000 197 200 184 0
14.960000 27.060000 1.980000 198 201 185 0
15.180000 27.060000 1.980000 198 201 185 0
15.400000 27.060000 1.980000 198 201 185 0
15.620000 27.060000 1.980000 199 202 186 0
15.840000 27.060000 1.980000 198 201 185 0
16.060000 27.060000 2.200000 199 201 185 0
16.280000 27.060000 2.200000 199 201 185 0
16.500000 27.060000 2.200000 198 201 187 0
16.720000 27.060000 2.200000 198 201 187 0
16.940000 27.060000 2.200000 198 201 185 0
17.160000 27.060000 2.200000 198 201 185 0
17.380000 27.060000 2.200000 199 202 186 0
17.600000 27.060000 2.200000 199 202 186 0
17.820000 27.060000 2.420000 200 202 186 0
18.040000 27.060000 2.420000 200 202 186 0
18.260000 27.060000 2.420000 199 202 188 0
18.480000 27.060000 3.740000 199 202 188 0
18.700000 27.060000 3.740000 200 203 189 0
18.920000 27.060000 3.960000 199 202 188 0
19.140000 27.060000 3.960000 201 203 187 0
19.360000 27.060000 3.960000 201 203 187 0
19.580000 27.060000 3.960000 201 203 187 0
19.800000 27.060000 3.960000 201 203 187 0
20.020000 27.060000 3.960000 200 201 188 0
20.240000 27.060000 4.180000 200 201 188 0
20.460000 27.060000 4.180000 199 202 188 0
20.680000 27.060000 5.280000 199 202 188 0
20.900000 27.060000 5.940000 201 203 187 0
21.120000 27.060000 7.040000 200 202 186 0
21.340000 27.060000 7.040000 200 202 186 0
21.560000 27.060000 7.040000 200 202 186 0
21.780000 27.060000 7.040000 199 200 187 0
22.000000 27.060000 7.040000 200 201 188 0
22.220000 27.060000 7.040000 200 202 186 0
22.440000 27.060000 7.040000 200 202 186 0
22.660000 27.060000 7.260000 200 202 186 0
22.880000 27.060000 7.260000 199 201 185 0
23.100000 27.060000 7.260000 199 201 185 0
23.320000 27.060000 7.260000 200 202 186 0
23.540000 27.060000 8.580000 200 202 186 0
23.760000 27.060000 8.800000 199 201 185 0
23.980000 27.060000 8.800000 200 202 186 0
24.200000 27.060000 8.800000 200 202 186 0
24.420000 27.060000 8.800000 199 200 187 0
24.640000 27.060000 8.800000 200 201 188 0
24.860000 27.060000 8.800000 199 201 185 0
25.080000 27.060000 8.800000 199 201 185 0
25.300000 27.060000 8.800000 200 202 186 0
25.520000 27.060000 9.020000 200 202 186 0
25.740000 27.060000 9.020000 200 202 186 0
25.960000 27.060000 9.020000 200 202 186 0
26.180000 27.060000 9.020000 200 202 186 0
26.400000 27.060000 9.020000 200 202 186 0
26.620000 27.060000 9.020000 200 202 186 0
26.840000 27.060000 9.240000 200 202 186 0
27.060000 27.060000 9.240000 200 202 186 0
27.280000 27.060000 10.560000 200 202 186 0
27.500000 27.060000 10.560000 199 201 185 0
27.720000 27.060000 10.560000 199 201 185 0
27.940000 27.060000 10.560000 201 201 188 0
28.160000 27.060000 10.780000 201 201 188 0
28.380000 27.060000 10.780000 199 201 185 0
28.600000 27.060000 10.780000 199 201 185 0
28.820000 27.060000 10.780000 198 200 184 0
29.040000 27.060000 10.780000 198 200 184 0
29.260000 27.060000 10.780000 199 201 185 0
29.480000 27.060000 11.000000 199 201 185 0
29.700000 27.060000 11.000000 200 200 187 0
29.920000 27.060000 11.000000 200 200 187 0
30.140000 27.060000 11.000000 199 201 185 0
30.360000 27.060000 10.780000 199 201 185 0
30.580000 27.060000 12.760000 200 201 188 0
30.800000 27.060000 13.860000 201 202 189 0
31.020000 27.060000 13.860000 200 202 186 0
31.240000 27.060000 13.860000 200 202 186 0
31.460000 27.060000 13.860000 201 201 188 0
31.680000 27.060000 14.080000 201 201 188 0
31.900000 27.060000 14.080000 201 201 186 0
32.120000 27.060000 14.080000 200 200 185 0
32.340000 27.060000 14.080000 203 201 184 0
32.560000 27.060000 14.080000 199 197 180 0
32.780000 27.060000 14.080000 208 179 158 0
33.000000 27.060000 14.080000 195 166 145 0
33.220000 27.060000 14.300000 194 156 128 0
33.440000 27.060000 14.300000 195 157 129 0
33.660000 27.060000 14.300000 197 159 131 0
33.880000 27.060000 14.300000 197 159 131 0
34.100000 27.060000 14.300000 200 160 132 0
34.320000 27.060000 14.300000 199 159 131 0
34.540000 27.060000 14.300000 197 159 131 0
34.760000 27.060000 14.300000 197 159 131 0
34.980000 27.060000 14.520000 197 159 131 0
35.200000 27.060000 14.520000 198 160 132 0
35.420000 27.060000 14.520000 196 159 128 0
35.640000 27.060000 14.520000 197 160 129 0
35.860000 27.060000 14.520000 199 159 131 0
36.080000 27.060000 14.740000 199 159 131 0
36.300000 27.060000 14.740000 197 159 131 0
36.520000 27.060000 14.740000 197 159 131 0
36.740000 27.060000 14.740000 198 160 132 0
36.960000 27.060000 14.740000 200 162 134 0
37.180000 27.060000 14.740000 202 164 136 0
0.000000 27.280000 3.080000 125 129 109 0
0.220000 27.280000 3.300000 125 129 110 0
0.440000 27.280000 1.980000 125 129 110 0
0.660000 27.280000 1.980000 127 129 110 0
0.880000 27.280000 3.080000 126 128 109 0
1.100000 27.280000 3.080000 125 129 110 0
1.320000 27.280000 3.080000 125 129 110 0
1.540000 27.280000 1.980000 123 130 109 0
1.760000 27.280000 1.980000 122 129 108 0
1.980000 27.280000 1.980000 119 130 109 0
2.200000 27.280000 0.880000 119 130 109 0
5.940000 27.280000 0.880000 92 113 95 0
6.160000 27.280000 1.980000 104 125 107 0
6.380000 27.280000 4.400000 139 142 126 0
6.600000 27.280000 4.620000 153 156 140 0
6.820000 27.280000 3.520000 163 163 146 0
7.040000 27.280000 4.620000 167 167 150 0
7.260000 27.280000 4.180000 169 171 153 0
7.480000 27.280000 4.180000 173 175 157 0
7.700000 27.280000 4.400000 174 176 158 0
7.920000 27.280000 4.400000 175 177 159 0
8.140000 27.280000 4.400000 178 180 162 0
8.360000 27.280000 4.400000 179 181 163 0
8.580000 27.280000 4.400000 182 184 166 0
8.800000 27.280000 4.400000 184 186 168 0
9.020000 27.280000 4.400000 185 187 169 0
9.240000 27.280000 4.180000 185 187 169 0
9.460000 27.280000 2.860000 185 187 168 0
9.680000 27.280000 2.860000 184 186 167 0
9.900000 27.280000 2.860000 181 183 165 0
10.120000 27.280000 1.540000 181 183 165 0
10.340000 27.280000 1.540000 181 183 167 0
11.440000 27.280000 0.220000 192 194 176 0
11.660000 27.280000 0.220000 193 195 177 0
11.880000 27.280000 0.220000 192 194 176 0
12.100000 27.280000 1.540000 192 195 179 0
12.320000 27.280000 1.540000 193 196 180 0
12.540000 27.280000 1.540000 193 195 177 0
12.760000 27.280000 1.760000 194 196 178 0
12.980000 27.280000 1.760000 195 197 181 0
13.200000 27.280000 1.760000 195 197 181 0
13.420000 27.280000 1.760000 194 198 179 0
13.640000 27.280000 1.760000 193 197 178 0
13.860000 27.280000 1.760000 193 196 180 0
14.080000 27.280000 1.760000 194 197 181 0
14.300000 27.280000 1.760000 195 197 181 0
14.520000 27.280000 1.760000 196 198 182 0
14.740000 27.280000 1.980000 197 200 184 0
14.960000 27.280000 1.980000 198 201 185 0
15.180000 27.280000 1.980000 198 201 185 0
15.400000 27.280000 1.980000 198 201 185 0
15.620000 27.280000 1.980000 199 202 186 0
15.840000 27.280000 1.980000 199 202 186 0
16.060000 27.280000 2.200000 199 201 185 0
16.280000 27.280000 2.200000 199 201 185 0
16.500000 27.280000 2.200000 198 201 187 0
16.720000 27.280000 2.200000 198 201 187 0
16.940000 27.280000 2.200000 198 201 185 0
17.160000 27.280000 2.200000 199 202 186 0
17.380000 27.280000 2.200000 198 201 185 0
17.600000 27.280000 2.200000 199 202 186 0
17.820000 27.280000 2.420000 200 202 186 0
18.040000 27.280000 2.420000 199 201 185 0
18.260000 27.280000 2.420000 199 202 188 0
18.480000 27.280000 3.740000 199 202 188 0
18.700000 27.280000 3.740000 199 202 188 0
18.920000 27.280000 3.960000 199 202 188 0
19.140000 27.280000 3.960000 200 202 186 0
19.360000 27.280000 3.960000 200 202 186 0
19.580000 27.280000 3.960000 200 202 186 0
19.800000 27.280000 3.960000 201 203 187 0
20.020000 27.280000 3.960000 200 201 188 0
20.240000 27.280000 4.180000 200 201 188 0
20.460000 27.280000 4.180000 199 202 188 0
20.680000 27.280000 5.280000 199 202 188 0
20.900000 27.280000 5.940000 200 202 186 0
21.120000 27.280000 7.040000 200 202 186 0
21.340000 27.280000 7.040000 201 203 187 0
21.560000 27.280000 7.040000 200 202 186 0
21.780000 27.280000 7.040000 200 201 188 0
22.000000 27.280000 7.040000 200 201 188 0
22.220000 27.280000 7.040000 200 202 186 0
22.440000 27.280000 7.040000 201 203 187 0
22.660000 27.280000 7.260000 200 202 186 0
22.880000 27.280000 7.260000 200 202 186 0
23.100000 27.280000 7.260000 200 202 186 0
23.320000 27.280000 7.260000 200 202 186 0
23.540000 27.280000 8.800000 199 201 185 0
23.760000 27.280000 8.800000 200 202 186 0
23.980000 27.280000 8.800000 199 201 185 0
24.200000 27.280000 8.800000 200 202 186 0
24.420000 27.280000 8.800000 200 201 188 0
24.640000 27.280000 8.800000 200 201 188 0
24.860000 27.280000 8.800000 199 201 185 0
25.080000 27.280000 8.800000 199 201 185 0
25.300000 27.280000 8.800000 199 201 185 0
25.520000 27.280000 9.020000 199 201 185 0
25.740000 27.280000 9.020000 199 201 185 0
25.960000 27.280000 9.020000 199 201 185 0
26.180000 27.280000 9.020000 200 202 186 0
26.400000 27.280000 9.020000 200 202 186 0
26.620000 27.280000 9.020000 200 202 186 0
26.840000 27.280000 9.240000 200 202 186 0
27.060000 27.280000 9.240000 200 202 186 0
27.280000 27.280000 10.560000 200 202 186 0
27.500000 27.280000 10.560000 198 200 184 0
27.720000 27.280000 10.560000 199 201 185 0
27.940000 27.280000 10.560000 200 200 187 0
28.160000 27.280000 10.780000 200 200 187 0
28.380000 27.280000 10.780000 199 201 185 0
28.600000 27.280000 10.780000 199 201 185 0
28.820000 27.280000 10.780000 198 200 184 0
29.040000 27.280000 10.780000 198 200 184 0
29.260000 27.280000 10.780000 198 200 184 0
29.480000 27.280000 11.000000 199 201 185 0
29.700000 27.280000 11.000000 200 200 187 0
29.920000 27.280000 11.000000 201 201 188 0
30.140000 27.280000 11.000000 200 202 186 0
30.360000 27.280000 10.780000 199 201 185 0
30.580000 27.280000 12.760000 201 202 189 0
30.800000 27.280000 13.860000 200 201 188 0
31.020000 27.280000 13.860000 200 202 186 0
31.240000 27.280000 13.860000 200 202 186 0
31.460000 27.280000 13.860000 201 201 188 0
31.680000 27.280000 14.080000 201 201 188 0
31.900000 27.280000 14.080000 199 199 184 0
32.120000 27.280000 14.080000 200 200 185 0
32.340000 27.280000 14.080000 203 201 184 0
32.560000 27.280000 14.080000 198 196 179 0
32.780000 27.280000 14.080000 208 179 158 0
33.000000 27.280000 14.080000 197 168 147 0
33.220000 27.280000 14.300000 195 157 129 0
33.440000 27.280000 14.300000 197 159 131 0
33.660000 27.280000 14.300000 198 160 132 0
33.880000 27.280000 14.300000 198 160 132 0
34.100000 27.280000 14.300000 200 160 132 0
34.320000 27.280000 14.300000 200 160 132 0
34.540000 27.280000 14.300000 198 160 132 0
34.760000 27.280000 14.520000 198 160 132 0
34.980000 27.280000 14.520000 198 160 132 0
35.200000 27.280000 14.520000 198 160 132 0
35.420000 27.280000 14.520000 197 160 129 0
35.640000 27.280000 14.520000 197 160 129 0
35.860000 27.280000 14.520000 199 159 131 0
36.080000 27.280000 14.740000 200 160 132 0
36.300000 27.280000 14.740000 198 160 132 0
36.520000 27.280000 14.740000 196 158 130 0
36.740000 27.280000 14.740000 198 160 132 0
36.960000 27.280000 14.740000 199 161 133 0
37.180000 27.280000 14.740000 200 162 134 0
0.000000 27.500000 3.300000 125 129 109 0
0.220000 27.500000 3.300000 124 128 108 0
0.440000 27.500000 1.980000 124 128 108 0
0.660000 27.500000 2.200000 125 129 109 0
0.880000 27.500000 1.980000 125 129 109 0
1.100000 27.500000 3.080000 123 130 109 0
1.320000 27.500000 3.300000 123 130 109 0
1.540000 27.500000 2.200000 119 131 112 0
1.760000 27.500000 0.880000 118 130 111 0
1.980000 27.500000 0.880000 103 136 112 0
2.200000 27.500000 0.880000 102 135 111 0
5.940000 27.500000 1.100000 91 112 94 0
6.160000 27.500000 1.980000 101 122 104 0
6.380000 27.500000 3.300000 134 141 121 0
6.600000 27.500000 2.200000 151 158 138 0
6.820000 27.500000 2.200000 165 167 149 0
7.040000 27.500000 3.300000 166 168 150 0
7.260000 27.500000 4.400000 168 170 152 0
7.480000 27.500000 4.180000 170 172 154 0
7.700000 27.500000 4.400000 174 176 160 0
7.920000 27.500000 4.400000 176 178 162 0
8.140000 27.500000 4.400000 178 180 162 0
8.360000 27.500000 4.400000 180 182 164 0
8.580000 27.500000 4.400000 182 184 166 0
8.800000 27.500000 4.400000 185 187 169 0
9.020000 27.500000 4.400000 185 187 169 0
9.240000 27.500000 4.400000 185 187 169 0
9.460000 27.500000 2.860000 185 187 171 0
9.680000 27.500000 2.860000 185 187 171 0
9.900000 27.500000 2.860000 186 186 169 0
10.120000 27.500000 1.540000 185 185 168 0
10.340000 27.500000 1.540000 184 186 168 0
11.440000 27.500000 0.220000 191 193 177 0
11.660000 27.500000 0.220000 191 193 177 0
11.880000 27.500000 1.540000 193 195 179 0
12.100000 27.500000 1.540000 193 195 179 0
12.320000 27.500000 1.540000 195 197 181 0
12.540000 27.500000 1.540000 195 197 181 0
12.760000 27.500000 1.760000 195 197 181 0
12.980000 27.500000 1.760000 195 198 182 0
13.200000 27.500000 1.760000 194 197 181 0
13.420000 27.500000 1.760000 195 197 181 0
13.640000 27.500000 1.760000 195 197 181 0
13.860000 27.500000 1.760000 193 196 182 0
14.080000 27.500000 1.760000 194 197 183 0
14.300000 27.500000 1.760000 195 197 181 0
14.520000 27.500000 1.980000 197 199 183 0
14.740000 27.500000 1.980000 196 199 185 0
14.960000 27.500000 1.980000 197 200 186 0
15.180000 27.500000 1.980000 199 201 185 0
15.400000 27.500000 1.980000 200 202 186 0
15.620000 27.500000 1.980000 198 201 187 0
15.840000 27.500000 1.980000 198 201 187 0
16.060000 27.500000 2.200000 199 200 187 0
16.280000 27.500000 2.200000 199 200 187 0
16.500000 27.500000 2.200000 198 201 187 0
16.720000 27.500000 2.200000 198 201 187 0
16.940000 27.500000 2.200000 198 201 187 0
17.160000 27.500000 2.200000 198 201 187 0
17.380000 27.500000 2.200000 198 201 187 0
17.600000 27.500000 2.420000 198 201 187 0
17.820000 27.500000 2.420000 198 201 187 0
18.040000 27.500000 2.420000 198 201 187 0
18.260000 27.500000 2.420000 199 202 188 0
18.480000 27.500000 3.740000 199 202 188 0
18.700000 27.500000 3.740000 200 201 188 0
18.920000 27.500000 3.960000 200 201 188 0
19.140000 27.500000 3.960000 199 202 188 0
19.360000 27.500000 3.960000 198 201 187 0
19.580000 27.500000 3.960000 200 201 188 0
19.800000 27.500000 3.960000 201 202 189 0
20.020000 27.500000 3.960000 199 202 188 0
20.240000 27.500000 4.180000 199 202 188 0
20.460000 27.500000 4.180000 199 202 188 0
20.680000 27.500000 5.280000 199 202 188 0
20.900000 27.500000 5.940000 200 201 188 0
21.120000 27.500000 7.040000 200 201 188 0
21.340000 27.500000 7.040000 200 201 188 0
21.560000 27.500000 7.040000 200 201 188 0
21.780000 27.500000 7.040000 199 202 188 0
22.000000 27.500000 7.040000 199 202 188 0
22.220000 27.500000 7.040000 200 201 188 0
22.440000 27.500000 7.040000 200 201 188 0
22.660000 27.500000 7.260000 200 201 188 0
22.880000 27.500000 7.260000 199 200 187 0
23.100000 27.500000 7.260000 200 201 188 0
23.320000 27.500000 8.580000 200 201 188 0
23.540000 27.500000 8.800000 199 200 187 0
23.760000 27.500000 8.800000 199 200 187 0
23.980000 27.500000 8.800000 199 201 185 0
24.200000 27.500000 8.800000 200 202 186 0
24.420000 27.500000 8.800000 200 201 188 0
24.640000 27.500000 8.800000 199 200 187 0
24.860000 27.500000 8.800000 199 200 187 0
25.080000 27.500000 8.800000 199 200 187 0
25.300000 27.500000 8.800000 199 200 187 0
25.520000 27.500000 9.020000 199 200 187 0
25.740000 27.500000 9.020000 199 201 185 0
25.960000 27.500000 9.020000 199 201 185 0
26.180000 27.500000 9.020000 199 200 187 0
26.400000 27.500000 9.020000 200 201 188 0
26.620000 27.500000 9.240000 200 201 188 0
26.840000 27.500000 9.240000 200 201 188 0
27.060000 27.500000 9.240000 199 200 187 0
27.280000 27.500000 10.560000 198 199 186 0
27.500000 27.500000 10.560000 197 199 183 0
27.720000 27.500000 10.560000 197 199 183 0
27.940000 27.500000 10.780000 200 200 187 0
28.160000 27.500000 10.780000 201 201 188 0
28.380000 27.500000 10.780000 199 200 187 0
28.600000 27.500000 10.780000 199 200 187 0
28.820000 27.500000 10.780000 200 200 187 0
29.040000 27.500000 10.780000 200 200 187 0
29.260000 27.500000 10.780000 199 200 187 0
29.480000 27.500000 11.000000 199 200 187 0
29.700000 27.500000 11.000000 201 201 186 0
29.920000 27.500000 11.000000 200 200 185 0
30.140000 27.500000 11.000000 201 201 188 0
30.360000 27.500000 10.780000 201 201 188 0
30.580000 27.500000 12.760000 201 201 188 0
30.800000 27.500000 13.860000 201 201 188 0
31.020000 27.500000 13.860000 201 201 188 0
31.240000 27.500000 13.860000 200 200 187 0
31.460000 27.500000 13.860000 201 201 188 0
31.680000 27.500000 14.080000 200 200 187 0
31.900000 27.500000 14.080000 201 201 188 0
32.120000 27.500000 14.080000 201 201 188 0
32.340000 27.500000 14.080000 203 200 186 0
32.560000 27.500000 14.080000 199 196 182 0
32.780000 27.500000 14.080000 206 183 162 0
33.000000 27.500000 14.300000 195 172 151 0
33.220000 27.500000 14.300000 195 159 128 0
33.440000 27.500000 14.300000 196 160 129 0
33.660000 27.500000 14.300000 199 161 135 0
33.880000 27.500000 14.300000 199 161 135 0
34.100000 27.500000 14.300000 199 161 135 0
34.320000 27.500000 14.300000 198 160 134 0
34.540000 27.500000 14.300000 197 161 132 0
34.760000 27.500000 14.520000 197 161 132 0
34.980000 27.500000 14.520000 199 161 133 0
35.200000 27.500000 14.520000 199 161 133 0
35.420000 27.500000 14.520000 198 160 132 0
35.640000 27.500000 14.520000 197 159 131 0
35.860000 27.500000 14.520000 197 159 131 0
36.080000 27.500000 14.740000 198 160 132 0
36.300000 27.500000 14.740000 198 160 132 0
36.520000 27.500000 14.740000 198 160 132 0
36.740000 27.500000 14.740000 198 160 132 0
36.960000 27.500000 14.740000 199 161 133 0
37.180000 27.500000 14.740000 200 162 136 0
0.000000 27.720000 3.300000 125 129 109 0
0.220000 27.720000 3.300000 125 129 109 0
0.440000 27.720000 1.980000 125 129 109 0
0.660000 27.720000 2.200000 125 129 109 0
0.880000 27.720000 1.980000 125 129 109 0
1.100000 27.720000 1.980000 123 130 109 0
1.320000 27.720000 2.200000 123 130 109 0
1.540000 27.720000 0.880000 118 130 111 0
1.760000 27.720000 0.880000 117 129 110 0
1.980000 27.720000 0.880000 103 136 112 0
5.940000 27.720000 1.100000 89 110 92 0
6.160000 27.720000 2.200000 100 121 103 0
6.380000 27.720000 2.420000 131 138 118 0
6.600000 27.720000 2.420000 153 160 140 0
6.820000 27.720000 3.300000 163 165 147 0
7.040000 27.720000 4.400000 166 168 150 0
7.260000 27.720000 4.180000 169 171 153 0
7.480000 27.720000 4.180000 171 173 155 0
7.700000 27.720000 4.400000 173 175 159 0
7.920000 27.720000 4.400000 176 178 162 0
8.140000 27.720000 4.400000 178 180 162 0
8.360000 27.720000 4.400000 178 180 162 0
8.580000 27.720000 4.400000 181 183 165 0
8.800000 27.720000 4.400000 184 186 168 0
9.020000 27.720000 4.400000 185 187 169 0
9.240000 27.720000 4.400000 185 187 169 0
9.460000 27.720000 2.860000 186 188 172 0
9.680000 27.720000 2.860000 187 189 173 0
9.900000 27.720000 2.860000 189 189 172 0
10.120000 27.720000 1.540000 187 187 170 0
10.340000 27.720000 1.540000 184 186 168 0
11.440000 27.720000 0.220000 191 193 177 0
11.660000 27.720000 0.220000 191 193 177 0
11.880000 27.720000 1.540000 192 194 178 0
12.100000 27.720000 1.540000 192 194 178 0
12.320000 27.720000 1.540000 195 197 181 0
12.540000 27.720000 1.540000 195 197 181 0
12.760000 27.720000 1.760000 196 198 182 0
12.980000 27.720000 1.760000 195 198 182 0
13.200000 27.720000 1.760000 195 198 182 0
13.420000 27.720000 1.760000 196 198 182 0
13.640000 27.720000 1.760000 195 197 181 0
13.860000 27.720000 1.760000 194 197 183 0
14.080000 27.720000 1.760000 194 197 183 0
14.300000 27.720000 1.760000 196 198 182 0
14.520000 27.720000 1.980000 197 199 183 0
14.740000 27.720000 1.980000 197 200 186 0
14.960000 27.720000 1.980000 197 200 186 0
15.180000 27.720000 1.980000 199 201 185 0
15.400000 27.720000 1.980000 198 200 184 0
15.620000 27.720000 1.980000 198 201 187 0
15.840000 27.720000 1.980000 198 201 187 0
16.060000 27.720000 2.200000 199 200 187 0
16.280000 27.720000 2.200000 199 200 187 0
16.500000 27.720000 2.200000 199 202 188 0
16.720000 27.720000 2.200000 199 202 188 0
16.940000 27.720000 2.200000 198 201 187 0
17.160000 27.720000 2.200000 199 202 188 0
17.380000 27.720000 2.200000 198 201 187 0
17.600000 27.720000 2.420000 198 201 187 0
17.820000 27.720000 2.420000 198 201 187 0
18.040000 27.720000 2.420000 199 202 188 0
18.260000 27.720000 3.740000 199 202 188 0
18.480000 27.720000 3.740000 199 202 188 0
18.700000 27.720000 3.740000 200 201 188 0
18.920000 27.720000 3.960000 200 201 188 0
19.140000 27.720000 3.960000 199 202 188 0
19.360000 27.720000 3.960000 199 202 188 0
19.580000 27.720000 3.960000 200 201 188 0
19.800000 27.720000 3.960000 200 201 188 0
20.020000 27.720000 3.960000 199 202 188 0
20.240000 27.720000 4.180000 199 202 188 0
20.460000 27.720000 3.960000 200 203 189 0
20.680000 27.720000 5.060000 199 202 188 0
20.900000 27.720000 7.260000 201 202 189 0
21.120000 27.720000 7.040000 199 200 187 0
21.340000 27.720000 7.040000 199 200 187 0
21.560000 27.720000 7.040000 199 200 187 0
21.780000 27.720000 7.040000 199 202 188 0
22.000000 27.720000 7.040000 199 202 188 0
22.220000 27.720000 7.040000 200 201 188 0
22.440000 27.720000 8.580000 200 201 188 0
22.660000 27.720000 8.580000 199 200 187 0
22.880000 27.720000 8.580000 200 201 188 0
23.100000 27.720000 8.580000 199 200 187 0
23.320000 27.720000 8.580000 200 201 188 0
23.540000 27.720000 8.800000 200 201 188 0
23.760000 27.720000 8.800000 199 200 187 0
23.980000 27.720000 8.800000 199 201 185 0
24.200000 27.720000 8.800000 199 201 185 0
24.420000 27.720000 8.800000 199 200 187 0
24.640000 27.720000 8.800000 199 200 187 0
24.860000 27.720000 8.800000 199 200 187 0
25.080000 27.720000 8.800000 199 200 187 0
25.300000 27.720000 9.020000 199 200 187 0
25.520000 27.720000 9.020000 199 200 187 0
25.740000 27.720000 9.020000 198 200 184 0
25.960000 27.720000 9.020000 199 201 185 0
26.180000 27.720000 9.020000 199 200 187 0
26.400000 27.720000 9.020000 200 201 188 0
26.620000 27.720000 9.240000 199 200 187 0
26.840000 27.720000 9.240000 199 200 187 0
27.060000 27.720000 9.240000 199 200 187 0
27.280000 27.720000 10.560000 197 198 185 0
27.500000 27.720000 10.560000 197 199 183 0
27.720000 27.720000 10.560000 197 199 183 0
27.940000 27.720000 10.780000 199 199 186 0
28.160000 27.720000 10.780000 200 200 187 0
28.380000 27.720000 10.780000 199 200 187 0
28.600000 27.720000 10.780000 199 200 187 0
28.820000 27.720000 10.780000 199 199 186 0
29.040000 27.720000 10.780000 201 201 188 0
29.260000 27.720000 11.000000 199 200 187 0
29.480000 27.720000 11.000000 200 201 188 0
29.700000 27.720000 11.000000 200 200 185 0
29.920000 27.720000 11.000000 200 200 185 0
30.140000 27.720000 11.000000 200 200 187 0
30.360000 27.720000 10.780000 200 200 187 0
30.580000 27.720000 12.760000 201 201 188 0
30.800000 27.720000 13.860000 201 201 188 0
31.020000 27.720000 13.860000 201 201 188 0
31.240000 27.720000 13.860000 201 201 188 0
31.460000 27.720000 13.860000 200 200 187 0
31.680000 27.720000 14.080000 201 201 188 0
31.900000 27.720000 14.080000 201 201 188 0
32.120000 27.720000 14.080000 201 201 188 0
32.340000 27.720000 14.080000 203 200 186 0
32.560000 27.720000 14.080000 202 199 185 0
32.780000 27.720000 14.080000 206 183 162 0
33.000000 27.720000 14.300000 197 174 153 0
33.220000 27.720000 14.300000 197 161 130 0
33.440000 27.720000 14.300000 196 160 129 0
33.660000 27.720000 14.300000 198 160 134 0
33.880000 27.720000 14.300000 199 161 135 0
34.100000 27.720000 14.300000 200 162 136 0
34.320000 27.720000 14.300000 199 161 135 0
34.540000 27.720000 14.300000 198 162 133 0
34.760000 27.720000 14.520000 197 161 132 0
34.980000 27.720000 14.520000 198 160 132 0
35.200000 27.720000 14.520000 198 160 132 0
35.420000 27.720000 14.520000 199 161 133 0
35.640000 27.720000 14.520000 198 160 132 0
35.860000 27.720000 14.740000 198 160 132 0
36.080000 27.720000 14.740000 198 160 132 0
36.300000 27.720000 14.740000 198 160 132 0
36.520000 27.720000 14.740000 198 160 132 0
36.740000 27.720000 14.740000 199 161 133 0
36.960000 27.720000 14.740000 200 162 134 0
37.180000 27.720000 14.740000 200 162 136 0
0.000000 27.940000 3.520000 123 130 110 0
0.220000 27.940000 1.980000 125 129 110 0
0.440000 27.940000 2.200000 124 128 109 0
0.660000 27.940000 2.200000 122 129 108 0
0.880000 27.940000 1.980000 123 130 109 0
1.100000 27.940000 2.200000 119 130 109 0
1.320000 27.940000 0.880000 119 130 109 0
1.540000 27.940000 0.880000 104 135 114 0
1.760000 27.940000 0.880000 103 134 113 0
1.980000 27.940000 0.880000 94 135 112 0
6.160000 27.940000 1.100000 95 119 98 0
6.380000 27.940000 1.100000 128 135 115 0
6.600000 27.940000 2.420000 151 158 138 0
6.820000 27.940000 3.300000 160 163 147 0
7.040000 27.940000 4.400000 165 168 152 0
7.260000 27.940000 4.180000 170 172 154 0
7.480000 27.940000 4.180000 172 174 156 0
7.700000 27.940000 4.400000 173 175 157 0
7.920000 27.940000 4.400000 176 178 160 0
8.140000 27.940000 4.400000 177 179 163 0
8.360000 27.940000 4.400000 178 180 164 0
8.580000 27.940000 4.400000 180 182 166 0
8.800000 27.940000 4.180000 183 185 169 0
9.020000 27.940000 4.400000 183 186 170 0
9.240000 27.940000 4.180000 185 188 172 0
9.460000 27.940000 2.860000 187 187 172 0
9.680000 27.940000 2.860000 188 188 173 0
9.900000 27.940000 2.860000 186 188 170 0
10.120000 27.940000 1.540000 184 186 168 0
10.340000 27.940000 1.540000 185 187 171 0
11.440000 27.940000 0.220000 191 193 177 0
11.660000 27.940000 0.220000 192 194 178 0
11.880000 27.940000 1.540000 191 193 177 0
12.100000 27.940000 1.540000 193 195 179 0
12.320000 27.940000 1.540000 194 196 180 0
12.540000 27.940000 1.540000 196 198 182 0
12.760000 27.940000 1.760000 196 198 182 0
12.980000 27.940000 1.760000 196 197 184 0
13.200000 27.940000 1.760000 197 198 185 0
13.420000 27.940000 1.760000 196 199 185 0
13.640000 27.940000 1.760000 195 198 184 0
13.860000 27.940000 1.760000 196 199 185 0
14.080000 27.940000 1.760000 195 198 184 0
14.300000 27.940000 1.760000 196 197 184 0
14.520000 27.940000 1.980000 197 198 185 0
14.740000 27.940000 1.980000 198 199 186 0
14.960000 27.940000 1.980000 198 199 186 0
15.180000 27.940000 1.980000 198 201 187 0
15.400000 27.940000 1.980000 197 200 186 0
15.620000 27.940000 1.980000 199 200 187 0
15.840000 27.940000 1.980000 200 201 188 0
16.060000 27.940000 2.200000 199 200 187 0
16.280000 27.940000 2.200000 199 200 187 0
16.500000 27.940000 2.200000 200 201 188 0
16.720000 27.940000 2.200000 200 201 188 0
16.940000 27.940000 2.200000 198 201 187 0
17.160000 27.940000 2.200000 198 201 187 0
17.380000 27.940000 2.200000 198 201 187 0
17.600000 27.940000 2.420000 198 201 187 0
17.820000 27.940000 2.420000 200 201 188 0
18.040000 27.940000 2.420000 200 201 188 0
18.260000 27.940000 3.740000 200 201 188 0
18.480000 27.940000 3.740000 200 201 188 0
18.700000 27.940000 3.740000 199 202 188 0
18.920000 27.940000 3.960000 199 202 188 0
19.140000 27.940000 3.960000 199 202 188 0
19.360000 27.940000 3.960000 200 203 189 0
19.580000 27.940000 3.960000 199 202 188 0
19.800000 27.940000 3.960000 199 202 188 0
20.020000 27.940000 4.180000 199 202 188 0
20.240000 27.940000 4.180000 199 202 188 0
20.460000 27.940000 5.280000 199 202 188 0
20.680000 27.940000 6.160000 199 202 188 0
20.900000 27.940000 7.040000 198 201 187 0
21.120000 27.940000 7.040000 198 201 187 0
21.340000 27.940000 7.040000 199 202 188 0
21.560000 27.940000 7.040000 198 201 187 0
21.780000 27.940000 7.040000 199 202 188 0
22.000000 27.940000 7.040000 198 201 187 0
22.220000 27.940000 8.580000 199 202 188 0
22.440000 27.940000 8.580000 199 202 188 0
22.660000 27.940000 8.580000 198 201 187 0
