ply
format ascii 1.0
element vertex 1119
property float x
property float y
property float z
property uchar red
property uchar green
property uchar blue
property uchar alpha
end_header
31.460000 22.880000 6.930000 199 200 190 0
31.680000 22.880000 6.930000 200 201 191 0
31.900000 22.880000 6.930000 200 201 191 0
32.120000 22.880000 6.930000 200 201 191 0
32.340000 22.880000 7.040000 205 197 182 0
32.560000 22.880000 7.040000 196 188 173 0
32.780000 22.880000 7.040000 206 171 146 0
33.000000 22.880000 7.040000 198 163 138 0
33.220000 22.880000 7.040000 195 159 132 0
33.440000 22.880000 7.040000 199 163 136 0
33.660000 22.880000 7.150000 199 162 138 0
33.880000 22.880000 7.150000 199 162 138 0
34.100000 22.880000 7.150000 199 162 138 0
34.320000 22.880000 7.150000 200 163 139 0
34.540000 22.880000 7.150000 199 164 139 0
34.760000 22.880000 7.150000 199 164 139 0
34.980000 22.880000 7.150000 200 163 139 0
35.200000 22.880000 7.150000 200 163 139 0
35.420000 22.880000 7.260000 200 163 139 0
35.640000 22.880000 7.260000 199 162 138 0
35.860000 22.880000 7.260000 199 162 138 0
36.080000 22.880000 7.260000 200 163 139 0
36.300000 22.880000 7.260000 200 165 140 0
36.520000 22.880000 7.370000 200 165 140 0
36.740000 22.880000 7.370000 201 164 140 0
36.960000 22.880000 7.370000 202 165 141 0
37.180000 22.880000 7.370000 202 165 141 0
0.000000 23.100000 1.210000 127 131 111 0
0.220000 23.100000 1.100000 126 130 110 0
0.440000 23.100000 0.990000 127 131 111 0
0.660000 23.100000 0.990000 127 131 111 0
0.880000 23.100000 0.990000 127 131 111 0
1.100000 23.100000 0.990000 126 130 110 0
1.320000 23.100000 1.100000 127 131 111 0
1.540000 23.100000 1.100000 127 131 111 0
1.760000 23.100000 0.990000 127 131 111 0
1.980000 23.100000 1.650000 128 132 112 0
2.200000 23.100000 1.650000 128 132 112 0
2.420000 23.100000 0.990000 127 131 111 0
2.640000 23.100000 1.100000 127 131 111 0
2.860000 23.100000 1.760000 127 131 111 0
3.080000 23.100000 1.650000 128 132 112 0
3.300000 23.100000 2.200000 128 132 112 0
3.520000 23.100000 2.200000 127 131 111 0
3.740000 23.100000 1.650000 128 133 110 0
3.960000 23.100000 1.100000 128 133 110 0
4.180000 23.100000 1.100000 129 133 113 0
4.400000 23.100000 1.650000 129 133 113 0
4.620000 23.100000 2.200000 129 131 112 0
4.840000 23.100000 2.200000 129 131 112 0
5.060000 23.100000 2.200000 130 133 111 0
5.280000 23.100000 1.540000 131 134 112 0
5.500000 23.100000 0.990000 131 136 113 0
5.720000 23.100000 0.550000 136 141 118 0
6.600000 23.100000 0.550000 168 171 155 0
6.820000 23.100000 0.990000 170 174 155 0
7.040000 23.100000 1.540000 174 178 159 0
7.260000 23.100000 2.200000 176 179 163 0
7.480000 23.100000 2.090000 178 181 165 0
7.700000 23.100000 2.090000 180 183 169 0
7.920000 23.100000 2.090000 180 183 169 0
8.140000 23.100000 2.090000 183 186 172 0
8.360000 23.100000 2.090000 185 188 174 0
8.580000 23.100000 2.200000 184 190 177 0
8.800000 23.100000 2.200000 187 193 180 0
9.020000 23.100000 2.090000 190 193 179 0
9.240000 23.100000 2.090000 191 194 180 0
9.460000 23.100000 2.090000 189 195 180 0
9.680000 23.100000 2.090000 189 195 180 0
9.900000 23.100000 1.430000 189 195 182 0
10.120000 23.100000 1.430000 191 197 184 0
10.340000 23.100000 1.430000 191 197 184 0
10.560000 23.100000 0.770000 191 197 184 0
10.780000 23.100000 0.770000 194 197 185 0
12.100000 23.100000 0.110000 194 200 187 0
12.320000 23.100000 0.110000 195 201 188 0
12.540000 23.100000 0.770000 197 200 188 0
12.760000 23.100000 0.770000 197 200 188 0
12.980000 23.100000 0.770000 196 199 187 0
13.200000 23.100000 0.770000 197 200 188 0
13.420000 23.100000 0.880000 194 200 187 0
13.640000 23.100000 0.880000 195 201 188 0
13.860000 23.100000 0.880000 195 201 188 0
14.080000 23.100000 0.880000 195 201 188 0
14.300000 23.100000 0.880000 196 199 187 0
14.520000 23.100000 0.880000 195 198 186 0
14.740000 23.100000 0.880000 195 198 186 0
14.960000 23.100000 0.880000 196 199 187 0
15.180000 23.100000 0.990000 196 202 189 0
15.400000 23.100000 0.990000 196 202 189 0
15.620000 23.100000 0.990000 198 201 189 0
15.840000 23.100000 0.990000 198 201 189 0
16.060000 23.100000 0.990000 198 201 189 0
16.280000 23.100000 0.990000 198 201 189 0
16.500000 23.100000 1.100000 198 201 189 0
16.720000 23.100000 1.100000 199 202 190 0
16.940000 23.100000 1.100000 196 202 189 0
17.160000 23.100000 1.100000 195 201 188 0
17.380000 23.100000 1.100000 196 199 187 0
17.600000 23.100000 1.100000 197 200 188 0
17.820000 23.100000 1.100000 197 200 188 0
18.040000 23.100000 1.100000 198 201 189 0
18.260000 23.100000 1.210000 198 201 189 0
18.480000 23.100000 1.210000 198 201 189 0
18.700000 23.100000 1.870000 198 201 189 0
18.920000 23.100000 1.870000 198 201 189 0
19.140000 23.100000 1.870000 199 201 191 0
19.360000 23.100000 1.980000 198 200 190 0
19.580000 23.100000 1.980000 198 201 189 0
19.800000 23.100000 1.980000 197 200 188 0
20.020000 23.100000 1.980000 198 201 189 0
20.240000 23.100000 1.980000 198 201 189 0
20.460000 23.100000 1.980000 198 201 189 0
20.680000 23.100000 2.090000 198 201 189 0
20.900000 23.100000 2.090000 198 200 190 0
21.120000 23.100000 2.640000 198 200 190 0
21.340000 23.100000 2.970000 198 201 189 0
21.560000 23.100000 3.520000 199 202 190 0
21.780000 23.100000 3.520000 198 200 190 0
22.000000 23.100000 3.520000 199 201 191 0
22.220000 23.100000 3.520000 199 202 190 0
22.440000 23.100000 3.520000 198 201 189 0
22.660000 23.100000 4.290000 199 201 191 0
22.880000 23.100000 4.290000 199 201 191 0
23.100000 23.100000 4.290000 198 201 189 0
23.320000 23.100000 4.290000 198 201 189 0
23.540000 23.100000 4.290000 199 201 191 0
23.760000 23.100000 4.290000 199 201 191 0
23.980000 23.100000 4.400000 199 202 190 0
24.200000 23.100000 4.400000 200 203 191 0
24.420000 23.100000 4.400000 200 202 192 0
24.640000 23.100000 4.400000 200 202 192 0
24.860000 23.100000 4.400000 200 202 192 0
25.080000 23.100000 4.400000 199 201 191 0
25.300000 23.100000 4.400000 199 201 191 0
25.520000 23.100000 4.400000 198 200 190 0
25.740000 23.100000 4.400000 198 199 188 0
25.960000 23.100000 4.510000 199 200 189 0
26.180000 23.100000 4.510000 198 200 190 0
26.400000 23.100000 4.510000 199 201 191 0
26.620000 23.100000 4.510000 200 201 191 0
26.840000 23.100000 4.510000 200 201 191 0
27.060000 23.100000 4.510000 199 200 190 0
27.280000 23.100000 4.620000 199 200 190 0
27.500000 23.100000 4.620000 199 200 189 0
27.720000 23.100000 5.280000 200 201 190 0
27.940000 23.100000 5.280000 200 201 191 0
28.160000 23.100000 5.280000 200 201 191 0
28.380000 23.100000 5.280000 199 200 189 0
28.600000 23.100000 5.390000 199 200 189 0
28.820000 23.100000 5.390000 200 201 191 0
29.040000 23.100000 5.390000 200 201 191 0
29.260000 23.100000 5.390000 200 201 191 0
29.480000 23.100000 5.390000 200 201 191 0
29.700000 23.100000 5.390000 201 202 192 0
29.920000 23.100000 5.500000 200 201 191 0
30.140000 23.100000 5.500000 201 202 192 0
30.360000 23.100000 5.500000 200 201 191 0
30.580000 23.100000 5.500000 200 201 191 0
30.800000 23.100000 6.050000 200 201 191 0
31.020000 23.100000 6.380000 200 201 191 0
31.240000 23.100000 6.930000 200 201 191 0
31.460000 23.100000 6.930000 200 201 191 0
31.680000 23.100000 6.930000 200 201 191 0
31.900000 23.100000 6.930000 200 201 191 0
32.120000 23.100000 6.930000 199 200 190 0
32.340000 23.100000 7.040000 208 195 181 0
32.560000 23.100000 7.040000 200 187 173 0
32.780000 23.100000 7.040000 207 172 148 0
33.000000 23.100000 7.040000 196 161 137 0
33.220000 23.100000 7.040000 195 158 134 0
33.440000 23.100000 7.150000 197 160 136 0
33.660000 23.100000 7.150000 199 162 138 0
33.880000 23.100000 7.150000 199 162 138 0
34.100000 23.100000 7.150000 199 162 138 0
34.320000 23.100000 7.150000 199 162 138 0
34.540000 23.100000 7.150000 199 162 139 0
34.760000 23.100000 7.150000 200 163 140 0
34.980000 23.100000 7.150000 199 162 138 0
35.200000 23.100000 7.150000 200 163 139 0
35.420000 23.100000 7.260000 200 163 139 0
35.640000 23.100000 7.260000 199 162 138 0
35.860000 23.100000 7.260000 200 163 139 0
36.080000 23.100000 7.260000 200 163 139 0
36.300000 23.100000 7.260000 201 164 140 0
36.520000 23.100000 7.370000 201 164 140 0
36.740000 23.100000 7.370000 201 164 140 0
36.960000 23.100000 7.370000 202 165 141 0
37.180000 23.100000 7.370000 202 165 141 0
0.000000 23.320000 1.100000 127 131 111 0
0.220000 23.320000 0.990000 126 130 110 0
0.440000 23.320000 0.990000 126 130 110 0
0.660000 23.320000 0.990000 127 131 111 0
0.880000 23.320000 0.990000 126 130 110 0
1.100000 23.320000 1.540000 127 131 111 0
1.320000 23.320000 1.650000 127 131 111 0
1.540000 23.320000 1.100000 127 131 111 0
1.760000 23.320000 0.990000 128 132 112 0
1.980000 23.320000 1.540000 127 131 111 0
2.200000 23.320000 1.650000 128 132 112 0
2.420000 23.320000 0.990000 128 132 112 0
2.640000 23.320000 1.650000 128 132 112 0
2.860000 23.320000 1.650000 128 132 112 0
3.080000 23.320000 1.650000 128 132 112 0
3.300000 23.320000 2.200000 128 132 112 0
3.520000 23.320000 2.200000 127 131 111 0
3.740000 23.320000 1.540000 127 132 109 0
3.960000 23.320000 1.650000 128 133 110 0
4.180000 23.320000 1.650000 127 131 111 0
4.400000 23.320000 2.200000 128 132 112 0
4.620000 23.320000 2.090000 130 132 113 0
4.840000 23.320000 2.200000 130 132 113 0
5.060000 23.320000 2.090000 130 133 111 0
5.280000 23.320000 2.200000 131 134 112 0
5.500000 23.320000 1.650000 131 136 113 0
5.720000 23.320000 0.990000 134 139 116 0
5.940000 23.320000 0.440000 144 147 131 0
6.160000 23.320000 0.550000 155 158 142 0
6.380000 23.320000 0.550000 162 165 149 0
6.600000 23.320000 1.210000 167 170 154 0
6.820000 23.320000 1.650000 171 175 156 0
7.040000 23.320000 1.650000 174 178 159 0
7.260000 23.320000 2.200000 175 178 162 0
7.480000 23.320000 2.090000 176 179 163 0
7.700000 23.320000 2.090000 179 182 168 0
7.920000 23.320000 2.090000 181 184 170 0
8.140000 23.320000 2.090000 182 185 171 0
8.360000 23.320000 2.090000 184 187 173 0
8.580000 23.320000 2.200000 185 191 178 0
8.800000 23.320000 2.090000 187 193 180 0
9.020000 23.320000 2.090000 190 193 179 0
9.240000 23.320000 2.090000 189 192 178 0
9.460000 23.320000 2.090000 188 194 179 0
9.680000 23.320000 2.090000 189 195 180 0
9.900000 23.320000 1.430000 190 196 183 0
10.120000 23.320000 1.430000 190 196 183 0
10.340000 23.320000 1.430000 191 197 184 0
10.560000 23.320000 0.770000 191 197 184 0
10.780000 23.320000 0.770000 194 197 185 0
12.100000 23.320000 0.110000 194 200 187 0
12.320000 23.320000 0.110000 194 200 187 0
12.540000 23.320000 0.770000 197 200 188 0
12.760000 23.320000 0.770000 197 200 188 0
12.980000 23.320000 0.770000 197 200 188 0
13.200000 23.320000 0.880000 196 199 187 0
13.420000 23.320000 0.880000 195 201 188 0
13.640000 23.320000 0.880000 195 201 188 0
13.860000 23.320000 0.880000 195 201 188 0
14.080000 23.320000 0.880000 195 201 188 0
14.300000 23.320000 0.880000 196 199 187 0
14.520000 23.320000 0.880000 195 198 186 0
14.740000 23.320000 0.880000 196 199 187 0
14.960000 23.320000 0.880000 196 199 187 0
15.180000 23.320000 0.990000 195 201 188 0
15.400000 23.320000 0.990000 195 201 188 0
15.620000 23.320000 0.990000 198 201 189 0
15.840000 23.320000 0.990000 199 202 190 0
16.060000 23.320000 0.990000 198 201 189 0
16.280000 23.320000 0.990000 198 201 189 0
16.500000 23.320000 1.100000 198 201 189 0
16.720000 23.320000 1.100000 197 200 188 0
16.940000 23.320000 1.100000 195 201 188 0
17.160000 23.320000 1.100000 195 201 188 0
17.380000 23.320000 1.100000 196 199 187 0
17.600000 23.320000 1.100000 196 199 187 0
17.820000 23.320000 1.100000 196 199 187 0
18.040000 23.320000 1.100000 197 200 188 0
18.260000 23.320000 1.210000 197 200 188 0
18.480000 23.320000 1.210000 198 201 189 0
18.700000 23.320000 1.870000 198 201 189 0
18.920000 23.320000 1.870000 198 201 189 0
19.140000 23.320000 1.870000 198 200 190 0
19.360000 23.320000 1.980000 198 200 190 0
19.580000 23.320000 1.980000 198 201 189 0
19.800000 23.320000 1.980000 198 201 189 0
20.020000 23.320000 1.980000 198 201 189 0
20.240000 23.320000 1.980000 198 201 189 0
20.460000 23.320000 1.980000 198 201 189 0
20.680000 23.320000 2.090000 198 201 189 0
20.900000 23.320000 1.980000 198 200 190 0
21.120000 23.320000 2.530000 198 200 190 0
21.340000 23.320000 2.860000 198 201 189 0
21.560000 23.320000 3.520000 199 202 190 0
21.780000 23.320000 3.520000 199 201 191 0
22.000000 23.320000 3.520000 198 200 190 0
22.220000 23.320000 3.520000 198 201 189 0
22.440000 23.320000 3.520000 198 201 189 0
22.660000 23.320000 3.520000 198 200 190 0
22.880000 23.320000 4.290000 198 200 190 0
23.100000 23.320000 4.290000 198 201 189 0
23.320000 23.320000 4.290000 198 201 189 0
23.540000 23.320000 4.290000 197 199 189 0
23.760000 23.320000 4.290000 198 200 190 0
23.980000 23.320000 4.400000 198 201 189 0
24.200000 23.320000 4.400000 199 202 190 0
24.420000 23.320000 4.400000 200 202 192 0
24.640000 23.320000 4.400000 199 201 191 0
24.860000 23.320000 4.400000 199 201 191 0
25.080000 23.320000 4.400000 199 201 191 0
25.300000 23.320000 4.400000 199 201 191 0
25.520000 23.320000 4.400000 199 201 191 0
25.740000 23.320000 4.400000 199 200 189 0
25.960000 23.320000 4.510000 199 200 189 0
26.180000 23.320000 4.510000 198 200 190 0
26.400000 23.320000 4.510000 198 200 190 0
26.620000 23.320000 4.510000 199 200 190 0
26.840000 23.320000 4.510000 200 201 191 0
27.060000 23.320000 4.510000 199 200 190 0
27.280000 23.320000 4.620000 198 199 189 0
27.500000 23.320000 4.620000 199 200 189 0
27.720000 23.320000 5.280000 199 200 189 0
27.940000 23.320000 5.280000 199 200 190 0
28.160000 23.320000 5.280000 199 200 190 0
28.380000 23.320000 5.280000 199 200 189 0
28.600000 23.320000 5.390000 199 200 189 0
28.820000 23.320000 5.390000 199 200 190 0
29.040000 23.320000 5.390000 199 200 190 0
29.260000 23.320000 5.390000 200 201 191 0
29.480000 23.320000 5.390000 199 200 190 0
29.700000 23.320000 5.390000 200 201 191 0
29.920000 23.320000 5.500000 200 201 191 0
30.140000 23.320000 5.500000 200 201 191 0
30.360000 23.320000 5.500000 200 201 191 0
30.580000 23.320000 5.500000 200 201 191 0
30.800000 23.320000 6.050000 200 201 191 0
31.020000 23.320000 6.380000 200 201 191 0
31.240000 23.320000 6.930000 200 201 191 0
31.460000 23.320000 6.930000 200 201 191 0
31.680000 23.320000 6.930000 200 201 191 0
31.900000 23.320000 6.930000 200 201 191 0
32.120000 23.320000 7.040000 200 201 191 0
32.340000 23.320000 7.040000 209 196 182 0
32.560000 23.320000 7.040000 198 185 171 0
32.780000 23.320000 7.040000 206 171 147 0
33.000000 23.320000 7.040000 197 162 138 0
33.220000 23.320000 7.040000 195 158 134 0
33.440000 23.320000 7.150000 198 161 137 0
33.660000 23.320000 7.150000 199 162 138 0
33.880000 23.320000 7.150000 200 163 139 0
34.100000 23.320000 7.150000 199 162 138 0
34.320000 23.320000 7.150000 199 162 138 0
34.540000 23.320000 7.150000 200 163 140 0
34.760000 23.320000 7.150000 199 162 139 0
34.980000 23.320000 7.150000 200 163 139 0
35.200000 23.320000 7.260000 200 163 139 0
35.420000 23.320000 7.260000 199 162 138 0
35.640000 23.320000 7.260000 200 163 139 0
35.860000 23.320000 7.260000 200 163 139 0
36.080000 23.320000 7.260000 200 163 139 0
36.300000 23.320000 7.260000 200 163 139 0
36.520000 23.320000 7.370000 201 164 140 0
36.740000 23.320000 7.370000 201 164 140 0
36.960000 23.320000 7.370000 202 165 141 0
37.180000 23.320000 7.370000 202 165 141 0
0.000000 23.540000 1.100000 126 130 110 0
0.220000 23.540000 1.100000 127 131 111 0
0.440000 23.540000 1.100000 126 130 110 0
0.660000 23.540000 1.100000 126 130 110 0
0.880000 23.540000 1.650000 126 130 110 0
1.100000 23.540000 1.540000 126 130 110 0
1.320000 23.540000 1.540000 127 131 111 0
1.540000 23.540000 1.650000 127 131 111 0
1.760000 23.540000 0.990000 127 131 111 0
1.980000 23.540000 1.650000 126 130 110 0
2.200000 23.540000 1.540000 128 132 112 0
2.420000 23.540000 1.540000 128 130 111 0
2.640000 23.540000 1.540000 129 131 112 0
2.860000 23.540000 1.540000 126 130 110 0
3.080000 23.540000 1.650000 127 131 111 0
3.300000 23.540000 1.540000 128 132 112 0
3.520000 23.540000 1.540000 127 131 111 0
3.740000 23.540000 1.540000 128 132 112 0
3.960000 23.540000 1.540000 128 132 112 0
4.180000 23.540000 1.540000 129 131 112 0
4.400000 23.540000 2.200000 129 131 112 0
4.620000 23.540000 2.200000 130 132 113 0
4.840000 23.540000 2.200000 130 132 113 0
5.060000 23.540000 2.090000 130 132 113 0
5.280000 23.540000 2.200000 131 133 114 0
5.500000 23.540000 2.200000 131 135 115 0
5.720000 23.540000 1.540000 135 139 119 0
5.940000 23.540000 0.990000 145 149 130 0
6.160000 23.540000 1.100000 155 159 140 0
6.380000 23.540000 1.100000 163 165 149 0
6.600000 23.540000 1.100000 168 170 154 0
6.820000 23.540000 0.990000 171 174 158 0
7.040000 23.540000 1.650000 174 177 161 0
7.260000 23.540000 2.200000 177 179 163 0
7.480000 23.540000 2.090000 178 180 164 0
7.700000 23.540000 2.090000 180 182 166 0
7.920000 23.540000 2.090000 180 182 166 0
8.140000 23.540000 2.200000 182 185 169 0
8.360000 23.540000 2.200000 185 188 172 0
8.580000 23.540000 2.200000 188 191 177 0
8.800000 23.540000 2.090000 188 191 177 0
9.020000 23.540000 2.090000 189 192 176 0
9.240000 23.540000 2.200000 189 192 176 0
9.460000 23.540000 2.200000 189 192 178 0
9.680000 23.540000 2.200000 190 193 179 0
9.900000 23.540000 1.430000 190 193 179 0
10.120000 23.540000 1.430000 191 194 180 0
10.340000 23.540000 1.430000 192 195 181 0
10.560000 23.540000 0.770000 193 196 182 0
10.780000 23.540000 0.770000 194 197 183 0
12.100000 23.540000 0.110000 196 199 185 0
12.320000 23.540000 0.770000 196 199 185 0
12.540000 23.540000 0.770000 197 200 186 0
12.760000 23.540000 0.770000 197 200 186 0
12.980000 23.540000 0.770000 196 199 185 0
13.200000 23.540000 0.880000 197 200 186 0
13.420000 23.540000 0.880000 196 199 187 0
13.640000 23.540000 0.880000 198 201 189 0
13.860000 23.540000 0.880000 197 200 186 0
14.080000 23.540000 0.880000 197 200 186 0
14.300000 23.540000 0.880000 197 200 186 0
14.520000 23.540000 0.880000 197 200 186 0
14.740000 23.540000 0.880000 196 199 187 0
14.960000 23.540000 0.990000 197 200 188 0
15.180000 23.540000 0.990000 197 200 188 0
15.400000 23.540000 0.990000 198 201 189 0
15.620000 23.540000 0.990000 198 201 189 0
15.840000 23.540000 0.990000 197 200 188 0
16.060000 23.540000 0.990000 197 200 186 0
16.280000 23.540000 0.990000 198 201 187 0
16.500000 23.540000 1.100000 197 200 188 0
16.720000 23.540000 1.100000 197 200 188 0
16.940000 23.540000 1.100000 197 200 188 0
17.160000 23.540000 1.100000 196 199 187 0
17.380000 23.540000 1.100000 197 200 188 0
17.600000 23.540000 1.100000 196 199 187 0
17.820000 23.540000 1.100000 196 199 187 0
18.040000 23.540000 1.210000 196 199 187 0
18.260000 23.540000 1.210000 197 200 188 0
18.480000 23.540000 1.210000 197 200 188 0
18.700000 23.540000 1.870000 198 201 189 0
18.920000 23.540000 1.870000 198 201 189 0
19.140000 23.540000 1.870000 197 200 188 0
19.360000 23.540000 1.980000 198 201 189 0
19.580000 23.540000 1.980000 199 200 189 0
19.800000 23.540000 1.980000 199 200 189 0
20.020000 23.540000 1.980000 199 200 189 0
20.240000 23.540000 1.980000 199 200 189 0
20.460000 23.540000 1.980000 199 200 189 0
20.680000 23.540000 2.090000 199 200 189 0
20.900000 23.540000 1.980000 199 200 189 0
21.120000 23.540000 2.970000 199 200 189 0
21.340000 23.540000 3.520000 200 201 190 0
21.560000 23.540000 3.520000 199 200 189 0
21.780000 23.540000 3.520000 200 201 190 0
22.000000 23.540000 3.520000 200 201 190 0
22.220000 23.540000 3.520000 199 200 189 0
22.440000 23.540000 3.520000 200 201 190 0
22.660000 23.540000 3.520000 199 200 189 0
22.880000 23.540000 4.290000 200 201 190 0
23.100000 23.540000 4.290000 199 200 189 0
23.320000 23.540000 4.290000 199 200 189 0
23.540000 23.540000 4.290000 199 200 187 0
23.760000 23.540000 4.290000 199 200 187 0
23.980000 23.540000 4.400000 200 201 190 0
24.200000 23.540000 4.400000 200 201 190 0
24.420000 23.540000 4.400000 201 202 191 0
24.640000 23.540000 4.400000 201 202 191 0
24.860000 23.540000 4.400000 200 201 190 0
25.080000 23.540000 4.400000 201 202 191 0
25.300000 23.540000 4.400000 200 201 190 0
25.520000 23.540000 4.400000 201 202 191 0
25.740000 23.540000 4.400000 200 201 190 0
25.960000 23.540000 4.510000 200 201 190 0
26.180000 23.540000 4.510000 200 201 190 0
26.400000 23.540000 4.510000 199 200 189 0
26.620000 23.540000 4.510000 199 200 189 0
26.840000 23.540000 4.510000 199 200 189 0
27.060000 23.540000 4.510000 198 199 188 0
27.280000 23.540000 4.620000 199 200 189 0
27.500000 23.540000 4.620000 199 200 189 0
27.720000 23.540000 5.280000 199 200 189 0
27.940000 23.540000 5.280000 200 201 190 0
28.160000 23.540000 5.280000 199 200 189 0
28.380000 23.540000 5.390000 199 200 189 0
28.600000 23.540000 5.390000 198 199 188 0
28.820000 23.540000 5.390000 199 200 189 0
29.040000 23.540000 5.390000 199 200 189 0
29.260000 23.540000 5.390000 200 201 190 0
29.480000 23.540000 5.390000 200 201 190 0
29.700000 23.540000 5.390000 200 201 190 0
29.920000 23.540000 5.500000 200 201 190 0
30.140000 23.540000 5.500000 201 202 191 0
30.360000 23.540000 5.500000 200 201 190 0
30.580000 23.540000 5.500000 200 201 190 0
30.800000 23.540000 6.050000 200 201 190 0
31.020000 23.540000 6.380000 201 202 191 0
31.240000 23.540000 6.930000 201 202 191 0
31.460000 23.540000 6.930000 200 201 190 0
31.680000 23.540000 6.930000 200 201 190 0
31.900000 23.540000 6.930000 199 200 189 0
32.120000 23.540000 7.040000 200 201 190 0
32.340000 23.540000 7.040000 206 198 183 0
32.560000 23.540000 7.040000 197 189 174 0
32.780000 23.540000 7.040000 207 172 147 0
33.000000 23.540000 7.040000 197 162 137 0
33.220000 23.540000 7.040000 196 160 133 0
33.440000 23.540000 7.150000 197 161 134 0
33.660000 23.540000 7.150000 198 162 135 0
33.880000 23.540000 7.150000 198 162 135 0
34.100000 23.540000 7.150000 200 162 136 0
34.320000 23.540000 7.150000 200 162 136 0
34.540000 23.540000 7.150000 199 162 138 0
34.760000 23.540000 7.150000 200 163 139 0
34.980000 23.540000 7.150000 200 162 138 0
35.200000 23.540000 7.260000 201 163 139 0
35.420000 23.540000 7.260000 200 163 139 0
35.640000 23.540000 7.260000 200 163 139 0
35.860000 23.540000 7.260000 202 164 140 0
36.080000 23.540000 7.260000 200 162 138 0
36.300000 23.540000 7.260000 200 163 139 0
36.520000 23.540000 7.370000 200 163 139 0
36.740000 23.540000 7.370000 202 164 140 0
36.960000 23.540000 7.370000 202 164 140 0
37.180000 23.540000 7.370000 203 165 141 0
0.000000 23.760000 0.990000 127 131 111 0
0.220000 23.760000 1.100000 127 131 111 0
0.440000 23.760000 1.100000 126 130 110 0
0.660000 23.760000 0.990000 126 130 110 0
0.880000 23.760000 1.540000 126 130 110 0
1.100000 23.760000 1.430000 127 131 111 0
1.320000 23.760000 1.540000 126 130 110 0
1.540000 23.760000 1.540000 127 131 111 0
1.760000 23.760000 1.540000 127 131 111 0
1.980000 23.760000 1.540000 127 131 111 0
2.200000 23.760000 2.200000 126 130 110 0
2.420000 23.760000 2.200000 128 130 111 0
2.640000 23.760000 1.540000 128 130 111 0
2.860000 23.760000 2.200000 127 131 111 0
3.080000 23.760000 1.540000 127 131 111 0
3.300000 23.760000 1.540000 127 131 111 0
3.520000 23.760000 2.200000 127 131 111 0
3.740000 23.760000 2.200000 128 132 112 0
3.960000 23.760000 1.540000 128 132 112 0
4.180000 23.760000 1.650000 128 130 111 0
4.400000 23.760000 1.540000 129 131 112 0
4.620000 23.760000 2.200000 128 130 111 0
4.840000 23.760000 2.200000 129 131 112 0
5.060000 23.760000 2.090000 131 133 114 0
5.280000 23.760000 2.200000 130 132 113 0
5.500000 23.760000 2.200000 131 135 115 0
5.720000 23.760000 1.540000 134 138 118 0
5.940000 23.760000 1.650000 144 148 129 0
6.160000 23.760000 0.990000 155 159 140 0
6.380000 23.760000 1.650000 163 165 149 0
6.600000 23.760000 1.650000 169 171 155 0
6.820000 23.760000 1.650000 171 174 158 0
7.040000 23.760000 1.650000 173 176 160 0
7.260000 23.760000 2.200000 177 179 163 0
7.480000 23.760000 2.090000 179 181 165 0
7.700000 23.760000 2.090000 179 181 165 0
7.920000 23.760000 2.090000 180 182 166 0
8.140000 23.760000 2.200000 182 185 169 0
8.360000 23.760000 2.200000 184 187 171 0
8.580000 23.760000 2.200000 186 189 175 0
8.800000 23.760000 2.200000 187 190 176 0
9.020000 23.760000 2.200000 189 192 176 0
9.240000 23.760000 2.200000 187 190 174 0
9.460000 23.760000 2.200000 190 193 179 0
9.680000 23.760000 2.200000 190 193 179 0
9.900000 23.760000 1.430000 191 194 180 0
10.120000 23.760000 1.430000 192 195 181 0
10.340000 23.760000 1.430000 192 195 181 0
10.560000 23.760000 0.770000 193 196 182 0
10.780000 23.760000 0.770000 194 197 183 0
12.100000 23.760000 0.110000 196 199 185 0
12.320000 23.760000 0.770000 197 200 186 0
12.540000 23.760000 0.770000 195 198 184 0
12.760000 23.760000 0.770000 196 199 185 0
12.980000 23.760000 0.770000 197 200 186 0
13.200000 23.760000 0.880000 197 200 186 0
13.420000 23.760000 0.880000 196 199 187 0
13.640000 23.760000 0.880000 197 200 188 0
13.860000 23.760000 0.880000 198 201 187 0
14.080000 23.760000 0.880000 197 200 186 0
14.300000 23.760000 0.880000 197 200 186 0
14.520000 23.760000 0.880000 198 201 187 0
14.740000 23.760000 0.880000 198 201 189 0
14.960000 23.760000 0.990000 197 200 188 0
15.180000 23.760000 0.990000 197 200 188 0
15.400000 23.760000 0.990000 198 201 189 0
15.620000 23.760000 0.990000 198 201 189 0
15.840000 23.760000 0.990000 197 200 188 0
16.060000 23.760000 0.990000 197 200 186 0
16.280000 23.760000 0.990000 197 200 186 0
16.500000 23.760000 1.100000 197 200 188 0
16.720000 23.760000 1.100000 197 200 188 0
16.940000 23.760000 1.100000 197 200 188 0
17.160000 23.760000 1.100000 197 200 188 0
17.380000 23.760000 1.100000 196 199 187 0
17.600000 23.760000 1.100000 197 200 188 0
17.820000 23.760000 1.100000 195 198 186 0
18.040000 23.760000 1.210000 196 199 187 0
18.260000 23.760000 1.210000 197 200 188 0
18.480000 23.760000 1.210000 198 201 189 0
18.700000 23.760000 1.870000 197 200 188 0
18.920000 23.760000 1.870000 198 201 189 0
19.140000 23.760000 1.870000 198 201 189 0
19.360000 23.760000 1.980000 197 200 188 0
19.580000 23.760000 1.980000 199 200 189 0
19.800000 23.760000 1.980000 198 199 188 0
20.020000 23.760000 1.980000 199 200 189 0
20.240000 23.760000 1.980000 199 200 189 0
20.460000 23.760000 1.980000 199 200 189 0
20.680000 23.760000 2.090000 199 200 189 0
20.900000 23.760000 2.530000 199 200 189 0
21.120000 23.760000 2.970000 199 200 189 0
21.340000 23.760000 3.520000 200 201 190 0
21.560000 23.760000 3.520000 200 201 190 0
21.780000 23.760000 3.520000 200 201 190 0
22.000000 23.760000 3.520000 200 201 190 0
22.220000 23.760000 3.520000 200 201 190 0
22.440000 23.760000 3.520000 200 201 190 0
22.660000 23.760000 3.520000 199 200 189 0
22.880000 23.760000 4.290000 199 200 189 0
23.100000 23.760000 4.290000 199 200 189 0
23.320000 23.760000 4.290000 199 200 189 0
23.540000 23.760000 4.290000 199 200 187 0
23.760000 23.760000 4.290000 199 200 187 0
23.980000 23.760000 4.400000 199 200 189 0
24.200000 23.760000 4.400000 200 201 190 0
24.420000 23.760000 4.400000 200 201 190 0
24.640000 23.760000 4.400000 200 201 190 0
24.860000 23.760000 4.400000 201 202 191 0
25.080000 23.760000 4.400000 201 202 191 0
25.300000 23.760000 4.400000 201 202 191 0
25.520000 23.760000 4.400000 201 202 191 0
25.740000 23.760000 4.400000 200 201 190 0
25.960000 23.760000 4.510000 199 200 189 0
26.180000 23.760000 4.510000 199 200 189 0
26.400000 23.760000 4.510000 199 200 189 0
26.620000 23.760000 4.510000 199 200 189 0
26.840000 23.760000 4.510000 199 200 189 0
27.060000 23.760000 4.620000 199 200 189 0
27.280000 23.760000 4.620000 199 200 189 0
27.500000 23.760000 4.620000 200 201 190 0
27.720000 23.760000 5.280000 200 201 190 0
27.940000 23.760000 5.280000 199 200 189 0
28.160000 23.760000 5.280000 200 201 190 0
28.380000 23.760000 5.390000 200 201 190 0
28.600000 23.760000 5.390000 199 200 189 0
28.820000 23.760000 5.390000 199 200 189 0
29.040000 23.760000 5.390000 200 201 190 0
29.260000 23.760000 5.390000 200 201 190 0
29.480000 23.760000 5.390000 200 201 190 0
29.700000 23.760000 5.390000 200 201 190 0
29.920000 23.760000 5.500000 200 201 190 0
30.140000 23.760000 5.500000 201 202 191 0
30.360000 23.760000 5.500000 200 201 190 0
30.580000 23.760000 5.500000 201 202 191 0
30.800000 23.760000 6.050000 200 201 190 0
31.020000 23.760000 6.380000 200 201 190 0
31.240000 23.760000 6.930000 201 202 191 0
31.460000 23.760000 6.930000 200 201 190 0
31.680000 23.760000 6.930000 201 202 191 0
31.900000 23.760000 6.930000 200 201 190 0
32.120000 23.760000 7.040000 200 201 190 0
32.340000 23.760000 7.040000 206 198 183 0
32.560000 23.760000 7.040000 199 191 176 0
32.780000 23.760000 7.040000 208 173 148 0
33.000000 23.760000 7.040000 198 163 138 0
33.220000 23.760000 7.040000 194 158 131 0
33.440000 23.760000 7.150000 197 161 134 0
33.660000 23.760000 7.150000 198 162 135 0
33.880000 23.760000 7.150000 197 161 134 0
34.100000 23.760000 7.150000 199 161 135 0
34.320000 23.760000 7.150000 200 162 136 0
34.540000 23.760000 7.150000 199 162 138 0
34.760000 23.760000 7.150000 199 162 138 0
34.980000 23.760000 7.150000 200 162 138 0
35.200000 23.760000 7.260000 201 163 139 0
35.420000 23.760000 7.260000 200 163 139 0
35.640000 23.760000 7.260000 199 162 138 0
35.860000 23.760000 7.260000 200 162 138 0
36.080000 23.760000 7.260000 201 163 139 0
36.300000 23.760000 7.260000 200 163 139 0
36.520000 23.760000 7.370000 199 162 138 0
36.740000 23.760000 7.370000 201 163 139 0
36.960000 23.760000 7.370000 202 164 140 0
37.180000 23.760000 7.370000 201 163 139 0
0.000000 23.980000 1.650000 127 131 111 0
0.220000 23.980000 0.990000 128 130 112 0
0.440000 23.980000 0.990000 128 130 112 0
0.660000 23.980000 1.540000 126 130 111 0
0.880000 23.980000 1.540000 126 130 111 0
1.100000 23.980000 1.540000 126 130 110 0
1.320000 23.980000 1.540000 127 131 111 0
1.540000 23.980000 1.540000 128 130 111 0
1.760000 23.980000 2.200000 127 129 110 0
1.980000 23.980000 2.200000 128 130 111 0
2.200000 23.980000 2.200000 127 129 110 0
2.420000 23.980000 2.200000 127 131 111 0
2.640000 23.980000 1.540000 127 131 111 0
2.860000 23.980000 2.200000 127 131 111 0
3.080000 23.980000 2.200000 127 131 111 0
3.300000 23.980000 2.200000 129 131 112 0
3.520000 23.980000 2.090000 130 132 113 0
3.740000 23.980000 2.090000 128 132 112 0
3.960000 23.980000 2.200000 128 132 112 0
4.180000 23.980000 1.540000 128 132 112 0
4.400000 23.980000 1.540000 128 132 112 0
4.620000 23.980000 2.200000 127 131 111 0
4.840000 23.980000 2.200000 128 132 112 0
5.060000 23.980000 2.090000 129 131 112 0
5.280000 23.980000 2.200000 130 132 113 0
5.500000 23.980000 2.200000 130 134 114 0
5.720000 23.980000 2.200000 133 137 117 0
5.940000 23.980000 1.540000 143 146 130 0
6.160000 23.980000 1.540000 155 158 142 0
6.380000 23.980000 1.540000 163 166 150 0
6.600000 23.980000 1.540000 167 170 154 0
6.820000 23.980000 2.200000 171 173 157 0
7.040000 23.980000 2.200000 175 177 161 0
7.260000 23.980000 2.090000 176 179 165 0
7.480000 23.980000 2.090000 177 180 166 0
7.700000 23.980000 2.090000 176 182 169 0
7.920000 23.980000 2.090000 177 183 170 0
8.140000 23.980000 2.200000 183 184 171 0
8.360000 23.980000 2.200000 184 185 172 0
8.580000 23.980000 2.200000 187 188 175 0
8.800000 23.980000 2.200000 188 189 176 0
9.020000 23.980000 2.200000 187 190 174 0
9.240000 23.980000 2.200000 189 192 176 0
9.460000 23.980000 2.200000 189 192 178 0
9.680000 23.980000 2.200000 190 193 179 0
9.900000 23.980000 1.430000 193 195 179 0
10.120000 23.980000 1.430000 193 195 179 0
10.340000 23.980000 1.430000 193 196 184 0
10.560000 23.980000 0.770000 193 196 184 0
10.780000 23.980000 0.770000 196 197 184 0
12.100000 23.980000 0.110000 196 199 187 0
12.320000 23.980000 0.770000 196 199 187 0
12.540000 23.980000 0.770000 198 199 188 0
12.760000 23.980000 0.770000 197 198 187 0
12.980000 23.980000 0.770000 197 200 186 0
13.200000 23.980000 0.880000 197 200 186 0
13.420000 23.980000 0.880000 197 200 186 0
13.640000 23.980000 0.880000 196 199 185 0
13.860000 23.980000 0.880000 197 200 188 0
14.080000 23.980000 0.880000 197 200 188 0
14.300000 23.980000 0.880000 198 199 188 0
14.520000 23.980000 0.880000 199 200 189 0
14.740000 23.980000 0.880000 197 200 188 0
14.960000 23.980000 0.990000 198 201 189 0
15.180000 23.980000 0.990000 198 201 189 0
15.400000 23.980000 0.990000 198 201 189 0
15.620000 23.980000 0.990000 197 200 188 0
15.840000 23.980000 0.990000 196 199 187 0
16.060000 23.980000 0.990000 197 198 187 0
16.280000 23.980000 0.990000 196 197 186 0
16.500000 23.980000 1.100000 197 200 188 0
16.720000 23.980000 1.100000 196 199 187 0
16.940000 23.980000 1.100000 197 200 188 0
17.160000 23.980000 1.100000 197 200 188 0
17.380000 23.980000 1.100000 196 199 187 0
17.600000 23.980000 1.100000 196 199 187 0
17.820000 23.980000 1.100000 198 199 188 0
18.040000 23.980000 1.210000 198 199 188 0
18.260000 23.980000 1.210000 197 200 188 0
18.480000 23.980000 1.210000 198 201 189 0
18.700000 23.980000 1.870000 198 201 189 0
18.920000 23.980000 1.870000 197 200 188 0
19.140000 23.980000 1.870000 198 201 189 0
19.360000 23.980000 1.980000 198 201 189 0
19.580000 23.980000 1.980000 199 200 189 0
19.800000 23.980000 1.980000 199 200 189 0
20.020000 23.980000 1.980000 198 201 189 0
20.240000 23.980000 1.980000 198 201 189 0
20.460000 23.980000 1.980000 198 201 189 0
20.680000 23.980000 2.090000 198 201 189 0
20.900000 23.980000 2.530000 200 201 190 0
21.120000 23.980000 2.970000 199 200 189 0
21.340000 23.980000 3.520000 200 201 190 0
21.560000 23.980000 3.520000 199 200 189 0
21.780000 23.980000 3.520000 199 202 190 0
22.000000 23.980000 3.520000 198 201 189 0
22.220000 23.980000 3.520000 200 201 190 0
22.440000 23.980000 3.520000 200 201 190 0
22.660000 23.980000 3.520000 199 200 189 0
22.880000 23.980000 4.290000 199 200 189 0
23.100000 23.980000 4.290000 199 200 189 0
23.320000 23.980000 4.290000 199 200 189 0
23.540000 23.980000 4.290000 199 200 189 0
23.760000 23.980000 4.290000 199 200 189 0
23.980000 23.980000 4.400000 200 201 190 0
24.200000 23.980000 4.400000 200 201 190 0
24.420000 23.980000 4.400000 200 201 190 0
24.640000 23.980000 4.400000 200 201 190 0
24.860000 23.980000 4.400000 200 201 190 0
25.080000 23.980000 4.400000 200 201 190 0
25.300000 23.980000 4.400000 200 201 190 0
25.520000 23.980000 4.400000 201 202 191 0
25.740000 23.980000 4.400000 201 202 191 0
25.960000 23.980000 4.510000 200 201 190 0
26.180000 23.980000 4.510000 200 201 190 0
26.400000 23.980000 4.510000 200 201 190 0
26.620000 23.980000 4.510000 200 201 190 0
26.840000 23.980000 4.510000 200 201 190 0
27.060000 23.980000 4.620000 199 200 189 0
27.280000 23.980000 4.620000 199 200 189 0
27.500000 23.980000 4.620000 200 201 190 0
27.720000 23.980000 5.280000 200 201 190 0
27.940000 23.980000 5.280000 200 201 190 0
28.160000 23.980000 5.280000 200 201 190 0
28.380000 23.980000 5.390000 200 201 191 0
28.600000 23.980000 5.390000 200 201 191 0
28.820000 23.980000 5.390000 199 200 189 0
29.040000 23.980000 5.390000 200 201 190 0
29.260000 23.980000 5.390000 200 201 191 0
29.480000 23.980000 5.390000 200 201 191 0
29.700000 23.980000 5.500000 200 201 191 0
29.920000 23.980000 5.500000 201 202 192 0
30.140000 23.980000 5.500000 200 201 191 0
30.360000 23.980000 5.500000 200 201 191 0
30.580000 23.980000 5.500000 201 202 191 0
30.800000 23.980000 5.390000 200 201 190 0
31.020000 23.980000 6.380000 201 202 192 0
31.240000 23.980000 6.930000 200 201 191 0
31.460000 23.980000 6.930000 200 201 190 0
31.680000 23.980000 6.930000 200 201 190 0
31.900000 23.980000 6.930000 200 201 191 0
32.120000 23.980000 7.040000 200 201 191 0
32.340000 23.980000 7.040000 205 198 185 0
32.560000 23.980000 7.040000 197 190 177 0
32.780000 23.980000 7.040000 209 174 150 0
33.000000 23.980000 7.040000 197 162 138 0
33.220000 23.980000 7.040000 193 157 128 0
33.440000 23.980000 7.150000 197 161 132 0
33.660000 23.980000 7.150000 199 161 135 0
33.880000 23.980000 7.150000 199 161 135 0
34.100000 23.980000 7.150000 199 161 137 0
34.320000 23.980000 7.150000 198 160 136 0
34.540000 23.980000 7.150000 198 161 137 0
34.760000 23.980000 7.150000 199 162 138 0
34.980000 23.980000 7.150000 200 164 135 0
35.200000 23.980000 7.260000 199 163 134 0
35.420000 23.980000 7.260000 199 161 135 0
35.640000 23.980000 7.260000 200 162 136 0
35.860000 23.980000 7.260000 200 162 138 0
36.080000 23.980000 7.260000 200 162 138 0
36.300000 23.980000 7.260000 200 163 139 0
36.520000 23.980000 7.370000 200 163 139 0
36.740000 23.980000 7.370000 199 163 136 0
36.960000 23.980000 7.370000 200 164 137 0
37.180000 23.980000 7.370000 201 163 137 0
0.000000 24.200000 1.540000 127 131 111 0
0.220000 24.200000 1.540000 127 129 111 0
0.440000 24.200000 1.430000 127 129 111 0
0.660000 24.200000 1.540000 127 131 112 0
0.880000 24.200000 1.650000 127 131 112 0
1.100000 24.200000 0.990000 127 131 111 0
1.320000 24.200000 1.540000 126 130 110 0
1.540000 24.200000 1.540000 128 130 111 0
1.760000 24.200000 1.540000 129 131 112 0
1.980000 24.200000 1.540000 127 129 110 0
2.200000 24.200000 2.200000 128 130 111 0
2.420000 24.200000 2.200000 127 131 111 0
2.640000 24.200000 2.200000 127 131 111 0
2.860000 24.200000 2.200000 128 132 112 0
3.080000 24.200000 2.200000 127 131 111 0
3.300000 24.200000 2.090000 129 131 112 0
3.520000 24.200000 2.090000 129 131 112 0
3.740000 24.200000 2.090000 129 133 113 0
3.960000 24.200000 2.200000 128 132 112 0
4.180000 24.200000 2.200000 128 132 112 0
4.400000 24.200000 2.200000 128 132 112 0
4.620000 24.200000 2.200000 128 132 112 0
4.840000 24.200000 2.200000 128 132 112 0
5.060000 24.200000 2.090000 129 131 112 0
5.280000 24.200000 2.200000 130 132 113 0
5.500000 24.200000 2.200000 129 133 113 0
5.720000 24.200000 2.090000 134 138 118 0
5.940000 24.200000 2.090000 140 143 127 0
6.160000 24.200000 2.200000 151 154 138 0
6.380000 24.200000 1.540000 161 164 148 0
6.600000 24.200000 2.200000 167 170 154 0
6.820000 24.200000 2.090000 172 174 158 0
7.040000 24.200000 2.090000 175 177 161 0
7.260000 24.200000 2.090000 176 179 165 0
7.480000 24.200000 2.090000 177 180 166 0
7.700000 24.200000 2.090000 176 182 169 0
7.920000 24.200000 2.090000 178 184 171 0
8.140000 24.200000 2.090000 182 183 170 0
8.360000 24.200000 2.200000 184 185 172 0
8.580000 24.200000 2.200000 186 187 174 0
8.800000 24.200000 2.200000 187 188 175 0
9.020000 24.200000 2.200000 187 190 174 0
9.240000 24.200000 2.200000 189 192 176 0
9.460000 24.200000 2.200000 189 192 178 0
9.680000 24.200000 2.090000 190 193 179 0
9.900000 24.200000 1.430000 193 195 179 0
10.120000 24.200000 1.430000 193 195 179 0
10.340000 24.200000 1.430000 193 196 184 0
10.560000 24.200000 0.770000 194 197 185 0
10.780000 24.200000 0.770000 196 197 184 0
11.880000 24.200000 0.110000 196 199 185 0
12.100000 24.200000 0.110000 196 199 187 0
12.320000 24.200000 0.770000 197 200 188 0
12.540000 24.200000 0.770000 198 199 188 0
12.760000 24.200000 0.770000 198 199 188 0
12.980000 24.200000 0.770000 197 200 186 0
13.200000 24.200000 0.880000 198 201 187 0
13.420000 24.200000 0.880000 197 200 186 0
13.640000 24.200000 0.880000 196 199 185 0
13.860000 24.200000 0.880000 196 199 187 0
14.080000 24.200000 0.880000 197 200 188 0
14.300000 24.200000 0.880000 199 200 189 0
14.520000 24.200000 0.880000 199 200 189 0
14.740000 24.200000 0.880000 198 201 189 0
14.960000 24.200000 0.990000 198 201 189 0
15.180000 24.200000 0.990000 198 201 189 0
15.400000 24.200000 0.990000 198 201 189 0
15.620000 24.200000 0.990000 198 201 189 0
15.840000 24.200000 0.990000 197 200 188 0
16.060000 24.200000 0.990000 197 198 187 0
16.280000 24.200000 0.990000 196 197 186 0
16.500000 24.200000 1.100000 196 199 187 0
16.720000 24.200000 1.100000 196 199 187 0
16.940000 24.200000 1.100000 197 200 188 0
17.160000 24.200000 1.100000 197 200 188 0
17.380000 24.200000 1.100000 197 200 188 0
17.600000 24.200000 1.100000 198 201 189 0
17.820000 24.200000 1.100000 199 200 189 0
18.040000 24.200000 1.210000 199 200 189 0
18.260000 24.200000 1.210000 198 201 189 0
18.480000 24.200000 1.210000 198 201 189 0
18.700000 24.200000 1.870000 198 201 189 0
18.920000 24.200000 1.870000 198 201 189 0
19.140000 24.200000 1.870000 199 202 190 0
19.360000 24.200000 1.980000 198 201 189 0
19.580000 24.200000 1.980000 200 201 190 0
19.800000 24.200000 1.980000 199 200 189 0
20.020000 24.200000 1.980000 198 201 189 0
20.240000 24.200000 1.980000 199 202 190 0
20.460000 24.200000 2.090000 199 202 190 0
20.680000 24.200000 2.090000 198 201 189 0
20.900000 24.200000 2.530000 199 200 189 0
21.120000 24.200000 2.970000 199 200 189 0
21.340000 24.200000 3.520000 200 201 190 0
21.560000 24.200000 3.520000 200 201 190 0
21.780000 24.200000 3.520000 199 202 190 0
22.000000 24.200000 3.520000 198 201 189 0
22.220000 24.200000 3.520000 199 200 189 0
22.440000 24.200000 3.520000 199 200 189 0
22.660000 24.200000 4.290000 199 200 189 0
22.880000 24.200000 4.290000 199 200 189 0
23.100000 24.200000 4.290000 199 200 189 0
23.320000 24.200000 4.290000 200 201 190 0
23.540000 24.200000 4.290000 200 201 190 0
23.760000 24.200000 4.290000 200 201 190 0
23.980000 24.200000 4.400000 200 201 190 0
24.200000 24.200000 4.400000 200 201 190 0
24.420000 24.200000 4.400000 200 201 190 0
24.640000 24.200000 4.400000 201 202 191 0
24.860000 24.200000 4.400000 200 201 190 0
25.080000 24.200000 4.400000 201 202 191 0
25.300000 24.200000 4.400000 201 202 191 0
25.520000 24.200000 4.400000 201 202 191 0
25.740000 24.200000 4.400000 201 202 191 0
25.960000 24.200000 4.510000 200 201 190 0
26.180000 24.200000 4.510000 200 201 190 0
26.400000 24.200000 4.510000 200 201 190 0
26.620000 24.200000 4.510000 200 201 190 0
26.840000 24.200000 4.510000 200 201 190 0
27.060000 24.200000 4.620000 200 201 190 0
27.280000 24.200000 4.620000 199 200 189 0
27.500000 24.200000 4.620000 200 201 190 0
27.720000 24.200000 5.280000 200 201 190 0
27.940000 24.200000 5.280000 201 202 191 0
28.160000 24.200000 5.280000 200 201 190 0
28.380000 24.200000 5.390000 200 201 191 0
28.600000 24.200000 5.390000 200 201 191 0
28.820000 24.200000 5.390000 200 201 190 0
29.040000 24.200000 5.390000 200 201 190 0
29.260000 24.200000 5.390000 200 201 191 0
29.480000 24.200000 5.390000 200 201 191 0
29.700000 24.200000 5.500000 201 202 192 0
29.920000 24.200000 5.500000 201 202 192 0
30.140000 24.200000 5.500000 201 202 192 0
30.360000 24.200000 5.500000 202 203 193 0
30.580000 24.200000 5.500000 201 202 191 0
30.800000 24.200000 5.390000 201 202 191 0
31.020000 24.200000 6.380000 200 201 191 0
31.240000 24.200000 6.930000 200 201 191 0
31.460000 24.200000 6.930000 200 201 190 0
31.680000 24.200000 6.930000 200 201 190 0
31.900000 24.200000 6.930000 200 201 191 0
32.120000 24.200000 7.040000 200 201 191 0
32.340000 24.200000 7.040000 206 199 186 0
32.560000 24.200000 7.040000 198 191 178 0
32.780000 24.200000 7.040000 208 173 149 0
33.000000 24.200000 7.040000 199 164 140 0
33.220000 24.200000 7.040000 192 156 127 0
33.440000 24.200000 7.150000 198 162 133 0
33.660000 24.200000 7.150000 198 160 134 0
33.880000 24.200000 7.150000 199 161 135 0
34.100000 24.200000 7.150000 199 161 137 0
34.320000 24.200000 7.150000 199 161 137 0
34.540000 24.200000 7.150000 199 162 138 0
34.760000 24.200000 7.150000 199 162 138 0
34.980000 24.200000 7.150000 200 164 135 0
35.200000 24.200000 7.260000 199 163 134 0
35.420000 24.200000 7.260000 200 162 136 0
35.640000 24.200000 7.260000 200 162 136 0
35.860000 24.200000 7.260000 199 161 137 0
36.080000 24.200000 7.260000 200 162 138 0
36.300000 24.200000 7.260000 200 163 139 0
36.520000 24.200000 7.370000 200 163 139 0
36.740000 24.200000 7.370000 200 164 137 0
36.960000 24.200000 7.370000 200 164 137 0
37.180000 24.200000 7.370000 201 163 137 0
0.000000 24.420000 1.540000 127 131 111 0
0.220000 24.420000 1.540000 128 130 112 0
0.440000 24.420000 2.090000 128 130 112 0
0.660000 24.420000 1.540000 126 130 110 0
0.880000 24.420000 1.650000 126 130 110 0
1.100000 24.420000 1.650000 124 131 110 0
1.320000 24.420000 1.540000 123 130 109 0
1.540000 24.420000 1.540000 127 131 111 0
1.760000 24.420000 1.540000 127 131 111 0
1.980000 24.420000 2.200000 128 130 111 0
2.200000 24.420000 2.200000 128 130 111 0
2.420000 24.420000 2.090000 125 132 111 0
2.640000 24.420000 2.090000 125 132 111 0
2.860000 24.420000 2.200000 127 131 111 0
3.080000 24.420000 2.200000 127 131 111 0
3.300000 24.420000 2.200000 127 131 111 0
3.520000 24.420000 2.090000 128 132 112 0
3.740000 24.420000 2.090000 128 132 113 0
3.960000 24.420000 2.200000 127 131 112 0
4.180000 24.420000 2.200000 126 133 110 0
4.400000 24.420000 2.090000 126 133 110 0
4.620000 24.420000 2.200000 127 132 109 0
4.840000 24.420000 2.200000 128 133 110 0
5.060000 24.420000 2.090000 128 132 112 0
5.280000 24.420000 2.090000 128 132 112 0
5.500000 24.420000 2.200000 130 134 114 0
5.720000 24.420000 2.090000 132 136 116 0
5.940000 24.420000 2.090000 139 141 123 0
6.160000 24.420000 2.090000 151 153 135 0
6.380000 24.420000 2.200000 160 163 149 0
6.600000 24.420000 2.090000 165 168 154 0
6.820000 24.420000 2.090000 170 172 156 0
7.040000 24.420000 2.090000 173 175 159 0
7.260000 24.420000 2.090000 175 176 163 0
7.480000 24.420000 2.090000 178 179 166 0
7.700000 24.420000 2.090000 178 181 167 0
7.920000 24.420000 2.090000 179 182 168 0
8.140000 24.420000 2.090000 179 185 172 0
8.360000 24.420000 2.200000 180 186 173 0
8.580000 24.420000 2.200000 185 188 174 0
8.800000 24.420000 2.200000 186 189 175 0
9.020000 24.420000 2.200000 186 189 173 0
9.240000 24.420000 2.200000 189 192 176 0
9.460000 24.420000 2.200000 190 193 181 0
9.680000 24.420000 2.090000 191 194 182 0
9.900000 24.420000 1.430000 191 194 182 0
10.120000 24.420000 1.430000 193 196 184 0
10.340000 24.420000 1.430000 191 197 184 0
10.560000 24.420000 0.770000 192 198 185 0
10.780000 24.420000 0.770000 195 198 184 0
11.880000 24.420000 0.110000 196 199 185 0
12.100000 24.420000 0.110000 197 200 188 0
12.320000 24.420000 0.770000 197 200 188 0
12.540000 24.420000 0.770000 197 200 186 0
12.760000 24.420000 0.770000 198 201 187 0
12.980000 24.420000 0.770000 198 199 188 0
13.200000 24.420000 0.880000 197 198 187 0
13.420000 24.420000 0.880000 197 200 188 0
13.640000 24.420000 0.880000 196 199 187 0
13.860000 24.420000 0.880000 196 199 187 0
14.080000 24.420000 0.880000 196 199 187 0
14.300000 24.420000 0.880000 199 200 187 0
14.520000 24.420000 0.880000 199 200 187 0
14.740000 24.420000 0.880000 200 201 188 0
14.960000 24.420000 0.990000 199 200 187 0
15.180000 24.420000 0.990000 198 201 189 0
15.400000 24.420000 0.990000 198 201 189 0
15.620000 24.420000 0.990000 198 201 189 0
15.840000 24.420000 0.990000 197 200 188 0
16.060000 24.420000 0.990000 196 199 185 0
16.280000 24.420000 0.990000 196 199 185 0
16.500000 24.420000 1.100000 197 198 187 0
16.720000 24.420000 1.100000 197 198 187 0
16.940000 24.420000 1.100000 196 199 187 0
17.160000 24.420000 1.100000 198 201 189 0
17.380000 24.420000 1.100000 198 201 189 0
17.600000 24.420000 1.100000 199 202 190 0
17.820000 24.420000 1.100000 199 202 190 0
18.040000 24.420000 1.210000 198 201 189 0
18.260000 24.420000 1.210000 199 200 189 0
18.480000 24.420000 1.210000 200 201 190 0
18.700000 24.420000 1.870000 200 201 190 0
18.920000 24.420000 1.870000 199 200 189 0
19.140000 24.420000 1.980000 199 202 190 0
19.360000 24.420000 1.980000 199 202 190 0
19.580000 24.420000 1.980000 199 202 190 0
19.800000 24.420000 1.980000 199 202 190 0
20.020000 24.420000 1.980000 200 201 190 0
20.240000 24.420000 1.980000 200 201 190 0
20.460000 24.420000 2.090000 199 202 190 0
20.680000 24.420000 2.090000 199 202 190 0
20.900000 24.420000 2.530000 198 201 189 0
21.120000 24.420000 2.970000 198 201 189 0
21.340000 24.420000 3.520000 199 202 190 0
21.560000 24.420000 3.520000 199 202 190 0
21.780000 24.420000 3.520000 199 202 190 0
22.000000 24.420000 3.520000 199 202 190 0
22.220000 24.420000 3.520000 199 200 189 0
22.440000 24.420000 3.520000 200 201 190 0
22.660000 24.420000 4.290000 197 200 188 0
22.880000 24.420000 4.290000 198 201 189 0
23.100000 24.420000 4.290000 198 201 189 0
23.320000 24.420000 4.290000 199 202 190 0
23.540000 24.420000 4.290000 200 201 190 0
