ply
format ascii 1.0
element vertex 1121
property float x
property float y
property float z
property uchar red
property uchar green
property uchar blue
property uchar alpha
end_header
35.420000 5.720000 0.660000 213 171 154 0
35.640000 5.720000 0.660000 215 173 156 0
35.860000 5.720000 0.660000 217 175 158 0
36.080000 5.720000 0.660000 219 177 158 0
36.300000 5.720000 0.880000 220 178 159 0
36.520000 5.720000 0.880000 219 180 160 0
36.740000 5.720000 2.200000 220 181 161 0
36.960000 5.720000 2.200000 220 181 163 0
37.180000 5.720000 2.420000 220 181 163 0
0.000000 5.940000 9.460000 197 201 181 0
0.220000 5.940000 9.460000 196 200 180 0
0.440000 5.940000 9.680000 196 200 180 0
0.660000 5.940000 9.680000 195 199 179 0
0.880000 5.940000 9.680000 195 199 179 0
1.100000 5.940000 10.780000 195 199 179 0
1.320000 5.940000 11.660000 203 195 171 0
1.540000 5.940000 12.540000 195 187 163 0
1.760000 5.940000 12.540000 204 170 138 0
1.980000 5.940000 12.540000 197 163 131 0
2.200000 5.940000 12.540000 194 159 126 0
2.420000 5.940000 12.540000 194 159 126 0
2.640000 5.940000 12.540000 193 158 123 0
2.860000 5.940000 12.760000 195 160 125 0
3.080000 5.940000 12.760000 195 158 124 0
3.300000 5.940000 12.760000 195 158 124 0
3.520000 5.940000 12.760000 196 159 127 0
3.740000 5.940000 12.760000 196 159 127 0
3.960000 5.940000 12.760000 195 158 124 0
4.180000 5.940000 12.980000 195 158 124 0
4.400000 5.940000 12.980000 194 157 123 0
4.620000 5.940000 12.980000 192 155 121 0
4.840000 5.940000 12.980000 192 155 123 0
5.060000 5.940000 12.980000 191 154 122 0
5.280000 5.940000 12.980000 191 154 122 0
5.500000 5.940000 12.980000 194 157 125 0
5.720000 5.940000 12.980000 194 157 125 0
5.940000 5.940000 13.200000 195 158 126 0
6.160000 5.940000 13.200000 195 158 124 0
6.380000 5.940000 13.200000 195 158 124 0
6.600000 5.940000 13.200000 197 157 126 0
6.820000 5.940000 13.200000 198 158 127 0
7.040000 5.940000 13.200000 197 157 126 0
7.260000 5.940000 13.420000 197 157 126 0
7.480000 5.940000 13.420000 196 159 127 0
7.700000 5.940000 13.420000 196 159 127 0
7.920000 5.940000 13.420000 198 159 125 0
8.140000 5.940000 13.420000 200 161 127 0
8.360000 5.940000 13.420000 200 160 129 0
8.580000 5.940000 13.420000 200 160 129 0
8.800000 5.940000 13.420000 200 160 129 0
9.020000 5.940000 13.640000 199 159 128 0
9.240000 5.940000 13.640000 200 160 129 0
9.460000 5.940000 13.640000 198 158 127 0
9.680000 5.940000 13.640000 198 159 125 0
9.900000 5.940000 13.640000 197 158 124 0
10.120000 5.940000 13.640000 197 157 126 0
10.340000 5.940000 13.640000 198 158 127 0
10.560000 5.940000 14.960000 196 156 125 0
10.780000 5.940000 16.060000 196 156 125 0
11.000000 5.940000 16.940000 198 158 127 0
11.220000 5.940000 18.040000 198 158 127 0
11.440000 5.940000 18.040000 199 159 128 0
11.660000 5.940000 18.040000 199 159 128 0
11.880000 5.940000 18.040000 200 158 129 0
12.100000 5.940000 18.260000 200 158 129 0
12.320000 5.940000 18.260000 200 160 130 0
12.540000 5.940000 18.260000 200 160 130 0
12.760000 5.940000 18.260000 201 161 131 0
12.980000 5.940000 19.800000 201 161 131 0
13.200000 5.940000 19.800000 202 162 132 0
13.420000 5.940000 19.800000 202 162 132 0
13.640000 5.940000 19.800000 202 162 132 0
13.860000 5.940000 19.800000 201 161 131 0
14.080000 5.940000 19.800000 202 162 132 0
14.300000 5.940000 20.020000 201 161 131 0
14.520000 5.940000 21.340000 202 160 131 0
14.740000 5.940000 21.340000 202 160 131 0
14.960000 5.940000 21.340000 202 160 131 0
15.180000 5.940000 21.340000 201 159 130 0
15.400000 5.940000 21.560000 201 159 130 0
15.620000 5.940000 22.880000 202 160 131 0
15.840000 5.940000 22.880000 202 160 131 0
16.060000 5.940000 22.880000 201 159 130 0
16.280000 5.940000 23.100000 201 159 130 0
16.500000 5.940000 24.420000 201 159 130 0
16.720000 5.940000 24.420000 203 162 131 0
16.940000 5.940000 24.420000 201 160 129 0
17.160000 5.940000 24.420000 201 159 130 0
17.380000 5.940000 24.420000 200 158 129 0
17.600000 5.940000 25.960000 201 159 130 0
17.820000 5.940000 25.960000 200 158 129 0
18.040000 5.940000 25.960000 200 158 129 0
18.260000 5.940000 25.960000 200 158 129 0
18.480000 5.940000 25.960000 200 159 128 0
18.700000 5.940000 27.500000 199 158 127 0
18.920000 5.940000 27.500000 199 157 128 0
19.140000 5.940000 27.500000 198 156 127 0
19.360000 5.940000 27.500000 200 158 129 0
19.580000 5.940000 27.500000 201 159 130 0
19.800000 5.940000 28.820000 203 158 130 0
20.020000 5.940000 29.700000 204 159 131 0
20.240000 5.940000 31.900000 205 161 131 0
20.460000 5.940000 33.220000 209 165 135 0
20.680000 5.940000 33.440000 214 173 142 0
20.900000 5.940000 34.100000 222 181 150 0
21.120000 5.940000 34.320000 228 188 158 0
21.340000 5.940000 34.320000 234 194 164 0
21.560000 5.940000 34.320000 238 196 167 0
21.780000 5.940000 34.320000 238 196 167 0
22.000000 5.940000 34.320000 237 195 166 0
22.220000 5.940000 34.320000 237 195 166 0
22.440000 5.940000 35.420000 237 195 166 0
22.660000 5.940000 36.300000 236 194 165 0
22.880000 5.940000 37.400000 237 195 166 0
23.100000 5.940000 37.620000 235 193 164 0
23.320000 5.940000 37.620000 237 195 166 0
23.540000 5.940000 37.620000 238 196 167 0
23.760000 5.940000 39.160000 238 196 167 0
23.980000 5.940000 39.160000 238 196 167 0
24.200000 5.940000 39.160000 237 197 167 0
24.420000 5.940000 39.160000 237 197 167 0
24.640000 5.940000 39.380000 237 197 169 0
24.860000 5.940000 39.380000 237 197 169 0
25.080000 5.940000 39.380000 239 197 168 0
25.300000 5.940000 39.380000 239 197 168 0
25.520000 5.940000 39.600000 240 198 171 0
25.740000 5.940000 39.600000 241 199 172 0
25.960000 5.940000 39.600000 240 200 172 0
26.180000 5.940000 39.600000 241 201 173 0
26.400000 5.940000 39.820000 241 203 177 0
26.620000 5.940000 39.820000 241 203 177 0
26.840000 5.940000 39.820000 243 205 179 0
27.060000 5.940000 39.820000 243 205 179 0
27.280000 5.940000 39.820000 242 204 180 0
27.500000 5.940000 40.040000 243 205 181 0
27.720000 5.940000 40.040000 244 203 180 0
27.940000 5.940000 40.040000 243 202 179 0
28.160000 5.940000 40.040000 243 202 179 0
28.380000 5.940000 40.040000 241 200 177 0
28.600000 5.940000 40.040000 241 200 177 0
28.820000 5.940000 39.820000 241 200 177 0
29.040000 5.940000 40.920000 239 196 174 0
29.260000 5.940000 40.480000 238 195 173 0
29.480000 5.940000 41.580000 236 193 172 0
29.700000 5.940000 41.580000 235 192 171 0
29.920000 5.940000 41.580000 232 191 169 0
30.140000 5.940000 41.580000 230 189 167 0
30.360000 5.940000 41.580000 231 188 167 0
30.580000 5.940000 41.580000 229 186 165 0
30.800000 5.940000 41.580000 225 179 158 0
31.020000 5.940000 41.580000 221 175 154 0
31.240000 5.940000 41.800000 218 172 152 0
31.460000 5.940000 41.800000 214 168 148 0
31.680000 5.940000 41.800000 209 160 141 0
31.900000 5.940000 40.480000 205 156 137 0
32.120000 5.940000 40.480000 201 147 130 0
32.340000 5.940000 40.480000 195 141 124 0
32.560000 5.940000 40.480000 193 133 118 0
32.780000 5.940000 40.480000 188 128 113 0
33.000000 5.940000 40.480000 186 127 114 0
33.220000 5.940000 40.480000 185 126 113 0
33.440000 5.940000 40.480000 189 129 114 0
33.660000 5.940000 41.800000 192 132 117 0
33.880000 5.940000 39.160000 196 140 122 0
34.100000 5.940000 25.300000 203 147 129 0
34.320000 5.940000 7.480000 198 154 140 0
34.980000 5.940000 0.440000 208 164 148 0
35.200000 5.940000 0.660000 211 167 149 0
35.420000 5.940000 0.660000 212 168 150 0
35.640000 5.940000 0.660000 212 173 155 0
35.860000 5.940000 0.660000 214 175 157 0
36.080000 5.940000 0.660000 217 176 154 0
36.300000 5.940000 0.880000 218 177 155 0
36.520000 5.940000 0.880000 218 179 161 0
36.740000 5.940000 0.880000 221 182 164 0
36.960000 5.940000 2.420000 219 181 163 0
37.180000 5.940000 2.420000 219 181 163 0
0.000000 6.160000 11.000000 197 201 181 0
0.220000 6.160000 11.000000 197 201 181 0
0.440000 6.160000 11.000000 196 200 180 0
0.660000 6.160000 9.680000 195 199 179 0
0.880000 6.160000 9.680000 196 200 180 0
1.100000 6.160000 10.780000 195 199 179 0
1.320000 6.160000 12.760000 203 195 171 0
1.540000 6.160000 13.860000 194 186 162 0
1.760000 6.160000 13.860000 206 172 140 0
1.980000 6.160000 12.540000 196 162 130 0
2.200000 6.160000 12.540000 194 159 126 0
2.420000 6.160000 12.540000 195 160 127 0
2.640000 6.160000 12.540000 195 160 125 0
2.860000 6.160000 12.760000 195 160 125 0
3.080000 6.160000 12.760000 195 158 124 0
3.300000 6.160000 12.760000 195 158 124 0
3.520000 6.160000 12.760000 196 159 127 0
3.740000 6.160000 12.760000 196 159 127 0
3.960000 6.160000 12.760000 195 158 124 0
4.180000 6.160000 12.980000 194 157 123 0
4.400000 6.160000 12.980000 192 155 121 0
4.620000 6.160000 12.980000 191 154 120 0
4.840000 6.160000 12.980000 190 153 121 0
5.060000 6.160000 12.980000 191 154 122 0
5.280000 6.160000 12.980000 191 154 122 0
5.500000 6.160000 12.980000 193 156 124 0
5.720000 6.160000 12.980000 194 157 125 0
5.940000 6.160000 13.200000 194 157 125 0
6.160000 6.160000 13.200000 195 158 124 0
6.380000 6.160000 13.200000 194 157 123 0
6.600000 6.160000 13.200000 196 156 125 0
6.820000 6.160000 13.200000 198 158 127 0
7.040000 6.160000 13.420000 198 158 127 0
7.260000 6.160000 13.420000 197 157 126 0
7.480000 6.160000 13.420000 196 159 127 0
7.700000 6.160000 13.420000 196 159 127 0
7.920000 6.160000 13.420000 198 159 125 0
8.140000 6.160000 13.420000 199 160 126 0
8.360000 6.160000 13.420000 200 160 129 0
8.580000 6.160000 13.420000 200 160 129 0
8.800000 6.160000 13.420000 200 160 129 0
9.020000 6.160000 13.640000 199 159 128 0
9.240000 6.160000 13.640000 199 159 128 0
9.460000 6.160000 14.960000 199 159 128 0
9.680000 6.160000 15.180000 199 160 126 0
9.900000 6.160000 15.180000 198 159 125 0
10.120000 6.160000 15.180000 198 158 127 0
10.340000 6.160000 15.180000 197 157 126 0
10.560000 6.160000 14.960000 197 157 126 0
10.780000 6.160000 17.160000 198 158 127 0
11.000000 6.160000 18.040000 198 158 127 0
11.220000 6.160000 18.040000 198 158 127 0
11.440000 6.160000 18.040000 199 159 128 0
11.660000 6.160000 19.580000 199 159 128 0
11.880000 6.160000 19.580000 200 158 129 0
12.100000 6.160000 19.580000 200 158 129 0
12.320000 6.160000 19.580000 199 159 129 0
12.540000 6.160000 19.580000 200 160 130 0
12.760000 6.160000 19.580000 200 160 130 0
12.980000 6.160000 19.800000 201 161 131 0
13.200000 6.160000 19.800000 201 161 131 0
13.420000 6.160000 19.800000 201 161 131 0
13.640000 6.160000 19.800000 202 162 132 0
13.860000 6.160000 21.120000 203 163 133 0
14.080000 6.160000 21.340000 202 162 132 0
14.300000 6.160000 21.340000 202 162 132 0
14.520000 6.160000 21.340000 203 161 132 0
14.740000 6.160000 21.340000 202 160 131 0
14.960000 6.160000 21.340000 203 161 132 0
15.180000 6.160000 22.880000 202 160 131 0
15.400000 6.160000 22.880000 203 161 132 0
15.620000 6.160000 22.880000 202 160 131 0
15.840000 6.160000 22.880000 202 160 131 0
16.060000 6.160000 22.880000 202 160 131 0
16.280000 6.160000 23.100000 202 160 131 0
16.500000 6.160000 24.420000 202 160 131 0
16.720000 6.160000 24.420000 201 160 129 0
16.940000 6.160000 24.420000 201 160 129 0
17.160000 6.160000 24.420000 200 158 129 0
17.380000 6.160000 24.420000 201 159 130 0
17.600000 6.160000 25.960000 201 159 130 0
17.820000 6.160000 25.960000 200 158 129 0
18.040000 6.160000 25.960000 200 158 129 0
18.260000 6.160000 25.960000 200 158 129 0
18.480000 6.160000 25.960000 200 159 128 0
18.700000 6.160000 26.180000 199 158 127 0
18.920000 6.160000 27.500000 200 158 129 0
19.140000 6.160000 27.500000 198 156 127 0
19.360000 6.160000 27.500000 200 158 129 0
19.580000 6.160000 27.500000 200 158 129 0
19.800000 6.160000 28.820000 204 159 131 0
20.020000 6.160000 31.020000 204 159 131 0
20.240000 6.160000 31.900000 206 162 132 0
20.460000 6.160000 33.220000 209 165 135 0
20.680000 6.160000 33.440000 213 172 141 0
20.900000 6.160000 34.100000 222 181 150 0
21.120000 6.160000 34.320000 227 187 157 0
21.340000 6.160000 34.320000 234 194 164 0
21.560000 6.160000 34.320000 238 196 167 0
21.780000 6.160000 34.320000 238 196 167 0
22.000000 6.160000 34.320000 238 196 167 0
22.220000 6.160000 34.320000 238 196 167 0
22.440000 6.160000 35.640000 237 195 166 0
22.660000 6.160000 36.300000 236 194 165 0
22.880000 6.160000 37.400000 237 195 166 0
23.100000 6.160000 37.400000 237 195 166 0
23.320000 6.160000 37.620000 238 196 167 0
23.540000 6.160000 38.940000 238 196 167 0
23.760000 6.160000 39.160000 238 196 167 0
23.980000 6.160000 39.160000 238 196 167 0
24.200000 6.160000 39.160000 238 198 168 0
24.420000 6.160000 39.160000 239 199 169 0
24.640000 6.160000 39.160000 239 199 171 0
24.860000 6.160000 39.380000 238 198 170 0
25.080000 6.160000 39.380000 239 197 168 0
25.300000 6.160000 39.380000 240 198 169 0
25.520000 6.160000 39.600000 240 198 171 0
25.740000 6.160000 39.600000 239 197 170 0
25.960000 6.160000 39.600000 239 199 171 0
26.180000 6.160000 39.600000 239 199 171 0
26.400000 6.160000 39.600000 239 201 175 0
26.620000 6.160000 39.820000 240 202 176 0
26.840000 6.160000 39.820000 239 201 175 0
27.060000 6.160000 39.820000 240 202 176 0
27.280000 6.160000 39.820000 240 202 178 0
27.500000 6.160000 39.820000 239 201 177 0
27.720000 6.160000 39.820000 239 198 175 0
27.940000 6.160000 40.040000 237 196 173 0
28.160000 6.160000 40.040000 235 194 171 0
28.380000 6.160000 40.040000 237 196 173 0
28.600000 6.160000 38.720000 235 194 171 0
28.820000 6.160000 39.820000 236 195 172 0
29.040000 6.160000 39.600000 234 191 169 0
29.260000 6.160000 40.700000 232 189 167 0
29.480000 6.160000 41.800000 229 186 165 0
29.700000 6.160000 41.580000 231 188 167 0
29.920000 6.160000 41.580000 227 186 164 0
30.140000 6.160000 41.580000 230 189 167 0
30.360000 6.160000 41.580000 228 185 164 0
30.580000 6.160000 41.580000 225 182 161 0
30.800000 6.160000 41.580000 223 177 156 0
31.020000 6.160000 41.580000 221 175 154 0
31.240000 6.160000 41.580000 217 171 151 0
31.460000 6.160000 41.800000 213 167 147 0
31.680000 6.160000 41.800000 211 162 143 0
31.900000 6.160000 41.800000 206 157 138 0
32.120000 6.160000 40.480000 204 150 133 0
32.340000 6.160000 40.480000 199 145 128 0
32.560000 6.160000 40.480000 199 139 124 0
32.780000 6.160000 40.480000 192 132 117 0
33.000000 6.160000 40.480000 187 128 115 0
33.220000 6.160000 40.480000 187 128 115 0
33.440000 6.160000 40.480000 187 127 112 0
33.660000 6.160000 42.020000 190 130 115 0
33.880000 6.160000 42.020000 191 135 117 0
34.100000 6.160000 33.660000 197 141 123 0
34.320000 6.160000 15.620000 193 149 135 0
34.540000 6.160000 1.980000 200 156 142 0
34.980000 6.160000 0.660000 206 162 146 0
35.200000 6.160000 0.660000 208 164 146 0
35.420000 6.160000 0.660000 210 166 148 0
35.640000 6.160000 0.660000 210 171 153 0
35.860000 6.160000 0.660000 212 173 155 0
36.080000 6.160000 0.880000 216 175 153 0
36.300000 6.160000 0.880000 218 177 155 0
36.520000 6.160000 0.880000 217 178 160 0
36.740000 6.160000 0.880000 218 179 161 0
36.960000 6.160000 0.880000 217 179 161 0
37.180000 6.160000 0.880000 218 180 162 0
0.000000 6.380000 11.000000 194 201 181 0
0.220000 6.380000 11.000000 195 202 182 0
0.440000 6.380000 11.000000 194 201 181 0
0.660000 6.380000 11.000000 194 201 181 0
0.880000 6.380000 11.000000 194 201 180 0
1.100000 6.380000 10.780000 193 200 179 0
1.320000 6.380000 12.760000 200 193 169 0
1.540000 6.380000 13.860000 193 186 162 0
1.760000 6.380000 13.860000 203 172 138 0
1.980000 6.380000 13.860000 196 165 131 0
2.200000 6.380000 13.860000 195 160 127 0
2.420000 6.380000 13.860000 194 159 126 0
2.640000 6.380000 14.080000 195 160 125 0
2.860000 6.380000 14.080000 194 159 124 0
3.080000 6.380000 12.760000 194 159 124 0
3.300000 6.380000 12.760000 196 161 126 0
3.520000 6.380000 12.760000 194 159 126 0
3.740000 6.380000 12.760000 194 159 126 0
3.960000 6.380000 12.760000 194 159 126 0
4.180000 6.380000 12.980000 193 158 125 0
4.400000 6.380000 12.980000 192 155 123 0
4.620000 6.380000 12.980000 191 154 122 0
4.840000 6.380000 12.980000 190 155 120 0
5.060000 6.380000 12.980000 190 155 120 0
5.280000 6.380000 12.980000 191 156 123 0
5.500000 6.380000 12.980000 191 156 123 0
5.720000 6.380000 12.980000 194 157 125 0
5.940000 6.380000 13.200000 194 157 125 0
6.160000 6.380000 13.200000 194 157 123 0
6.380000 6.380000 13.200000 195 158 124 0
6.600000 6.380000 13.200000 196 159 125 0
6.820000 6.380000 13.200000 196 159 125 0
7.040000 6.380000 13.420000 196 159 127 0
7.260000 6.380000 13.420000 195 158 126 0
7.480000 6.380000 13.420000 195 158 124 0
7.700000 6.380000 14.740000 196 159 125 0
7.920000 6.380000 14.740000 195 158 126 0
8.140000 6.380000 14.740000 196 159 127 0
8.360000 6.380000 14.740000 198 161 127 0
8.580000 6.380000 14.960000 197 160 126 0
8.800000 6.380000 14.960000 197 160 128 0
9.020000 6.380000 14.960000 198 161 129 0
9.240000 6.380000 14.960000 199 159 128 0
9.460000 6.380000 14.960000 199 159 128 0
9.680000 6.380000 15.180000 197 160 128 0
9.900000 6.380000 15.180000 196 159 127 0
10.120000 6.380000 15.180000 196 159 127 0
10.340000 6.380000 15.180000 197 160 128 0
10.560000 6.380000 16.280000 199 159 128 0
10.780000 6.380000 18.260000 199 159 128 0
11.000000 6.380000 19.360000 200 160 129 0
11.220000 6.380000 19.360000 200 160 129 0
11.440000 6.380000 19.360000 199 159 129 0
11.660000 6.380000 19.580000 199 159 129 0
11.880000 6.380000 19.580000 199 159 128 0
12.100000 6.380000 19.580000 198 158 127 0
12.320000 6.380000 20.900000 198 158 128 0
12.540000 6.380000 21.120000 199 159 129 0
12.760000 6.380000 21.120000 200 160 130 0
12.980000 6.380000 21.120000 201 161 131 0
13.200000 6.380000 21.120000 201 161 131 0
13.420000 6.380000 21.120000 201 161 131 0
13.640000 6.380000 21.120000 201 161 130 0
13.860000 6.380000 21.120000 201 161 130 0
14.080000 6.380000 21.340000 202 162 132 0
14.300000 6.380000 22.660000 202 162 132 0
14.520000 6.380000 22.660000 203 163 133 0
14.740000 6.380000 22.660000 202 162 132 0
14.960000 6.380000 22.660000 203 163 133 0
15.180000 6.380000 22.880000 202 162 132 0
15.400000 6.380000 22.880000 202 162 132 0
15.620000 6.380000 22.880000 202 162 132 0
15.840000 6.380000 22.880000 202 162 132 0
16.060000 6.380000 22.880000 202 162 132 0
16.280000 6.380000 24.420000 203 161 132 0
16.500000 6.380000 24.420000 202 160 131 0
16.720000 6.380000 24.420000 203 161 132 0
16.940000 6.380000 24.420000 201 159 130 0
17.160000 6.380000 24.420000 201 159 130 0
17.380000 6.380000 24.420000 201 159 130 0
17.600000 6.380000 25.960000 200 160 130 0
17.820000 6.380000 25.960000 199 159 129 0
18.040000 6.380000 25.960000 200 158 129 0
18.260000 6.380000 25.960000 200 158 129 0
18.480000 6.380000 25.960000 199 157 128 0
18.700000 6.380000 26.180000 198 156 127 0
18.920000 6.380000 26.180000 199 157 128 0
19.140000 6.380000 27.500000 199 157 128 0
19.360000 6.380000 27.500000 199 157 128 0
19.580000 6.380000 27.500000 200 158 129 0
19.800000 6.380000 28.600000 201 159 130 0
20.020000 6.380000 30.800000 201 159 130 0
20.240000 6.380000 31.900000 203 161 132 0
20.460000 6.380000 33.220000 205 163 134 0
20.680000 6.380000 33.440000 212 172 144 0
20.900000 6.380000 32.780000 220 180 152 0
21.120000 6.380000 33.000000 228 186 157 0
21.340000 6.380000 34.320000 234 192 163 0
21.560000 6.380000 34.320000 235 195 165 0
21.780000 6.380000 34.320000 237 197 167 0
22.000000 6.380000 34.320000 237 197 166 0
22.220000 6.380000 34.540000 237 197 166 0
22.440000 6.380000 35.640000 236 196 168 0
22.660000 6.380000 36.300000 236 196 168 0
22.880000 6.380000 37.400000 236 196 168 0
23.100000 6.380000 37.400000 236 196 168 0
23.320000 6.380000 38.940000 237 197 167 0
23.540000 6.380000 38.940000 237 197 167 0
23.760000 6.380000 39.160000 237 197 167 0
23.980000 6.380000 39.160000 240 200 170 0
24.200000 6.380000 39.160000 240 200 172 0
24.420000 6.380000 39.160000 240 200 172 0
24.640000 6.380000 39.160000 240 198 171 0
24.860000 6.380000 39.380000 239 197 170 0
25.080000 6.380000 39.380000 238 196 169 0
25.300000 6.380000 39.380000 237 195 168 0
25.520000 6.380000 39.600000 237 195 168 0
25.740000 6.380000 39.600000 236 194 167 0
25.960000 6.380000 39.600000 236 194 167 0
26.180000 6.380000 39.600000 237 195 168 0
26.400000 6.380000 39.600000 238 196 169 0
26.620000 6.380000 39.820000 238 196 169 0
26.840000 6.380000 39.820000 237 195 168 0
27.060000 6.380000 39.820000 237 195 168 0
27.280000 6.380000 39.820000 236 193 169 0
27.500000 6.380000 39.820000 234 191 167 0
27.720000 6.380000 39.820000 231 188 166 0
27.940000 6.380000 39.820000 230 187 165 0
28.160000 6.380000 39.820000 232 186 165 0
28.380000 6.380000 40.040000 233 187 166 0
28.600000 6.380000 38.500000 231 185 164 0
28.820000 6.380000 39.820000 229 183 162 0
29.040000 6.380000 39.820000 226 183 161 0
29.260000 6.380000 39.600000 227 184 162 0
29.480000 6.380000 40.700000 227 181 160 0
29.700000 6.380000 41.800000 227 181 160 0
29.920000 6.380000 41.580000 228 182 161 0
30.140000 6.380000 41.580000 226 180 159 0
30.360000 6.380000 41.580000 225 179 158 0
30.580000 6.380000 41.580000 222 176 155 0
30.800000 6.380000 41.580000 221 175 155 0
31.020000 6.380000 41.580000 217 171 151 0
31.240000 6.380000 41.580000 216 168 149 0
31.460000 6.380000 41.800000 213 165 146 0
31.680000 6.380000 41.800000 209 160 141 0
31.900000 6.380000 41.800000 204 155 136 0
32.120000 6.380000 41.800000 207 151 133 0
32.340000 6.380000 40.480000 202 146 128 0
32.560000 6.380000 40.480000 197 144 125 0
32.780000 6.380000 40.480000 191 138 119 0
33.000000 6.380000 40.480000 192 134 118 0
33.220000 6.380000 40.480000 189 131 115 0
33.440000 6.380000 40.480000 187 131 114 0
33.660000 6.380000 42.020000 189 133 116 0
33.880000 6.380000 42.020000 191 135 118 0
34.100000 6.380000 36.520000 194 138 121 0
34.320000 6.380000 21.340000 195 143 125 0
34.540000 6.380000 4.620000 201 149 131 0
34.980000 6.380000 0.660000 206 159 144 0
35.200000 6.380000 0.660000 208 161 146 0
35.420000 6.380000 0.660000 212 165 150 0
35.640000 6.380000 0.660000 211 169 150 0
35.860000 6.380000 0.880000 214 172 153 0
36.080000 6.380000 0.880000 213 174 156 0
36.300000 6.380000 0.880000 215 176 158 0
36.520000 6.380000 0.880000 214 176 158 0
36.740000 6.380000 0.880000 215 177 159 0
36.960000 6.380000 0.880000 214 177 163 0
37.180000 6.380000 1.100000 215 178 164 0
0.000000 6.600000 11.000000 195 202 182 0
0.220000 6.600000 11.000000 195 202 182 0
0.440000 6.600000 11.000000 194 201 181 0
0.660000 6.600000 11.000000 194 201 181 0
0.880000 6.600000 11.000000 194 201 180 0
1.100000 6.600000 10.780000 193 200 179 0
1.320000 6.600000 12.760000 202 195 171 0
1.540000 6.600000 13.860000 193 186 162 0
1.760000 6.600000 13.860000 204 173 139 0
1.980000 6.600000 13.860000 195 164 130 0
2.200000 6.600000 13.860000 194 159 126 0
2.420000 6.600000 14.080000 194 159 126 0
2.640000 6.600000 14.080000 195 160 125 0
2.860000 6.600000 14.080000 195 160 125 0
3.080000 6.600000 14.080000 194 159 124 0
3.300000 6.600000 14.080000 194 159 124 0
3.520000 6.600000 14.080000 195 160 127 0
3.740000 6.600000 14.300000 195 160 127 0
3.960000 6.600000 14.300000 194 159 126 0
4.180000 6.600000 12.980000 193 158 125 0
4.400000 6.600000 14.300000 192 155 123 0
4.620000 6.600000 14.300000 191 154 122 0
4.840000 6.600000 14.300000 190 155 120 0
5.060000 6.600000 14.300000 191 156 121 0
5.280000 6.600000 14.300000 191 156 123 0
5.500000 6.600000 14.520000 193 158 125 0
5.720000 6.600000 14.520000 194 157 125 0
5.940000 6.600000 14.520000 194 157 125 0
6.160000 6.600000 14.520000 195 158 124 0
6.380000 6.600000 14.520000 195 158 124 0
6.600000 6.600000 14.520000 195 158 124 0
6.820000 6.600000 14.740000 195 158 124 0
7.040000 6.600000 14.740000 196 159 127 0
7.260000 6.600000 14.740000 195 158 126 0
7.480000 6.600000 14.740000 195 158 124 0
7.700000 6.600000 14.740000 194 157 123 0
7.920000 6.600000 14.740000 195 158 126 0
8.140000 6.600000 14.740000 195 158 126 0
8.360000 6.600000 14.740000 196 159 125 0
8.580000 6.600000 14.960000 197 160 126 0
8.800000 6.600000 14.960000 197 160 128 0
9.020000 6.600000 14.960000 197 160 128 0
9.240000 6.600000 14.960000 198 158 127 0
9.460000 6.600000 14.960000 198 158 127 0
9.680000 6.600000 15.180000 197 160 128 0
9.900000 6.600000 15.180000 196 159 127 0
10.120000 6.600000 15.180000 197 160 128 0
10.340000 6.600000 16.500000 198 161 129 0
10.560000 6.600000 16.280000 200 160 129 0
10.780000 6.600000 18.260000 200 160 129 0
11.000000 6.600000 19.360000 200 160 129 0
11.220000 6.600000 19.360000 200 160 129 0
11.440000 6.600000 19.360000 200 160 130 0
11.660000 6.600000 20.900000 200 160 130 0
11.880000 6.600000 20.900000 199 159 128 0
12.100000 6.600000 20.900000 200 160 129 0
12.320000 6.600000 20.900000 200 160 130 0
12.540000 6.600000 21.120000 200 160 130 0
12.760000 6.600000 21.120000 199 159 129 0
12.980000 6.600000 21.120000 200 160 130 0
13.200000 6.600000 21.120000 200 160 130 0
13.420000 6.600000 21.120000 199 159 129 0
13.640000 6.600000 22.660000 200 160 129 0
13.860000 6.600000 22.660000 200 160 129 0
14.080000 6.600000 22.660000 201 161 131 0
14.300000 6.600000 22.660000 202 162 132 0
14.520000 6.600000 22.660000 202 162 132 0
14.740000 6.600000 22.660000 203 163 133 0
14.960000 6.600000 22.660000 203 163 133 0
15.180000 6.600000 22.880000 203 163 133 0
15.400000 6.600000 22.880000 204 164 134 0
15.620000 6.600000 22.880000 203 163 133 0
15.840000 6.600000 22.880000 203 163 133 0
16.060000 6.600000 24.420000 202 162 132 0
16.280000 6.600000 24.420000 203 161 132 0
16.500000 6.600000 24.420000 203 161 132 0
16.720000 6.600000 24.420000 203 161 132 0
16.940000 6.600000 24.420000 202 160 131 0
17.160000 6.600000 24.420000 203 161 132 0
17.380000 6.600000 25.960000 201 159 130 0
17.600000 6.600000 25.960000 199 159 129 0
17.820000 6.600000 25.960000 200 160 130 0
18.040000 6.600000 25.960000 201 159 130 0
18.260000 6.600000 25.960000 200 158 129 0
18.480000 6.600000 25.960000 199 157 128 0
18.700000 6.600000 26.180000 199 157 128 0
18.920000 6.600000 26.180000 199 157 128 0
19.140000 6.600000 26.180000 199 157 128 0
19.360000 6.600000 26.180000 200 158 129 0
19.580000 6.600000 27.500000 200 158 129 0
19.800000 6.600000 28.600000 200 158 129 0
20.020000 6.600000 29.260000 199 157 128 0
20.240000 6.600000 30.360000 201 159 130 0
20.460000 6.600000 31.900000 204 162 133 0
20.680000 6.600000 32.120000 208 168 140 0
20.900000 6.600000 32.780000 218 178 150 0
21.120000 6.600000 33.000000 226 184 155 0
21.340000 6.600000 32.780000 232 190 161 0
21.560000 6.600000 32.780000 236 196 166 0
21.780000 6.600000 34.320000 237 197 167 0
22.000000 6.600000 34.320000 237 197 166 0
22.220000 6.600000 34.540000 237 197 166 0
22.440000 6.600000 35.640000 236 196 168 0
22.660000 6.600000 36.300000 237 197 169 0
22.880000 6.600000 37.400000 237 197 169 0
23.100000 6.600000 37.400000 237 197 169 0
23.320000 6.600000 38.940000 237 197 167 0
23.540000 6.600000 38.940000 238 198 168 0
23.760000 6.600000 38.940000 238 198 168 0
23.980000 6.600000 39.160000 240 200 170 0
24.200000 6.600000 39.160000 239 199 171 0
24.420000 6.600000 39.160000 238 198 170 0
24.640000 6.600000 39.160000 238 196 169 0
24.860000 6.600000 39.380000 235 193 166 0
25.080000 6.600000 39.380000 235 193 166 0
25.300000 6.600000 39.380000 233 191 164 0
25.520000 6.600000 39.380000 234 192 165 0
25.740000 6.600000 39.600000 232 190 163 0
25.960000 6.600000 39.600000 232 190 163 0
26.180000 6.600000 39.600000 232 190 163 0
26.400000 6.600000 39.600000 232 190 163 0
26.620000 6.600000 39.600000 233 191 164 0
26.840000 6.600000 39.820000 234 192 165 0
27.060000 6.600000 39.820000 230 188 161 0
27.280000 6.600000 39.820000 229 186 162 0
27.500000 6.600000 39.820000 229 186 162 0
27.720000 6.600000 39.820000 226 183 161 0
27.940000 6.600000 39.820000 226 183 161 0
28.160000 6.600000 39.820000 226 180 159 0
28.380000 6.600000 38.500000 227 181 160 0
28.600000 6.600000 38.500000 226 180 159 0
28.820000 6.600000 38.500000 226 180 159 0
29.040000 6.600000 38.500000 223 180 158 0
29.260000 6.600000 39.820000 222 179 157 0
29.480000 6.600000 39.820000 225 179 158 0
29.700000 6.600000 39.380000 223 177 156 0
29.920000 6.600000 41.800000 221 175 154 0
30.140000 6.600000 41.580000 220 174 153 0
30.360000 6.600000 41.580000 219 173 152 0
30.580000 6.600000 41.580000 217 171 150 0
30.800000 6.600000 41.580000 216 170 150 0
31.020000 6.600000 41.580000 214 168 148 0
31.240000 6.600000 41.580000 211 163 144 0
31.460000 6.600000 41.580000 208 160 141 0
31.680000 6.600000 41.800000 206 157 138 0
31.900000 6.600000 41.800000 203 154 135 0
32.120000 6.600000 41.800000 205 149 131 0
32.340000 6.600000 41.800000 204 148 130 0
32.560000 6.600000 41.800000 198 145 126 0
32.780000 6.600000 41.800000 196 143 124 0
33.000000 6.600000 41.800000 196 138 122 0
33.220000 6.600000 41.800000 196 138 122 0
33.440000 6.600000 39.160000 193 137 120 0
33.660000 6.600000 33.660000 194 138 121 0
33.880000 6.600000 30.800000 196 140 123 0
34.100000 6.600000 25.300000 200 144 127 0
34.320000 6.600000 12.980000 200 148 130 0
34.540000 6.600000 1.980000 203 151 133 0
34.980000 6.600000 0.660000 208 161 146 0
35.200000 6.600000 0.660000 209 162 147 0
35.420000 6.600000 0.660000 213 166 151 0
35.640000 6.600000 0.880000 212 170 151 0
35.860000 6.600000 0.880000 215 173 154 0
36.080000 6.600000 0.880000 213 174 156 0
36.300000 6.600000 0.880000 216 177 159 0
36.520000 6.600000 0.880000 214 176 158 0
36.740000 6.600000 0.880000 214 176 158 0
36.960000 6.600000 2.420000 213 176 162 0
37.180000 6.600000 5.060000 214 177 163 0
0.000000 6.820000 11.000000 197 201 182 0
0.220000 6.820000 11.000000 196 200 181 0
0.440000 6.820000 11.000000 194 201 181 0
0.660000 6.820000 11.000000 194 201 181 0
0.880000 6.820000 11.000000 195 199 179 0
1.100000 6.820000 10.780000 195 199 179 0
1.320000 6.820000 12.760000 201 194 170 0
1.540000 6.820000 13.860000 193 186 162 0
1.760000 6.820000 13.860000 203 173 140 0
1.980000 6.820000 13.860000 195 165 132 0
2.200000 6.820000 13.860000 194 159 126 0
2.420000 6.820000 14.080000 195 160 127 0
2.640000 6.820000 14.080000 194 159 126 0
2.860000 6.820000 14.080000 195 160 127 0
3.080000 6.820000 14.080000 194 159 124 0
3.300000 6.820000 14.080000 194 159 124 0
3.520000 6.820000 14.080000 194 159 126 0
3.740000 6.820000 14.300000 194 159 126 0
3.960000 6.820000 14.300000 194 159 126 0
4.180000 6.820000 14.300000 194 159 126 0
4.400000 6.820000 14.300000 194 157 125 0
4.620000 6.820000 14.300000 194 157 125 0
4.840000 6.820000 14.300000 192 155 123 0
5.060000 6.820000 14.300000 192 155 123 0
5.280000 6.820000 14.300000 192 157 122 0
5.500000 6.820000 14.520000 191 156 121 0
5.720000 6.820000 14.520000 193 156 122 0
5.940000 6.820000 14.520000 193 156 122 0
6.160000 6.820000 14.520000 194 157 125 0
6.380000 6.820000 14.520000 194 157 125 0
6.600000 6.820000 14.520000 194 157 125 0
6.820000 6.820000 14.740000 196 159 127 0
7.040000 6.820000 14.740000 195 158 124 0
7.260000 6.820000 14.740000 195 158 124 0
7.480000 6.820000 14.740000 195 158 126 0
7.700000 6.820000 14.740000 195 158 126 0
7.920000 6.820000 14.740000 197 157 126 0
8.140000 6.820000 14.740000 197 157 126 0
8.360000 6.820000 14.740000 195 158 126 0
8.580000 6.820000 14.960000 195 158 126 0
8.800000 6.820000 14.960000 196 159 127 0
9.020000 6.820000 14.960000 196 159 127 0
9.240000 6.820000 14.960000 196 159 127 0
9.460000 6.820000 14.960000 196 159 127 0
9.680000 6.820000 16.500000 198 158 127 0
9.900000 6.820000 16.500000 198 158 127 0
10.120000 6.820000 16.500000 198 158 127 0
10.340000 6.820000 16.500000 199 159 128 0
10.560000 6.820000 17.380000 199 159 128 0
10.780000 6.820000 19.580000 199 159 128 0
11.000000 6.820000 19.360000 201 161 130 0
11.220000 6.820000 19.360000 200 160 129 0
11.440000 6.820000 20.900000 200 160 130 0
11.660000 6.820000 20.900000 200 160 130 0
11.880000 6.820000 20.900000 199 159 129 0
12.100000 6.820000 20.900000 200 160 130 0
12.320000 6.820000 20.900000 199 159 129 0
12.540000 6.820000 21.120000 199 159 129 0
12.760000 6.820000 21.120000 199 159 129 0
12.980000 6.820000 21.120000 200 160 130 0
13.200000 6.820000 22.440000 199 159 129 0
13.420000 6.820000 22.440000 199 159 129 0
13.640000 6.820000 22.660000 200 160 130 0
13.860000 6.820000 22.660000 200 160 130 0
14.080000 6.820000 22.660000 202 162 132 0
14.300000 6.820000 22.660000 202 162 132 0
14.520000 6.820000 22.660000 202 162 132 0
14.740000 6.820000 22.660000 202 162 132 0
14.960000 6.820000 22.660000 202 162 132 0
15.180000 6.820000 22.880000 202 162 132 0
15.400000 6.820000 22.880000 202 162 132 0
15.620000 6.820000 24.200000 203 163 133 0
15.840000 6.820000 24.200000 203 163 133 0
16.060000 6.820000 24.420000 203 163 133 0
16.280000 6.820000 24.420000 203 163 133 0
16.500000 6.820000 24.420000 203 163 133 0
16.720000 6.820000 24.420000 204 162 133 0
16.940000 6.820000 24.420000 203 161 132 0
17.160000 6.820000 24.420000 201 161 131 0
17.380000 6.820000 25.960000 199 159 129 0
17.600000 6.820000 25.960000 200 158 129 0
17.820000 6.820000 25.960000 200 158 129 0
18.040000 6.820000 25.960000 201 159 130 0
18.260000 6.820000 25.960000 200 158 129 0
18.480000 6.820000 26.180000 200 158 129 0
18.700000 6.820000 26.180000 200 158 129 0
18.920000 6.820000 26.180000 200 158 129 0
19.140000 6.820000 26.180000 199 157 128 0
19.360000 6.820000 26.180000 200 158 129 0
19.580000 6.820000 27.280000 199 157 128 0
19.800000 6.820000 28.160000 200 158 129 0
20.020000 6.820000 30.580000 200 158 129 0
20.240000 6.820000 30.360000 202 157 129 0
20.460000 6.820000 30.580000 204 159 131 0
20.680000 6.820000 30.800000 209 167 140 0
20.900000 6.820000 31.240000 217 175 148 0
21.120000 6.820000 31.460000 225 183 154 0
21.340000 6.820000 32.780000 232 190 161 0
21.560000 6.820000 32.780000 237 197 169 0
21.780000 6.820000 33.000000 237 197 169 0
22.000000 6.820000 33.000000 238 196 167 0
22.220000 6.820000 34.540000 238 196 167 0
22.440000 6.820000 34.100000 237 195 166 0
22.660000 6.820000 36.300000 238 196 167 0
22.880000 6.820000 37.400000 237 197 167 0
23.100000 6.820000 37.400000 237 197 167 0
23.320000 6.820000 38.940000 239 197 170 0
23.540000 6.820000 38.940000 238 196 169 0
23.760000 6.820000 38.940000 239 194 166 0
23.980000 6.820000 39.160000 239 194 166 0
24.200000 6.820000 39.160000 239 194 168 0
24.420000 6.820000 39.160000 238 193 167 0
24.640000 6.820000 39.160000 231 189 162 0
24.860000 6.820000 39.160000 232 190 163 0
25.080000 6.820000 39.380000 231 186 162 0
25.300000 6.820000 39.380000 230 185 161 0
25.520000 6.820000 39.380000 228 183 157 0
25.740000 6.820000 39.380000 229 184 158 0
25.960000 6.820000 39.600000 230 185 159 0
26.180000 6.820000 39.600000 230 185 159 0
26.400000 6.820000 39.600000 228 183 159 0
26.620000 6.820000 39.600000 228 183 159 0
26.840000 6.820000 39.600000 229 184 160 0
27.060000 6.820000 39.820000 228 183 159 0
27.280000 6.820000 39.820000 228 183 159 0
27.500000 6.820000 39.820000 225 180 156 0
27.720000 6.820000 39.820000 225 180 156 0
27.940000 6.820000 39.820000 225 180 156 0
28.160000 6.820000 39.820000 226 181 157 0
28.380000 6.820000 39.820000 225 180 156 0
28.600000 6.820000 38.500000 223 177 156 0
28.820000 6.820000 38.500000 224 178 157 0
29.040000 6.820000 38.500000 220 177 153 0
29.260000 6.820000 38.500000 220 177 153 0
29.480000 6.820000 38.720000 222 176 155 0
29.700000 6.820000 39.820000 220 174 153 0
29.920000 6.820000 40.700000 217 174 152 0
30.140000 6.820000 41.580000 216 173 151 0
30.360000 6.820000 41.580000 215 172 151 0
30.580000 6.820000 41.580000 215 172 151 0
30.800000 6.820000 41.580000 214 168 147 0
31.020000 6.820000 41.580000 211 165 144 0
31.240000 6.820000 41.580000 210 164 146 0
31.460000 6.820000 41.580000 207 161 143 0
31.680000 6.820000 41.580000 205 157 138 0
31.900000 6.820000 41.580000 203 155 136 0
32.120000 6.820000 41.580000 202 154 135 0
32.340000 6.820000 41.800000 199 151 132 0
32.560000 6.820000 41.800000 196 150 130 0
32.780000 6.820000 41.800000 197 151 131 0
33.000000 6.820000 41.800000 195 151 133 0
33.220000 6.820000 41.800000 196 152 134 0
33.440000 6.820000 33.440000 197 155 136 0
33.660000 6.820000 18.260000 199 157 138 0
33.880000 6.820000 10.120000 200 158 139 0
34.100000 6.820000 7.260000 203 161 142 0
34.320000 6.820000 1.980000 202 163 145 0
34.540000 6.820000 0.440000 206 167 149 0
34.760000 6.820000 0.660000 209 167 148 0
34.980000 6.820000 0.660000 210 168 149 0
35.200000 6.820000 0.660000 209 170 152 0
35.420000 6.820000 0.660000 213 174 156 0
35.640000 6.820000 0.880000 217 175 158 0
35.860000 6.820000 0.880000 217 175 158 0
36.080000 6.820000 0.880000 216 177 159 0
36.300000 6.820000 0.880000 216 177 159 0
36.520000 6.820000 1.100000 216 177 159 0
36.740000 6.820000 3.740000 215 176 158 0
36.960000 6.820000 12.100000 206 178 169 0
37.180000 6.820000 18.700000 210 182 173 0
0.000000 7.040000 11.000000 197 201 182 0
0.220000 7.040000 11.000000 197 201 182 0
0.440000 7.040000 11.000000 195 202 182 0
0.660000 7.040000 11.000000 194 201 181 0
0.880000 7.040000 11.000000 195 199 179 0
1.100000 7.040000 10.780000 194 198 178 0
1.320000 7.040000 12.760000 202 195 171 0
1.540000 7.040000 13.860000 192 185 161 0
1.760000 7.040000 13.860000 203 173 140 0
1.980000 7.040000 13.860000 197 167 134 0
2.200000 7.040000 13.860000 192 157 124 0
2.420000 7.040000 14.080000 193 158 125 0
2.640000 7.040000 14.080000 194 159 126 0
2.860000 7.040000 14.080000 194 159 126 0
3.080000 7.040000 14.080000 193 158 123 0
3.300000 7.040000 14.080000 194 159 124 0
3.520000 7.040000 14.080000 194 159 126 0
3.740000 7.040000 14.300000 194 159 126 0
3.960000 7.040000 14.300000 194 159 126 0
4.180000 7.040000 14.300000 195 160 127 0
4.400000 7.040000 14.300000 195 158 126 0
4.620000 7.040000 14.300000 195 158 126 0
4.840000 7.040000 14.300000 194 157 125 0
5.060000 7.040000 14.300000 193 156 124 0
5.280000 7.040000 14.300000 193 158 123 0
5.500000 7.040000 14.520000 193 158 123 0
5.720000 7.040000 14.520000 193 156 122 0
5.940000 7.040000 14.520000 194 157 123 0
6.160000 7.040000 14.520000 193 156 124 0
6.380000 7.040000 14.520000 193 156 124 0
6.600000 7.040000 14.520000 192 155 123 0
6.820000 7.040000 14.740000 193 156 124 0
7.040000 7.040000 14.740000 195 158 124 0
7.260000 7.040000 14.740000 195 158 124 0
7.480000 7.040000 14.740000 196 159 127 0
7.700000 7.040000 14.740000 195 158 126 0
7.920000 7.040000 14.740000 197 157 126 0
8.140000 7.040000 14.740000 197 157 126 0
8.360000 7.040000 14.960000 194 157 125 0
8.580000 7.040000 14.960000 196 159 127 0
8.800000 7.040000 14.960000 196 159 127 0
9.020000 7.040000 16.280000 196 159 127 0
9.240000 7.040000 16.500000 196 159 127 0
9.460000 7.040000 16.500000 196 159 127 0
9.680000 7.040000 16.500000 199 159 128 0
9.900000 7.040000 16.500000 198 158 127 0
10.120000 7.040000 16.500000 199 159 128 0
10.340000 7.040000 17.600000 199 159 128 0
10.560000 7.040000 18.480000 199 159 128 0
10.780000 7.040000 19.360000 200 160 129 0
11.000000 7.040000 19.360000 200 160 129 0
11.220000 7.040000 20.900000 200 160 129 0
11.440000 7.040000 20.900000 201 161 131 0
11.660000 7.040000 20.900000 201 161 131 0
11.880000 7.040000 20.900000 201 161 131 0
12.100000 7.040000 20.900000 201 161 131 0
12.320000 7.040000 20.900000 200 160 130 0
12.540000 7.040000 21.120000 201 161 131 0
12.760000 7.040000 21.120000 200 160 130 0
12.980000 7.040000 22.440000 200 160 130 0
13.200000 7.040000 22.440000 201 161 131 0
13.420000 7.040000 22.440000 200 160 130 0
13.640000 7.040000 22.660000 201 161 131 0
13.860000 7.040000 22.660000 201 161 131 0
14.080000 7.040000 22.660000 201 161 131 0
14.300000 7.040000 22.660000 201 161 131 0
14.520000 7.040000 22.660000 201 161 131 0
14.740000 7.040000 22.660000 201 161 131 0
14.960000 7.040000 22.660000 202 162 132 0
15.180000 7.040000 22.880000 201 161 131 0
15.400000 7.040000 22.880000 202 162 132 0
15.620000 7.040000 24.200000 203 163 133 0
15.840000 7.040000 24.200000 202 162 132 0
16.060000 7.040000 24.420000 204 164 134 0
16.280000 7.040000 24.420000 203 163 133 0
16.500000 7.040000 24.420000 203 163 133 0
16.720000 7.040000 24.420000 204 162 133 0
16.940000 7.040000 24.420000 202 160 131 0
17.160000 7.040000 24.420000 201 161 131 0
17.380000 7.040000 25.960000 200 160 130 0
17.600000 7.040000 25.960000 202 160 131 0
17.820000 7.040000 25.960000 200 158 129 0
18.040000 7.040000 25.960000 201 159 130 0
18.260000 7.040000 25.960000 201 159 130 0
18.480000 7.040000 26.180000 200 158 129 0
18.700000 7.040000 26.180000 200 158 129 0
18.920000 7.040000 26.180000 199 157 128 0
19.140000 7.040000 26.180000 199 157 128 0
19.360000 7.040000 26.180000 200 158 129 0
19.580000 7.040000 27.280000 199 157 128 0
19.800000 7.040000 29.480000 198 156 127 0
20.020000 7.040000 29.040000 198 156 127 0
20.240000 7.040000 30.580000 201 156 128 0
20.460000 7.040000 30.580000 203 158 130 0
20.680000 7.040000 30.800000 207 165 138 0
20.900000 7.040000 31.240000 215 173 146 0
21.120000 7.040000 31.460000 225 183 154 0
21.340000 7.040000 32.780000 233 191 162 0
21.560000 7.040000 32.780000 237 197 169 0
21.780000 7.040000 33.000000 237 197 169 0
22.000000 7.040000 33.000000 238 196 167 0
22.220000 7.040000 33.000000 238 196 167 0
22.440000 7.040000 34.100000 238 196 167 0
22.660000 7.040000 36.300000 238 196 167 0
22.880000 7.040000 37.400000 237 197 167 0
23.100000 7.040000 37.400000 238 198 168 0
23.320000 7.040000 37.400000 238 196 169 0
23.540000 7.040000 38.940000 237 195 168 0
23.760000 7.040000 38.940000 239 194 166 0
23.980000 7.040000 39.160000 236 191 163 0
24.200000 7.040000 39.160000 234 189 163 0
24.420000 7.040000 39.160000 231 186 160 0
24.640000 7.040000 39.160000 229 187 160 0
24.860000 7.040000 39.160000 228 186 159 0
25.080000 7.040000 39.380000 228 183 159 0
25.300000 7.040000 39.380000 227 182 158 0
25.520000 7.040000 39.380000 228 183 157 0
25.740000 7.040000 39.380000 229 184 158 0
25.960000 7.040000 39.380000 227 182 156 0
26.180000 7.040000 39.600000 227 182 156 0
26.400000 7.040000 39.600000 228 183 159 0
26.620000 7.040000 39.600000 226 181 157 0
26.840000 7.040000 39.600000 227 182 158 0
27.060000 7.040000 39.600000 227 182 158 0
27.280000 7.040000 39.600000 226 181 157 0
27.500000 7.040000 39.820000 225 180 156 0
27.720000 7.040000 39.820000 225 180 156 0
27.940000 7.040000 39.820000 224 179 155 0
28.160000 7.040000 39.820000 223 178 154 0
28.380000 7.040000 39.820000 223 178 154 0
28.600000 7.040000 39.820000 223 177 156 0
28.820000 7.040000 38.500000 222 176 155 0
29.040000 7.040000 38.500000 219 176 152 0
29.260000 7.040000 38.500000 220 177 153 0
29.480000 7.040000 38.720000 220 174 153 0
29.700000 7.040000 38.500000 219 173 152 0
29.920000 7.040000 39.600000 217 174 152 0
30.140000 7.040000 40.480000 216 173 151 0
30.360000 7.040000 41.580000 215 172 151 0
30.580000 7.040000 41.580000 215 172 151 0
30.800000 7.040000 41.580000 215 169 148 0
31.020000 7.040000 41.580000 214 168 147 0
31.240000 7.040000 41.580000 211 165 147 0
31.460000 7.040000 41.580000 208 162 144 0
31.680000 7.040000 41.580000 209 161 142 0
31.900000 7.040000 41.580000 206 158 139 0
32.120000 7.040000 41.580000 207 159 140 0
32.340000 7.040000 41.580000 205 157 138 0
32.560000 7.040000 41.580000 204 158 138 0
32.780000 7.040000 41.580000 205 159 139 0
33.000000 7.040000 41.800000 204 160 142 0
33.220000 7.040000 40.260000 209 165 147 0
33.440000 7.040000 26.620000 209 167 148 0
33.660000 7.040000 7.260000 214 172 153 0
34.320000 7.040000 0.440000 220 181 163 0
34.540000 7.040000 0.440000 220 181 163 0
34.760000 7.040000 0.440000 220 178 159 0
34.980000 7.040000 0.660000 219 177 158 0
35.200000 7.040000 0.660000 218 179 161 0
35.420000 7.040000 0.660000 220 181 163 0
35.640000 7.040000 0.880000 226 184 167 0
35.860000 7.040000 0.880000 226 184 167 0
36.080000 7.040000 2.200000 225 186 168 0
36.300000 7.040000 2.420000 225 186 168 0
36.520000 7.040000 1.100000 220 181 163 0
36.740000 7.040000 9.460000 219 180 162 0
36.960000 7.040000 24.420000 210 182 173 0
37.180000 7.040000 32.340000 212 184 175 0
0.000000 7.260000 11.000000 196 200 181 0
0.220000 7.260000 11.000000 197 201 182 0
0.440000 7.260000 11.000000 197 201 182 0
0.660000 7.260000 11.000000 197 201 182 0
0.880000 7.260000 11.000000 195 199 180 0
1.100000 7.260000 10.780000 194 198 179 0
1.320000 7.260000 12.760000 201 193 167 0
1.540000 7.260000 13.860000 193 185 159 0
1.760000 7.260000 13.860000 205 171 139 0
1.980000 7.260000 13.860000 198 164 132 0
2.200000 7.260000 13.860000 194 159 126 0
2.420000 7.260000 14.080000 193 158 125 0
2.640000 7.260000 14.080000 193 158 125 0
2.860000 7.260000 14.080000 194 159 126 0
3.080000 7.260000 14.080000 193 158 125 0
3.300000 7.260000 14.080000 192 157 124 0
3.520000 7.260000 14.080000 193 158 125 0
3.740000 7.260000 14.300000 194 159 126 0
3.960000 7.260000 14.300000 194 157 125 0
4.180000 7.260000 14.300000 195 158 126 0
4.400000 7.260000 14.300000 194 159 126 0
4.620000 7.260000 14.300000 194 159 126 0
4.840000 7.260000 14.300000 195 158 126 0
5.060000 7.260000 14.300000 195 158 126 0
5.280000 7.260000 14.300000 194 157 125 0
5.500000 7.260000 14.520000 194 157 125 0
5.720000 7.260000 14.520000 194 157 125 0
5.940000 7.260000 14.520000 193 156 124 0
6.160000 7.260000 14.520000 193 156 122 0
6.380000 7.260000 14.520000 190 153 119 0
6.600000 7.260000 14.520000 191 154 120 0
6.820000 7.260000 14.740000 192 155 121 0
7.040000 7.260000 14.740000 193 156 124 0
7.260000 7.260000 14.740000 194 157 125 0
7.480000 7.260000 14.740000 196 159 127 0
7.700000 7.260000 14.740000 195 158 126 0
7.920000 7.260000 14.740000 194 157 125 0
8.140000 7.260000 14.740000 195 158 126 0
8.360000 7.260000 14.960000 197 157 126 0
8.580000 7.260000 14.960000 197 157 126 0
8.800000 7.260000 16.280000 196 156 125 0
9.020000 7.260000 16.280000 197 157 126 0
9.240000 7.260000 16.500000 198 158 127 0
9.460000 7.260000 16.500000 198 158 127 0
9.680000 7.260000 16.500000 198 158 127 0
9.900000 7.260000 16.500000 197 157 126 0
10.120000 7.260000 16.500000 198 158 127 0
10.340000 7.260000 17.600000 198 158 127 0
10.560000 7.260000 19.800000 199 159 128 0
10.780000 7.260000 19.360000 200 160 129 0
11.000000 7.260000 20.900000 199 159 129 0
11.220000 7.260000 20.900000 200 160 130 0
11.440000 7.260000 20.900000 201 161 131 0
11.660000 7.260000 20.900000 200 160 130 0
11.880000 7.260000 20.900000 201 161 131 0
12.100000 7.260000 20.900000 201 161 131 0
12.320000 7.260000 20.900000 201 161 131 0
12.540000 7.260000 21.120000 201 161 131 0
12.760000 7.260000 22.440000 201 161 131 0
12.980000 7.260000 22.440000 201 161 131 0
13.200000 7.260000 22.440000 201 161 131 0
13.420000 7.260000 22.440000 200 160 130 0
13.640000 7.260000 22.660000 200 160 130 0
13.860000 7.260000 22.660000 201 161 131 0
14.080000 7.260000 22.660000 202 162 132 0
14.300000 7.260000 22.660000 202 162 132 0
14.520000 7.260000 22.660000 202 162 132 0
14.740000 7.260000 22.660000 202 162 132 0
14.960000 7.260000 22.660000 202 162 132 0
15.180000 7.260000 22.880000 201 161 131 0
15.400000 7.260000 22.880000 203 161 132 0
15.620000 7.260000 24.200000 204 162 133 0
15.840000 7.260000 24.200000 203 161 132 0
16.060000 7.260000 24.420000 204 162 133 0
16.280000 7.260000 24.420000 205 163 134 0
16.500000 7.260000 24.420000 205 163 134 0
16.720000 7.260000 24.420000 203 161 132 0
16.940000 7.260000 24.420000 201 159 130 0
17.160000 7.260000 24.420000 202 160 131 0
17.380000 7.260000 25.960000 201 159 130 0
17.600000 7.260000 25.960000 202 160 131 0
17.820000 7.260000 25.960000 203 161 132 0
18.040000 7.260000 25.960000 201 159 130 0
18.260000 7.260000 25.960000 202 160 131 0
18.480000 7.260000 26.180000 201 159 130 0
18.700000 7.260000 26.180000 201 159 130 0
18.920000 7.260000 26.180000 201 159 130 0
19.140000 7.260000 26.180000 201 159 130 0
19.360000 7.260000 26.180000 200 158 129 0
19.580000 7.260000 27.280000 200 158 129 0
19.800000 7.260000 27.940000 200 155 127 0
20.020000 7.260000 29.040000 200 155 127 0
20.240000 7.260000 30.580000 201 156 128 0
20.460000 7.260000 30.580000 202 157 129 0
20.680000 7.260000 30.800000 208 166 139 0
20.900000 7.260000 31.240000 217 175 148 0
21.120000 7.260000 31.460000 226 184 157 0
21.340000 7.260000 32.780000 235 193 166 0
21.560000 7.260000 32.780000 237 195 166 0
