ply
format ascii 1.0
element vertex 1099
property float x
property float y
property float z
property uchar red
property uchar green
property uchar blue
property uchar alpha
end_header
30.360000 12.320000 10.120000 201 208 213 0
30.580000 12.320000 11.440000 202 209 214 0
30.800000 12.320000 11.220000 201 210 212 0
31.020000 12.320000 11.220000 200 209 211 0
31.240000 12.320000 11.440000 200 209 213 0
31.460000 12.320000 11.440000 200 209 213 0
31.680000 12.320000 11.440000 201 210 214 0
31.900000 12.320000 12.760000 201 210 214 0
32.120000 12.320000 12.760000 201 210 214 0
32.340000 12.320000 12.760000 201 210 214 0
32.560000 12.320000 12.540000 201 210 212 0
32.780000 12.320000 13.860000 201 210 212 0
33.000000 12.320000 13.860000 200 209 213 0
33.220000 12.320000 13.860000 201 210 214 0
33.440000 12.320000 13.860000 192 211 220 0
33.660000 12.320000 15.400000 191 210 219 0
33.880000 12.320000 15.400000 180 215 216 0
34.100000 12.320000 15.400000 181 216 217 0
34.320000 12.320000 15.400000 191 228 231 0
34.540000 12.320000 16.720000 200 237 240 0
34.760000 12.320000 16.940000 204 241 244 0
34.980000 12.320000 15.620000 204 241 244 0
35.200000 12.320000 15.620000 204 242 242 0
35.420000 12.320000 15.620000 203 241 241 0
35.640000 12.320000 15.620000 205 240 241 0
35.860000 12.320000 15.620000 205 240 241 0
36.080000 12.320000 15.620000 202 239 243 0
36.300000 12.320000 15.620000 199 236 240 0
36.520000 12.320000 16.940000 199 235 246 0
36.740000 12.320000 16.720000 196 232 243 0
36.960000 12.320000 16.720000 201 230 241 0
37.180000 12.320000 16.720000 202 231 242 0
0.000000 12.540000 19.580000 179 126 103 0
0.220000 12.540000 18.040000 177 124 101 0
0.440000 12.540000 18.040000 179 126 103 0
0.660000 12.540000 18.040000 180 127 104 0
0.880000 12.540000 18.040000 177 128 108 0
1.100000 12.540000 16.720000 176 127 107 0
1.320000 12.540000 16.940000 176 127 108 0
1.540000 12.540000 16.940000 176 127 108 0
1.760000 12.540000 16.940000 176 127 105 0
1.980000 12.540000 16.940000 174 125 103 0
2.200000 12.540000 15.620000 172 123 103 0
2.420000 12.540000 15.620000 170 121 101 0
2.640000 12.540000 15.620000 167 120 99 0
2.860000 12.540000 15.620000 169 122 101 0
3.080000 12.540000 16.940000 170 122 103 0
3.300000 12.540000 16.940000 170 122 103 0
3.520000 12.540000 16.940000 170 121 101 0
3.740000 12.540000 16.940000 170 121 101 0
3.960000 12.540000 16.940000 170 124 104 0
4.180000 12.540000 18.480000 171 125 105 0
4.400000 12.540000 18.480000 173 127 107 0
4.620000 12.540000 18.480000 174 128 108 0
4.840000 12.540000 19.800000 175 131 115 0
5.060000 12.540000 19.800000 177 133 117 0
5.280000 12.540000 19.800000 178 135 114 0
5.500000 12.540000 19.800000 181 138 117 0
5.720000 12.540000 21.340000 182 141 119 0
5.940000 12.540000 21.340000 183 142 120 0
6.160000 12.540000 21.340000 185 144 122 0
6.380000 12.540000 21.340000 188 147 125 0
6.600000 12.540000 21.340000 189 147 128 0
6.820000 12.540000 22.880000 191 149 130 0
7.040000 12.540000 22.880000 192 153 135 0
7.260000 12.540000 22.880000 192 153 135 0
7.480000 12.540000 22.880000 192 163 144 0
7.700000 12.540000 22.880000 198 169 150 0
7.920000 12.540000 24.420000 206 177 158 0
8.140000 12.540000 24.420000 207 178 159 0
8.360000 12.540000 24.420000 207 177 161 0
8.580000 12.540000 24.420000 205 175 159 0
8.800000 12.540000 24.420000 207 175 157 0
9.020000 12.540000 24.640000 208 176 158 0
9.240000 12.540000 24.640000 209 177 159 0
9.460000 12.540000 24.640000 209 177 159 0
9.680000 12.540000 24.860000 210 178 160 0
9.900000 12.540000 26.180000 212 180 162 0
10.120000 12.540000 27.060000 211 182 163 0
10.340000 12.540000 27.940000 211 182 163 0
10.560000 12.540000 29.040000 213 181 163 0
10.780000 12.540000 29.260000 212 180 162 0
11.000000 12.540000 29.260000 212 180 162 0
11.220000 12.540000 29.260000 212 180 162 0
11.440000 12.540000 29.260000 212 180 162 0
11.660000 12.540000 29.480000 213 181 163 0
11.880000 12.540000 30.800000 214 182 164 0
12.100000 12.540000 30.800000 216 184 166 0
12.320000 12.540000 31.020000 216 187 168 0
12.540000 12.540000 31.020000 217 188 169 0
12.760000 12.540000 31.020000 218 189 170 0
12.980000 12.540000 31.240000 219 190 171 0
13.200000 12.540000 32.560000 221 192 173 0
13.420000 12.540000 32.780000 220 191 172 0
13.640000 12.540000 32.780000 220 191 172 0
13.860000 12.540000 32.780000 221 192 173 0
14.080000 12.540000 34.320000 221 191 175 0
14.300000 12.540000 34.540000 220 190 174 0
14.520000 12.540000 35.640000 223 191 173 0
14.740000 12.540000 36.300000 222 190 172 0
14.960000 12.540000 37.400000 221 189 171 0
15.180000 12.540000 37.400000 221 189 171 0
15.400000 12.540000 38.940000 220 188 170 0
15.620000 12.540000 38.940000 220 188 170 0
15.840000 12.540000 39.160000 219 187 169 0
16.060000 12.540000 39.160000 218 186 168 0
16.280000 12.540000 39.160000 216 184 166 0
16.500000 12.540000 39.160000 215 183 165 0
16.720000 12.540000 39.160000 215 183 163 0
16.940000 12.540000 39.380000 215 183 163 0
17.160000 12.540000 39.380000 217 183 166 0
17.380000 12.540000 39.380000 217 183 166 0
17.600000 12.540000 39.380000 216 183 163 0
17.820000 12.540000 39.600000 217 184 164 0
18.040000 12.540000 39.600000 217 184 164 0
18.260000 12.540000 40.920000 218 185 165 0
18.480000 12.540000 41.140000 218 185 165 0
18.700000 12.540000 41.140000 219 186 166 0
18.920000 12.540000 41.140000 219 185 168 0
19.140000 12.540000 41.140000 219 185 168 0
19.360000 12.540000 30.140000 219 186 166 0
19.580000 12.540000 8.140000 219 186 166 0
20.900000 12.540000 0.440000 205 202 204 0
21.120000 12.540000 1.540000 203 216 220 0
21.340000 12.540000 1.540000 207 220 224 0
21.560000 12.540000 1.540000 210 220 225 0
21.780000 12.540000 1.540000 210 220 225 0
22.000000 12.540000 1.540000 210 220 225 0
22.220000 12.540000 1.540000 210 220 225 0
22.440000 12.540000 1.540000 209 219 224 0
22.660000 12.540000 1.540000 209 219 224 0
22.880000 12.540000 1.760000 208 218 223 0
23.100000 12.540000 1.760000 209 219 224 0
23.320000 12.540000 1.760000 208 218 223 0
23.540000 12.540000 1.760000 208 218 223 0
23.760000 12.540000 1.980000 207 217 221 0
23.980000 12.540000 1.980000 207 217 221 0
24.200000 12.540000 1.980000 206 215 219 0
24.420000 12.540000 2.200000 206 215 219 0
24.640000 12.540000 2.200000 205 214 218 0
24.860000 12.540000 2.420000 204 213 217 0
25.080000 12.540000 2.420000 205 214 216 0
25.300000 12.540000 2.420000 203 212 214 0
25.520000 12.540000 3.960000 202 211 213 0
25.740000 12.540000 3.960000 202 211 213 0
25.960000 12.540000 3.740000 202 211 213 0
26.180000 12.540000 6.160000 201 210 212 0
26.400000 12.540000 7.040000 202 209 212 0
26.620000 12.540000 7.040000 202 209 212 0
26.840000 12.540000 7.040000 203 210 213 0
27.060000 12.540000 7.040000 202 209 212 0
27.280000 12.540000 7.260000 201 210 212 0
27.500000 12.540000 8.580000 201 210 212 0
27.720000 12.540000 8.580000 201 208 211 0
27.940000 12.540000 8.800000 200 207 210 0
28.160000 12.540000 8.800000 201 210 212 0
28.380000 12.540000 8.800000 201 210 212 0
28.600000 12.540000 8.800000 202 209 212 0
28.820000 12.540000 8.800000 202 209 212 0
29.040000 12.540000 9.020000 201 210 212 0
29.260000 12.540000 9.020000 201 210 212 0
29.480000 12.540000 9.020000 201 210 212 0
29.700000 12.540000 9.020000 201 210 212 0
29.920000 12.540000 9.240000 200 209 213 0
30.140000 12.540000 9.240000 200 209 213 0
30.360000 12.540000 10.560000 202 209 214 0
30.580000 12.540000 11.440000 201 208 213 0
30.800000 12.540000 11.220000 201 210 212 0
31.020000 12.540000 12.540000 200 209 211 0
31.240000 12.540000 12.540000 201 210 214 0
31.460000 12.540000 12.540000 200 209 213 0
31.680000 12.540000 12.540000 200 209 213 0
31.900000 12.540000 12.540000 200 209 213 0
32.120000 12.540000 12.540000 200 209 213 0
32.340000 12.540000 12.760000 200 209 213 0
32.560000 12.540000 12.760000 200 209 211 0
32.780000 12.540000 14.080000 198 207 209 0
33.000000 12.540000 14.080000 199 208 212 0
33.220000 12.540000 14.080000 201 210 214 0
33.440000 12.540000 15.400000 198 217 226 0
33.660000 12.540000 15.400000 204 223 232 0
33.880000 12.540000 16.720000 201 236 237 0
34.100000 12.540000 16.720000 205 240 241 0
34.320000 12.540000 16.720000 201 238 241 0
34.540000 12.540000 18.260000 201 238 241 0
34.760000 12.540000 18.260000 201 238 241 0
34.980000 12.540000 18.260000 202 239 242 0
35.200000 12.540000 18.480000 202 240 240 0
35.420000 12.540000 18.480000 202 240 240 0
35.640000 12.540000 18.480000 205 240 241 0
35.860000 12.540000 18.480000 205 240 241 0
36.080000 12.540000 18.480000 202 239 243 0
36.300000 12.540000 19.800000 199 236 240 0
36.520000 12.540000 19.800000 195 231 242 0
36.740000 12.540000 19.580000 194 230 241 0
36.960000 12.540000 19.580000 199 228 239 0
37.180000 12.540000 19.580000 200 229 240 0
0.000000 12.760000 19.580000 179 123 103 0
0.220000 12.760000 18.040000 179 123 103 0
0.440000 12.760000 18.040000 179 126 105 0
0.660000 12.760000 18.040000 178 125 104 0
0.880000 12.760000 18.040000 176 127 107 0
1.100000 12.760000 16.720000 177 128 108 0
1.320000 12.760000 16.940000 177 128 108 0
1.540000 12.760000 16.940000 177 128 108 0
1.760000 12.760000 16.940000 174 126 107 0
1.980000 12.760000 16.940000 173 125 106 0
2.200000 12.760000 16.940000 171 122 102 0
2.420000 12.760000 15.620000 169 120 100 0
2.640000 12.760000 15.620000 169 120 100 0
2.860000 12.760000 16.940000 169 120 100 0
3.080000 12.760000 16.940000 170 121 102 0
3.300000 12.760000 16.940000 170 121 102 0
3.520000 12.760000 16.940000 172 123 104 0
3.740000 12.760000 16.940000 171 122 103 0
3.960000 12.760000 16.940000 171 123 104 0
4.180000 12.760000 18.480000 172 124 105 0
4.400000 12.760000 18.480000 174 128 108 0
4.620000 12.760000 18.480000 175 129 109 0
4.840000 12.760000 19.800000 174 132 113 0
5.060000 12.760000 19.800000 176 134 115 0
5.280000 12.760000 19.800000 180 136 118 0
5.500000 12.760000 19.800000 181 137 119 0
5.720000 12.760000 21.340000 181 142 122 0
5.940000 12.760000 21.340000 181 142 122 0
6.160000 12.760000 21.340000 184 145 125 0
6.380000 12.760000 21.340000 186 147 127 0
6.600000 12.760000 21.340000 189 150 130 0
6.820000 12.760000 21.340000 190 151 131 0
7.040000 12.760000 22.880000 191 152 132 0
7.260000 12.760000 22.880000 192 153 133 0
7.480000 12.760000 22.880000 193 159 144 0
7.700000 12.760000 22.880000 200 166 151 0
7.920000 12.760000 24.420000 205 175 160 0
8.140000 12.760000 24.420000 208 178 163 0
8.360000 12.760000 24.420000 207 177 161 0
8.580000 12.760000 24.420000 206 176 160 0
8.800000 12.760000 24.640000 205 176 157 0
9.020000 12.760000 24.640000 204 175 156 0
9.240000 12.760000 24.640000 205 176 157 0
9.460000 12.760000 24.640000 206 177 158 0
9.680000 12.760000 24.860000 207 177 161 0
9.900000 12.760000 25.960000 210 180 164 0
10.120000 12.760000 28.160000 211 182 163 0
10.340000 12.760000 29.260000 211 182 163 0
10.560000 12.760000 29.260000 211 182 163 0
10.780000 12.760000 29.260000 211 182 163 0
11.000000 12.760000 29.260000 210 181 162 0
11.220000 12.760000 29.260000 210 181 162 0
11.440000 12.760000 29.260000 213 181 163 0
11.660000 12.760000 29.480000 214 182 164 0
11.880000 12.760000 30.800000 212 183 164 0
12.100000 12.760000 31.020000 215 186 167 0
12.320000 12.760000 31.020000 217 188 169 0
12.540000 12.760000 31.020000 216 187 168 0
12.760000 12.760000 31.020000 218 189 170 0
12.980000 12.760000 31.240000 219 190 171 0
13.200000 12.760000 32.560000 220 191 172 0
13.420000 12.760000 32.780000 221 192 173 0
13.640000 12.760000 32.780000 220 191 172 0
13.860000 12.760000 32.780000 220 191 172 0
14.080000 12.760000 34.320000 221 192 173 0
14.300000 12.760000 34.540000 219 190 171 0
14.520000 12.760000 35.640000 222 190 172 0
14.740000 12.760000 36.300000 220 188 170 0
14.960000 12.760000 37.400000 219 187 167 0
15.180000 12.760000 37.400000 220 188 168 0
15.400000 12.760000 38.940000 221 188 168 0
15.620000 12.760000 38.940000 221 188 168 0
15.840000 12.760000 39.160000 219 186 166 0
16.060000 12.760000 39.160000 219 186 166 0
16.280000 12.760000 39.160000 218 185 165 0
16.500000 12.760000 39.160000 216 183 163 0
16.720000 12.760000 39.160000 216 183 163 0
16.940000 12.760000 39.380000 216 183 163 0
17.160000 12.760000 39.380000 215 182 162 0
17.380000 12.760000 39.380000 216 183 163 0
17.600000 12.760000 39.380000 216 183 163 0
17.820000 12.760000 39.600000 216 183 163 0
18.040000 12.760000 39.600000 216 183 163 0
18.260000 12.760000 39.600000 217 184 164 0
18.480000 12.760000 41.140000 216 183 163 0
18.700000 12.760000 41.140000 218 185 165 0
18.920000 12.760000 39.820000 220 184 165 0
19.140000 12.760000 41.140000 220 184 165 0
19.360000 12.760000 33.000000 218 185 165 0
19.580000 12.760000 13.640000 218 185 165 0
20.900000 12.760000 0.440000 209 200 198 0
21.120000 12.760000 1.540000 204 214 219 0
21.340000 12.760000 1.540000 210 220 225 0
21.560000 12.760000 1.540000 208 221 225 0
21.780000 12.760000 1.540000 209 222 226 0
22.000000 12.760000 1.540000 211 221 226 0
22.220000 12.760000 1.540000 210 220 225 0
22.440000 12.760000 1.540000 208 221 225 0
22.660000 12.760000 1.540000 208 221 225 0
22.880000 12.760000 1.760000 210 220 225 0
23.100000 12.760000 1.760000 209 219 224 0
23.320000 12.760000 1.760000 209 219 224 0
23.540000 12.760000 1.760000 208 218 223 0
23.760000 12.760000 1.980000 208 218 223 0
23.980000 12.760000 1.980000 208 218 223 0
24.200000 12.760000 1.980000 207 217 222 0
24.420000 12.760000 2.200000 208 218 223 0
24.640000 12.760000 2.200000 206 216 221 0
24.860000 12.760000 2.420000 206 216 221 0
25.080000 12.760000 3.740000 206 216 221 0
25.300000 12.760000 3.960000 206 216 221 0
25.520000 12.760000 3.960000 205 215 219 0
25.740000 12.760000 3.960000 204 214 218 0
25.960000 12.760000 5.060000 203 213 218 0
26.180000 12.760000 5.940000 203 213 218 0
26.400000 12.760000 7.040000 203 212 216 0
26.620000 12.760000 7.040000 202 211 215 0
26.840000 12.760000 7.040000 202 211 215 0
27.060000 12.760000 7.260000 201 210 214 0
27.280000 12.760000 8.580000 201 210 214 0
27.500000 12.760000 8.800000 201 210 214 0
27.720000 12.760000 8.800000 201 210 214 0
27.940000 12.760000 8.800000 200 209 213 0
28.160000 12.760000 8.800000 200 209 213 0
28.380000 12.760000 9.020000 200 209 213 0
28.600000 12.760000 9.020000 201 210 212 0
28.820000 12.760000 9.020000 201 210 212 0
29.040000 12.760000 9.240000 201 210 214 0
29.260000 12.760000 9.240000 200 209 213 0
29.480000 12.760000 9.240000 201 210 212 0
29.700000 12.760000 9.460000 200 209 211 0
29.920000 12.760000 9.460000 200 209 213 0
30.140000 12.760000 9.460000 199 208 212 0
30.360000 12.760000 10.560000 200 207 210 0
30.580000 12.760000 11.660000 201 208 211 0
30.800000 12.760000 12.760000 200 209 213 0
31.020000 12.760000 12.540000 200 209 213 0
31.240000 12.760000 12.540000 200 209 213 0
31.460000 12.760000 12.540000 200 209 213 0
31.680000 12.760000 14.080000 200 209 213 0
31.900000 12.760000 14.080000 200 209 213 0
32.120000 12.760000 14.080000 195 209 215 0
32.340000 12.760000 12.980000 195 209 215 0
32.560000 12.760000 13.200000 187 215 222 0
32.780000 12.760000 13.200000 193 221 228 0
33.000000 12.760000 14.740000 195 227 235 0
33.220000 12.760000 14.740000 201 233 241 0
33.440000 12.760000 14.740000 202 234 240 0
33.660000 12.760000 15.620000 203 235 241 0
33.880000 12.760000 16.720000 206 234 241 0
34.100000 12.760000 18.040000 206 234 241 0
34.320000 12.760000 18.040000 199 231 237 0
34.540000 12.760000 18.260000 203 235 241 0
34.760000 12.760000 19.580000 204 237 241 0
34.980000 12.760000 19.800000 204 237 241 0
35.200000 12.760000 19.800000 201 238 241 0
35.420000 12.760000 21.120000 202 239 242 0
35.640000 12.760000 21.340000 206 236 241 0
35.860000 12.760000 21.340000 206 236 241 0
36.080000 12.760000 21.340000 206 234 243 0
36.300000 12.760000 21.560000 202 230 239 0
36.520000 12.760000 21.340000 202 224 235 0
36.740000 12.760000 21.340000 202 224 235 0
36.960000 12.760000 21.340000 200 223 236 0
37.180000 12.760000 20.020000 201 224 237 0
0.000000 12.980000 19.580000 178 122 102 0
0.220000 12.980000 18.040000 179 123 103 0
0.440000 12.980000 18.040000 177 124 103 0
0.660000 12.980000 18.040000 178 125 104 0
0.880000 12.980000 18.040000 174 125 105 0
1.100000 12.980000 18.260000 176 127 107 0
1.320000 12.980000 16.940000 177 128 108 0
1.540000 12.980000 16.940000 176 127 107 0
1.760000 12.980000 16.940000 174 126 107 0
1.980000 12.980000 16.940000 171 123 104 0
2.200000 12.980000 16.940000 170 121 101 0
2.420000 12.980000 16.940000 170 121 101 0
2.640000 12.980000 16.940000 170 121 101 0
2.860000 12.980000 16.940000 169 120 100 0
3.080000 12.980000 16.940000 171 122 103 0
3.300000 12.980000 16.940000 172 123 104 0
3.520000 12.980000 16.940000 171 122 103 0
3.740000 12.980000 16.940000 172 123 104 0
3.960000 12.980000 18.480000 172 124 105 0
4.180000 12.980000 18.480000 174 126 107 0
4.400000 12.980000 18.480000 174 128 108 0
4.620000 12.980000 18.480000 175 129 109 0
4.840000 12.980000 19.800000 174 132 113 0
5.060000 12.980000 19.800000 177 135 116 0
5.280000 12.980000 19.800000 180 136 118 0
5.500000 12.980000 19.800000 181 137 119 0
5.720000 12.980000 21.340000 179 140 120 0
5.940000 12.980000 21.340000 181 142 122 0
6.160000 12.980000 21.340000 183 144 124 0
6.380000 12.980000 21.340000 187 148 128 0
6.600000 12.980000 21.340000 190 151 131 0
6.820000 12.980000 21.560000 190 151 131 0
7.040000 12.980000 22.880000 191 152 132 0
7.260000 12.980000 22.880000 193 154 134 0
7.480000 12.980000 22.880000 193 159 144 0
7.700000 12.980000 23.100000 199 165 150 0
7.920000 12.980000 24.420000 205 175 160 0
8.140000 12.980000 24.420000 208 178 163 0
8.360000 12.980000 24.420000 208 178 162 0
8.580000 12.980000 24.640000 207 177 161 0
8.800000 12.980000 24.640000 205 176 157 0
9.020000 12.980000 24.640000 206 177 158 0
9.240000 12.980000 24.640000 207 178 159 0
9.460000 12.980000 24.860000 208 179 160 0
9.680000 12.980000 26.180000 209 179 163 0
9.900000 12.980000 27.060000 210 180 164 0
10.120000 12.980000 27.940000 212 183 164 0
10.340000 12.980000 29.040000 213 184 165 0
10.560000 12.980000 29.260000 212 183 164 0
10.780000 12.980000 29.260000 212 183 164 0
11.000000 12.980000 29.260000 213 184 165 0
11.220000 12.980000 29.260000 211 182 163 0
11.440000 12.980000 29.480000 215 183 165 0
11.660000 12.980000 29.480000 215 183 165 0
11.880000 12.980000 30.800000 214 185 166 0
12.100000 12.980000 31.020000 215 186 167 0
12.320000 12.980000 31.020000 217 188 169 0
12.540000 12.980000 31.020000 218 189 170 0
12.760000 12.980000 31.020000 218 189 170 0
12.980000 12.980000 31.240000 220 191 172 0
13.200000 12.980000 32.560000 220 191 172 0
13.420000 12.980000 32.780000 222 193 174 0
13.640000 12.980000 32.780000 220 191 172 0
13.860000 12.980000 32.780000 219 190 171 0
14.080000 12.980000 34.320000 219 190 171 0
14.300000 12.980000 34.540000 219 190 171 0
14.520000 12.980000 35.640000 221 189 171 0
14.740000 12.980000 36.300000 221 189 171 0
14.960000 12.980000 37.400000 220 188 168 0
15.180000 12.980000 37.400000 219 187 167 0
15.400000 12.980000 38.940000 220 187 167 0
15.620000 12.980000 38.940000 220 187 167 0
15.840000 12.980000 38.940000 220 187 167 0
16.060000 12.980000 39.160000 219 186 166 0
16.280000 12.980000 39.160000 218 185 165 0
16.500000 12.980000 39.160000 216 183 163 0
16.720000 12.980000 39.160000 216 183 163 0
16.940000 12.980000 39.160000 215 182 162 0
17.160000 12.980000 39.380000 215 182 162 0
17.380000 12.980000 39.380000 215 182 162 0
17.600000 12.980000 39.380000 215 182 162 0
17.820000 12.980000 39.600000 216 183 163 0
18.040000 12.980000 39.600000 216 183 163 0
18.260000 12.980000 39.600000 215 182 162 0
18.480000 12.980000 39.600000 216 183 163 0
18.700000 12.980000 39.600000 216 183 163 0
18.920000 12.980000 39.820000 219 183 164 0
19.140000 12.980000 39.820000 219 183 164 0
19.360000 12.980000 38.500000 217 184 164 0
19.580000 12.980000 24.640000 218 185 165 0
19.800000 12.980000 5.500000 217 184 164 0
20.900000 12.980000 0.440000 207 198 196 0
21.120000 12.980000 1.540000 203 213 218 0
21.340000 12.980000 1.540000 210 220 225 0
21.560000 12.980000 1.540000 209 222 226 0
21.780000 12.980000 1.540000 209 222 226 0
22.000000 12.980000 1.540000 211 221 226 0
22.220000 12.980000 1.540000 211 221 226 0
22.440000 12.980000 1.540000 209 222 226 0
22.660000 12.980000 1.540000 209 222 226 0
22.880000 12.980000 1.760000 210 220 225 0
23.100000 12.980000 1.760000 210 220 225 0
23.320000 12.980000 1.760000 211 221 226 0
23.540000 12.980000 1.760000 211 221 226 0
23.760000 12.980000 1.980000 211 221 226 0
23.980000 12.980000 1.980000 209 219 224 0
24.200000 12.980000 1.980000 208 218 223 0
24.420000 12.980000 2.200000 208 218 223 0
24.640000 12.980000 2.200000 208 218 223 0
24.860000 12.980000 3.740000 208 218 223 0
25.080000 12.980000 3.740000 208 218 223 0
25.300000 12.980000 3.960000 208 218 223 0
25.520000 12.980000 3.960000 207 217 221 0
25.740000 12.980000 3.960000 207 217 221 0
25.960000 12.980000 5.280000 206 216 221 0
26.180000 12.980000 5.940000 205 215 220 0
26.400000 12.980000 7.040000 207 216 220 0
26.620000 12.980000 7.040000 206 215 219 0
26.840000 12.980000 7.260000 204 213 217 0
27.060000 12.980000 7.260000 203 212 216 0
27.280000 12.980000 8.800000 203 212 216 0
27.500000 12.980000 8.800000 204 213 217 0
27.720000 12.980000 8.800000 202 211 215 0
27.940000 12.980000 8.800000 203 212 216 0
28.160000 12.980000 9.020000 201 210 214 0
28.380000 12.980000 9.020000 202 211 215 0
28.600000 12.980000 9.020000 201 210 212 0
28.820000 12.980000 9.240000 201 210 212 0
29.040000 12.980000 9.240000 200 209 213 0
29.260000 12.980000 9.240000 200 209 213 0
29.480000 12.980000 9.460000 200 209 211 0
29.700000 12.980000 9.460000 200 209 211 0
29.920000 12.980000 10.780000 200 209 213 0
30.140000 12.980000 10.560000 200 209 213 0
30.360000 12.980000 11.660000 201 208 211 0
30.580000 12.980000 12.760000 201 208 211 0
30.800000 12.980000 12.540000 200 209 213 0
31.020000 12.980000 14.080000 200 209 213 0
31.240000 12.980000 14.080000 201 210 214 0
31.460000 12.980000 14.080000 202 211 215 0
31.680000 12.980000 14.080000 201 210 214 0
31.900000 12.980000 14.300000 201 210 214 0
32.120000 12.980000 14.300000 204 218 224 0
32.340000 12.980000 13.200000 210 224 230 0
32.560000 12.980000 13.420000 202 230 237 0
32.780000 12.980000 13.420000 202 230 237 0
33.000000 12.980000 13.640000 199 231 239 0
33.220000 12.980000 14.960000 199 231 239 0
33.440000 12.980000 14.960000 200 232 238 0
33.660000 12.980000 16.060000 200 232 238 0
33.880000 12.980000 18.260000 203 231 238 0
34.100000 12.980000 18.040000 203 231 238 0
34.320000 12.980000 19.580000 198 230 236 0
34.540000 12.980000 19.580000 201 233 239 0
34.760000 12.980000 19.580000 202 235 239 0
34.980000 12.980000 21.120000 203 236 240 0
35.200000 12.980000 21.120000 200 237 240 0
35.420000 12.980000 21.340000 200 237 240 0
35.640000 12.980000 22.660000 205 235 240 0
35.860000 12.980000 22.880000 205 235 240 0
36.080000 12.980000 22.880000 204 232 241 0
36.300000 12.980000 22.880000 200 228 237 0
36.520000 12.980000 23.100000 200 222 233 0
36.740000 12.980000 21.560000 199 221 232 0
36.960000 12.980000 21.560000 199 222 235 0
37.180000 12.980000 21.560000 199 222 235 0
0.000000 13.200000 19.580000 180 125 100 0
0.220000 13.200000 19.580000 179 124 99 0
0.440000 13.200000 18.040000 175 122 99 0
0.660000 13.200000 18.040000 176 123 100 0
0.880000 13.200000 18.260000 176 125 103 0
1.100000 13.200000 18.260000 178 127 105 0
1.320000 13.200000 16.940000 178 127 105 0
1.540000 13.200000 16.940000 177 126 104 0
1.760000 13.200000 16.940000 176 125 103 0
1.980000 13.200000 16.940000 174 123 101 0
2.200000 13.200000 16.940000 169 122 101 0
2.420000 13.200000 16.940000 170 123 102 0
2.640000 13.200000 16.940000 169 122 101 0
2.860000 13.200000 16.940000 170 123 102 0
3.080000 13.200000 16.940000 171 124 103 0
3.300000 13.200000 16.940000 171 124 103 0
3.520000 13.200000 16.940000 172 125 104 0
3.740000 13.200000 18.480000 172 125 104 0
3.960000 13.200000 18.480000 172 126 106 0
4.180000 13.200000 18.480000 174 128 108 0
4.400000 13.200000 18.480000 172 129 108 0
4.620000 13.200000 18.480000 174 131 110 0
4.840000 13.200000 19.800000 176 133 112 0
5.060000 13.200000 19.800000 178 135 114 0
5.280000 13.200000 19.800000 179 136 115 0
5.500000 13.200000 19.800000 180 137 116 0
5.720000 13.200000 21.340000 182 140 121 0
5.940000 13.200000 21.340000 183 141 122 0
6.160000 13.200000 21.340000 184 145 125 0
6.380000 13.200000 21.340000 186 147 127 0
6.600000 13.200000 21.560000 192 150 131 0
6.820000 13.200000 21.560000 194 152 133 0
7.040000 13.200000 22.880000 193 154 132 0
7.260000 13.200000 22.880000 194 155 133 0
7.480000 13.200000 22.880000 194 161 141 0
7.700000 13.200000 23.100000 198 165 145 0
7.920000 13.200000 24.420000 203 175 158 0
8.140000 13.200000 24.420000 207 179 162 0
8.360000 13.200000 24.420000 209 181 165 0
8.580000 13.200000 24.640000 207 179 163 0
8.800000 13.200000 24.640000 209 181 162 0
9.020000 13.200000 24.640000 208 180 161 0
9.240000 13.200000 24.640000 208 180 161 0
9.460000 13.200000 24.860000 210 182 163 0
9.680000 13.200000 25.960000 211 183 166 0
9.900000 13.200000 28.160000 211 183 166 0
10.120000 13.200000 29.260000 213 185 168 0
10.340000 13.200000 29.040000 211 183 166 0
10.560000 13.200000 29.260000 212 183 164 0
10.780000 13.200000 29.260000 213 184 165 0
11.000000 13.200000 29.260000 213 184 165 0
11.220000 13.200000 29.260000 213 184 165 0
11.440000 13.200000 29.480000 214 186 169 0
11.660000 13.200000 29.480000 215 187 170 0
11.880000 13.200000 30.800000 216 188 172 0
12.100000 13.200000 31.020000 218 190 174 0
12.320000 13.200000 31.020000 218 190 173 0
12.540000 13.200000 31.020000 218 190 173 0
12.760000 13.200000 31.020000 218 188 172 0
12.980000 13.200000 31.240000 218 188 172 0
13.200000 13.200000 32.560000 220 191 172 0
13.420000 13.200000 32.780000 220 191 172 0
13.640000 13.200000 32.780000 219 190 171 0
13.860000 13.200000 32.780000 220 191 172 0
14.080000 13.200000 34.320000 219 190 171 0
14.300000 13.200000 34.540000 219 190 171 0
14.520000 13.200000 35.640000 220 188 170 0
14.740000 13.200000 36.300000 221 189 171 0
14.960000 13.200000 37.400000 220 188 168 0
15.180000 13.200000 37.400000 219 187 167 0
15.400000 13.200000 38.940000 219 187 167 0
15.620000 13.200000 38.940000 219 187 167 0
15.840000 13.200000 38.940000 219 187 167 0
16.060000 13.200000 39.160000 218 186 166 0
16.280000 13.200000 39.160000 216 184 164 0
16.500000 13.200000 39.160000 215 183 163 0
16.720000 13.200000 39.160000 215 183 163 0
16.940000 13.200000 39.160000 214 182 162 0
17.160000 13.200000 39.380000 215 182 162 0
17.380000 13.200000 39.380000 215 182 162 0
17.600000 13.200000 39.380000 214 181 161 0
17.820000 13.200000 39.380000 215 182 162 0
18.040000 13.200000 39.600000 216 183 163 0
18.260000 13.200000 39.600000 214 181 161 0
18.480000 13.200000 39.600000 215 182 162 0
18.700000 13.200000 39.600000 216 183 163 0
18.920000 13.200000 39.820000 217 184 164 0
19.140000 13.200000 39.820000 216 183 163 0
19.360000 13.200000 39.820000 217 184 164 0
19.580000 13.200000 30.360000 217 184 164 0
19.800000 13.200000 8.140000 217 184 164 0
20.900000 13.200000 0.660000 208 196 195 0
21.120000 13.200000 0.220000 203 213 218 0
21.340000 13.200000 1.540000 210 220 225 0
21.560000 13.200000 1.540000 212 222 227 0
21.780000 13.200000 1.540000 212 222 227 0
22.000000 13.200000 1.540000 212 222 227 0
22.220000 13.200000 0.220000 211 221 226 0
22.440000 13.200000 1.540000 211 221 226 0
22.660000 13.200000 1.540000 212 222 227 0
22.880000 13.200000 1.760000 212 222 227 0
23.100000 13.200000 1.760000 211 221 226 0
23.320000 13.200000 1.760000 210 220 225 0
23.540000 13.200000 1.760000 211 221 226 0
23.760000 13.200000 1.980000 210 220 225 0
23.980000 13.200000 1.980000 209 219 224 0
24.200000 13.200000 1.980000 208 218 223 0
24.420000 13.200000 2.200000 209 219 224 0
24.640000 13.200000 3.520000 209 219 224 0
24.860000 13.200000 3.740000 209 219 224 0
25.080000 13.200000 3.740000 209 219 223 0
25.300000 13.200000 3.960000 209 219 223 0
25.520000 13.200000 3.960000 208 218 222 0
25.740000 13.200000 3.960000 208 218 222 0
25.960000 13.200000 5.280000 208 218 223 0
26.180000 13.200000 5.940000 206 216 221 0
26.400000 13.200000 7.040000 208 217 221 0
26.620000 13.200000 7.040000 208 217 221 0
26.840000 13.200000 7.260000 206 216 220 0
27.060000 13.200000 7.260000 205 215 219 0
27.280000 13.200000 8.800000 205 215 219 0
27.500000 13.200000 8.800000 205 215 219 0
27.720000 13.200000 8.800000 207 216 220 0
27.940000 13.200000 8.800000 206 215 219 0
28.160000 13.200000 9.020000 205 214 218 0
28.380000 13.200000 9.020000 205 214 218 0
28.600000 13.200000 9.240000 203 213 217 0
28.820000 13.200000 9.240000 202 212 216 0
29.040000 13.200000 9.240000 202 211 215 0
29.260000 13.200000 9.460000 201 210 214 0
29.480000 13.200000 9.460000 201 210 214 0
29.700000 13.200000 9.460000 200 209 213 0
29.920000 13.200000 10.780000 201 210 214 0
30.140000 13.200000 11.660000 200 209 213 0
30.360000 13.200000 12.540000 199 208 212 0
30.580000 13.200000 13.860000 200 209 213 0
30.800000 13.200000 14.080000 200 209 213 0
31.020000 13.200000 14.080000 200 209 213 0
31.240000 13.200000 14.080000 202 210 216 0
31.460000 13.200000 14.300000 205 213 219 0
31.680000 13.200000 14.300000 208 218 223 0
31.900000 13.200000 14.520000 212 222 227 0
32.120000 13.200000 14.520000 210 222 229 0
32.340000 13.200000 14.740000 211 223 230 0
32.560000 13.200000 14.740000 208 224 234 0
32.780000 13.200000 14.740000 209 225 235 0
33.000000 13.200000 14.960000 206 225 234 0
33.220000 13.200000 14.960000 207 226 235 0
33.440000 13.200000 15.180000 208 226 235 0
33.660000 13.200000 16.280000 209 227 236 0
33.880000 13.200000 18.260000 205 227 236 0
34.100000 13.200000 19.360000 204 226 235 0
34.320000 13.200000 19.580000 204 228 236 0
34.540000 13.200000 19.580000 205 229 237 0
34.760000 13.200000 21.120000 203 229 237 0
34.980000 13.200000 21.120000 204 230 238 0
35.200000 13.200000 22.660000 206 230 238 0
35.420000 13.200000 22.660000 207 231 239 0
35.640000 13.200000 22.660000 204 230 238 0
35.860000 13.200000 22.880000 203 229 237 0
36.080000 13.200000 22.880000 209 226 237 0
36.300000 13.200000 22.880000 205 222 233 0
36.520000 13.200000 23.100000 203 219 227 0
36.740000 13.200000 23.100000 202 218 226 0
36.960000 13.200000 23.100000 204 218 226 0
37.180000 13.200000 23.100000 204 218 226 0
0.000000 13.420000 19.580000 178 123 98 0
0.220000 13.420000 19.580000 180 125 100 0
0.440000 13.420000 18.260000 177 124 101 0
0.660000 13.420000 18.260000 177 124 101 0
0.880000 13.420000 18.260000 176 125 103 0
1.100000 13.420000 18.260000 177 126 104 0
1.320000 13.420000 18.260000 177 126 104 0
1.540000 13.420000 16.940000 177 126 104 0
1.760000 13.420000 16.940000 176 125 103 0
1.980000 13.420000 16.940000 175 124 102 0
2.200000 13.420000 16.940000 170 123 102 0
2.420000 13.420000 16.940000 170 123 102 0
2.640000 13.420000 16.940000 170 123 102 0
2.860000 13.420000 16.940000 171 124 103 0
3.080000 13.420000 16.940000 172 125 104 0
3.300000 13.420000 16.940000 172 125 104 0
3.520000 13.420000 18.480000 172 125 104 0
3.740000 13.420000 18.480000 172 125 104 0
3.960000 13.420000 18.480000 172 126 106 0
4.180000 13.420000 18.480000 173 127 107 0
4.400000 13.420000 18.480000 173 130 109 0
4.620000 13.420000 18.480000 174 131 110 0
4.840000 13.420000 19.800000 176 133 112 0
5.060000 13.420000 19.800000 178 135 114 0
5.280000 13.420000 19.800000 179 136 115 0
5.500000 13.420000 20.020000 181 138 117 0
5.720000 13.420000 20.020000 182 140 121 0
5.940000 13.420000 21.340000 185 143 124 0
6.160000 13.420000 21.340000 186 147 127 0
6.380000 13.420000 21.560000 189 150 130 0
6.600000 13.420000 21.560000 193 151 132 0
6.820000 13.420000 22.880000 194 152 133 0
7.040000 13.420000 22.880000 194 155 133 0
7.260000 13.420000 22.880000 195 156 134 0
7.480000 13.420000 23.100000 192 159 139 0
7.700000 13.420000 24.420000 197 164 144 0
7.920000 13.420000 24.420000 202 174 157 0
8.140000 13.420000 24.420000 209 181 164 0
8.360000 13.420000 24.640000 212 184 168 0
8.580000 13.420000 24.640000 212 184 168 0
8.800000 13.420000 24.640000 213 185 166 0
9.020000 13.420000 24.640000 212 184 165 0
9.240000 13.420000 24.860000 210 182 163 0
9.460000 13.420000 26.180000 211 183 164 0
9.680000 13.420000 25.960000 212 184 167 0
9.900000 13.420000 27.940000 212 184 167 0
10.120000 13.420000 29.040000 211 183 166 0
10.340000 13.420000 29.040000 212 184 167 0
10.560000 13.420000 29.260000 213 184 165 0
10.780000 13.420000 29.260000 213 184 165 0
11.000000 13.420000 29.260000 214 185 166 0
11.220000 13.420000 29.260000 215 186 167 0
11.440000 13.420000 29.480000 216 188 171 0
11.660000 13.420000 29.480000 219 191 174 0
11.880000 13.420000 30.800000 221 193 177 0
12.100000 13.420000 31.020000 220 192 176 0
12.320000 13.420000 31.020000 221 193 176 0
12.540000 13.420000 31.020000 219 191 174 0
12.760000 13.420000 31.020000 218 188 172 0
12.980000 13.420000 31.240000 218 188 172 0
13.200000 13.420000 32.560000 219 190 171 0
13.420000 13.420000 32.780000 218 189 170 0
13.640000 13.420000 32.780000 219 190 171 0
13.860000 13.420000 32.780000 220 191 172 0
14.080000 13.420000 34.320000 219 190 171 0
14.300000 13.420000 34.540000 219 190 171 0
14.520000 13.420000 35.640000 219 187 169 0
14.740000 13.420000 36.300000 220 188 170 0
14.960000 13.420000 37.400000 220 188 168 0
15.180000 13.420000 37.400000 220 188 168 0
15.400000 13.420000 37.620000 219 187 167 0
15.620000 13.420000 38.940000 219 187 167 0
15.840000 13.420000 38.940000 218 186 166 0
16.060000 13.420000 39.160000 217 185 165 0
16.280000 13.420000 39.160000 215 183 163 0
16.500000 13.420000 39.160000 216 184 164 0
16.720000 13.420000 39.160000 214 182 162 0
16.940000 13.420000 39.160000 214 182 162 0
17.160000 13.420000 39.380000 214 181 161 0
17.380000 13.420000 39.380000 215 182 162 0
17.600000 13.420000 39.380000 215 182 162 0
17.820000 13.420000 39.380000 215 182 162 0
18.040000 13.420000 39.600000 215 182 162 0
18.260000 13.420000 39.600000 216 183 163 0
18.480000 13.420000 39.600000 215 182 162 0
18.700000 13.420000 39.600000 216 183 163 0
18.920000 13.420000 39.820000 217 184 164 0
19.140000 13.420000 39.820000 217 184 164 0
19.360000 13.420000 39.820000 216 183 163 0
19.580000 13.420000 30.360000 216 183 163 0
19.800000 13.420000 8.140000 217 184 164 0
21.120000 13.420000 0.220000 202 212 217 0
21.340000 13.420000 1.540000 209 219 224 0
21.560000 13.420000 1.540000 211 221 226 0
21.780000 13.420000 1.540000 212 222 227 0
22.000000 13.420000 1.540000 211 221 226 0
22.220000 13.420000 0.220000 211 221 226 0
22.440000 13.420000 1.540000 212 222 227 0
22.660000 13.420000 1.540000 211 221 226 0
22.880000 13.420000 1.760000 211 221 226 0
23.100000 13.420000 1.760000 212 222 227 0
23.320000 13.420000 1.760000 211 221 226 0
23.540000 13.420000 1.760000 211 221 226 0
23.760000 13.420000 1.980000 210 220 225 0
23.980000 13.420000 1.980000 209 219 224 0
24.200000 13.420000 1.980000 210 220 225 0
24.420000 13.420000 2.200000 209 219 224 0
24.640000 13.420000 3.520000 209 219 224 0
24.860000 13.420000 3.740000 210 220 225 0
25.080000 13.420000 3.740000 209 219 223 0
25.300000 13.420000 3.960000 208 218 222 0
25.520000 13.420000 3.960000 210 220 224 0
25.740000 13.420000 3.960000 209 219 223 0
25.960000 13.420000 5.280000 208 218 223 0
26.180000 13.420000 5.940000 209 219 224 0
26.400000 13.420000 7.040000 208 217 221 0
26.620000 13.420000 7.040000 209 218 222 0
26.840000 13.420000 7.260000 207 217 221 0
27.060000 13.420000 7.260000 206 216 220 0
27.280000 13.420000 8.800000 206 216 220 0
27.500000 13.420000 8.800000 206 216 220 0
27.720000 13.420000 8.800000 207 216 220 0
27.940000 13.420000 8.800000 207 216 220 0
28.160000 13.420000 9.020000 207 216 220 0
28.380000 13.420000 9.020000 207 216 220 0
28.600000 13.420000 9.240000 206 216 220 0
28.820000 13.420000 9.240000 205 215 219 0
29.040000 13.420000 9.240000 206 215 219 0
29.260000 13.420000 9.460000 205 214 218 0
29.480000 13.420000 9.460000 203 212 216 0
29.700000 13.420000 9.680000 203 212 216 0
29.920000 13.420000 10.780000 204 213 217 0
30.140000 13.420000 12.760000 202 211 215 0
30.360000 13.420000 13.860000 202 211 215 0
30.580000 13.420000 14.080000 203 212 216 0
30.800000 13.420000 14.080000 202 211 215 0
31.020000 13.420000 14.080000 202 211 215 0
31.240000 13.420000 14.300000 208 216 222 0
31.460000 13.420000 14.300000 209 217 223 0
31.680000 13.420000 14.300000 209 219 224 0
31.900000 13.420000 14.520000 211 221 226 0
32.120000 13.420000 14.520000 209 221 228 0
32.340000 13.420000 14.740000 209 221 228 0
32.560000 13.420000 14.740000 207 223 233 0
32.780000 13.420000 14.740000 206 222 232 0
33.000000 13.420000 14.960000 206 225 234 0
33.220000 13.420000 14.960000 207 226 235 0
33.440000 13.420000 15.180000 208 226 235 0
33.660000 13.420000 16.280000 207 225 234 0
33.880000 13.420000 18.260000 204 226 235 0
34.100000 13.420000 19.360000 205 227 236 0
34.320000 13.420000 19.580000 203 227 235 0
34.540000 13.420000 20.900000 204 228 236 0
34.760000 13.420000 21.120000 202 228 236 0
34.980000 13.420000 21.120000 202 228 236 0
35.200000 13.420000 22.660000 204 228 236 0
35.420000 13.420000 22.660000 205 229 237 0
35.640000 13.420000 22.660000 202 228 236 0
35.860000 13.420000 22.880000 202 228 236 0
36.080000 13.420000 24.200000 207 224 235 0
36.300000 13.420000 24.420000 203 220 231 0
36.520000 13.420000 24.420000 201 217 225 0
36.740000 13.420000 23.100000 201 217 225 0
36.960000 13.420000 23.100000 202 216 224 0
37.180000 13.420000 23.100000 202 216 224 0
0.000000 13.640000 19.580000 179 124 101 0
0.220000 13.640000 19.580000 180 125 102 0
0.440000 13.640000 19.580000 179 124 101 0
0.660000 13.640000 18.260000 179 124 101 0
0.880000 13.640000 18.260000 177 126 104 0
1.100000 13.640000 18.260000 177 126 104 0
1.320000 13.640000 18.260000 177 126 102 0
1.540000 13.640000 18.260000 176 125 101 0
1.760000 13.640000 16.940000 177 124 103 0
1.980000 13.640000 16.940000 175 122 101 0
2.200000 13.640000 16.940000 171 122 102 0
2.420000 13.640000 16.940000 171 122 102 0
2.640000 13.640000 16.940000 171 122 102 0
2.860000 13.640000 16.940000 173 124 104 0
3.080000 13.640000 16.940000 172 125 104 0
3.300000 13.640000 18.480000 173 126 105 0
3.520000 13.640000 18.480000 172 126 106 0
3.740000 13.640000 18.480000 171 125 105 0
3.960000 13.640000 18.480000 172 124 105 0
4.180000 13.640000 18.480000 176 128 109 0
4.400000 13.640000 18.480000 176 128 109 0
4.620000 13.640000 18.480000 178 130 111 0
4.840000 13.640000 19.800000 178 132 112 0
5.060000 13.640000 19.800000 179 133 113 0
5.280000 13.640000 20.020000 178 135 114 0
5.500000 13.640000 20.020000 183 140 119 0
5.720000 13.640000 20.020000 183 141 122 0
5.940000 13.640000 21.340000 185 143 124 0
6.160000 13.640000 21.560000 189 147 128 0
6.380000 13.640000 21.560000 190 148 129 0
6.600000 13.640000 21.560000 193 151 132 0
6.820000 13.640000 22.880000 193 151 132 0
7.040000 13.640000 22.880000 196 154 135 0
7.260000 13.640000 23.100000 197 155 136 0
7.480000 13.640000 24.420000 194 156 138 0
7.700000 13.640000 24.420000 198 160 142 0
7.920000 13.640000 24.420000 200 171 152 0
8.140000 13.640000 24.420000 207 178 159 0
8.360000 13.640000 24.640000 211 182 163 0
8.580000 13.640000 24.640000 213 184 165 0
8.800000 13.640000 24.640000 215 183 163 0
9.020000 13.640000 24.640000 215 183 163 0
9.240000 13.640000 24.860000 213 181 161 0
9.460000 13.640000 26.180000 213 181 161 0
9.680000 13.640000 25.960000 213 181 163 0
9.900000 13.640000 27.940000 212 180 162 0
10.120000 13.640000 29.040000 212 183 164 0
10.340000 13.640000 29.040000 212 183 164 0
10.560000 13.640000 29.260000 215 183 163 0
10.780000 13.640000 29.260000 215 183 163 0
11.000000 13.640000 29.260000 217 185 165 0
11.220000 13.640000 29.260000 219 187 167 0
11.440000 13.640000 29.480000 219 191 174 0
11.660000 13.640000 29.480000 221 193 176 0
11.880000 13.640000 30.800000 221 193 177 0
12.100000 13.640000 31.020000 223 195 179 0
12.320000 13.640000 31.020000 222 194 177 0
12.540000 13.640000 31.020000 219 191 174 0
12.760000 13.640000 31.020000 220 188 168 0
12.980000 13.640000 31.240000 220 188 168 0
13.200000 13.640000 31.240000 219 187 167 0
13.420000 13.640000 32.780000 220 188 168 0
13.640000 13.640000 32.780000 218 189 170 0
13.860000 13.640000 32.780000 218 189 170 0
14.080000 13.640000 34.320000 220 188 170 0
14.300000 13.640000 34.540000 219 187 169 0
14.520000 13.640000 35.640000 219 187 167 0
14.740000 13.640000 36.300000 220 188 168 0
14.960000 13.640000 37.400000 220 188 170 0
15.180000 13.640000 37.400000 221 189 171 0
15.400000 13.640000 37.620000 220 188 170 0
15.620000 13.640000 38.940000 220 188 170 0
15.840000 13.640000 38.940000 219 186 166 0
16.060000 13.640000 39.160000 218 185 165 0
16.280000 13.640000 39.160000 216 183 163 0
16.500000 13.640000 39.160000 215 182 162 0
16.720000 13.640000 39.160000 214 181 161 0
16.940000 13.640000 39.160000 214 181 161 0
17.160000 13.640000 39.380000 214 181 161 0
17.380000 13.640000 39.380000 215 182 162 0
17.600000 13.640000 39.380000 215 182 162 0
17.820000 13.640000 39.380000 215 182 162 0
18.040000 13.640000 39.600000 215 182 162 0
18.260000 13.640000 39.600000 216 183 163 0
18.480000 13.640000 39.600000 216 183 163 0
18.700000 13.640000 39.600000 216 183 163 0
18.920000 13.640000 39.820000 216 183 163 0
19.140000 13.640000 39.820000 216 183 163 0
19.360000 13.640000 39.820000 218 182 163 0
19.580000 13.640000 30.360000 218 182 163 0
19.800000 13.640000 8.140000 217 184 164 0
20.900000 13.640000 0.440000 208 193 191 0
21.120000 13.640000 1.540000 201 211 215 0
21.340000 13.640000 1.540000 209 219 223 0
21.560000 13.640000 1.540000 211 221 226 0
21.780000 13.640000 1.540000 211 221 226 0
22.000000 13.640000 1.540000 210 223 227 0
22.220000 13.640000 0.220000 209 222 226 0
22.440000 13.640000 1.540000 209 221 228 0
22.660000 13.640000 1.540000 208 220 227 0
22.880000 13.640000 1.760000 211 221 225 0
23.100000 13.640000 1.760000 212 222 226 0
23.320000 13.640000 1.760000 211 221 226 0
23.540000 13.640000 1.760000 212 222 227 0
23.760000 13.640000 1.980000 210 220 225 0
23.980000 13.640000 1.980000 210 220 225 0
24.200000 13.640000 1.980000 211 221 225 0
24.420000 13.640000 2.200000 210 220 224 0
24.640000 13.640000 3.520000 210 220 224 0
24.860000 13.640000 3.740000 210 220 224 0
25.080000 13.640000 3.740000 209 219 224 0
25.300000 13.640000 3.960000 210 220 225 0
25.520000 13.640000 3.960000 209 219 223 0
25.740000 13.640000 3.960000 210 220 224 0
25.960000 13.640000 5.060000 210 220 224 0
26.180000 13.640000 5.940000 208 218 222 0
26.400000 13.640000 7.040000 209 218 222 0
26.620000 13.640000 7.040000 209 218 222 0
26.840000 13.640000 7.260000 210 218 224 0
27.060000 13.640000 7.260000 210 218 224 0
27.280000 13.640000 8.800000 209 218 222 0
27.500000 13.640000 8.800000 209 218 222 0
27.720000 13.640000 8.800000 209 218 222 0
27.940000 13.640000 8.800000 208 217 221 0
28.160000 13.640000 9.020000 208 217 221 0
28.380000 13.640000 9.020000 207 216 220 0
28.600000 13.640000 9.240000 206 214 220 0
28.820000 13.640000 9.240000 207 215 221 0
29.040000 13.640000 9.240000 206 214 220 0
29.260000 13.640000 9.460000 206 214 220 0
29.480000 13.640000 9.460000 206 215 219 0
29.700000 13.640000 11.000000 206 215 219 0
29.920000 13.640000 10.780000 206 215 219 0
30.140000 13.640000 12.760000 206 215 219 0
30.360000 13.640000 13.860000 207 215 221 0
30.580000 13.640000 14.080000 206 214 220 0
30.800000 13.640000 14.080000 205 213 219 0
31.020000 13.640000 14.080000 207 215 221 0
31.240000 13.640000 14.300000 208 216 222 0
31.460000 13.640000 14.300000 209 217 223 0
31.680000 13.640000 14.300000 209 219 224 0
31.900000 13.640000 14.520000 211 221 226 0
32.120000 13.640000 14.520000 210 220 225 0
32.340000 13.640000 14.740000 211 221 226 0
32.560000 13.640000 14.740000 210 220 227 0
32.780000 13.640000 14.740000 211 221 228 0
33.000000 13.640000 14.960000 210 222 229 0
33.220000 13.640000 14.960000 209 221 228 0
33.440000 13.640000 16.500000 209 223 231 0
33.660000 13.640000 16.280000 209 223 231 0
33.880000 13.640000 18.260000 209 223 231 0
34.100000 13.640000 19.360000 209 223 231 0
34.320000 13.640000 20.900000 210 222 229 0
34.540000 13.640000 20.900000 210 222 229 0
34.760000 13.640000 21.120000 210 224 230 0
34.980000 13.640000 21.120000 210 224 230 0
35.200000 13.640000 22.660000 210 224 232 0
35.420000 13.640000 22.660000 209 223 231 0
35.640000 13.640000 22.660000 209 223 231 0
35.860000 13.640000 22.880000 209 223 231 0
36.080000 13.640000 24.200000 211 221 226 0
36.300000 13.640000 24.420000 207 217 222 0
36.520000 13.640000 24.420000 206 215 219 0
36.740000 13.640000 24.420000 205 214 218 0
36.960000 13.640000 24.420000 205 213 219 0
37.180000 13.640000 23.100000 205 213 219 0
0.000000 13.860000 19.580000 177 122 99 0
0.220000 13.860000 19.580000 179 124 101 0
0.440000 13.860000 19.580000 179 124 101 0
0.660000 13.860000 18.260000 179 124 101 0
0.880000 13.860000 18.260000 176 125 103 0
1.100000 13.860000 18.260000 176 125 103 0
1.320000 13.860000 18.260000 177 126 102 0
1.540000 13.860000 18.260000 175 124 100 0
1.760000 13.860000 16.940000 176 123 102 0
1.980000 13.860000 16.940000 174 121 100 0
2.200000 13.860000 16.940000 171 122 102 0
2.420000 13.860000 16.940000 171 122 102 0
2.640000 13.860000 16.940000 172 123 103 0
2.860000 13.860000 16.940000 173 124 104 0
3.080000 13.860000 18.480000 172 125 104 0
3.300000 13.860000 18.480000 173 126 105 0
3.520000 13.860000 18.480000 171 125 105 0
3.740000 13.860000 18.480000 172 126 106 0
3.960000 13.860000 18.480000 174 126 107 0
4.180000 13.860000 18.480000 175 127 108 0
4.400000 13.860000 18.480000 177 129 110 0
4.620000 13.860000 18.480000 178 130 111 0
4.840000 13.860000 19.800000 178 132 112 0
5.060000 13.860000 20.020000 178 132 112 0
5.280000 13.860000 20.020000 179 136 115 0
5.500000 13.860000 20.020000 182 139 118 0
5.720000 13.860000 21.340000 183 141 122 0
5.940000 13.860000 21.340000 187 145 126 0
6.160000 13.860000 21.560000 188 146 127 0
6.380000 13.860000 21.560000 190 148 129 0
6.600000 13.860000 22.880000 192 150 131 0
6.820000 13.860000 22.880000 193 151 132 0
7.040000 13.860000 23.100000 194 152 133 0
7.260000 13.860000 24.420000 194 152 133 0
7.480000 13.860000 24.420000 190 152 134 0
7.700000 13.860000 24.420000 193 155 137 0
7.920000 13.860000 24.420000 195 166 147 0
8.140000 13.860000 24.420000 203 174 155 0
8.360000 13.860000 24.640000 207 178 159 0
8.580000 13.860000 24.640000 209 180 161 0
8.800000 13.860000 24.640000 210 178 158 0
9.020000 13.860000 24.640000 209 177 157 0
9.240000 13.860000 26.180000 210 178 158 0
9.460000 13.860000 26.180000 210 178 158 0
9.680000 13.860000 25.960000 211 179 161 0
9.900000 13.860000 28.160000 212 180 162 0
10.120000 13.860000 29.260000 210 181 162 0
10.340000 13.860000 29.040000 212 183 164 0
10.560000 13.860000 29.260000 214 182 162 0
10.780000 13.860000 29.260000 217 185 165 0
11.000000 13.860000 29.260000 218 186 166 0
11.220000 13.860000 29.260000 220 188 168 0
11.440000 13.860000 29.480000 219 191 174 0
11.660000 13.860000 29.480000 221 193 176 0
11.880000 13.860000 30.800000 222 194 178 0
12.100000 13.860000 31.020000 223 195 179 0
12.320000 13.860000 31.020000 222 194 177 0
12.540000 13.860000 31.020000 220 192 175 0
12.760000 13.860000 31.020000 220 188 168 0
12.980000 13.860000 31.240000 218 186 166 0
13.200000 13.860000 31.240000 219 187 167 0
13.420000 13.860000 32.780000 218 186 166 0
13.640000 13.860000 32.780000 217 188 169 0
13.860000 13.860000 32.780000 217 188 169 0
14.080000 13.860000 34.320000 219 187 169 0
14.300000 13.860000 34.320000 219 187 169 0
14.520000 13.860000 35.420000 218 186 166 0
14.740000 13.860000 36.300000 219 187 167 0
14.960000 13.860000 37.400000 220 188 170 0
15.180000 13.860000 37.620000 221 189 171 0
15.400000 13.860000 37.620000 220 188 170 0
15.620000 13.860000 38.940000 218 186 168 0
15.840000 13.860000 38.940000 218 185 165 0
16.060000 13.860000 39.160000 216 183 163 0
