ply
format ascii 1.0
element vertex 1126
property float x
property float y
property float z
property uchar red
property uchar green
property uchar blue
property uchar alpha
end_header
30.140000 15.840000 17.380000 202 157 113 0
30.360000 15.840000 18.480000 204 159 115 0
30.580000 15.840000 19.580000 206 160 119 0
30.800000 15.840000 20.900000 206 160 119 0
31.020000 15.840000 20.900000 208 162 121 0
31.240000 15.840000 21.120000 208 162 121 0
31.460000 15.840000 21.120000 209 165 123 0
31.680000 15.840000 21.120000 208 164 122 0
31.900000 15.840000 21.120000 208 162 121 0
32.120000 15.840000 21.340000 206 160 119 0
32.340000 15.840000 22.660000 207 159 118 0
32.560000 15.840000 21.340000 206 158 117 0
32.780000 15.840000 21.340000 205 157 114 0
33.000000 15.840000 21.340000 205 157 114 0
33.220000 15.840000 21.340000 205 157 114 0
33.440000 15.840000 21.560000 206 158 115 0
33.660000 15.840000 21.560000 204 159 115 0
33.880000 15.840000 22.880000 203 158 114 0
34.100000 15.840000 23.100000 205 159 118 0
34.320000 15.840000 23.100000 205 159 118 0
34.540000 15.840000 23.100000 206 160 119 0
34.760000 15.840000 23.100000 206 160 119 0
34.980000 15.840000 23.100000 205 155 117 0
35.200000 15.840000 23.100000 196 146 108 0
35.420000 15.840000 23.100000 191 138 102 0
35.640000 15.840000 23.100000 187 134 98 0
35.860000 15.840000 21.780000 182 127 92 0
36.080000 15.840000 21.780000 180 125 90 0
36.300000 15.840000 21.780000 180 126 93 0
36.520000 15.840000 21.780000 179 125 92 0
36.740000 15.840000 21.780000 181 126 91 0
36.960000 15.840000 21.780000 183 128 93 0
37.180000 15.840000 21.780000 183 132 98 0
0.000000 16.060000 1.320000 156 156 127 0
0.220000 16.060000 1.100000 152 150 120 0
0.440000 16.060000 1.100000 148 146 116 0
0.660000 16.060000 1.100000 146 141 114 0
0.880000 16.060000 1.100000 145 140 113 0
1.100000 16.060000 1.100000 144 138 109 0
1.320000 16.060000 1.100000 143 137 108 0
1.540000 16.060000 1.100000 141 137 107 0
1.760000 16.060000 1.100000 139 135 105 0
1.980000 16.060000 1.320000 139 135 105 0
2.200000 16.060000 1.320000 138 134 104 0
2.420000 16.060000 1.100000 139 133 104 0
2.640000 16.060000 1.100000 138 132 103 0
2.860000 16.060000 1.100000 138 132 103 0
3.080000 16.060000 1.100000 138 132 103 0
3.300000 16.060000 1.980000 137 131 102 0
3.520000 16.060000 2.860000 136 130 101 0
3.740000 16.060000 4.180000 136 130 101 0
3.960000 16.060000 2.860000 136 130 101 0
4.180000 16.060000 4.180000 134 128 99 0
4.400000 16.060000 4.180000 134 128 99 0
4.620000 16.060000 4.180000 133 127 98 0
4.840000 16.060000 4.180000 133 127 98 0
5.060000 16.060000 4.180000 133 127 98 0
5.280000 16.060000 4.180000 133 127 98 0
5.500000 16.060000 4.180000 133 125 97 0
5.720000 16.060000 4.180000 131 123 95 0
5.940000 16.060000 4.180000 130 123 92 0
6.160000 16.060000 4.180000 130 123 92 0
6.380000 16.060000 4.180000 131 123 95 0
6.600000 16.060000 4.180000 132 124 96 0
6.820000 16.060000 4.180000 132 125 94 0
7.040000 16.060000 4.180000 132 125 94 0
7.260000 16.060000 4.400000 132 125 94 0
7.480000 16.060000 4.400000 132 125 94 0
7.700000 16.060000 4.400000 132 125 92 0
7.920000 16.060000 4.180000 131 124 91 0
8.140000 16.060000 4.180000 131 124 93 0
8.360000 16.060000 4.180000 131 124 93 0
8.580000 16.060000 5.720000 133 123 93 0
8.800000 16.060000 5.720000 132 122 92 0
9.020000 16.060000 4.180000 134 124 94 0
9.240000 16.060000 4.180000 133 123 93 0
9.460000 16.060000 4.400000 134 124 92 0
9.680000 16.060000 4.400000 133 123 91 0
9.900000 16.060000 4.180000 133 123 91 0
10.120000 16.060000 5.720000 133 123 91 0
10.340000 16.060000 5.720000 134 124 92 0
10.560000 16.060000 5.720000 135 125 93 0
10.780000 16.060000 5.720000 134 124 92 0
11.000000 16.060000 5.720000 134 124 92 0
11.220000 16.060000 5.720000 134 125 91 0
11.440000 16.060000 5.720000 134 125 91 0
11.660000 16.060000 5.720000 135 124 92 0
11.880000 16.060000 5.720000 136 125 93 0
12.100000 16.060000 5.720000 136 125 93 0
12.320000 16.060000 5.720000 135 124 92 0
12.540000 16.060000 5.720000 135 125 93 0
12.760000 16.060000 5.720000 135 125 93 0
12.980000 16.060000 5.720000 134 125 91 0
13.200000 16.060000 5.720000 135 126 92 0
13.420000 16.060000 5.720000 136 125 92 0
13.640000 16.060000 5.720000 135 124 91 0
13.860000 16.060000 5.720000 135 124 91 0
14.080000 16.060000 5.720000 136 125 92 0
14.300000 16.060000 5.720000 136 125 92 0
14.520000 16.060000 5.720000 136 125 92 0
14.740000 16.060000 5.720000 135 124 91 0
14.960000 16.060000 5.720000 135 124 91 0
15.180000 16.060000 5.720000 137 123 91 0
15.400000 16.060000 5.720000 137 123 91 0
15.620000 16.060000 5.720000 138 124 92 0
15.840000 16.060000 5.720000 139 125 93 0
16.060000 16.060000 5.500000 143 126 93 0
16.280000 16.060000 5.500000 143 126 93 0
16.500000 16.060000 5.500000 146 127 92 0
16.720000 16.060000 5.500000 146 127 92 0
16.940000 16.060000 5.500000 147 128 93 0
17.160000 16.060000 5.500000 148 129 94 0
17.380000 16.060000 5.500000 149 128 94 0
17.600000 16.060000 5.500000 148 127 93 0
17.820000 16.060000 5.500000 148 127 93 0
18.040000 16.060000 7.040000 148 127 93 0
18.260000 16.060000 7.040000 147 128 93 0
18.480000 16.060000 7.040000 147 128 93 0
18.700000 16.060000 7.040000 147 128 93 0
18.920000 16.060000 7.040000 148 129 94 0
19.140000 16.060000 7.040000 149 128 94 0
19.360000 16.060000 7.040000 150 129 95 0
19.580000 16.060000 7.040000 149 128 94 0
19.800000 16.060000 7.040000 150 129 95 0
20.020000 16.060000 7.040000 150 129 95 0
20.240000 16.060000 7.040000 148 127 93 0
20.460000 16.060000 7.040000 148 127 91 0
20.680000 16.060000 7.040000 148 127 91 0
20.900000 16.060000 7.040000 150 127 91 0
21.120000 16.060000 7.040000 149 126 90 0
21.340000 16.060000 7.040000 149 126 90 0
21.560000 16.060000 7.040000 148 125 89 0
21.780000 16.060000 8.360000 149 125 92 0
22.000000 16.060000 8.360000 149 125 92 0
22.220000 16.060000 8.360000 147 126 90 0
22.440000 16.060000 8.360000 148 127 91 0
22.660000 16.060000 8.360000 150 127 91 0
22.880000 16.060000 8.360000 150 127 91 0
23.100000 16.060000 8.360000 149 126 90 0
23.320000 16.060000 8.360000 149 126 90 0
23.540000 16.060000 8.360000 149 125 92 0
23.760000 16.060000 8.580000 153 129 96 0
23.980000 16.060000 8.580000 165 130 95 0
24.200000 16.060000 8.580000 174 139 104 0
24.420000 16.060000 8.580000 189 145 101 0
24.640000 16.060000 8.580000 201 157 113 0
24.860000 16.060000 8.580000 203 166 119 0
25.080000 16.060000 8.800000 207 170 123 0
25.300000 16.060000 8.800000 209 171 127 0
25.520000 16.060000 8.800000 211 173 129 0
25.740000 16.060000 8.800000 210 177 131 0
25.960000 16.060000 9.020000 211 178 132 0
26.180000 16.060000 9.020000 212 178 135 0
26.400000 16.060000 10.560000 213 179 136 0
26.620000 16.060000 10.560000 211 182 137 0
26.840000 16.060000 10.560000 210 181 136 0
27.060000 16.060000 11.880000 213 178 135 0
27.280000 16.060000 12.980000 209 174 131 0
27.500000 16.060000 14.080000 210 166 122 0
27.720000 16.060000 14.080000 209 165 121 0
27.940000 16.060000 14.080000 206 161 117 0
28.160000 16.060000 14.080000 206 161 117 0
28.380000 16.060000 14.300000 204 159 115 0
28.600000 16.060000 14.300000 203 158 114 0
28.820000 16.060000 15.840000 202 157 113 0
29.040000 16.060000 15.840000 201 156 112 0
29.260000 16.060000 16.060000 201 156 112 0
29.480000 16.060000 16.060000 202 157 113 0
29.700000 16.060000 16.280000 201 156 112 0
29.920000 16.060000 16.280000 201 156 112 0
30.140000 16.060000 16.280000 202 156 115 0
30.360000 16.060000 17.600000 203 157 116 0
30.580000 16.060000 18.480000 204 160 116 0
30.800000 16.060000 19.580000 206 162 118 0
31.020000 16.060000 20.900000 207 162 118 0
31.240000 16.060000 20.900000 208 163 119 0
31.460000 16.060000 21.120000 208 164 122 0
31.680000 16.060000 21.120000 208 164 122 0
31.900000 16.060000 21.120000 208 164 122 0
32.120000 16.060000 21.120000 207 163 121 0
32.340000 16.060000 21.340000 207 161 120 0
32.560000 16.060000 22.660000 206 160 119 0
32.780000 16.060000 21.340000 204 159 115 0
33.000000 16.060000 21.340000 204 159 115 0
33.220000 16.060000 21.340000 204 158 117 0
33.440000 16.060000 21.560000 204 158 117 0
33.660000 16.060000 21.560000 204 158 117 0
33.880000 16.060000 22.880000 203 157 116 0
34.100000 16.060000 22.880000 204 158 117 0
34.320000 16.060000 23.100000 206 160 119 0
34.540000 16.060000 23.100000 206 160 119 0
34.760000 16.060000 23.100000 206 160 119 0
34.980000 16.060000 23.100000 206 160 119 0
35.200000 16.060000 23.100000 203 157 116 0
35.420000 16.060000 23.100000 198 152 111 0
35.640000 16.060000 23.320000 189 143 102 0
35.860000 16.060000 23.320000 186 136 98 0
36.080000 16.060000 23.320000 184 134 96 0
36.300000 16.060000 22.000000 184 130 97 0
36.520000 16.060000 22.000000 183 129 96 0
36.740000 16.060000 22.000000 183 130 94 0
36.960000 16.060000 22.000000 185 132 96 0
37.180000 16.060000 22.000000 186 133 97 0
0.000000 16.280000 1.100000 156 156 127 0
0.220000 16.280000 1.100000 152 150 120 0
0.440000 16.280000 1.100000 148 146 116 0
0.660000 16.280000 1.100000 147 142 115 0
0.880000 16.280000 1.100000 145 140 113 0
1.100000 16.280000 1.100000 145 139 110 0
1.320000 16.280000 1.100000 143 137 108 0
1.540000 16.280000 1.100000 141 137 107 0
1.760000 16.280000 1.320000 139 135 105 0
1.980000 16.280000 1.320000 140 136 106 0
2.200000 16.280000 1.320000 139 135 105 0
2.420000 16.280000 1.100000 139 133 104 0
2.640000 16.280000 2.200000 138 132 103 0
2.860000 16.280000 1.100000 138 132 103 0
3.080000 16.280000 1.100000 138 132 103 0
3.300000 16.280000 2.200000 137 131 102 0
3.520000 16.280000 3.080000 137 131 102 0
3.740000 16.280000 4.180000 136 130 101 0
3.960000 16.280000 2.860000 136 130 101 0
4.180000 16.280000 4.180000 136 130 101 0
4.400000 16.280000 4.180000 135 129 100 0
4.620000 16.280000 4.180000 133 127 98 0
4.840000 16.280000 4.180000 133 127 98 0
5.060000 16.280000 4.180000 134 128 99 0
5.280000 16.280000 4.180000 133 127 98 0
5.500000 16.280000 4.180000 133 125 97 0
5.720000 16.280000 4.180000 130 122 94 0
5.940000 16.280000 4.180000 128 121 90 0
6.160000 16.280000 4.180000 130 123 92 0
6.380000 16.280000 4.180000 132 124 96 0
6.600000 16.280000 4.180000 133 125 97 0
6.820000 16.280000 4.180000 133 126 95 0
7.040000 16.280000 4.180000 132 125 94 0
7.260000 16.280000 4.400000 132 125 94 0
7.480000 16.280000 4.400000 132 125 94 0
7.700000 16.280000 4.400000 132 125 92 0
7.920000 16.280000 4.180000 132 125 92 0
8.140000 16.280000 4.180000 133 126 95 0
8.360000 16.280000 4.180000 132 125 94 0
8.580000 16.280000 5.720000 132 122 92 0
8.800000 16.280000 5.720000 134 124 94 0
9.020000 16.280000 5.720000 133 123 93 0
9.240000 16.280000 5.720000 134 124 94 0
9.460000 16.280000 4.180000 133 123 91 0
9.680000 16.280000 4.180000 133 123 91 0
9.900000 16.280000 4.180000 134 124 92 0
10.120000 16.280000 5.720000 135 125 93 0
10.340000 16.280000 5.720000 135 125 93 0
10.560000 16.280000 5.720000 135 125 93 0
10.780000 16.280000 5.720000 135 125 93 0
11.000000 16.280000 5.720000 134 124 92 0
11.220000 16.280000 5.720000 135 126 92 0
11.440000 16.280000 5.720000 134 125 91 0
11.660000 16.280000 5.720000 135 124 92 0
11.880000 16.280000 5.720000 136 125 93 0
12.100000 16.280000 5.720000 136 125 93 0
12.320000 16.280000 5.720000 135 124 92 0
12.540000 16.280000 5.720000 134 124 92 0
12.760000 16.280000 5.720000 134 124 92 0
12.980000 16.280000 5.720000 135 126 92 0
13.200000 16.280000 5.720000 135 126 92 0
13.420000 16.280000 5.720000 137 126 93 0
13.640000 16.280000 5.720000 135 124 91 0
13.860000 16.280000 5.720000 136 125 92 0
14.080000 16.280000 5.720000 136 125 92 0
14.300000 16.280000 5.720000 136 125 92 0
14.520000 16.280000 5.720000 136 125 92 0
14.740000 16.280000 5.720000 135 124 91 0
14.960000 16.280000 5.720000 135 124 91 0
15.180000 16.280000 5.720000 137 123 91 0
15.400000 16.280000 5.720000 137 123 91 0
15.620000 16.280000 5.720000 138 124 92 0
15.840000 16.280000 5.720000 139 125 93 0
16.060000 16.280000 5.500000 143 126 93 0
16.280000 16.280000 5.500000 143 126 93 0
16.500000 16.280000 5.500000 147 128 93 0
16.720000 16.280000 5.500000 147 128 93 0
16.940000 16.280000 5.500000 149 130 95 0
17.160000 16.280000 5.500000 149 130 95 0
17.380000 16.280000 5.500000 150 129 95 0
17.600000 16.280000 5.500000 149 128 94 0
17.820000 16.280000 5.500000 148 127 93 0
18.040000 16.280000 7.040000 148 127 93 0
18.260000 16.280000 7.040000 146 127 92 0
18.480000 16.280000 7.040000 147 128 93 0
18.700000 16.280000 7.040000 148 129 94 0
18.920000 16.280000 7.040000 148 129 94 0
19.140000 16.280000 7.040000 150 129 95 0
19.360000 16.280000 7.040000 150 129 95 0
19.580000 16.280000 7.040000 149 128 94 0
19.800000 16.280000 7.040000 149 128 94 0
20.020000 16.280000 7.040000 148 127 93 0
20.240000 16.280000 7.040000 149 128 94 0
20.460000 16.280000 7.040000 149 128 92 0
20.680000 16.280000 7.040000 148 127 91 0
20.900000 16.280000 7.040000 150 127 91 0
21.120000 16.280000 7.040000 149 126 90 0
21.340000 16.280000 7.040000 149 126 90 0
21.560000 16.280000 7.040000 149 126 90 0
21.780000 16.280000 7.040000 149 125 92 0
22.000000 16.280000 8.360000 150 126 93 0
22.220000 16.280000 8.360000 147 126 90 0
22.440000 16.280000 8.360000 148 127 91 0
22.660000 16.280000 8.360000 151 128 92 0
22.880000 16.280000 8.360000 149 126 90 0
23.100000 16.280000 8.360000 150 127 91 0
23.320000 16.280000 8.360000 149 126 90 0
23.540000 16.280000 8.360000 151 127 94 0
23.760000 16.280000 8.580000 151 127 94 0
23.980000 16.280000 8.580000 162 127 92 0
24.200000 16.280000 8.580000 170 135 100 0
24.420000 16.280000 8.580000 186 142 98 0
24.640000 16.280000 8.580000 196 152 108 0
24.860000 16.280000 8.580000 199 162 115 0
25.080000 16.280000 8.580000 206 169 122 0
25.300000 16.280000 8.800000 207 169 125 0
25.520000 16.280000 8.800000 210 172 128 0
25.740000 16.280000 8.800000 209 176 130 0
25.960000 16.280000 9.020000 211 178 132 0
26.180000 16.280000 9.020000 212 178 135 0
26.400000 16.280000 10.560000 214 180 137 0
26.620000 16.280000 10.560000 211 182 137 0
26.840000 16.280000 10.560000 212 183 138 0
27.060000 16.280000 10.560000 215 180 137 0
27.280000 16.280000 11.880000 210 175 132 0
27.500000 16.280000 14.300000 212 168 124 0
27.720000 16.280000 14.080000 209 165 121 0
27.940000 16.280000 14.080000 207 162 118 0
28.160000 16.280000 14.080000 206 161 117 0
28.380000 16.280000 14.300000 205 160 116 0
28.600000 16.280000 14.300000 203 158 114 0
28.820000 16.280000 14.300000 203 158 114 0
29.040000 16.280000 15.840000 202 157 113 0
29.260000 16.280000 15.840000 203 158 114 0
29.480000 16.280000 16.060000 203 158 114 0
29.700000 16.280000 16.060000 202 157 113 0
29.920000 16.280000 16.280000 202 157 113 0
30.140000 16.280000 16.280000 203 157 116 0
30.360000 16.280000 16.500000 203 157 116 0
30.580000 16.280000 17.380000 204 160 116 0
30.800000 16.280000 19.580000 205 161 117 0
31.020000 16.280000 20.900000 207 162 118 0
31.240000 16.280000 20.900000 207 162 118 0
31.460000 16.280000 20.900000 207 163 121 0
31.680000 16.280000 21.120000 208 164 122 0
31.900000 16.280000 21.120000 210 166 124 0
32.120000 16.280000 21.120000 209 165 123 0
32.340000 16.280000 21.340000 209 163 122 0
32.560000 16.280000 21.340000 207 161 120 0
32.780000 16.280000 22.660000 207 162 118 0
33.000000 16.280000 21.340000 204 159 115 0
33.220000 16.280000 21.340000 205 159 118 0
33.440000 16.280000 21.560000 205 159 118 0
33.660000 16.280000 21.560000 205 159 118 0
33.880000 16.280000 22.880000 206 160 119 0
34.100000 16.280000 22.880000 206 160 119 0
34.320000 16.280000 23.100000 207 161 120 0
34.540000 16.280000 23.100000 206 160 119 0
34.760000 16.280000 23.100000 207 161 120 0
34.980000 16.280000 23.100000 207 161 120 0
35.200000 16.280000 23.100000 206 160 119 0
35.420000 16.280000 23.100000 206 160 119 0
35.640000 16.280000 23.320000 201 155 114 0
35.860000 16.280000 23.320000 200 150 112 0
36.080000 16.280000 23.320000 196 146 108 0
36.300000 16.280000 23.320000 194 140 107 0
36.520000 16.280000 23.320000 191 137 104 0
36.740000 16.280000 23.320000 189 136 100 0
36.960000 16.280000 23.320000 188 135 99 0
37.180000 16.280000 23.320000 188 135 99 0
0.000000 16.500000 1.100000 156 156 127 0
0.220000 16.500000 1.100000 153 149 119 0
0.440000 16.500000 1.100000 149 145 115 0
0.660000 16.500000 1.100000 149 143 114 0
0.880000 16.500000 1.100000 146 140 111 0
1.100000 16.500000 1.100000 145 139 110 0
1.320000 16.500000 1.100000 143 137 108 0
1.540000 16.500000 1.100000 142 136 107 0
1.760000 16.500000 1.320000 142 136 107 0
1.980000 16.500000 1.320000 141 135 106 0
2.200000 16.500000 1.320000 140 134 105 0
2.420000 16.500000 1.100000 140 134 105 0
2.640000 16.500000 2.420000 139 133 104 0
2.860000 16.500000 2.420000 139 133 104 0
3.080000 16.500000 1.100000 138 132 103 0
3.300000 16.500000 2.420000 137 131 100 0
3.520000 16.500000 3.080000 137 131 100 0
3.740000 16.500000 3.080000 137 131 100 0
3.960000 16.500000 3.300000 138 132 101 0
4.180000 16.500000 3.080000 135 129 98 0
4.400000 16.500000 4.180000 135 129 98 0
4.620000 16.500000 4.180000 135 128 97 0
4.840000 16.500000 4.180000 135 128 97 0
5.060000 16.500000 4.180000 134 128 97 0
5.280000 16.500000 4.180000 133 127 96 0
5.500000 16.500000 4.180000 134 127 96 0
5.720000 16.500000 4.180000 132 125 94 0
5.940000 16.500000 4.180000 130 123 92 0
6.160000 16.500000 4.180000 131 124 93 0
6.380000 16.500000 4.180000 132 125 94 0
6.600000 16.500000 4.180000 133 126 95 0
6.820000 16.500000 4.180000 133 126 95 0
7.040000 16.500000 4.180000 133 126 95 0
7.260000 16.500000 4.400000 134 124 94 0
7.480000 16.500000 4.180000 134 124 94 0
7.700000 16.500000 4.180000 132 125 94 0
7.920000 16.500000 4.400000 132 125 94 0
8.140000 16.500000 4.400000 134 124 94 0
8.360000 16.500000 4.180000 134 124 94 0
8.580000 16.500000 5.720000 133 123 91 0
8.800000 16.500000 5.720000 134 124 92 0
9.020000 16.500000 5.720000 134 124 92 0
9.240000 16.500000 4.180000 134 124 92 0
9.460000 16.500000 4.400000 134 124 92 0
9.680000 16.500000 4.400000 135 125 93 0
9.900000 16.500000 4.400000 134 124 92 0
10.120000 16.500000 5.720000 135 125 93 0
10.340000 16.500000 5.720000 134 124 92 0
10.560000 16.500000 5.720000 135 125 93 0
10.780000 16.500000 5.720000 134 124 92 0
11.000000 16.500000 5.720000 135 125 93 0
11.220000 16.500000 5.720000 134 124 92 0
11.440000 16.500000 5.720000 134 124 92 0
11.660000 16.500000 5.720000 136 125 93 0
11.880000 16.500000 5.720000 135 124 92 0
12.100000 16.500000 5.720000 136 125 92 0
12.320000 16.500000 5.720000 136 125 92 0
12.540000 16.500000 5.720000 136 125 93 0
12.760000 16.500000 5.720000 135 124 92 0
12.980000 16.500000 5.720000 136 127 93 0
13.200000 16.500000 5.720000 136 127 93 0
13.420000 16.500000 5.720000 137 126 93 0
13.640000 16.500000 5.720000 137 126 93 0
13.860000 16.500000 5.720000 137 126 93 0
14.080000 16.500000 5.720000 137 126 93 0
14.300000 16.500000 5.720000 136 125 92 0
14.520000 16.500000 5.720000 136 125 92 0
14.740000 16.500000 5.720000 136 125 92 0
14.960000 16.500000 5.720000 136 125 92 0
15.180000 16.500000 5.720000 138 124 92 0
15.400000 16.500000 5.720000 138 124 92 0
15.620000 16.500000 5.720000 139 124 90 0
15.840000 16.500000 5.720000 141 126 92 0
16.060000 16.500000 5.720000 143 126 91 0
16.280000 16.500000 5.500000 145 128 93 0
16.500000 16.500000 5.500000 148 127 91 0
16.720000 16.500000 5.500000 150 129 93 0
16.940000 16.500000 5.500000 149 130 93 0
17.160000 16.500000 5.500000 149 130 93 0
17.380000 16.500000 5.500000 148 129 92 0
17.600000 16.500000 5.500000 148 129 92 0
17.820000 16.500000 7.040000 149 128 92 0
18.040000 16.500000 7.040000 150 129 93 0
18.260000 16.500000 7.040000 149 128 92 0
18.480000 16.500000 7.040000 147 126 90 0
18.700000 16.500000 7.040000 149 128 92 0
18.920000 16.500000 7.040000 148 127 91 0
19.140000 16.500000 7.040000 149 128 92 0
19.360000 16.500000 7.040000 149 128 92 0
19.580000 16.500000 7.040000 151 128 92 0
19.800000 16.500000 7.040000 151 128 92 0
20.020000 16.500000 7.040000 149 126 90 0
20.240000 16.500000 7.040000 150 127 91 0
20.460000 16.500000 7.040000 148 127 91 0
20.680000 16.500000 7.040000 147 126 90 0
20.900000 16.500000 7.040000 150 127 91 0
21.120000 16.500000 7.040000 150 127 91 0
21.340000 16.500000 7.040000 149 126 90 0
21.560000 16.500000 7.040000 150 127 91 0
21.780000 16.500000 7.040000 149 126 90 0
22.000000 16.500000 8.360000 149 126 90 0
22.220000 16.500000 8.360000 149 126 90 0
22.440000 16.500000 8.360000 149 126 90 0
22.660000 16.500000 8.360000 150 127 91 0
22.880000 16.500000 8.360000 150 127 91 0
23.100000 16.500000 8.360000 151 126 91 0
23.320000 16.500000 8.360000 151 126 91 0
23.540000 16.500000 8.360000 149 126 90 0
23.760000 16.500000 8.360000 150 127 91 0
23.980000 16.500000 8.580000 154 129 93 0
24.200000 16.500000 8.580000 157 132 96 0
24.420000 16.500000 8.580000 176 138 96 0
24.640000 16.500000 8.580000 185 147 105 0
24.860000 16.500000 8.580000 198 156 111 0
25.080000 16.500000 8.580000 205 163 118 0
25.300000 16.500000 8.800000 208 166 121 0
25.520000 16.500000 8.800000 213 171 126 0
25.740000 16.500000 8.800000 212 175 128 0
25.960000 16.500000 8.800000 213 176 129 0
26.180000 16.500000 9.020000 213 179 136 0
26.400000 16.500000 10.340000 214 180 137 0
26.620000 16.500000 10.560000 215 181 138 0
26.840000 16.500000 10.560000 215 181 138 0
27.060000 16.500000 10.780000 216 181 138 0
27.280000 16.500000 11.880000 212 177 134 0
27.500000 16.500000 12.980000 213 169 125 0
27.720000 16.500000 14.080000 208 164 120 0
27.940000 16.500000 14.080000 208 160 115 0
28.160000 16.500000 14.080000 208 160 115 0
28.380000 16.500000 14.300000 206 158 113 0
28.600000 16.500000 14.300000 205 157 112 0
28.820000 16.500000 14.300000 205 157 114 0
29.040000 16.500000 14.300000 205 157 114 0
29.260000 16.500000 15.840000 203 158 114 0
29.480000 16.500000 16.060000 202 157 113 0
29.700000 16.500000 16.060000 204 156 113 0
29.920000 16.500000 16.280000 203 155 112 0
30.140000 16.500000 16.280000 204 156 113 0
30.360000 16.500000 16.500000 204 156 113 0
30.580000 16.500000 17.600000 203 157 116 0
30.800000 16.500000 18.480000 204 158 117 0
31.020000 16.500000 19.580000 207 162 118 0
31.240000 16.500000 20.900000 207 162 118 0
31.460000 16.500000 20.900000 207 162 118 0
31.680000 16.500000 21.120000 208 163 119 0
31.900000 16.500000 21.120000 209 167 126 0
32.120000 16.500000 21.120000 210 168 127 0
32.340000 16.500000 21.120000 212 168 128 0
32.560000 16.500000 21.340000 210 166 126 0
32.780000 16.500000 22.660000 208 162 121 0
33.000000 16.500000 22.660000 208 162 121 0
33.220000 16.500000 21.340000 206 160 119 0
33.440000 16.500000 21.560000 206 160 119 0
33.660000 16.500000 21.560000 208 162 121 0
33.880000 16.500000 22.880000 207 161 120 0
34.100000 16.500000 22.880000 207 161 120 0
34.320000 16.500000 23.100000 207 161 120 0
34.540000 16.500000 23.100000 206 160 119 0
34.760000 16.500000 23.100000 207 161 120 0
34.980000 16.500000 23.100000 207 161 120 0
35.200000 16.500000 23.100000 208 162 121 0
35.420000 16.500000 23.100000 208 162 121 0
35.640000 16.500000 23.320000 207 161 120 0
35.860000 16.500000 23.320000 204 158 119 0
36.080000 16.500000 23.320000 203 157 118 0
36.300000 16.500000 23.320000 199 150 112 0
36.520000 16.500000 23.320000 197 148 110 0
36.740000 16.500000 23.540000 198 145 108 0
36.960000 16.500000 23.320000 193 140 103 0
37.180000 16.500000 23.320000 193 140 103 0
0.000000 16.720000 1.100000 156 156 127 0
0.220000 16.720000 1.100000 154 150 120 0
0.440000 16.720000 1.100000 150 146 116 0
0.660000 16.720000 1.100000 149 143 114 0
0.880000 16.720000 1.100000 148 142 113 0
1.100000 16.720000 1.100000 145 139 110 0
1.320000 16.720000 1.100000 145 139 110 0
1.540000 16.720000 1.100000 142 136 107 0
1.760000 16.720000 1.100000 142 136 107 0
1.980000 16.720000 1.100000 142 136 107 0
2.200000 16.720000 1.100000 141 135 106 0
2.420000 16.720000 1.320000 140 134 105 0
2.640000 16.720000 1.100000 140 134 105 0
2.860000 16.720000 2.420000 139 133 104 0
3.080000 16.720000 1.100000 139 133 104 0
3.300000 16.720000 2.420000 138 132 101 0
3.520000 16.720000 3.300000 137 131 100 0
3.740000 16.720000 3.080000 137 131 100 0
3.960000 16.720000 3.080000 137 131 100 0
4.180000 16.720000 3.080000 137 131 100 0
4.400000 16.720000 2.860000 135 129 98 0
4.620000 16.720000 4.400000 135 128 97 0
4.840000 16.720000 4.180000 135 128 97 0
5.060000 16.720000 4.400000 133 127 96 0
5.280000 16.720000 4.400000 133 127 96 0
5.500000 16.720000 4.180000 135 128 97 0
5.720000 16.720000 4.180000 134 127 96 0
5.940000 16.720000 4.400000 132 125 94 0
6.160000 16.720000 4.400000 132 125 94 0
6.380000 16.720000 4.180000 132 125 94 0
6.600000 16.720000 4.180000 132 125 94 0
6.820000 16.720000 4.180000 133 126 95 0
7.040000 16.720000 4.180000 134 127 96 0
7.260000 16.720000 4.180000 135 125 95 0
7.480000 16.720000 4.180000 134 124 94 0
7.700000 16.720000 4.180000 131 124 93 0
7.920000 16.720000 4.400000 132 125 94 0
8.140000 16.720000 4.400000 135 125 95 0
8.360000 16.720000 4.400000 134 124 94 0
8.580000 16.720000 4.180000 135 125 93 0
8.800000 16.720000 5.720000 134 124 92 0
9.020000 16.720000 5.720000 134 124 92 0
9.240000 16.720000 5.720000 135 125 93 0
9.460000 16.720000 4.400000 134 124 92 0
9.680000 16.720000 4.400000 135 125 93 0
9.900000 16.720000 4.400000 134 124 92 0
10.120000 16.720000 5.720000 134 124 92 0
10.340000 16.720000 5.720000 135 125 93 0
10.560000 16.720000 5.720000 134 124 92 0
10.780000 16.720000 5.720000 134 124 92 0
11.000000 16.720000 5.720000 134 124 92 0
11.220000 16.720000 5.720000 135 125 93 0
11.440000 16.720000 5.720000 134 124 92 0
11.660000 16.720000 5.720000 136 125 93 0
11.880000 16.720000 5.720000 136 125 93 0
12.100000 16.720000 5.720000 136 125 92 0
12.320000 16.720000 5.720000 136 125 92 0
12.540000 16.720000 5.720000 136 125 93 0
12.760000 16.720000 5.720000 136 125 93 0
12.980000 16.720000 5.720000 135 126 92 0
13.200000 16.720000 5.720000 136 127 93 0
13.420000 16.720000 5.720000 137 126 93 0
13.640000 16.720000 5.720000 136 125 92 0
13.860000 16.720000 5.720000 137 126 93 0
14.080000 16.720000 5.720000 137 126 93 0
14.300000 16.720000 5.720000 136 125 92 0
14.520000 16.720000 5.720000 136 125 92 0
14.740000 16.720000 5.720000 137 126 93 0
14.960000 16.720000 5.720000 136 125 92 0
15.180000 16.720000 5.720000 138 124 92 0
15.400000 16.720000 5.720000 138 124 92 0
15.620000 16.720000 5.720000 140 125 91 0
15.840000 16.720000 5.720000 142 127 93 0
16.060000 16.720000 5.720000 143 126 91 0
16.280000 16.720000 5.500000 146 129 94 0
16.500000 16.720000 5.500000 149 128 92 0
16.720000 16.720000 5.500000 150 129 93 0
16.940000 16.720000 5.500000 149 130 93 0
17.160000 16.720000 5.500000 149 130 93 0
17.380000 16.720000 5.500000 149 130 93 0
17.600000 16.720000 5.500000 148 129 92 0
17.820000 16.720000 7.040000 149 128 92 0
18.040000 16.720000 7.040000 148 127 91 0
18.260000 16.720000 7.040000 148 127 91 0
18.480000 16.720000 7.040000 147 126 90 0
18.700000 16.720000 7.040000 148 127 91 0
18.920000 16.720000 7.040000 149 128 92 0
19.140000 16.720000 7.040000 149 128 92 0
19.360000 16.720000 7.040000 150 129 93 0
19.580000 16.720000 7.040000 151 128 92 0
19.800000 16.720000 7.040000 150 127 91 0
20.020000 16.720000 7.040000 150 127 91 0
20.240000 16.720000 7.040000 150 127 91 0
20.460000 16.720000 7.040000 146 125 89 0
20.680000 16.720000 7.040000 147 126 90 0
20.900000 16.720000 7.040000 150 127 91 0
21.120000 16.720000 7.040000 150 127 91 0
21.340000 16.720000 7.040000 149 126 90 0
21.560000 16.720000 7.040000 150 127 91 0
21.780000 16.720000 7.040000 150 127 91 0
22.000000 16.720000 8.360000 149 126 90 0
22.220000 16.720000 8.360000 149 126 90 0
22.440000 16.720000 8.360000 149 126 90 0
22.660000 16.720000 8.360000 149 126 90 0
22.880000 16.720000 8.360000 149 126 90 0
23.100000 16.720000 8.360000 150 125 90 0
23.320000 16.720000 8.360000 150 125 90 0
23.540000 16.720000 8.360000 149 126 90 0
23.760000 16.720000 8.360000 149 126 90 0
23.980000 16.720000 8.580000 151 126 90 0
24.200000 16.720000 8.580000 155 130 94 0
24.420000 16.720000 8.580000 171 133 91 0
24.640000 16.720000 8.580000 181 143 101 0
24.860000 16.720000 8.580000 192 150 105 0
25.080000 16.720000 8.580000 201 159 114 0
25.300000 16.720000 8.580000 205 163 118 0
25.520000 16.720000 8.800000 209 167 122 0
25.740000 16.720000 8.800000 210 173 126 0
25.960000 16.720000 8.800000 212 175 128 0
26.180000 16.720000 9.020000 211 177 134 0
26.400000 16.720000 9.020000 214 180 137 0
26.620000 16.720000 10.560000 215 181 138 0
26.840000 16.720000 10.560000 214 180 137 0
27.060000 16.720000 10.560000 215 180 137 0
27.280000 16.720000 11.880000 210 175 132 0
27.500000 16.720000 12.980000 212 168 124 0
27.720000 16.720000 14.080000 208 164 120 0
27.940000 16.720000 14.080000 207 159 114 0
28.160000 16.720000 14.080000 206 158 113 0
28.380000 16.720000 14.080000 206 158 113 0
28.600000 16.720000 14.300000 205 157 112 0
28.820000 16.720000 14.300000 204 156 113 0
29.040000 16.720000 14.300000 204 156 113 0
29.260000 16.720000 14.520000 203 158 114 0
29.480000 16.720000 15.840000 203 158 114 0
29.700000 16.720000 16.060000 205 157 114 0
29.920000 16.720000 16.060000 205 157 114 0
30.140000 16.720000 16.280000 204 156 113 0
30.360000 16.720000 16.280000 203 155 112 0
30.580000 16.720000 16.280000 203 157 116 0
30.800000 16.720000 17.600000 203 157 116 0
31.020000 16.720000 19.800000 204 159 115 0
31.240000 16.720000 20.900000 205 160 116 0
31.460000 16.720000 20.900000 207 162 118 0
31.680000 16.720000 20.900000 208 163 119 0
31.900000 16.720000 21.120000 210 168 127 0
32.120000 16.720000 21.120000 211 169 128 0
32.340000 16.720000 21.120000 212 168 128 0
32.560000 16.720000 21.120000 213 169 129 0
32.780000 16.720000 22.660000 213 167 126 0
33.000000 16.720000 22.660000 212 166 125 0
33.220000 16.720000 22.660000 210 164 123 0
33.440000 16.720000 22.880000 209 163 122 0
33.660000 16.720000 22.880000 210 164 123 0
33.880000 16.720000 22.880000 209 163 122 0
34.100000 16.720000 22.880000 209 163 122 0
34.320000 16.720000 23.100000 208 162 121 0
34.540000 16.720000 23.100000 209 163 122 0
34.760000 16.720000 23.100000 208 162 121 0
34.980000 16.720000 23.100000 209 163 122 0
35.200000 16.720000 23.100000 209 163 122 0
35.420000 16.720000 23.100000 208 162 121 0
35.640000 16.720000 23.320000 208 162 121 0
35.860000 16.720000 23.320000 207 161 122 0
36.080000 16.720000 23.320000 206 160 121 0
36.300000 16.720000 23.320000 207 158 120 0
36.520000 16.720000 23.320000 204 155 117 0
36.740000 16.720000 23.540000 206 153 116 0
36.960000 16.720000 24.640000 201 148 111 0
37.180000 16.720000 24.420000 199 146 109 0
0.000000 16.940000 1.100000 157 155 127 0
0.220000 16.940000 1.100000 156 150 121 0
0.440000 16.940000 1.100000 153 147 118 0
0.660000 16.940000 1.100000 149 145 115 0
0.880000 16.940000 1.100000 146 142 112 0
1.100000 16.940000 1.100000 146 140 111 0
1.320000 16.940000 1.100000 144 138 109 0
1.540000 16.940000 1.100000 143 137 108 0
1.760000 16.940000 1.100000 142 136 107 0
1.980000 16.940000 1.100000 142 136 107 0
2.200000 16.940000 1.100000 140 134 105 0
2.420000 16.940000 1.320000 141 135 106 0
2.640000 16.940000 1.100000 140 134 105 0
2.860000 16.940000 2.420000 140 134 105 0
3.080000 16.940000 2.420000 139 133 104 0
3.300000 16.940000 2.200000 139 133 104 0
3.520000 16.940000 3.080000 138 132 103 0
3.740000 16.940000 4.400000 137 131 102 0
3.960000 16.940000 4.400000 138 132 103 0
4.180000 16.940000 4.400000 137 131 102 0
4.400000 16.940000 2.860000 136 130 101 0
4.620000 16.940000 4.400000 136 130 99 0
4.840000 16.940000 4.180000 135 129 98 0
5.060000 16.940000 4.400000 135 127 99 0
5.280000 16.940000 4.400000 134 126 98 0
5.500000 16.940000 4.400000 135 128 97 0
5.720000 16.940000 4.400000 134 127 96 0
5.940000 16.940000 4.400000 132 125 94 0
6.160000 16.940000 4.400000 131 124 93 0
6.380000 16.940000 4.400000 132 125 94 0
6.600000 16.940000 4.400000 133 126 95 0
6.820000 16.940000 4.400000 134 127 96 0
7.040000 16.940000 4.400000 134 127 96 0
7.260000 16.940000 4.400000 133 126 95 0
7.480000 16.940000 4.400000 132 125 94 0
7.700000 16.940000 4.400000 132 125 94 0
7.920000 16.940000 4.400000 133 126 95 0
8.140000 16.940000 4.400000 135 125 95 0
8.360000 16.940000 4.400000 134 124 94 0
8.580000 16.940000 4.400000 135 125 95 0
8.800000 16.940000 5.720000 133 123 93 0
9.020000 16.940000 5.720000 135 125 93 0
9.240000 16.940000 5.720000 134 124 92 0
9.460000 16.940000 4.400000 133 123 91 0
9.680000 16.940000 4.400000 134 124 92 0
9.900000 16.940000 5.720000 135 125 93 0
10.120000 16.940000 5.720000 135 125 93 0
10.340000 16.940000 5.720000 135 125 93 0
10.560000 16.940000 5.720000 134 124 92 0
10.780000 16.940000 5.720000 135 125 93 0
11.000000 16.940000 5.720000 135 125 93 0
11.220000 16.940000 5.720000 134 124 92 0
11.440000 16.940000 5.720000 135 125 93 0
11.660000 16.940000 5.720000 136 125 93 0
11.880000 16.940000 5.720000 136 125 93 0
12.100000 16.940000 5.720000 134 124 92 0
12.320000 16.940000 5.720000 135 125 93 0
12.540000 16.940000 5.720000 137 126 93 0
12.760000 16.940000 5.720000 136 125 92 0
12.980000 16.940000 5.720000 137 126 93 0
13.200000 16.940000 5.720000 137 126 93 0
13.420000 16.940000 5.720000 137 126 93 0
13.640000 16.940000 5.720000 135 124 91 0
13.860000 16.940000 5.720000 136 125 92 0
14.080000 16.940000 5.720000 136 125 92 0
14.300000 16.940000 5.720000 138 124 92 0
14.520000 16.940000 5.720000 138 124 92 0
14.740000 16.940000 5.720000 138 124 92 0
14.960000 16.940000 5.720000 138 124 92 0
15.180000 16.940000 5.720000 138 124 92 0
15.400000 16.940000 5.720000 138 124 92 0
15.620000 16.940000 5.720000 140 125 91 0
15.840000 16.940000 5.720000 141 126 92 0
16.060000 16.940000 5.720000 146 127 90 0
16.280000 16.940000 5.720000 148 129 92 0
16.500000 16.940000 5.500000 150 129 93 0
16.720000 16.940000 5.500000 150 129 93 0
16.940000 16.940000 5.500000 150 131 94 0
17.160000 16.940000 5.500000 150 131 94 0
17.380000 16.940000 5.500000 148 129 94 0
17.600000 16.940000 5.500000 148 129 94 0
17.820000 16.940000 7.040000 148 127 91 0
18.040000 16.940000 7.040000 149 128 92 0
18.260000 16.940000 7.040000 148 127 91 0
18.480000 16.940000 7.040000 148 127 91 0
18.700000 16.940000 7.040000 147 126 90 0
18.920000 16.940000 7.040000 147 126 90 0
19.140000 16.940000 7.040000 148 127 91 0
19.360000 16.940000 7.040000 149 128 92 0
19.580000 16.940000 7.040000 151 128 92 0
19.800000 16.940000 7.040000 150 127 91 0
20.020000 16.940000 7.040000 150 127 91 0
20.240000 16.940000 7.040000 150 127 91 0
20.460000 16.940000 7.040000 149 126 90 0
20.680000 16.940000 7.040000 150 127 91 0
20.900000 16.940000 7.040000 151 128 92 0
21.120000 16.940000 7.040000 150 127 91 0
21.340000 16.940000 7.040000 149 126 90 0
21.560000 16.940000 7.040000 149 126 90 0
21.780000 16.940000 7.040000 148 125 89 0
22.000000 16.940000 8.360000 149 126 90 0
22.220000 16.940000 8.360000 149 126 90 0
22.440000 16.940000 8.360000 149 126 90 0
22.660000 16.940000 8.360000 148 125 89 0
22.880000 16.940000 8.360000 149 126 90 0
23.100000 16.940000 8.360000 148 125 89 0
23.320000 16.940000 8.360000 149 126 90 0
23.540000 16.940000 8.360000 148 125 89 0
23.760000 16.940000 8.360000 148 125 89 0
23.980000 16.940000 8.580000 149 126 90 0
24.200000 16.940000 8.580000 151 128 92 0
24.420000 16.940000 8.580000 164 129 94 0
24.640000 16.940000 8.580000 170 135 100 0
24.860000 16.940000 8.580000 183 145 103 0
25.080000 16.940000 8.580000 191 153 111 0
25.300000 16.940000 8.580000 201 157 113 0
25.520000 16.940000 8.800000 206 162 118 0
25.740000 16.940000 8.800000 206 168 124 0
25.960000 16.940000 8.800000 212 174 130 0
26.180000 16.940000 9.020000 210 177 131 0
26.400000 16.940000 10.340000 212 179 133 0
26.620000 16.940000 10.560000 213 179 136 0
26.840000 16.940000 10.560000 214 180 137 0
27.060000 16.940000 10.560000 213 179 136 0
27.280000 16.940000 10.780000 211 177 134 0
27.500000 16.940000 11.880000 211 172 128 0
27.720000 16.940000 14.300000 205 166 122 0
27.940000 16.940000 14.080000 204 159 115 0
28.160000 16.940000 14.080000 204 159 115 0
28.380000 16.940000 14.080000 203 158 112 0
28.600000 16.940000 14.300000 203 158 112 0
28.820000 16.940000 14.300000 203 155 110 0
29.040000 16.940000 14.300000 204 156 111 0
29.260000 16.940000 14.300000 205 157 114 0
29.480000 16.940000 14.520000 205 157 114 0
29.700000 16.940000 16.060000 204 159 115 0
29.920000 16.940000 16.060000 203 158 114 0
30.140000 16.940000 16.060000 202 157 113 0
30.360000 16.940000 16.280000 202 157 113 0
30.580000 16.940000 16.280000 202 157 113 0
30.800000 16.940000 16.500000 203 158 114 0
31.020000 16.940000 17.380000 203 158 114 0
31.240000 16.940000 19.580000 204 159 115 0
31.460000 16.940000 20.900000 206 161 117 0
31.680000 16.940000 20.900000 207 162 118 0
31.900000 16.940000 20.900000 210 166 124 0
32.120000 16.940000 21.120000 211 167 125 0
32.340000 16.940000 21.120000 213 171 130 0
32.560000 16.940000 21.120000 213 171 130 0
32.780000 16.940000 21.340000 210 170 129 0
33.000000 16.940000 22.660000 211 171 130 0
33.220000 16.940000 22.660000 209 171 130 0
33.440000 16.940000 22.880000 209 171 130 0
33.660000 16.940000 22.880000 210 172 131 0
33.880000 16.940000 22.880000 209 171 130 0
34.100000 16.940000 22.880000 209 165 123 0
34.320000 16.940000 22.880000 209 165 123 0
34.540000 16.940000 23.100000 208 166 123 0
34.760000 16.940000 23.100000 209 167 124 0
34.980000 16.940000 23.100000 210 164 123 0
35.200000 16.940000 23.100000 210 164 123 0
35.420000 16.940000 23.100000 210 164 123 0
35.640000 16.940000 23.100000 210 164 123 0
35.860000 16.940000 23.320000 208 162 123 0
36.080000 16.940000 23.320000 209 163 124 0
36.300000 16.940000 23.320000 209 163 124 0
36.520000 16.940000 24.860000 207 161 122 0
36.740000 16.940000 24.860000 207 161 122 0
36.960000 16.940000 24.420000 203 157 118 0
37.180000 16.940000 25.520000 200 154 115 0
0.000000 17.160000 1.100000 159 157 129 0
0.220000 17.160000 1.100000 157 151 122 0
0.440000 17.160000 1.100000 152 146 117 0
0.660000 17.160000 1.100000 149 145 115 0
0.880000 17.160000 1.100000 147 143 113 0
1.100000 17.160000 1.100000 146 140 111 0
1.320000 17.160000 1.100000 145 139 110 0
1.540000 17.160000 1.100000 143 137 108 0
1.760000 17.160000 1.100000 143 137 108 0
1.980000 17.160000 1.100000 142 136 107 0
2.200000 17.160000 1.100000 141 135 106 0
2.420000 17.160000 1.320000 140 134 105 0
2.640000 17.160000 2.420000 140 134 105 0
2.860000 17.160000 2.200000 140 134 105 0
3.080000 17.160000 2.200000 139 133 104 0
3.300000 17.160000 3.300000 139 133 104 0
3.520000 17.160000 4.180000 137 131 102 0
3.740000 17.160000 4.180000 139 133 104 0
3.960000 17.160000 4.180000 139 133 104 0
4.180000 17.160000 4.180000 138 132 103 0
4.400000 17.160000 4.180000 137 131 102 0
4.620000 17.160000 4.180000 136 130 99 0
4.840000 17.160000 4.400000 135 129 98 0
5.060000 17.160000 4.400000 136 128 100 0
5.280000 17.160000 4.400000 136 128 100 0
5.500000 17.160000 4.400000 135 128 97 0
5.720000 17.160000 4.400000 135 128 97 0
5.940000 17.160000 4.180000 133 126 95 0
6.160000 17.160000 4.180000 130 123 92 0
6.380000 17.160000 4.400000 131 124 93 0
6.600000 17.160000 4.400000 132 125 94 0
6.820000 17.160000 4.400000 134 127 96 0
7.040000 17.160000 4.400000 134 127 96 0
7.260000 17.160000 4.400000 133 126 95 0
7.480000 17.160000 4.400000 133 126 95 0
7.700000 17.160000 4.400000 133 126 95 0
7.920000 17.160000 4.400000 133 126 95 0
8.140000 17.160000 4.400000 134 124 94 0
8.360000 17.160000 4.400000 135 125 95 0
8.580000 17.160000 4.400000 135 125 95 0
8.800000 17.160000 4.400000 135 125 95 0
9.020000 17.160000 5.720000 134 124 92 0
9.240000 17.160000 5.720000 135 125 93 0
9.460000 17.160000 4.400000 134 124 92 0
9.680000 17.160000 5.720000 134 124 92 0
9.900000 17.160000 5.720000 134 124 92 0
10.120000 17.160000 5.720000 135 125 93 0
10.340000 17.160000 5.720000 135 125 93 0
10.560000 17.160000 5.720000 135 125 93 0
10.780000 17.160000 5.720000 135 125 93 0
11.000000 17.160000 5.720000 135 125 93 0
11.220000 17.160000 5.720000 135 125 93 0
11.440000 17.160000 5.720000 135 125 93 0
11.660000 17.160000 5.720000 136 125 93 0
11.880000 17.160000 5.720000 136 125 93 0
12.100000 17.160000 5.720000 134 124 92 0
12.320000 17.160000 5.720000 135 125 93 0
12.540000 17.160000 5.720000 137 126 93 0
12.760000 17.160000 5.720000 137 126 93 0
12.980000 17.160000 5.720000 136 125 92 0
13.200000 17.160000 5.720000 136 125 92 0
13.420000 17.160000 5.720000 136 125 92 0
13.640000 17.160000 5.720000 137 126 93 0
13.860000 17.160000 5.720000 137 126 93 0
14.080000 17.160000 5.720000 137 126 93 0
14.300000 17.160000 5.720000 138 124 92 0
14.520000 17.160000 5.720000 139 125 93 0
14.740000 17.160000 7.040000 138 124 92 0
14.960000 17.160000 7.040000 138 124 92 0
15.180000 17.160000 5.720000 139 125 93 0
15.400000 17.160000 5.720000 139 125 93 0
15.620000 17.160000 5.720000 140 125 91 0
15.840000 17.160000 5.720000 142 127 93 0
16.060000 17.160000 5.720000 145 126 89 0
16.280000 17.160000 5.720000 147 128 91 0
16.500000 17.160000 5.500000 150 129 93 0
16.720000 17.160000 5.500000 151 130 94 0
16.940000 17.160000 5.500000 149 130 93 0
17.160000 17.160000 5.500000 150 131 94 0
17.380000 17.160000 5.500000 149 130 95 0
17.600000 17.160000 7.040000 148 129 94 0
17.820000 17.160000 7.040000 149 128 92 0
18.040000 17.160000 7.040000 147 126 90 0
18.260000 17.160000 7.040000 147 126 90 0
18.480000 17.160000 7.040000 146 125 89 0
18.700000 17.160000 7.040000 146 125 89 0
18.920000 17.160000 7.040000 147 126 90 0
19.140000 17.160000 7.040000 148 127 91 0
19.360000 17.160000 7.040000 148 127 91 0
19.580000 17.160000 7.040000 151 128 92 0
19.800000 17.160000 7.040000 151 128 92 0
20.020000 17.160000 7.040000 151 128 92 0
20.240000 17.160000 7.040000 151 128 92 0
20.460000 17.160000 7.040000 151 128 92 0
20.680000 17.160000 7.040000 151 128 92 0
20.900000 17.160000 7.040000 151 128 92 0
21.120000 17.160000 7.040000 150 127 91 0
21.340000 17.160000 7.040000 149 126 90 0
21.560000 17.160000 7.040000 150 127 91 0
21.780000 17.160000 7.040000 149 126 90 0
22.000000 17.160000 8.360000 149 126 90 0
22.220000 17.160000 8.360000 148 125 89 0
22.440000 17.160000 8.360000 149 126 90 0
22.660000 17.160000 8.360000 149 126 90 0
22.880000 17.160000 8.360000 148 125 89 0
23.100000 17.160000 8.360000 148 125 89 0
23.320000 17.160000 8.360000 148 125 89 0
23.540000 17.160000 8.360000 148 125 89 0
23.760000 17.160000 8.360000 148 125 89 0
23.980000 17.160000 8.580000 149 126 90 0
24.200000 17.160000 8.580000 149 126 90 0
24.420000 17.160000 8.580000 160 125 90 0
24.640000 17.160000 8.580000 165 130 95 0
24.860000 17.160000 8.580000 174 136 94 0
25.080000 17.160000 8.580000 183 145 103 0
25.300000 17.160000 8.580000 195 151 107 0
25.520000 17.160000 8.580000 202 158 114 0
25.740000 17.160000 8.800000 202 164 120 0
25.960000 17.160000 8.800000 209 171 127 0
26.180000 17.160000 8.800000 211 178 132 0
26.400000 17.160000 10.340000 212 179 133 0
26.620000 17.160000 10.340000 213 179 136 0
26.840000 17.160000 10.560000 213 179 136 0
27.060000 17.160000 10.560000 212 178 135 0
27.280000 17.160000 10.780000 211 177 134 0
27.500000 17.160000 11.880000 212 173 129 0
27.720000 17.160000 12.760000 209 170 126 0
27.940000 17.160000 14.080000 207 162 118 0
28.160000 17.160000 14.080000 204 159 115 0
28.380000 17.160000 14.080000 204 159 113 0
28.600000 17.160000 14.080000 204 159 113 0
28.820000 17.160000 14.300000 204 156 111 0
29.040000 17.160000 14.300000 205 157 112 0
29.260000 17.160000 14.300000 205 157 114 0
29.480000 17.160000 14.520000 206 158 115 0
29.700000 17.160000 14.520000 204 159 115 0
29.920000 17.160000 16.060000 204 159 115 0
30.140000 17.160000 16.060000 204 159 115 0
30.360000 17.160000 16.280000 202 157 113 0
30.580000 17.160000 16.280000 201 156 112 0
30.800000 17.160000 16.500000 201 156 112 0
31.020000 17.160000 17.600000 202 157 113 0
31.240000 17.160000 18.480000 204 159 115 0
31.460000 17.160000 19.580000 204 159 115 0
31.680000 17.160000 20.900000 205 160 116 0
31.900000 17.160000 20.900000 206 162 120 0
32.120000 17.160000 21.120000 210 166 124 0
32.340000 17.160000 21.120000 210 168 127 0
32.560000 17.160000 21.120000 212 170 129 0
32.780000 17.160000 21.120000 211 171 130 0
33.000000 17.160000 22.660000 212 172 131 0
33.220000 17.160000 22.660000 212 174 133 0
33.440000 17.160000 22.660000 213 175 134 0
33.660000 17.160000 22.880000 212 174 133 0
33.880000 17.160000 22.880000 212 174 133 0
34.100000 17.160000 22.880000 213 169 127 0
34.320000 17.160000 22.880000 212 168 126 0
34.540000 17.160000 23.100000 211 169 126 0
34.760000 17.160000 23.100000 211 169 126 0
34.980000 17.160000 23.100000 213 167 126 0
35.200000 17.160000 23.100000 211 165 124 0
35.420000 17.160000 23.100000 211 165 124 0
35.640000 17.160000 23.100000 211 165 124 0
35.860000 17.160000 23.320000 210 164 125 0
36.080000 17.160000 23.320000 210 164 125 0
36.300000 17.160000 24.640000 210 164 125 0
36.520000 17.160000 24.860000 210 164 125 0
36.740000 17.160000 24.860000 209 163 124 0
36.960000 17.160000 24.420000 207 161 122 0
37.180000 17.160000 25.520000 207 161 122 0
0.000000 17.380000 1.100000 158 157 131 0
0.220000 17.380000 1.100000 154 152 124 0
0.440000 17.380000 1.100000 151 149 121 0
0.660000 17.380000 1.100000 149 145 115 0
0.880000 17.380000 1.100000 148 144 114 0
1.100000 17.380000 1.100000 147 141 112 0
1.320000 17.380000 1.100000 146 140 111 0
1.540000 17.380000 1.100000 143 139 109 0
1.760000 17.380000 1.100000 142 138 108 0
1.980000 17.380000 1.100000 142 138 108 0
2.200000 17.380000 1.100000 141 137 107 0
2.420000 17.380000 1.320000 142 136 107 0
2.640000 17.380000 2.420000 141 135 106 0
2.860000 17.380000 2.200000 140 134 105 0
3.080000 17.380000 1.980000 141 135 106 0
3.300000 17.380000 3.080000 139 133 104 0
3.520000 17.380000 4.180000 139 133 104 0
3.740000 17.380000 4.180000 139 133 102 0
3.960000 17.380000 4.180000 138 132 101 0
4.180000 17.380000 4.180000 138 132 103 0
4.400000 17.380000 4.180000 137 131 102 0
4.620000 17.380000 4.180000 136 130 99 0
4.840000 17.380000 4.180000 135 129 98 0
5.060000 17.380000 4.180000 135 129 98 0
5.280000 17.380000 4.400000 135 129 98 0
5.500000 17.380000 4.400000 135 129 98 0
5.720000 17.380000 4.400000 134 128 97 0
5.940000 17.380000 4.400000 132 126 97 0
6.160000 17.380000 4.180000 130 124 95 0
6.380000 17.380000 4.400000 130 123 92 0
6.600000 17.380000 4.400000 132 125 94 0
6.820000 17.380000 4.400000 134 127 96 0
7.040000 17.380000 4.400000 134 127 96 0
7.260000 17.380000 4.400000 135 128 97 0
7.480000 17.380000 4.400000 133 126 95 0
7.700000 17.380000 4.400000 133 126 95 0
7.920000 17.380000 4.400000 134 127 96 0
8.140000 17.380000 4.400000 132 125 92 0
8.360000 17.380000 4.400000 133 126 93 0
8.580000 17.380000 4.400000 133 126 93 0
8.800000 17.380000 4.400000 133 126 93 0
9.020000 17.380000 4.400000 135 125 93 0
9.240000 17.380000 4.400000 135 125 93 0
9.460000 17.380000 4.400000 135 125 93 0
9.680000 17.380000 5.720000 134 124 92 0
9.900000 17.380000 5.720000 134 124 92 0
10.120000 17.380000 5.720000 134 124 92 0
10.340000 17.380000 5.720000 135 125 93 0
10.560000 17.380000 5.720000 136 126 94 0
10.780000 17.380000 5.720000 135 125 93 0
11.000000 17.380000 5.720000 135 125 93 0
11.220000 17.380000 5.720000 135 125 93 0
11.440000 17.380000 5.720000 134 124 92 0
11.660000 17.380000 5.720000 134 124 92 0
11.880000 17.380000 5.720000 135 125 93 0
12.100000 17.380000 5.720000 136 125 93 0
12.320000 17.380000 5.720000 136 125 93 0
12.540000 17.380000 5.720000 136 125 92 0
12.760000 17.380000 5.720000 136 125 92 0
12.980000 17.380000 5.720000 136 125 92 0
13.200000 17.380000 5.720000 136 125 92 0
13.420000 17.380000 5.720000 136 125 92 0
13.640000 17.380000 5.720000 137 126 93 0
13.860000 17.380000 5.720000 138 124 92 0
14.080000 17.380000 5.720000 139 125 93 0
14.300000 17.380000 5.720000 138 127 94 0
14.520000 17.380000 5.720000 137 126 93 0
14.740000 17.380000 7.040000 138 124 92 0
14.960000 17.380000 7.040000 139 125 93 0
15.180000 17.380000 5.720000 139 125 91 0
15.400000 17.380000 5.720000 139 125 91 0
15.620000 17.380000 5.720000 141 126 92 0
15.840000 17.380000 5.720000 142 127 93 0
