ply
format ascii 1.0
element vertex 1107
property float x
property float y
property float z
property uchar red
property uchar green
property uchar blue
property uchar alpha
end_header
29.260000 24.640000 3.960000 217 211 206 0
29.480000 24.640000 3.960000 218 212 207 0
29.700000 24.640000 5.060000 218 212 207 0
29.920000 24.640000 5.940000 217 211 206 0
30.140000 24.640000 7.040000 217 211 206 0
30.360000 24.640000 7.040000 217 211 206 0
30.580000 24.640000 7.040000 217 211 206 0
30.800000 24.640000 7.260000 217 211 208 0
31.020000 24.640000 7.260000 217 211 208 0
31.240000 24.640000 7.260000 217 211 206 0
31.460000 24.640000 8.800000 217 211 206 0
31.680000 24.640000 8.800000 217 211 206 0
31.900000 24.640000 9.020000 218 212 207 0
32.120000 24.640000 9.020000 217 211 206 0
32.340000 24.640000 9.020000 217 211 206 0
32.560000 24.640000 9.240000 216 210 207 0
32.780000 24.640000 9.240000 215 209 206 0
33.000000 24.640000 10.780000 214 208 205 0
33.220000 24.640000 10.780000 212 206 203 0
33.440000 24.640000 13.420000 212 206 203 0
33.660000 24.640000 14.740000 213 207 204 0
33.880000 24.640000 14.740000 213 207 204 0
34.100000 24.640000 16.060000 214 208 205 0
34.320000 24.640000 16.280000 214 208 205 0
34.540000 24.640000 16.280000 214 208 205 0
34.760000 24.640000 16.500000 213 209 205 0
34.980000 24.640000 16.500000 213 209 205 0
35.200000 24.640000 17.600000 215 209 206 0
35.420000 24.640000 19.800000 216 210 207 0
35.640000 24.640000 20.900000 215 211 207 0
35.860000 24.640000 20.900000 214 210 206 0
36.080000 24.640000 20.900000 215 209 206 0
36.300000 24.640000 21.120000 215 209 206 0
36.520000 24.640000 21.120000 215 211 207 0
36.740000 24.640000 22.660000 215 211 207 0
36.960000 24.640000 22.660000 216 212 208 0
37.180000 24.640000 22.660000 216 212 208 0
0.000000 24.860000 8.580000 146 121 88 0
0.220000 24.860000 8.580000 146 121 88 0
0.440000 24.860000 8.580000 146 119 87 0
0.660000 24.860000 8.580000 147 120 88 0
0.880000 24.860000 8.580000 145 118 86 0
1.100000 24.860000 8.580000 146 119 87 0
1.320000 24.860000 8.580000 144 119 86 0
1.540000 24.860000 8.580000 144 119 86 0
1.760000 24.860000 8.800000 144 117 85 0
1.980000 24.860000 8.800000 145 118 86 0
2.200000 24.860000 10.120000 147 117 84 0
2.420000 24.860000 8.800000 147 117 84 0
2.640000 24.860000 8.800000 149 119 86 0
2.860000 24.860000 10.120000 151 121 88 0
3.080000 24.860000 10.120000 164 123 88 0
3.300000 24.860000 10.120000 169 128 93 0
3.520000 24.860000 10.120000 180 134 93 0
3.740000 24.860000 10.120000 187 141 100 0
3.960000 24.860000 11.660000 196 148 105 0
4.180000 24.860000 11.660000 204 156 113 0
4.400000 24.860000 11.880000 206 164 119 0
4.620000 24.860000 13.200000 209 167 122 0
4.840000 24.860000 14.740000 211 169 126 0
5.060000 24.860000 14.960000 215 173 130 0
5.280000 24.860000 16.280000 219 175 133 0
5.500000 24.860000 16.500000 223 179 137 0
5.720000 24.860000 16.500000 223 179 137 0
5.940000 24.860000 17.600000 224 180 138 0
6.160000 24.860000 19.800000 225 183 142 0
6.380000 24.860000 20.900000 224 182 141 0
6.600000 24.860000 20.900000 225 181 139 0
6.820000 24.860000 20.900000 223 179 137 0
7.040000 24.860000 20.900000 222 178 136 0
7.260000 24.860000 22.440000 222 178 136 0
7.480000 24.860000 22.440000 223 179 137 0
7.700000 24.860000 22.660000 223 179 137 0
7.920000 24.860000 22.660000 223 181 140 0
8.140000 24.860000 22.660000 222 180 139 0
8.360000 24.860000 22.880000 223 179 139 0
8.580000 24.860000 24.200000 224 180 140 0
8.800000 24.860000 24.420000 223 181 140 0
9.020000 24.860000 24.420000 224 182 141 0
9.240000 24.860000 24.420000 224 182 141 0
9.460000 24.860000 24.640000 221 179 138 0
9.680000 24.860000 25.960000 220 178 137 0
9.900000 24.860000 26.180000 220 178 137 0
10.120000 24.860000 26.180000 223 179 139 0
10.340000 24.860000 25.960000 225 181 141 0
10.560000 24.860000 27.940000 223 181 140 0
10.780000 24.860000 29.040000 223 181 140 0
11.000000 24.860000 29.260000 221 178 139 0
11.220000 24.860000 29.260000 221 178 139 0
11.440000 24.860000 29.260000 221 178 139 0
11.660000 24.860000 29.480000 222 179 140 0
11.880000 24.860000 30.800000 222 179 140 0
12.100000 24.860000 30.800000 222 179 140 0
12.320000 24.860000 31.020000 223 180 141 0
12.540000 24.860000 31.020000 222 179 140 0
12.760000 24.860000 31.020000 221 178 139 0
12.980000 24.860000 31.240000 221 178 139 0
13.200000 24.860000 32.560000 222 179 142 0
13.420000 24.860000 32.780000 222 179 142 0
13.640000 24.860000 32.780000 221 178 141 0
13.860000 24.860000 32.780000 220 177 140 0
14.080000 24.860000 33.000000 220 177 138 0
14.300000 24.860000 34.320000 220 177 138 0
14.520000 24.860000 34.320000 220 177 140 0
14.740000 24.860000 35.420000 218 175 138 0
14.960000 24.860000 37.620000 216 173 136 0
15.180000 24.860000 37.400000 216 173 136 0
15.400000 24.860000 38.940000 216 172 138 0
15.620000 24.860000 38.940000 215 171 137 0
15.840000 24.860000 39.160000 214 170 136 0
16.060000 24.860000 39.160000 215 171 137 0
16.280000 24.860000 39.160000 216 173 136 0
16.500000 24.860000 39.160000 216 173 136 0
16.720000 24.860000 39.380000 216 172 138 0
16.940000 24.860000 39.380000 217 173 139 0
17.160000 24.860000 39.380000 216 175 142 0
17.380000 24.860000 39.600000 216 175 142 0
17.600000 24.860000 39.600000 214 174 143 0
17.820000 24.860000 39.600000 213 173 142 0
18.040000 24.860000 39.820000 211 172 138 0
18.260000 24.860000 41.140000 209 170 136 0
18.480000 24.860000 30.140000 210 169 138 0
18.700000 24.860000 8.140000 209 168 137 0
19.360000 24.860000 0.220000 205 167 139 0
19.580000 24.860000 0.220000 204 166 138 0
19.800000 24.860000 0.440000 205 168 137 0
20.020000 24.860000 0.440000 206 169 138 0
20.240000 24.860000 2.200000 197 189 173 0
20.460000 24.860000 14.740000 207 199 183 0
20.680000 24.860000 32.780000 211 210 201 0
20.900000 24.860000 41.140000 212 211 202 0
21.120000 24.860000 41.140000 216 212 204 0
21.340000 24.860000 30.140000 217 213 205 0
21.560000 24.860000 8.140000 216 215 206 0
22.660000 24.860000 0.440000 219 215 207 0
22.880000 24.860000 1.540000 219 215 207 0
23.100000 24.860000 1.540000 217 213 205 0
23.320000 24.860000 1.540000 217 212 203 0
23.540000 24.860000 1.540000 214 209 200 0
23.760000 24.860000 1.540000 212 204 189 0
23.980000 24.860000 1.540000 205 197 182 0
24.200000 24.860000 1.540000 204 196 181 0
24.420000 24.860000 1.540000 205 197 182 0
24.640000 24.860000 1.540000 205 197 181 0
24.860000 24.860000 1.540000 205 197 181 0
25.080000 24.860000 1.540000 205 198 185 0
25.300000 24.860000 1.540000 205 198 185 0
25.520000 24.860000 1.760000 206 199 188 0
25.740000 24.860000 1.760000 207 200 189 0
25.960000 24.860000 0.220000 207 202 194 0
26.180000 24.860000 0.220000 209 204 196 0
26.400000 24.860000 0.220000 212 207 199 0
26.620000 24.860000 0.220000 213 208 200 0
26.840000 24.860000 0.440000 213 208 200 0
27.060000 24.860000 0.440000 215 210 202 0
27.280000 24.860000 1.760000 215 210 202 0
27.500000 24.860000 1.980000 215 210 202 0
27.720000 24.860000 1.980000 216 210 205 0
27.940000 24.860000 1.980000 216 210 205 0
28.160000 24.860000 2.200000 216 210 205 0
28.380000 24.860000 2.200000 216 210 205 0
28.600000 24.860000 3.740000 216 210 205 0
28.820000 24.860000 3.740000 217 211 206 0
29.040000 24.860000 3.740000 217 211 206 0
29.260000 24.860000 3.960000 218 212 207 0
29.480000 24.860000 3.960000 217 211 206 0
29.700000 24.860000 5.060000 217 211 206 0
29.920000 24.860000 5.940000 216 210 205 0
30.140000 24.860000 7.040000 217 211 206 0
30.360000 24.860000 7.040000 218 212 207 0
30.580000 24.860000 7.040000 218 212 207 0
30.800000 24.860000 7.260000 218 212 207 0
31.020000 24.860000 7.260000 217 211 206 0
31.240000 24.860000 7.260000 217 211 206 0
31.460000 24.860000 8.800000 218 212 207 0
31.680000 24.860000 8.800000 217 211 206 0
31.900000 24.860000 9.020000 216 210 205 0
32.120000 24.860000 9.020000 216 210 205 0
32.340000 24.860000 9.020000 216 210 205 0
32.560000 24.860000 9.240000 216 210 205 0
32.780000 24.860000 9.240000 215 209 204 0
33.000000 24.860000 9.240000 214 208 205 0
33.220000 24.860000 10.780000 214 208 205 0
33.440000 24.860000 10.780000 212 206 203 0
33.660000 24.860000 12.100000 212 206 203 0
33.880000 24.860000 14.740000 214 208 205 0
34.100000 24.860000 16.280000 214 208 205 0
34.320000 24.860000 16.280000 215 209 206 0
34.540000 24.860000 16.280000 215 209 206 0
34.760000 24.860000 16.500000 214 208 205 0
34.980000 24.860000 16.500000 215 209 206 0
35.200000 24.860000 17.600000 214 208 205 0
35.420000 24.860000 19.800000 216 210 207 0
35.640000 24.860000 20.900000 216 210 207 0
35.860000 24.860000 20.900000 216 210 207 0
36.080000 24.860000 20.900000 216 210 207 0
36.300000 24.860000 21.120000 217 211 208 0
36.520000 24.860000 21.120000 216 210 207 0
36.740000 24.860000 22.660000 217 211 208 0
36.960000 24.860000 22.660000 217 211 208 0
37.180000 24.860000 22.660000 218 212 209 0
0.000000 25.080000 8.580000 145 120 87 0
0.220000 25.080000 8.580000 146 121 88 0
0.440000 25.080000 8.580000 146 119 87 0
0.660000 25.080000 8.580000 145 118 86 0
0.880000 25.080000 8.580000 145 118 86 0
1.100000 25.080000 8.580000 146 119 87 0
1.320000 25.080000 8.580000 144 119 86 0
1.540000 25.080000 8.580000 143 118 85 0
1.760000 25.080000 8.580000 145 118 86 0
1.980000 25.080000 8.580000 143 116 84 0
2.200000 25.080000 8.800000 146 116 83 0
2.420000 25.080000 8.800000 147 117 84 0
2.640000 25.080000 8.800000 148 118 85 0
2.860000 25.080000 10.120000 149 119 86 0
3.080000 25.080000 10.120000 160 119 84 0
3.300000 25.080000 10.120000 164 123 88 0
3.520000 25.080000 10.120000 175 129 88 0
3.740000 25.080000 10.120000 180 134 93 0
3.960000 25.080000 10.120000 191 143 100 0
4.180000 25.080000 10.340000 197 149 106 0
4.400000 25.080000 11.660000 201 159 114 0
4.620000 25.080000 11.880000 205 163 118 0
4.840000 25.080000 13.200000 210 168 125 0
5.060000 25.080000 13.420000 213 171 128 0
5.280000 25.080000 14.960000 215 171 129 0
5.500000 25.080000 16.500000 217 173 131 0
5.720000 25.080000 16.500000 220 176 134 0
5.940000 25.080000 17.600000 222 178 136 0
6.160000 25.080000 19.800000 220 178 137 0
6.380000 25.080000 20.900000 221 179 138 0
6.600000 25.080000 20.900000 222 178 136 0
6.820000 25.080000 20.900000 219 175 133 0
7.040000 25.080000 20.900000 219 175 133 0
7.260000 25.080000 22.440000 219 175 133 0
7.480000 25.080000 22.440000 221 177 135 0
7.700000 25.080000 22.660000 223 179 137 0
7.920000 25.080000 22.660000 223 181 140 0
8.140000 25.080000 22.660000 224 182 141 0
8.360000 25.080000 22.880000 224 180 140 0
8.580000 25.080000 22.880000 223 179 139 0
8.800000 25.080000 24.420000 223 181 140 0
9.020000 25.080000 24.420000 223 181 140 0
9.240000 25.080000 24.420000 222 180 139 0
9.460000 25.080000 24.640000 220 178 137 0
9.680000 25.080000 24.640000 221 179 138 0
9.900000 25.080000 26.180000 221 179 138 0
10.120000 25.080000 26.180000 224 180 140 0
10.340000 25.080000 25.960000 225 181 141 0
10.560000 25.080000 28.160000 223 181 140 0
10.780000 25.080000 29.260000 221 179 138 0
11.000000 25.080000 29.040000 219 176 137 0
11.220000 25.080000 29.260000 219 176 137 0
11.440000 25.080000 29.260000 220 177 138 0
11.660000 25.080000 29.260000 221 178 139 0
11.880000 25.080000 30.800000 220 177 138 0
12.100000 25.080000 30.800000 220 177 138 0
12.320000 25.080000 31.020000 220 177 138 0
12.540000 25.080000 31.020000 222 179 140 0
12.760000 25.080000 31.020000 222 179 140 0
12.980000 25.080000 31.240000 221 178 139 0
13.200000 25.080000 32.560000 222 179 142 0
13.420000 25.080000 32.780000 221 178 141 0
13.640000 25.080000 32.780000 220 177 140 0
13.860000 25.080000 32.780000 221 178 141 0
14.080000 25.080000 33.000000 221 178 139 0
14.300000 25.080000 34.320000 219 176 137 0
14.520000 25.080000 34.540000 219 176 139 0
14.740000 25.080000 35.640000 219 176 139 0
14.960000 25.080000 36.300000 218 175 138 0
15.180000 25.080000 37.400000 216 173 136 0
15.400000 25.080000 37.400000 216 172 138 0
15.620000 25.080000 38.940000 215 171 137 0
15.840000 25.080000 38.940000 214 170 136 0
16.060000 25.080000 39.160000 214 170 136 0
16.280000 25.080000 39.160000 215 172 135 0
16.500000 25.080000 39.160000 214 171 134 0
16.720000 25.080000 39.380000 215 171 137 0
16.940000 25.080000 39.380000 216 172 138 0
17.160000 25.080000 39.380000 213 172 139 0
17.380000 25.080000 39.600000 215 174 141 0
17.600000 25.080000 39.600000 213 173 142 0
17.820000 25.080000 39.600000 213 173 142 0
18.040000 25.080000 39.820000 212 173 139 0
18.260000 25.080000 41.140000 209 170 136 0
18.480000 25.080000 33.000000 209 168 137 0
18.700000 25.080000 13.640000 209 168 137 0
18.920000 25.080000 1.100000 207 170 138 0
19.360000 25.080000 0.220000 206 168 140 0
19.580000 25.080000 0.220000 205 167 139 0
19.800000 25.080000 0.220000 204 167 136 0
20.020000 25.080000 0.440000 204 167 136 0
20.460000 25.080000 6.380000 206 198 182 0
20.680000 25.080000 24.420000 208 207 198 0
20.900000 25.080000 38.280000 212 211 202 0
21.120000 25.080000 41.140000 215 211 203 0
21.340000 25.080000 30.140000 217 213 205 0
21.560000 25.080000 8.140000 216 215 206 0
22.880000 25.080000 0.220000 217 213 205 0
23.100000 25.080000 1.540000 215 211 203 0
23.320000 25.080000 1.540000 214 209 200 0
23.540000 25.080000 1.540000 210 205 196 0
23.760000 25.080000 1.540000 206 198 183 0
23.980000 25.080000 1.540000 203 195 180 0
24.200000 25.080000 1.540000 204 196 181 0
24.420000 25.080000 1.540000 204 196 181 0
24.640000 25.080000 1.540000 205 197 181 0
24.860000 25.080000 1.540000 205 197 181 0
25.080000 25.080000 1.540000 205 198 185 0
25.300000 25.080000 1.540000 205 198 185 0
25.520000 25.080000 0.220000 206 199 188 0
25.740000 25.080000 0.220000 209 202 191 0
25.960000 25.080000 0.220000 208 203 195 0
26.180000 25.080000 0.220000 210 205 197 0
26.400000 25.080000 0.220000 212 207 199 0
26.620000 25.080000 0.220000 212 207 199 0
26.840000 25.080000 0.220000 213 208 200 0
27.060000 25.080000 1.760000 214 209 201 0
27.280000 25.080000 1.760000 215 210 202 0
27.500000 25.080000 1.980000 216 211 203 0
27.720000 25.080000 1.980000 216 210 205 0
27.940000 25.080000 1.980000 214 208 203 0
28.160000 25.080000 2.200000 215 209 204 0
28.380000 25.080000 2.200000 216 210 205 0
28.600000 25.080000 3.740000 216 210 205 0
28.820000 25.080000 3.740000 216 210 205 0
29.040000 25.080000 3.740000 216 210 205 0
29.260000 25.080000 3.960000 217 211 206 0
29.480000 25.080000 3.960000 216 210 205 0
29.700000 25.080000 5.060000 217 211 206 0
29.920000 25.080000 5.940000 216 210 205 0
30.140000 25.080000 7.040000 216 210 205 0
30.360000 25.080000 7.040000 217 211 206 0
30.580000 25.080000 7.040000 216 210 205 0
30.800000 25.080000 7.260000 216 210 205 0
31.020000 25.080000 7.260000 216 210 205 0
31.240000 25.080000 7.260000 217 211 206 0
31.460000 25.080000 8.800000 216 210 205 0
31.680000 25.080000 8.800000 215 209 204 0
31.900000 25.080000 9.020000 215 209 204 0
32.120000 25.080000 9.020000 215 209 204 0
32.340000 25.080000 9.020000 215 209 204 0
32.560000 25.080000 9.240000 216 210 205 0
32.780000 25.080000 9.240000 214 208 203 0
33.000000 25.080000 9.240000 214 208 205 0
33.220000 25.080000 10.780000 214 208 205 0
33.440000 25.080000 10.780000 213 207 204 0
33.660000 25.080000 11.000000 212 206 203 0
33.880000 25.080000 13.640000 212 206 203 0
34.100000 25.080000 14.960000 213 207 204 0
34.320000 25.080000 16.280000 214 208 205 0
34.540000 25.080000 16.280000 214 208 205 0
34.760000 25.080000 16.500000 214 208 205 0
34.980000 25.080000 16.500000 214 208 205 0
35.200000 25.080000 17.600000 214 208 205 0
35.420000 25.080000 19.800000 215 209 206 0
35.640000 25.080000 20.900000 215 209 206 0
35.860000 25.080000 20.900000 216 210 207 0
36.080000 25.080000 20.900000 216 210 207 0
36.300000 25.080000 21.120000 216 210 207 0
36.520000 25.080000 21.120000 216 210 207 0
36.740000 25.080000 22.660000 216 210 207 0
36.960000 25.080000 22.660000 215 209 206 0
37.180000 25.080000 22.660000 217 211 208 0
0.000000 25.300000 8.580000 147 120 88 0
0.220000 25.300000 8.580000 145 118 86 0
0.440000 25.300000 8.580000 144 117 85 0
0.660000 25.300000 8.580000 145 118 86 0
0.880000 25.300000 8.580000 145 118 86 0
1.100000 25.300000 8.580000 144 117 85 0
1.320000 25.300000 8.580000 145 118 86 0
1.540000 25.300000 8.580000 145 118 86 0
1.760000 25.300000 8.580000 145 118 86 0
1.980000 25.300000 8.580000 143 116 84 0
2.200000 25.300000 8.580000 146 116 85 0
2.420000 25.300000 8.800000 147 117 86 0
2.640000 25.300000 10.120000 146 116 85 0
2.860000 25.300000 10.120000 147 117 86 0
3.080000 25.300000 10.120000 151 121 88 0
3.300000 25.300000 10.120000 151 121 88 0
3.520000 25.300000 10.120000 166 122 88 0
3.740000 25.300000 10.120000 173 129 95 0
3.960000 25.300000 10.120000 186 136 98 0
4.180000 25.300000 10.120000 193 143 105 0
4.400000 25.300000 10.340000 195 149 108 0
4.620000 25.300000 11.660000 201 155 114 0
4.840000 25.300000 11.880000 203 159 117 0
5.060000 25.300000 13.420000 207 163 121 0
5.280000 25.300000 13.420000 211 165 124 0
5.500000 25.300000 14.960000 213 167 126 0
5.720000 25.300000 16.500000 214 170 128 0
5.940000 25.300000 17.600000 217 173 131 0
6.160000 25.300000 19.800000 218 174 134 0
6.380000 25.300000 20.900000 216 172 132 0
6.600000 25.300000 20.900000 218 172 133 0
6.820000 25.300000 20.900000 217 171 132 0
7.040000 25.300000 20.900000 218 172 133 0
7.260000 25.300000 22.440000 217 171 132 0
7.480000 25.300000 22.440000 219 173 132 0
7.700000 25.300000 22.660000 221 175 134 0
7.920000 25.300000 22.660000 222 176 137 0
8.140000 25.300000 22.660000 223 177 138 0
8.360000 25.300000 22.880000 222 178 138 0
8.580000 25.300000 22.880000 222 178 138 0
8.800000 25.300000 24.420000 223 179 139 0
9.020000 25.300000 24.420000 223 179 139 0
9.240000 25.300000 24.420000 223 179 139 0
9.460000 25.300000 24.640000 222 178 138 0
9.680000 25.300000 24.640000 222 177 139 0
9.900000 25.300000 26.180000 223 178 140 0
10.120000 25.300000 26.180000 225 180 142 0
10.340000 25.300000 26.180000 225 180 142 0
10.560000 25.300000 27.060000 223 179 139 0
10.780000 25.300000 27.940000 220 176 136 0
11.000000 25.300000 29.040000 218 173 135 0
11.220000 25.300000 29.260000 217 172 134 0
11.440000 25.300000 29.260000 217 174 135 0
11.660000 25.300000 29.260000 218 175 136 0
11.880000 25.300000 30.800000 217 174 135 0
12.100000 25.300000 30.800000 219 176 137 0
12.320000 25.300000 31.020000 220 175 137 0
12.540000 25.300000 31.020000 221 176 138 0
12.760000 25.300000 31.020000 220 177 138 0
12.980000 25.300000 31.240000 220 177 138 0
13.200000 25.300000 32.560000 220 177 138 0
13.420000 25.300000 32.780000 219 176 137 0
13.640000 25.300000 32.780000 219 176 139 0
13.860000 25.300000 32.780000 219 176 139 0
14.080000 25.300000 33.000000 219 174 138 0
14.300000 25.300000 34.320000 219 174 138 0
14.520000 25.300000 34.540000 219 174 138 0
14.740000 25.300000 35.640000 219 174 138 0
14.960000 25.300000 36.300000 218 175 138 0
15.180000 25.300000 37.400000 216 173 136 0
15.400000 25.300000 37.400000 215 171 137 0
15.620000 25.300000 38.940000 215 171 137 0
15.840000 25.300000 38.940000 214 169 135 0
16.060000 25.300000 39.160000 215 170 136 0
16.280000 25.300000 39.160000 213 169 135 0
16.500000 25.300000 39.160000 214 170 136 0
16.720000 25.300000 39.380000 213 169 135 0
16.940000 25.300000 39.380000 212 168 134 0
17.160000 25.300000 39.380000 212 171 138 0
17.380000 25.300000 39.600000 211 170 137 0
17.600000 25.300000 39.600000 211 170 139 0
17.820000 25.300000 39.600000 212 171 140 0
18.040000 25.300000 39.820000 210 168 139 0
18.260000 25.300000 41.140000 208 166 137 0
18.480000 25.300000 35.640000 208 166 137 0
18.700000 25.300000 19.140000 207 165 136 0
18.920000 25.300000 2.640000 207 167 137 0
19.360000 25.300000 0.220000 206 166 138 0
19.580000 25.300000 0.220000 207 167 139 0
19.800000 25.300000 0.220000 206 166 138 0
20.020000 25.300000 0.440000 205 165 137 0
20.240000 25.300000 0.660000 199 171 155 0
20.460000 25.300000 2.200000 213 185 169 0
20.680000 25.300000 14.740000 207 204 194 0
20.900000 25.300000 32.780000 213 210 200 0
21.120000 25.300000 41.140000 216 213 203 0
21.340000 25.300000 30.140000 216 213 203 0
21.560000 25.300000 8.140000 218 214 206 0
22.880000 25.300000 0.440000 217 212 203 0
23.100000 25.300000 1.540000 214 209 200 0
23.320000 25.300000 1.540000 215 205 191 0
23.540000 25.300000 1.540000 209 199 185 0
23.760000 25.300000 1.540000 203 195 180 0
23.980000 25.300000 1.540000 204 196 181 0
24.200000 25.300000 1.540000 203 195 180 0
24.420000 25.300000 1.540000 204 196 181 0
24.640000 25.300000 1.540000 204 197 184 0
24.860000 25.300000 1.540000 204 197 184 0
25.080000 25.300000 0.220000 207 197 183 0
25.300000 25.300000 0.220000 207 197 183 0
25.520000 25.300000 0.220000 205 197 189 0
25.740000 25.300000 0.220000 208 200 192 0
25.960000 25.300000 0.220000 208 203 195 0
26.180000 25.300000 0.220000 211 206 198 0
26.400000 25.300000 0.220000 211 206 198 0
26.620000 25.300000 0.220000 212 207 199 0
26.840000 25.300000 1.760000 213 208 200 0
27.060000 25.300000 1.760000 214 209 201 0
27.280000 25.300000 1.760000 214 209 201 0
27.500000 25.300000 1.980000 215 210 202 0
27.720000 25.300000 1.980000 215 210 202 0
27.940000 25.300000 1.980000 215 210 202 0
28.160000 25.300000 2.200000 215 210 202 0
28.380000 25.300000 2.200000 215 210 202 0
28.600000 25.300000 3.740000 215 209 204 0
28.820000 25.300000 3.740000 215 209 204 0
29.040000 25.300000 3.740000 215 210 202 0
29.260000 25.300000 3.960000 215 210 202 0
29.480000 25.300000 3.960000 215 209 204 0
29.700000 25.300000 5.060000 215 209 204 0
29.920000 25.300000 5.940000 216 208 203 0
30.140000 25.300000 7.040000 217 209 204 0
30.360000 25.300000 7.040000 215 209 204 0
30.580000 25.300000 7.040000 216 210 205 0
30.800000 25.300000 7.260000 215 209 204 0
31.020000 25.300000 7.260000 216 210 205 0
31.240000 25.300000 7.260000 216 210 205 0
31.460000 25.300000 8.800000 215 209 204 0
31.680000 25.300000 8.800000 216 208 203 0
31.900000 25.300000 9.020000 217 209 204 0
32.120000 25.300000 9.020000 214 208 203 0
32.340000 25.300000 9.020000 215 209 204 0
32.560000 25.300000 9.240000 214 208 203 0
32.780000 25.300000 9.240000 214 208 203 0
33.000000 25.300000 9.460000 216 208 203 0
33.220000 25.300000 10.780000 216 208 203 0
33.440000 25.300000 10.780000 215 207 202 0
33.660000 25.300000 11.000000 214 206 201 0
33.880000 25.300000 12.320000 212 203 201 0
34.100000 25.300000 14.740000 213 204 202 0
34.320000 25.300000 16.280000 214 208 205 0
34.540000 25.300000 16.280000 214 208 205 0
34.760000 25.300000 16.500000 214 208 205 0
34.980000 25.300000 16.500000 214 208 205 0
35.200000 25.300000 17.600000 214 208 205 0
35.420000 25.300000 19.800000 214 208 205 0
35.640000 25.300000 20.900000 214 208 205 0
35.860000 25.300000 20.900000 215 209 206 0
36.080000 25.300000 20.900000 215 209 206 0
36.300000 25.300000 21.120000 216 210 207 0
36.520000 25.300000 21.120000 216 210 207 0
36.740000 25.300000 22.660000 216 210 207 0
36.960000 25.300000 22.660000 215 209 206 0
37.180000 25.300000 22.660000 217 211 208 0
0.000000 25.520000 8.580000 145 118 86 0
0.220000 25.520000 8.580000 145 118 86 0
0.440000 25.520000 8.580000 144 117 85 0
0.660000 25.520000 8.580000 144 117 85 0
0.880000 25.520000 8.580000 145 118 86 0
1.100000 25.520000 8.580000 144 117 85 0
1.320000 25.520000 8.580000 145 118 86 0
1.540000 25.520000 8.580000 144 117 85 0
1.760000 25.520000 8.580000 143 116 84 0
1.980000 25.520000 8.580000 143 116 84 0
2.200000 25.520000 8.800000 144 114 83 0
2.420000 25.520000 8.800000 146 116 85 0
2.640000 25.520000 8.800000 146 116 85 0
2.860000 25.520000 8.800000 146 116 85 0
3.080000 25.520000 8.800000 147 117 84 0
3.300000 25.520000 10.120000 149 119 86 0
3.520000 25.520000 10.120000 161 117 83 0
3.740000 25.520000 10.120000 170 126 92 0
3.960000 25.520000 10.120000 180 130 92 0
4.180000 25.520000 10.120000 189 139 101 0
4.400000 25.520000 10.120000 192 146 105 0
4.620000 25.520000 10.340000 199 153 112 0
4.840000 25.520000 10.340000 202 158 116 0
5.060000 25.520000 11.880000 205 161 119 0
5.280000 25.520000 12.100000 207 161 120 0
5.500000 25.520000 13.640000 211 165 124 0
5.720000 25.520000 14.960000 211 167 125 0
5.940000 25.520000 16.280000 213 169 127 0
6.160000 25.520000 18.260000 214 170 130 0
6.380000 25.520000 20.900000 214 170 130 0
6.600000 25.520000 20.900000 215 169 130 0
6.820000 25.520000 20.900000 216 170 131 0
7.040000 25.520000 21.120000 214 168 129 0
7.260000 25.520000 21.120000 215 169 130 0
7.480000 25.520000 22.440000 217 171 130 0
7.700000 25.520000 22.660000 217 171 130 0
7.920000 25.520000 22.660000 218 172 133 0
8.140000 25.520000 22.660000 217 171 132 0
8.360000 25.520000 22.880000 219 175 135 0
8.580000 25.520000 22.880000 220 176 136 0
8.800000 25.520000 22.880000 221 177 137 0
9.020000 25.520000 24.420000 221 177 137 0
9.240000 25.520000 24.420000 223 179 139 0
9.460000 25.520000 24.420000 222 178 138 0
9.680000 25.520000 24.640000 224 179 141 0
9.900000 25.520000 24.640000 224 179 141 0
10.120000 25.520000 26.180000 226 181 143 0
10.340000 25.520000 26.180000 226 181 143 0
10.560000 25.520000 25.960000 223 179 139 0
10.780000 25.520000 27.940000 219 175 135 0
11.000000 25.520000 29.040000 217 172 134 0
11.220000 25.520000 29.260000 216 171 133 0
11.440000 25.520000 29.260000 217 174 135 0
11.660000 25.520000 29.260000 216 173 134 0
11.880000 25.520000 30.800000 219 176 137 0
12.100000 25.520000 30.800000 220 177 138 0
12.320000 25.520000 31.020000 220 175 137 0
12.540000 25.520000 31.020000 221 176 138 0
12.760000 25.520000 31.020000 220 177 138 0
12.980000 25.520000 31.240000 221 178 139 0
13.200000 25.520000 32.560000 219 176 137 0
13.420000 25.520000 32.780000 220 177 138 0
13.640000 25.520000 32.780000 219 176 139 0
13.860000 25.520000 32.780000 218 175 138 0
14.080000 25.520000 33.000000 219 174 138 0
14.300000 25.520000 34.320000 218 173 137 0
14.520000 25.520000 34.540000 219 174 138 0
14.740000 25.520000 35.640000 218 173 137 0
14.960000 25.520000 36.300000 216 173 136 0
15.180000 25.520000 37.400000 217 174 137 0
15.400000 25.520000 37.400000 215 171 137 0
15.620000 25.520000 38.940000 214 170 136 0
15.840000 25.520000 38.940000 215 170 136 0
16.060000 25.520000 39.160000 214 169 135 0
16.280000 25.520000 39.160000 213 169 135 0
16.500000 25.520000 39.160000 213 169 135 0
16.720000 25.520000 39.160000 214 170 136 0
16.940000 25.520000 39.380000 213 169 135 0
17.160000 25.520000 39.380000 211 170 137 0
17.380000 25.520000 39.380000 212 171 138 0
17.600000 25.520000 39.600000 212 171 140 0
17.820000 25.520000 39.600000 211 170 139 0
18.040000 25.520000 41.140000 210 168 139 0
18.260000 25.520000 41.140000 208 166 137 0
18.480000 25.520000 35.640000 207 165 136 0
18.700000 25.520000 19.140000 206 164 135 0
18.920000 25.520000 2.640000 207 167 137 0
19.580000 25.520000 0.220000 206 166 138 0
19.800000 25.520000 0.220000 206 166 138 0
20.020000 25.520000 0.220000 205 165 137 0
20.240000 25.520000 0.440000 196 168 152 0
20.680000 25.520000 6.380000 203 200 190 0
20.900000 25.520000 24.420000 212 209 199 0
21.120000 25.520000 38.500000 215 212 202 0
21.340000 25.520000 30.140000 217 214 204 0
21.560000 25.520000 8.140000 217 213 205 0
22.880000 25.520000 0.440000 215 210 201 0
23.100000 25.520000 1.540000 211 206 197 0
23.320000 25.520000 1.540000 210 200 186 0
23.540000 25.520000 1.540000 204 194 180 0
23.760000 25.520000 1.540000 203 195 180 0
23.980000 25.520000 1.540000 204 196 181 0
24.200000 25.520000 1.540000 204 196 181 0
24.420000 25.520000 1.540000 205 197 182 0
24.640000 25.520000 1.540000 203 196 183 0
24.860000 25.520000 0.220000 205 198 185 0
25.080000 25.520000 0.220000 207 197 183 0
25.300000 25.520000 0.220000 208 198 184 0
25.520000 25.520000 0.220000 207 199 191 0
25.740000 25.520000 0.220000 208 200 192 0
25.960000 25.520000 0.220000 210 205 197 0
26.180000 25.520000 0.220000 211 206 198 0
26.400000 25.520000 0.220000 212 207 199 0
26.620000 25.520000 0.220000 212 207 199 0
26.840000 25.520000 1.760000 214 209 201 0
27.060000 25.520000 1.760000 214 209 201 0
27.280000 25.520000 1.760000 214 209 201 0
27.500000 25.520000 1.980000 215 210 202 0
27.720000 25.520000 1.980000 216 211 203 0
27.940000 25.520000 1.980000 215 210 202 0
28.160000 25.520000 2.200000 215 210 202 0
28.380000 25.520000 3.520000 215 210 202 0
28.600000 25.520000 3.740000 215 209 204 0
28.820000 25.520000 3.740000 214 208 203 0
29.040000 25.520000 3.740000 214 209 201 0
29.260000 25.520000 3.960000 215 210 202 0
29.480000 25.520000 3.960000 216 210 205 0
29.700000 25.520000 5.060000 214 208 203 0
29.920000 25.520000 5.940000 216 208 203 0
30.140000 25.520000 7.040000 216 208 203 0
30.360000 25.520000 7.040000 214 208 203 0
30.580000 25.520000 7.040000 215 209 204 0
30.800000 25.520000 7.260000 214 208 203 0
31.020000 25.520000 7.260000 216 210 205 0
31.240000 25.520000 7.260000 215 209 204 0
31.460000 25.520000 8.800000 215 209 204 0
31.680000 25.520000 8.800000 216 208 203 0
31.900000 25.520000 9.020000 217 209 204 0
32.120000 25.520000 9.020000 215 209 204 0
32.340000 25.520000 9.020000 215 209 204 0
32.560000 25.520000 9.240000 215 209 204 0
32.780000 25.520000 9.240000 214 208 203 0
33.000000 25.520000 9.460000 216 208 203 0
33.220000 25.520000 10.780000 216 208 203 0
33.440000 25.520000 11.000000 216 208 203 0
33.660000 25.520000 11.000000 215 207 202 0
33.880000 25.520000 12.100000 213 204 202 0
34.100000 25.520000 13.200000 212 203 201 0
34.320000 25.520000 16.060000 213 207 204 0
34.540000 25.520000 16.280000 214 208 205 0
34.760000 25.520000 16.500000 214 208 205 0
34.980000 25.520000 16.500000 214 208 205 0
35.200000 25.520000 17.600000 214 208 205 0
35.420000 25.520000 19.800000 214 208 205 0
35.640000 25.520000 20.900000 214 208 205 0
35.860000 25.520000 20.900000 215 209 206 0
36.080000 25.520000 20.900000 216 210 207 0
36.300000 25.520000 21.120000 217 211 208 0
36.520000 25.520000 21.120000 216 210 207 0
36.740000 25.520000 21.120000 216 210 207 0
36.960000 25.520000 22.660000 217 211 208 0
37.180000 25.520000 22.660000 217 211 208 0
0.000000 25.740000 8.580000 145 118 86 0
0.220000 25.740000 8.580000 145 118 86 0
0.440000 25.740000 8.580000 145 118 86 0
0.660000 25.740000 8.580000 144 117 85 0
0.880000 25.740000 8.580000 145 118 86 0
1.100000 25.740000 8.580000 145 118 86 0
1.320000 25.740000 8.580000 144 117 85 0
1.540000 25.740000 8.580000 144 117 85 0
1.760000 25.740000 8.580000 146 116 85 0
1.980000 25.740000 8.580000 145 115 84 0
2.200000 25.740000 8.800000 143 116 84 0
2.420000 25.740000 8.800000 144 117 85 0
2.640000 25.740000 8.800000 143 116 84 0
2.860000 25.740000 8.800000 143 116 84 0
3.080000 25.740000 8.800000 147 117 84 0
3.300000 25.740000 10.120000 146 116 83 0
3.520000 25.740000 10.120000 152 118 86 0
3.740000 25.740000 10.120000 157 123 91 0
3.960000 25.740000 10.120000 176 127 90 0
4.180000 25.740000 10.120000 184 135 98 0
4.400000 25.740000 10.120000 192 142 104 0
4.620000 25.740000 10.340000 201 151 113 0
4.840000 25.740000 10.340000 203 158 114 0
5.060000 25.740000 10.340000 204 159 115 0
5.280000 25.740000 11.880000 206 162 120 0
5.500000 25.740000 12.100000 209 165 123 0
5.720000 25.740000 13.640000 211 167 125 0
5.940000 25.740000 16.280000 212 168 126 0
6.160000 25.740000 18.480000 213 169 127 0
6.380000 25.740000 19.580000 214 170 128 0
6.600000 25.740000 20.900000 214 170 128 0
6.820000 25.740000 20.900000 214 170 128 0
7.040000 25.740000 21.120000 215 169 128 0
7.260000 25.740000 21.120000 217 171 130 0
7.480000 25.740000 22.440000 216 170 129 0
7.700000 25.740000 22.660000 217 171 130 0
7.920000 25.740000 22.660000 216 172 130 0
8.140000 25.740000 22.660000 216 172 130 0
8.360000 25.740000 22.880000 217 173 131 0
8.580000 25.740000 22.880000 218 174 132 0
8.800000 25.740000 22.880000 221 175 136 0
9.020000 25.740000 24.420000 222 176 137 0
9.240000 25.740000 24.420000 222 178 136 0
9.460000 25.740000 24.420000 223 179 137 0
9.680000 25.740000 24.640000 223 181 140 0
9.900000 25.740000 24.640000 225 183 142 0
10.120000 25.740000 26.180000 225 183 142 0
10.340000 25.740000 26.180000 224 182 141 0
10.560000 25.740000 25.960000 223 179 139 0
10.780000 25.740000 27.940000 219 175 135 0
11.000000 25.740000 29.040000 218 174 134 0
11.220000 25.740000 29.260000 217 173 133 0
11.440000 25.740000 29.260000 216 173 134 0
11.660000 25.740000 29.260000 218 175 136 0
11.880000 25.740000 29.480000 220 178 137 0
12.100000 25.740000 30.800000 221 179 138 0
12.320000 25.740000 31.020000 221 179 138 0
12.540000 25.740000 31.020000 221 179 138 0
12.760000 25.740000 31.020000 222 179 140 0
12.980000 25.740000 31.240000 222 179 140 0
13.200000 25.740000 32.560000 221 178 139 0
13.420000 25.740000 32.560000 220 177 138 0
13.640000 25.740000 32.780000 219 176 137 0
13.860000 25.740000 32.780000 219 176 137 0
14.080000 25.740000 32.780000 220 177 138 0
14.300000 25.740000 34.320000 219 176 137 0
14.520000 25.740000 34.320000 217 174 135 0
14.740000 25.740000 35.640000 218 175 136 0
14.960000 25.740000 36.300000 218 175 138 0
15.180000 25.740000 37.400000 216 173 136 0
15.400000 25.740000 37.400000 215 172 135 0
15.620000 25.740000 38.940000 216 173 136 0
15.840000 25.740000 38.940000 215 172 135 0
16.060000 25.740000 39.160000 215 172 135 0
16.280000 25.740000 39.160000 215 172 135 0
16.500000 25.740000 39.160000 216 173 136 0
16.720000 25.740000 39.160000 215 171 137 0
16.940000 25.740000 39.380000 215 171 137 0
17.160000 25.740000 39.380000 214 170 136 0
17.380000 25.740000 39.380000 215 171 137 0
17.600000 25.740000 39.600000 215 171 137 0
17.820000 25.740000 39.600000 214 170 136 0
18.040000 25.740000 41.140000 211 170 137 0
18.260000 25.740000 41.140000 210 169 136 0
18.480000 25.740000 38.500000 209 168 135 0
18.700000 25.740000 24.640000 208 167 134 0
18.920000 25.740000 5.500000 208 167 136 0
19.360000 25.740000 0.440000 208 168 138 0
19.800000 25.740000 0.220000 207 167 137 0
20.020000 25.740000 0.220000 206 166 136 0
20.240000 25.740000 0.440000 203 168 141 0
20.460000 25.740000 0.660000 210 175 148 0
20.680000 25.740000 2.200000 199 196 184 0
20.900000 25.740000 14.740000 210 207 195 0
21.120000 25.740000 30.140000 214 213 203 0
21.340000 25.740000 24.640000 215 214 204 0
21.560000 25.740000 5.280000 216 215 206 0
23.100000 25.740000 1.760000 211 204 189 0
23.320000 25.740000 1.540000 207 199 184 0
23.540000 25.740000 1.540000 205 197 182 0
23.760000 25.740000 1.540000 203 197 180 0
23.980000 25.740000 1.540000 203 197 180 0
24.200000 25.740000 1.540000 204 197 182 0
24.420000 25.740000 1.540000 204 197 182 0
24.640000 25.740000 0.220000 204 197 182 0
24.860000 25.740000 0.220000 203 196 181 0
25.080000 25.740000 0.220000 205 198 185 0
25.300000 25.740000 0.220000 207 200 187 0
25.520000 25.740000 0.220000 205 201 193 0
25.740000 25.740000 0.220000 209 205 197 0
25.960000 25.740000 0.220000 210 206 198 0
26.180000 25.740000 0.220000 210 206 198 0
26.400000 25.740000 0.220000 211 207 199 0
26.620000 25.740000 0.220000 213 209 201 0
26.840000 25.740000 1.760000 215 210 202 0
27.060000 25.740000 1.760000 215 210 202 0
27.280000 25.740000 1.760000 216 211 203 0
27.500000 25.740000 1.980000 216 211 203 0
27.720000 25.740000 1.980000 217 212 204 0
27.940000 25.740000 1.980000 216 211 203 0
28.160000 25.740000 2.200000 216 210 205 0
28.380000 25.740000 3.520000 216 210 205 0
28.600000 25.740000 3.740000 215 210 202 0
28.820000 25.740000 3.740000 215 210 202 0
29.040000 25.740000 3.740000 215 209 204 0
29.260000 25.740000 3.960000 216 210 205 0
29.480000 25.740000 3.960000 215 209 204 0
29.700000 25.740000 5.060000 215 209 204 0
29.920000 25.740000 5.940000 216 210 205 0
30.140000 25.740000 7.040000 215 209 204 0
30.360000 25.740000 7.040000 216 210 205 0
30.580000 25.740000 7.040000 216 210 205 0
30.800000 25.740000 7.260000 215 209 204 0
31.020000 25.740000 7.260000 215 209 204 0
31.240000 25.740000 7.260000 216 210 205 0
31.460000 25.740000 8.800000 216 210 205 0
31.680000 25.740000 8.800000 216 210 205 0
31.900000 25.740000 9.020000 216 210 205 0
32.120000 25.740000 9.020000 216 210 205 0
32.340000 25.740000 9.020000 216 210 205 0
32.560000 25.740000 9.240000 216 210 205 0
32.780000 25.740000 9.240000 216 210 205 0
33.000000 25.740000 9.460000 215 209 204 0
33.220000 25.740000 9.460000 216 210 205 0
33.440000 25.740000 11.000000 214 208 203 0
33.660000 25.740000 11.000000 214 208 203 0
33.880000 25.740000 12.100000 213 207 202 0
34.100000 25.740000 12.980000 211 205 200 0
34.320000 25.740000 15.620000 211 205 202 0
34.540000 25.740000 16.060000 214 208 205 0
34.760000 25.740000 16.280000 215 209 206 0
34.980000 25.740000 16.500000 214 208 205 0
35.200000 25.740000 17.600000 215 209 206 0
35.420000 25.740000 19.800000 215 209 206 0
35.640000 25.740000 20.900000 216 210 207 0
35.860000 25.740000 20.900000 216 210 207 0
36.080000 25.740000 20.900000 216 210 207 0
36.300000 25.740000 21.120000 217 211 208 0
36.520000 25.740000 21.120000 218 212 209 0
36.740000 25.740000 21.120000 218 212 209 0
36.960000 25.740000 22.660000 218 212 209 0
37.180000 25.740000 22.660000 218 212 209 0
0.000000 25.960000 8.580000 145 118 86 0
0.220000 25.960000 8.580000 145 118 86 0
0.440000 25.960000 8.580000 145 118 86 0
0.660000 25.960000 8.580000 145 118 86 0
0.880000 25.960000 8.580000 145 118 86 0
1.100000 25.960000 8.580000 145 118 86 0
1.320000 25.960000 8.580000 145 118 86 0
1.540000 25.960000 8.580000 144 117 85 0
1.760000 25.960000 8.580000 146 116 85 0
1.980000 25.960000 8.580000 146 116 85 0
2.200000 25.960000 8.800000 144 117 85 0
2.420000 25.960000 8.800000 144 117 85 0
2.640000 25.960000 8.800000 144 117 85 0
2.860000 25.960000 8.800000 144 117 85 0
3.080000 25.960000 8.800000 146 116 83 0
3.300000 25.960000 10.120000 146 116 83 0
3.520000 25.960000 10.120000 151 117 85 0
3.740000 25.960000 10.120000 154 120 88 0
3.960000 25.960000 10.120000 172 123 86 0
4.180000 25.960000 10.120000 180 131 94 0
4.400000 25.960000 10.120000 190 140 102 0
4.620000 25.960000 10.120000 197 147 109 0
4.840000 25.960000 10.340000 201 156 112 0
5.060000 25.960000 10.340000 204 159 115 0
5.280000 25.960000 10.340000 206 162 120 0
5.500000 25.960000 11.880000 208 164 122 0
5.720000 25.960000 12.100000 210 166 124 0
5.940000 25.960000 13.420000 213 169 127 0
6.160000 25.960000 16.060000 213 169 127 0
6.380000 25.960000 18.260000 214 170 128 0
6.600000 25.960000 19.580000 215 171 129 0
6.820000 25.960000 20.900000 216 172 130 0
7.040000 25.960000 21.120000 217 171 130 0
7.260000 25.960000 21.120000 217 171 130 0
7.480000 25.960000 22.660000 217 171 130 0
7.700000 25.960000 22.660000 217 171 130 0
7.920000 25.960000 22.660000 217 173 131 0
8.140000 25.960000 22.660000 217 173 131 0
8.360000 25.960000 22.880000 217 173 131 0
8.580000 25.960000 22.880000 219 175 133 0
8.800000 25.960000 22.880000 219 173 134 0
9.020000 25.960000 24.420000 220 174 135 0
9.240000 25.960000 24.420000 221 177 135 0
9.460000 25.960000 24.420000 223 179 137 0
9.680000 25.960000 24.640000 223 181 140 0
9.900000 25.960000 24.640000 224 182 141 0
10.120000 25.960000 24.640000 225 183 142 0
10.340000 25.960000 26.180000 225 183 142 0
10.560000 25.960000 25.960000 224 180 140 0
10.780000 25.960000 27.940000 220 176 136 0
11.000000 25.960000 29.040000 217 173 133 0
11.220000 25.960000 29.260000 217 173 133 0
11.440000 25.960000 29.260000 217 174 135 0
11.660000 25.960000 29.260000 219 176 137 0
11.880000 25.960000 29.480000 221 179 138 0
12.100000 25.960000 30.800000 223 181 140 0
12.320000 25.960000 31.020000 223 181 140 0
12.540000 25.960000 31.020000 224 182 141 0
12.760000 25.960000 31.020000 223 180 141 0
12.980000 25.960000 31.240000 223 180 141 0
13.200000 25.960000 31.240000 223 180 141 0
13.420000 25.960000 32.560000 222 179 140 0
13.640000 25.960000 32.780000 222 179 140 0
13.860000 25.960000 32.780000 220 177 138 0
14.080000 25.960000 32.780000 221 178 139 0
14.300000 25.960000 33.000000 220 177 138 0
14.520000 25.960000 34.320000 219 176 137 0
14.740000 25.960000 35.640000 219 176 137 0
14.960000 25.960000 36.300000 217 174 137 0
15.180000 25.960000 37.400000 216 173 136 0
15.400000 25.960000 37.400000 216 173 136 0
15.620000 25.960000 38.940000 217 174 137 0
15.840000 25.960000 38.940000 216 173 136 0
16.060000 25.960000 38.940000 217 174 137 0
16.280000 25.960000 39.160000 217 174 137 0
16.500000 25.960000 39.160000 217 174 137 0
16.720000 25.960000 39.160000 218 174 140 0
16.940000 25.960000 39.380000 218 174 140 0
17.160000 25.960000 39.380000 216 172 138 0
17.380000 25.960000 39.380000 216 172 138 0
17.600000 25.960000 39.600000 216 172 138 0
17.820000 25.960000 39.600000 215 171 137 0
18.040000 25.960000 39.600000 213 172 139 0
18.260000 25.960000 41.140000 211 170 137 0
18.480000 25.960000 41.140000 209 168 135 0
18.700000 25.960000 30.140000 209 168 135 0
18.920000 25.960000 8.140000 209 168 137 0
19.580000 25.960000 0.220000 211 171 141 0
19.800000 25.960000 0.220000 209 169 139 0
20.020000 25.960000 0.220000 208 168 138 0
20.240000 25.960000 0.440000 204 169 142 0
20.460000 25.960000 0.440000 206 171 144 0
20.900000 25.960000 6.380000 207 204 192 0
21.120000 25.960000 16.280000 212 211 201 0
21.340000 25.960000 10.780000 216 215 205 0
23.100000 25.960000 1.760000 206 199 184 0
23.320000 25.960000 1.760000 206 198 183 0
23.540000 25.960000 0.440000 205 197 182 0
23.760000 25.960000 0.220000 204 198 181 0
23.980000 25.960000 1.540000 203 197 180 0
24.200000 25.960000 1.540000 203 196 181 0
24.420000 25.960000 0.220000 204 197 182 0
24.640000 25.960000 0.220000 204 197 182 0
24.860000 25.960000 0.220000 205 198 183 0
25.080000 25.960000 0.220000 206 199 186 0
25.300000 25.960000 0.220000 208 201 188 0
25.520000 25.960000 0.220000 207 203 195 0
25.740000 25.960000 0.220000 210 206 198 0
25.960000 25.960000 0.220000 211 207 199 0
26.180000 25.960000 0.220000 212 208 200 0
26.400000 25.960000 0.220000 213 209 201 0
26.620000 25.960000 0.220000 214 210 202 0
26.840000 25.960000 1.760000 215 210 202 0
27.060000 25.960000 1.760000 216 211 203 0
27.280000 25.960000 1.760000 217 212 204 0
27.500000 25.960000 1.980000 216 211 203 0
27.720000 25.960000 1.980000 216 211 203 0
27.940000 25.960000 1.980000 215 210 202 0
28.160000 25.960000 2.200000 216 210 205 0
28.380000 25.960000 3.520000 216 210 205 0
28.600000 25.960000 3.740000 216 211 203 0
28.820000 25.960000 3.740000 216 211 203 0
29.040000 25.960000 3.740000 215 209 204 0
29.260000 25.960000 3.960000 216 210 205 0
29.480000 25.960000 3.960000 217 211 206 0
29.700000 25.960000 5.060000 216 210 205 0
29.920000 25.960000 5.940000 215 209 204 0
30.140000 25.960000 7.040000 215 209 204 0
30.360000 25.960000 7.040000 216 210 205 0
30.580000 25.960000 7.040000 217 211 206 0
30.800000 25.960000 7.260000 216 210 205 0
31.020000 25.960000 7.260000 215 209 204 0
31.240000 25.960000 7.260000 216 210 205 0
31.460000 25.960000 8.800000 216 210 205 0
31.680000 25.960000 8.800000 215 209 204 0
31.900000 25.960000 9.020000 216 210 205 0
32.120000 25.960000 9.020000 217 211 206 0
32.340000 25.960000 9.020000 217 211 206 0
32.560000 25.960000 9.240000 217 211 206 0
32.780000 25.960000 9.240000 216 210 205 0
33.000000 25.960000 9.240000 216 210 205 0
33.220000 25.960000 9.460000 216 210 205 0
33.440000 25.960000 11.000000 215 209 204 0
33.660000 25.960000 11.000000 215 209 204 0
33.880000 25.960000 12.100000 214 208 203 0
34.100000 25.960000 12.760000 212 206 201 0
34.320000 25.960000 15.400000 211 205 202 0
34.540000 25.960000 15.620000 213 207 204 0
34.760000 25.960000 16.280000 215 209 206 0
34.980000 25.960000 16.500000 216 210 207 0
35.200000 25.960000 17.600000 216 210 207 0
35.420000 25.960000 19.800000 216 210 207 0
35.640000 25.960000 20.900000 216 210 207 0
35.860000 25.960000 20.900000 217 211 208 0
36.080000 25.960000 20.900000 217 211 208 0
36.300000 25.960000 21.120000 218 212 209 0
36.520000 25.960000 21.120000 219 213 210 0
36.740000 25.960000 21.120000 220 214 211 0
36.960000 25.960000 22.660000 219 213 210 0
37.180000 25.960000 22.660000 219 213 210 0
0.000000 26.180000 8.580000 145 118 86 0
0.220000 26.180000 8.580000 145 118 86 0
0.440000 26.180000 8.580000 144 119 86 0
0.660000 26.180000 8.580000 143 118 85 0
0.880000 26.180000 8.580000 144 117 83 0
1.100000 26.180000 8.580000 144 117 83 0
1.320000 26.180000 8.580000 144 117 85 0
1.540000 26.180000 8.580000 144 117 85 0
1.760000 26.180000 8.580000 145 118 86 0
1.980000 26.180000 8.580000 144 117 85 0
2.200000 26.180000 8.800000 144 117 85 0
2.420000 26.180000 8.800000 144 117 85 0
2.640000 26.180000 8.800000 144 117 85 0
2.860000 26.180000 8.800000 144 117 85 0
3.080000 26.180000 8.800000 144 117 85 0
3.300000 26.180000 10.120000 143 116 84 0
3.520000 26.180000 10.120000 147 117 84 0
3.740000 26.180000 10.120000 148 118 85 0
3.960000 26.180000 10.120000 161 121 83 0
4.180000 26.180000 10.120000 170 130 92 0
4.400000 26.180000 10.120000 188 138 98 0
4.620000 26.180000 10.120000 194 144 104 0
4.840000 26.180000 10.340000 198 154 110 0
5.060000 26.180000 10.340000 203 159 115 0
5.280000 26.180000 10.340000 206 162 120 0
5.500000 26.180000 10.340000 207 163 121 0
5.720000 26.180000 11.880000 209 165 125 0
5.940000 26.180000 12.100000 211 167 127 0
6.160000 26.180000 14.740000 213 169 127 0
6.380000 26.180000 17.160000 213 169 127 0
6.600000 26.180000 19.580000 215 171 129 0
6.820000 26.180000 19.580000 216 172 130 0
7.040000 26.180000 21.120000 218 172 131 0
7.260000 26.180000 21.120000 218 172 131 0
7.480000 26.180000 21.120000 217 173 133 0
7.700000 26.180000 22.660000 217 173 133 0
7.920000 26.180000 22.660000 217 173 133 0
8.140000 26.180000 22.660000 219 175 135 0
8.360000 26.180000 22.880000 217 173 131 0
8.580000 26.180000 22.880000 218 174 132 0
8.800000 26.180000 22.880000 219 175 135 0
9.020000 26.180000 24.420000 219 175 135 0
9.240000 26.180000 24.420000 221 177 137 0
9.460000 26.180000 24.640000 222 178 138 0
9.680000 26.180000 24.640000 222 180 139 0
9.900000 26.180000 24.640000 222 180 139 0
10.120000 26.180000 24.640000 224 182 141 0
10.340000 26.180000 26.180000 225 183 142 0
10.560000 26.180000 27.060000 223 179 139 0
10.780000 26.180000 27.940000 220 176 136 0
11.000000 26.180000 29.040000 218 172 133 0
11.220000 26.180000 29.260000 217 171 132 0
11.440000 26.180000 29.260000 216 173 134 0
11.660000 26.180000 29.260000 218 175 136 0
11.880000 26.180000 29.480000 220 177 138 0
12.100000 26.180000 30.800000 223 180 141 0
12.320000 26.180000 31.020000 223 180 141 0
12.540000 26.180000 31.020000 223 180 141 0
12.760000 26.180000 31.020000 224 181 142 0
12.980000 26.180000 31.240000 224 181 142 0
13.200000 26.180000 31.240000 223 180 141 0
13.420000 26.180000 32.560000 223 180 141 0
13.640000 26.180000 32.780000 222 179 140 0
13.860000 26.180000 32.780000 222 179 140 0
14.080000 26.180000 32.780000 222 179 140 0
14.300000 26.180000 33.000000 220 177 138 0
14.520000 26.180000 34.320000 220 177 140 0
14.740000 26.180000 35.420000 218 175 138 0
14.960000 26.180000 36.300000 216 173 136 0
15.180000 26.180000 37.400000 216 173 136 0
15.400000 26.180000 37.400000 217 174 137 0
15.620000 26.180000 38.940000 218 175 138 0
15.840000 26.180000 38.940000 218 175 138 0
16.060000 26.180000 38.940000 218 175 138 0
16.280000 26.180000 39.160000 217 174 137 0
16.500000 26.180000 39.160000 218 175 138 0
16.720000 26.180000 39.160000 216 176 138 0
16.940000 26.180000 39.380000 216 176 138 0
17.160000 26.180000 39.380000 216 172 138 0
17.380000 26.180000 39.380000 217 173 139 0
17.600000 26.180000 39.600000 217 173 139 0
17.820000 26.180000 39.600000 216 172 138 0
18.040000 26.180000 39.600000 215 171 139 0
18.260000 26.180000 41.140000 214 170 138 0
18.480000 26.180000 41.140000 210 171 137 0
18.700000 26.180000 30.140000 210 171 137 0
18.920000 26.180000 8.140000 210 169 138 0
19.580000 26.180000 0.220000 210 170 140 0
19.800000 26.180000 0.220000 210 168 139 0
20.020000 26.180000 0.220000 210 168 139 0
20.240000 26.180000 0.220000 206 169 138 0
20.460000 26.180000 0.440000 207 170 139 0
20.680000 26.180000 0.660000 195 182 168 0
20.900000 26.180000 2.200000 210 197 183 0
21.120000 26.180000 3.740000 212 211 202 0
