ply
format ascii 1.0
element vertex 1127
property float x
property float y
property float z
property uchar red
property uchar green
property uchar blue
property uchar alpha
end_header
33.880000 31.460000 4.290000 101 108 88 0
34.100000 31.460000 4.400000 105 106 85 0
34.320000 31.460000 4.400000 108 109 88 0
34.540000 31.460000 4.400000 111 110 87 0
34.760000 31.460000 4.400000 112 111 88 0
34.980000 31.460000 4.400000 116 110 89 0
35.200000 31.460000 4.400000 117 111 90 0
35.420000 31.460000 4.400000 119 113 92 0
35.640000 31.460000 4.400000 119 113 92 0
35.860000 31.460000 4.400000 119 113 92 0
36.080000 31.460000 4.400000 121 115 94 0
36.300000 31.460000 4.400000 122 113 91 0
36.520000 31.460000 4.400000 123 114 92 0
36.740000 31.460000 4.400000 126 115 93 0
36.960000 31.460000 4.400000 126 115 93 0
37.180000 31.460000 4.400000 125 116 94 0
0.000000 31.680000 1.540000 132 129 109 0
0.220000 31.680000 1.540000 133 129 112 0
0.440000 31.680000 1.540000 133 129 112 0
0.660000 31.680000 1.540000 134 130 113 0
0.880000 31.680000 1.540000 133 129 112 0
1.100000 31.680000 1.540000 132 129 109 0
1.320000 31.680000 1.540000 131 128 108 0
1.540000 31.680000 1.540000 132 129 109 0
1.760000 31.680000 1.430000 130 127 107 0
1.980000 31.680000 1.430000 132 128 111 0
2.200000 31.680000 1.430000 130 126 109 0
2.420000 31.680000 1.430000 129 125 108 0
2.640000 31.680000 1.540000 128 124 107 0
2.860000 31.680000 1.540000 126 124 104 0
3.080000 31.680000 1.540000 127 125 105 0
3.300000 31.680000 2.200000 129 126 106 0
3.520000 31.680000 2.200000 131 128 108 0
3.740000 31.680000 2.200000 132 129 109 0
3.960000 31.680000 2.200000 132 129 109 0
4.180000 31.680000 2.200000 133 130 110 0
4.400000 31.680000 2.200000 133 130 110 0
4.620000 31.680000 2.200000 132 130 110 0
4.840000 31.680000 2.200000 131 129 109 0
5.060000 31.680000 2.200000 131 128 108 0
5.280000 31.680000 2.200000 131 128 108 0
5.500000 31.680000 2.200000 131 128 108 0
5.720000 31.680000 2.200000 130 127 107 0
5.940000 31.680000 2.090000 130 127 107 0
6.160000 31.680000 2.200000 129 126 106 0
6.380000 31.680000 2.200000 130 127 107 0
6.600000 31.680000 2.200000 129 126 106 0
6.820000 31.680000 2.200000 128 125 103 0
7.040000 31.680000 2.200000 128 125 103 0
7.260000 31.680000 2.200000 132 126 105 0
7.480000 31.680000 2.200000 130 124 103 0
7.700000 31.680000 2.200000 127 124 102 0
7.920000 31.680000 2.200000 127 124 102 0
8.140000 31.680000 2.200000 128 125 103 0
8.360000 31.680000 2.200000 127 124 102 0
8.580000 31.680000 2.200000 128 125 103 0
8.800000 31.680000 1.430000 129 126 104 0
9.020000 31.680000 1.430000 111 135 114 0
9.240000 31.680000 0.770000 113 137 116 0
9.460000 31.680000 0.770000 107 138 115 0
9.680000 31.680000 0.770000 107 138 115 0
9.900000 31.680000 0.770000 106 137 116 0
10.120000 31.680000 0.880000 106 137 116 0
10.340000 31.680000 0.880000 104 135 114 0
10.560000 31.680000 0.220000 104 135 114 0
10.780000 31.680000 0.220000 105 136 115 0
11.000000 31.680000 0.880000 103 134 113 0
11.220000 31.680000 0.880000 104 137 115 0
11.440000 31.680000 0.880000 104 137 115 0
11.660000 31.680000 0.880000 105 138 116 0
11.880000 31.680000 0.880000 105 138 116 0
12.100000 31.680000 0.880000 105 136 115 0
12.320000 31.680000 0.880000 105 136 115 0
12.540000 31.680000 0.880000 104 135 114 0
12.760000 31.680000 0.880000 104 135 114 0
12.980000 31.680000 0.880000 101 136 113 0
13.200000 31.680000 0.880000 100 135 112 0
13.420000 31.680000 0.880000 101 134 112 0
13.640000 31.680000 0.880000 102 135 113 0
13.860000 31.680000 0.880000 99 132 110 0
14.080000 31.680000 0.880000 99 132 110 0
14.300000 31.680000 0.880000 98 133 110 0
14.520000 31.680000 0.880000 97 132 109 0
14.740000 31.680000 0.880000 96 131 108 0
14.960000 31.680000 0.880000 96 131 108 0
15.180000 31.680000 0.880000 96 131 108 0
15.400000 31.680000 0.880000 97 132 109 0
15.620000 31.680000 0.220000 97 132 109 0
15.840000 31.680000 0.220000 96 131 108 0
16.060000 31.680000 0.220000 96 131 108 0
16.280000 31.680000 0.220000 97 132 109 0
16.500000 31.680000 0.220000 96 131 108 0
16.720000 31.680000 0.330000 96 131 108 0
16.940000 31.680000 0.330000 95 130 107 0
17.160000 31.680000 0.330000 95 130 107 0
17.380000 31.680000 0.330000 93 130 107 0
17.600000 31.680000 0.330000 95 132 109 0
17.820000 31.680000 0.330000 94 131 108 0
23.980000 31.680000 0.990000 100 148 121 0
24.200000 31.680000 1.540000 101 149 122 0
24.420000 31.680000 1.430000 99 151 123 0
24.640000 31.680000 1.430000 100 152 124 0
24.860000 31.680000 1.430000 101 151 123 0
25.080000 31.680000 1.430000 101 151 123 0
25.300000 31.680000 1.430000 106 150 122 0
25.520000 31.680000 1.430000 106 150 122 0
25.740000 31.680000 1.430000 102 147 119 0
25.960000 31.680000 0.770000 103 148 120 0
26.180000 31.680000 0.770000 102 146 118 0
26.400000 31.680000 0.770000 101 145 117 0
26.620000 31.680000 0.770000 100 144 116 0
26.840000 31.680000 0.770000 101 145 117 0
27.060000 31.680000 0.770000 100 144 116 0
27.280000 31.680000 0.770000 102 146 118 0
27.500000 31.680000 0.770000 101 146 120 0
27.720000 31.680000 0.880000 101 146 120 0
27.940000 31.680000 0.880000 100 145 119 0
28.160000 31.680000 0.880000 99 144 118 0
28.380000 31.680000 0.880000 100 145 117 0
28.600000 31.680000 0.880000 101 146 118 0
28.820000 31.680000 0.880000 102 147 119 0
29.040000 31.680000 0.990000 103 148 120 0
29.260000 31.680000 0.990000 102 147 121 0
29.480000 31.680000 0.990000 102 147 121 0
29.700000 31.680000 0.990000 102 147 121 0
29.920000 31.680000 0.990000 103 148 122 0
30.140000 31.680000 1.100000 104 149 121 0
30.360000 31.680000 1.100000 103 148 120 0
30.580000 31.680000 1.100000 102 150 121 0
30.800000 31.680000 1.100000 103 151 122 0
31.020000 31.680000 1.100000 103 150 125 0
31.240000 31.680000 1.210000 104 151 126 0
31.460000 31.680000 1.210000 102 152 124 0
31.680000 31.680000 1.210000 101 151 123 0
31.900000 31.680000 1.210000 102 150 123 0
32.120000 31.680000 1.980000 102 150 123 0
32.340000 31.680000 1.870000 103 146 121 0
32.560000 31.680000 2.530000 102 145 120 0
32.780000 31.680000 2.970000 104 142 116 0
33.000000 31.680000 3.520000 99 137 111 0
33.220000 31.680000 3.520000 108 126 105 0
33.440000 31.680000 4.290000 102 120 99 0
33.660000 31.680000 4.290000 107 114 94 0
33.880000 31.680000 4.290000 104 111 91 0
34.100000 31.680000 4.290000 105 106 85 0
34.320000 31.680000 4.400000 106 107 86 0
34.540000 31.680000 4.400000 108 107 84 0
34.760000 31.680000 4.400000 108 107 84 0
34.980000 31.680000 4.400000 113 107 86 0
35.200000 31.680000 4.400000 115 109 88 0
35.420000 31.680000 4.400000 116 110 89 0
35.640000 31.680000 4.400000 118 112 91 0
35.860000 31.680000 4.400000 118 112 91 0
36.080000 31.680000 4.400000 118 112 91 0
36.300000 31.680000 4.400000 121 112 90 0
36.520000 31.680000 4.400000 122 113 91 0
36.740000 31.680000 4.400000 125 114 92 0
36.960000 31.680000 4.400000 126 115 93 0
37.180000 31.680000 4.400000 125 116 94 0
0.000000 31.900000 2.200000 133 130 110 0
0.220000 31.900000 1.430000 132 128 111 0
0.440000 31.900000 1.540000 133 129 112 0
0.660000 31.900000 1.540000 132 128 111 0
0.880000 31.900000 1.540000 133 129 112 0
1.100000 31.900000 1.540000 132 128 111 0
1.320000 31.900000 1.540000 132 128 111 0
1.540000 31.900000 1.540000 131 127 110 0
1.760000 31.900000 2.200000 131 127 110 0
1.980000 31.900000 2.200000 129 127 109 0
2.200000 31.900000 1.430000 129 127 109 0
2.420000 31.900000 1.540000 129 127 109 0
2.640000 31.900000 1.540000 127 125 107 0
2.860000 31.900000 1.540000 127 125 107 0
3.080000 31.900000 1.540000 125 123 105 0
3.300000 31.900000 1.540000 127 125 105 0
3.520000 31.900000 2.200000 128 126 106 0
3.740000 31.900000 2.200000 129 125 108 0
3.960000 31.900000 2.200000 131 127 110 0
4.180000 31.900000 2.200000 132 130 110 0
4.400000 31.900000 2.200000 131 129 109 0
4.620000 31.900000 2.200000 132 129 109 0
4.840000 31.900000 2.200000 132 129 109 0
5.060000 31.900000 2.200000 133 130 110 0
5.280000 31.900000 2.200000 132 129 109 0
5.500000 31.900000 2.200000 131 128 108 0
5.720000 31.900000 2.200000 130 127 107 0
5.940000 31.900000 2.200000 129 127 107 0
6.160000 31.900000 2.200000 129 127 107 0
6.380000 31.900000 2.200000 130 127 107 0
6.600000 31.900000 2.200000 129 126 106 0
6.820000 31.900000 2.200000 129 126 104 0
7.040000 31.900000 2.200000 129 126 104 0
7.260000 31.900000 2.200000 130 127 107 0
7.480000 31.900000 2.200000 130 127 107 0
7.700000 31.900000 2.200000 128 126 106 0
7.920000 31.900000 2.200000 128 126 106 0
8.140000 31.900000 2.200000 122 129 108 0
8.360000 31.900000 1.540000 123 130 109 0
8.580000 31.900000 1.540000 109 136 116 0
8.800000 31.900000 1.540000 110 137 117 0
9.020000 31.900000 0.880000 107 138 117 0
9.240000 31.900000 0.880000 109 140 119 0
9.460000 31.900000 0.770000 107 138 117 0
9.680000 31.900000 0.770000 106 137 116 0
9.900000 31.900000 0.770000 105 136 115 0
10.120000 31.900000 0.880000 105 136 115 0
10.340000 31.900000 0.220000 104 135 114 0
10.560000 31.900000 0.220000 104 135 114 0
10.780000 31.900000 0.880000 105 136 115 0
11.000000 31.900000 0.880000 105 136 115 0
11.220000 31.900000 0.880000 104 137 115 0
11.440000 31.900000 0.880000 104 137 115 0
11.660000 31.900000 0.880000 105 136 115 0
11.880000 31.900000 0.880000 106 137 116 0
12.100000 31.900000 0.880000 105 136 115 0
12.320000 31.900000 0.880000 105 136 115 0
12.540000 31.900000 0.880000 103 136 114 0
12.760000 31.900000 0.880000 103 136 114 0
12.980000 31.900000 0.880000 102 135 113 0
13.200000 31.900000 0.880000 102 135 113 0
13.420000 31.900000 0.880000 100 135 112 0
13.640000 31.900000 0.880000 100 135 112 0
13.860000 31.900000 0.880000 100 135 112 0
14.080000 31.900000 0.880000 99 134 111 0
14.300000 31.900000 0.880000 98 133 110 0
14.520000 31.900000 0.880000 97 132 109 0
14.740000 31.900000 0.880000 97 130 108 0
14.960000 31.900000 0.880000 98 131 109 0
15.180000 31.900000 0.880000 96 131 108 0
15.400000 31.900000 0.880000 96 131 108 0
15.620000 31.900000 0.220000 97 132 109 0
15.840000 31.900000 0.220000 97 132 109 0
16.060000 31.900000 0.220000 96 131 108 0
16.280000 31.900000 0.220000 96 131 108 0
16.500000 31.900000 0.220000 95 132 109 0
16.720000 31.900000 0.220000 94 131 108 0
16.940000 31.900000 0.220000 94 131 108 0
17.160000 31.900000 0.330000 95 132 109 0
17.600000 31.900000 0.330000 95 132 109 0
17.820000 31.900000 0.330000 95 134 110 0
24.200000 31.900000 0.440000 100 152 124 0
24.420000 31.900000 0.880000 100 154 126 0
24.640000 31.900000 1.430000 99 153 125 0
24.860000 31.900000 1.430000 100 152 124 0
25.080000 31.900000 1.430000 101 153 125 0
25.300000 31.900000 1.430000 103 153 125 0
25.520000 31.900000 1.430000 103 153 125 0
25.740000 31.900000 1.430000 103 153 125 0
25.960000 31.900000 1.430000 101 151 123 0
26.180000 31.900000 1.430000 101 151 123 0
26.400000 31.900000 0.770000 99 149 121 0
26.620000 31.900000 0.770000 100 148 121 0
26.840000 31.900000 0.770000 100 148 121 0
27.060000 31.900000 0.770000 100 150 120 0
27.280000 31.900000 0.770000 100 150 120 0
27.500000 31.900000 0.770000 100 148 121 0
27.720000 31.900000 0.770000 101 149 122 0
27.940000 31.900000 0.880000 99 149 121 0
28.160000 31.900000 0.880000 98 148 120 0
28.380000 31.900000 0.880000 100 148 121 0
28.600000 31.900000 0.880000 101 149 122 0
28.820000 31.900000 0.880000 101 151 123 0
29.040000 31.900000 0.880000 102 152 124 0
29.260000 31.900000 0.990000 102 150 123 0
29.480000 31.900000 0.990000 101 149 122 0
29.700000 31.900000 0.990000 100 150 122 0
29.920000 31.900000 0.990000 101 151 123 0
30.140000 31.900000 0.990000 103 153 125 0
30.360000 31.900000 1.100000 101 151 123 0
30.580000 31.900000 1.100000 102 152 124 0
30.800000 31.900000 1.100000 103 153 125 0
31.020000 31.900000 1.100000 103 153 125 0
31.240000 31.900000 1.100000 102 152 124 0
31.460000 31.900000 1.210000 103 153 125 0
31.680000 31.900000 1.210000 102 152 124 0
31.900000 31.900000 1.210000 103 151 124 0
32.120000 31.900000 1.210000 103 151 124 0
32.340000 31.900000 1.320000 103 151 124 0
32.560000 31.900000 1.980000 102 150 123 0
32.780000 31.900000 2.530000 100 148 121 0
33.000000 31.900000 2.970000 99 147 120 0
33.220000 31.900000 3.520000 96 144 117 0
33.440000 31.900000 3.520000 91 139 112 0
33.660000 31.900000 3.520000 93 131 105 0
33.880000 31.900000 4.290000 92 130 104 0
34.100000 31.900000 4.290000 100 116 98 0
34.320000 31.900000 4.290000 96 112 94 0
34.540000 31.900000 4.400000 99 108 86 0
34.760000 31.900000 4.400000 99 108 86 0
34.980000 31.900000 4.400000 105 107 88 0
35.200000 31.900000 4.400000 107 109 90 0
35.420000 31.900000 4.400000 111 109 89 0
35.640000 31.900000 4.400000 111 109 89 0
35.860000 31.900000 4.400000 113 111 93 0
36.080000 31.900000 4.400000 114 112 94 0
36.300000 31.900000 4.400000 116 113 91 0
36.520000 31.900000 4.400000 117 114 92 0
36.740000 31.900000 4.400000 121 114 93 0
36.960000 31.900000 4.400000 122 115 94 0
37.180000 31.900000 4.400000 124 117 94 0
0.000000 32.120000 2.200000 132 129 109 0
0.220000 32.120000 2.200000 132 128 111 0
0.440000 32.120000 1.540000 133 129 112 0
0.660000 32.120000 1.540000 132 128 111 0
0.880000 32.120000 1.540000 132 128 111 0
1.100000 32.120000 1.540000 132 128 111 0
1.320000 32.120000 1.540000 131 127 110 0
1.540000 32.120000 2.200000 131 127 110 0
1.760000 32.120000 2.200000 130 126 109 0
1.980000 32.120000 2.200000 129 127 109 0
2.200000 32.120000 2.200000 128 126 108 0
2.420000 32.120000 1.540000 128 126 108 0
2.640000 32.120000 1.540000 127 125 107 0
2.860000 32.120000 2.200000 125 123 105 0
3.080000 32.120000 2.200000 125 123 105 0
3.300000 32.120000 2.200000 125 123 103 0
3.520000 32.120000 2.200000 125 123 103 0
3.740000 32.120000 2.200000 127 123 106 0
3.960000 32.120000 2.200000 128 124 107 0
4.180000 32.120000 2.200000 128 126 106 0
4.400000 32.120000 2.200000 131 129 109 0
4.620000 32.120000 2.200000 132 129 109 0
4.840000 32.120000 2.200000 133 130 110 0
5.060000 32.120000 2.200000 132 129 109 0
5.280000 32.120000 2.200000 131 128 108 0
5.500000 32.120000 2.200000 131 128 108 0
5.720000 32.120000 2.200000 131 128 108 0
5.940000 32.120000 2.200000 129 127 107 0
6.160000 32.120000 2.200000 129 127 107 0
6.380000 32.120000 2.200000 130 127 107 0
6.600000 32.120000 2.200000 130 127 107 0
6.820000 32.120000 2.200000 130 127 105 0
7.040000 32.120000 2.200000 129 126 104 0
7.260000 32.120000 2.200000 129 126 106 0
7.480000 32.120000 2.200000 129 126 106 0
7.700000 32.120000 2.200000 127 125 105 0
7.920000 32.120000 2.200000 128 126 106 0
8.140000 32.120000 1.540000 122 129 108 0
8.360000 32.120000 1.540000 123 130 109 0
8.580000 32.120000 0.880000 110 137 117 0
8.800000 32.120000 0.880000 112 139 119 0
9.020000 32.120000 0.880000 109 140 119 0
9.240000 32.120000 0.880000 108 139 118 0
9.460000 32.120000 0.880000 108 139 118 0
9.680000 32.120000 0.880000 106 137 116 0
9.900000 32.120000 0.880000 104 135 114 0
10.120000 32.120000 0.880000 103 134 113 0
10.340000 32.120000 0.880000 104 135 114 0
10.560000 32.120000 0.220000 105 136 115 0
10.780000 32.120000 0.880000 105 136 115 0
11.000000 32.120000 0.880000 105 136 115 0
11.220000 32.120000 0.880000 104 137 115 0
11.440000 32.120000 0.880000 103 136 114 0
11.660000 32.120000 0.880000 104 135 114 0
11.880000 32.120000 0.880000 105 136 115 0
12.100000 32.120000 0.880000 104 135 114 0
12.320000 32.120000 0.880000 104 135 114 0
12.540000 32.120000 0.880000 103 136 114 0
12.760000 32.120000 0.880000 102 135 113 0
12.980000 32.120000 0.880000 102 135 113 0
13.200000 32.120000 0.880000 102 135 113 0
13.420000 32.120000 0.880000 100 135 112 0
13.640000 32.120000 0.880000 99 134 111 0
13.860000 32.120000 0.880000 99 134 111 0
14.080000 32.120000 0.880000 98 133 110 0
14.300000 32.120000 0.880000 97 132 109 0
14.520000 32.120000 0.880000 98 133 110 0
14.740000 32.120000 0.880000 98 131 109 0
14.960000 32.120000 0.880000 97 130 108 0
15.180000 32.120000 0.880000 96 131 108 0
15.400000 32.120000 0.220000 95 130 107 0
15.620000 32.120000 0.220000 95 130 107 0
15.840000 32.120000 0.220000 96 131 108 0
16.060000 32.120000 0.220000 96 131 108 0
16.280000 32.120000 0.220000 96 131 108 0
16.500000 32.120000 0.220000 95 132 109 0
16.720000 32.120000 0.220000 94 131 108 0
16.940000 32.120000 0.220000 95 132 109 0
17.160000 32.120000 0.220000 95 132 109 0
24.420000 32.120000 0.440000 101 155 127 0
24.640000 32.120000 0.990000 101 155 127 0
24.860000 32.120000 1.540000 102 154 126 0
25.080000 32.120000 1.430000 102 154 126 0
25.300000 32.120000 1.430000 104 154 126 0
25.520000 32.120000 1.430000 104 154 126 0
25.740000 32.120000 1.430000 104 154 126 0
25.960000 32.120000 1.430000 103 153 125 0
26.180000 32.120000 1.430000 102 152 124 0
26.400000 32.120000 1.430000 101 151 123 0
26.620000 32.120000 0.770000 103 151 124 0
26.840000 32.120000 0.770000 102 150 123 0
27.060000 32.120000 0.770000 101 151 121 0
27.280000 32.120000 0.770000 100 150 120 0
27.500000 32.120000 0.770000 102 150 123 0
27.720000 32.120000 0.770000 101 149 122 0
27.940000 32.120000 0.770000 101 151 123 0
28.160000 32.120000 0.880000 101 151 123 0
28.380000 32.120000 0.880000 102 150 123 0
28.600000 32.120000 0.880000 100 148 121 0
28.820000 32.120000 0.880000 102 152 124 0
29.040000 32.120000 0.880000 102 152 124 0
29.260000 32.120000 0.880000 103 151 124 0
29.480000 32.120000 0.990000 102 150 123 0
29.700000 32.120000 0.990000 101 151 123 0
29.920000 32.120000 0.990000 102 152 124 0
30.140000 32.120000 0.990000 103 153 125 0
30.360000 32.120000 0.990000 103 153 125 0
30.580000 32.120000 1.100000 101 151 123 0
30.800000 32.120000 1.100000 102 152 124 0
31.020000 32.120000 1.100000 102 152 124 0
31.240000 32.120000 1.100000 103 153 125 0
31.460000 32.120000 1.100000 103 153 125 0
31.680000 32.120000 1.210000 104 154 126 0
31.900000 32.120000 1.210000 106 154 127 0
32.120000 32.120000 1.210000 105 153 126 0
32.340000 32.120000 1.210000 104 152 125 0
32.560000 32.120000 1.980000 104 152 125 0
32.780000 32.120000 1.980000 103 151 124 0
33.000000 32.120000 2.530000 102 150 123 0
33.220000 32.120000 2.970000 100 148 121 0
33.440000 32.120000 3.520000 99 147 120 0
33.660000 32.120000 3.520000 101 139 113 0
33.880000 32.120000 3.520000 97 135 109 0
34.100000 32.120000 4.290000 106 122 104 0
34.320000 32.120000 4.290000 101 117 99 0
34.540000 32.120000 4.290000 104 113 91 0
34.760000 32.120000 4.400000 101 110 88 0
34.980000 32.120000 4.400000 103 105 86 0
35.200000 32.120000 4.400000 103 105 86 0
35.420000 32.120000 4.400000 109 107 87 0
35.640000 32.120000 4.400000 110 108 88 0
35.860000 32.120000 4.400000 111 109 91 0
36.080000 32.120000 4.400000 112 110 92 0
36.300000 32.120000 4.400000 114 111 89 0
36.520000 32.120000 4.400000 115 112 90 0
36.740000 32.120000 4.400000 120 113 92 0
36.960000 32.120000 4.400000 121 114 93 0
37.180000 32.120000 4.400000 121 114 91 0
0.000000 32.340000 1.430000 133 129 112 0
0.220000 32.340000 1.430000 132 128 111 0
0.440000 32.340000 1.540000 132 128 111 0
0.660000 32.340000 1.540000 132 128 111 0
0.880000 32.340000 1.430000 131 127 110 0
1.100000 32.340000 1.540000 132 128 111 0
1.320000 32.340000 1.540000 132 128 111 0
1.540000 32.340000 1.540000 132 129 109 0
1.760000 32.340000 2.200000 130 127 107 0
1.980000 32.340000 2.200000 130 127 107 0
2.200000 32.340000 2.200000 130 127 107 0
2.420000 32.340000 1.540000 130 127 107 0
2.640000 32.340000 1.540000 128 125 105 0
2.860000 32.340000 2.200000 128 125 105 0
3.080000 32.340000 2.200000 127 124 104 0
3.300000 32.340000 2.200000 125 123 105 0
3.520000 32.340000 2.200000 124 122 104 0
3.740000 32.340000 2.200000 125 123 105 0
3.960000 32.340000 2.200000 124 122 104 0
4.180000 32.340000 2.200000 126 122 105 0
4.400000 32.340000 2.200000 128 124 107 0
4.620000 32.340000 2.200000 130 127 107 0
4.840000 32.340000 2.200000 131 128 108 0
5.060000 32.340000 2.200000 132 129 109 0
5.280000 32.340000 2.200000 131 128 108 0
5.500000 32.340000 2.200000 130 128 108 0
5.720000 32.340000 2.200000 130 128 108 0
5.940000 32.340000 2.200000 130 127 107 0
6.160000 32.340000 2.200000 130 127 107 0
6.380000 32.340000 2.200000 131 128 108 0
6.600000 32.340000 2.200000 131 128 108 0
6.820000 32.340000 2.200000 130 127 107 0
7.040000 32.340000 2.200000 130 127 107 0
7.260000 32.340000 2.200000 127 128 109 0
7.480000 32.340000 2.200000 126 127 108 0
7.700000 32.340000 2.200000 112 133 113 0
7.920000 32.340000 1.540000 113 134 114 0
8.140000 32.340000 1.540000 107 138 117 0
8.360000 32.340000 0.880000 110 141 120 0
8.580000 32.340000 0.880000 108 139 118 0
8.800000 32.340000 0.880000 109 140 119 0
9.020000 32.340000 0.880000 107 138 117 0
9.240000 32.340000 0.880000 108 139 118 0
9.460000 32.340000 0.880000 107 138 117 0
9.680000 32.340000 0.880000 106 137 116 0
9.900000 32.340000 0.880000 105 136 115 0
10.120000 32.340000 0.880000 105 136 115 0
10.340000 32.340000 0.880000 105 136 115 0
10.560000 32.340000 0.880000 106 137 116 0
10.780000 32.340000 0.880000 105 138 116 0
11.000000 32.340000 0.880000 105 138 116 0
11.220000 32.340000 0.880000 105 136 115 0
11.440000 32.340000 0.880000 105 136 115 0
11.660000 32.340000 0.880000 104 137 115 0
11.880000 32.340000 0.880000 103 136 114 0
12.100000 32.340000 0.880000 105 138 116 0
12.320000 32.340000 0.880000 102 135 113 0
12.540000 32.340000 0.880000 102 135 113 0
12.760000 32.340000 0.880000 102 135 113 0
12.980000 32.340000 0.880000 101 134 112 0
13.200000 32.340000 0.880000 101 134 112 0
13.420000 32.340000 0.880000 100 135 112 0
13.640000 32.340000 0.880000 100 135 112 0
13.860000 32.340000 0.880000 98 133 110 0
14.080000 32.340000 0.880000 99 134 111 0
14.300000 32.340000 0.880000 98 133 110 0
14.520000 32.340000 0.880000 98 133 110 0
14.740000 32.340000 0.880000 98 133 110 0
14.960000 32.340000 0.880000 97 132 109 0
15.180000 32.340000 0.880000 95 132 109 0
15.400000 32.340000 0.220000 95 132 109 0
15.620000 32.340000 0.220000 94 131 108 0
15.840000 32.340000 0.220000 94 131 108 0
16.060000 32.340000 0.220000 94 131 108 0
16.280000 32.340000 0.220000 94 131 108 0
16.500000 32.340000 0.220000 95 132 109 0
16.720000 32.340000 0.220000 93 130 107 0
16.940000 32.340000 0.220000 94 131 108 0
17.160000 32.340000 0.220000 94 131 108 0
17.380000 32.340000 0.220000 96 133 110 0
18.700000 32.340000 0.990000 95 137 112 0
18.920000 32.340000 3.080000 95 137 112 0
19.140000 32.340000 3.080000 94 139 114 0
19.360000 32.340000 1.100000 94 139 114 0
19.580000 32.340000 0.330000 96 141 116 0
19.800000 32.340000 3.190000 95 140 115 0
20.020000 32.340000 4.510000 95 140 115 0
20.240000 32.340000 4.510000 95 140 115 0
20.460000 32.340000 3.190000 93 141 114 0
20.680000 32.340000 0.440000 95 143 116 0
24.860000 32.340000 0.440000 102 156 127 0
25.080000 32.340000 0.880000 104 158 129 0
25.300000 32.340000 1.430000 103 157 128 0
25.520000 32.340000 2.090000 102 156 127 0
25.740000 32.340000 2.090000 103 157 128 0
25.960000 32.340000 1.430000 100 154 125 0
26.180000 32.340000 1.430000 102 154 126 0
26.400000 32.340000 1.430000 102 154 126 0
26.620000 32.340000 1.430000 102 152 124 0
26.840000 32.340000 0.770000 103 153 125 0
27.060000 32.340000 0.770000 103 153 125 0
27.280000 32.340000 0.770000 103 153 125 0
27.500000 32.340000 0.770000 103 153 125 0
27.720000 32.340000 0.770000 103 153 125 0
27.940000 32.340000 0.770000 102 154 126 0
28.160000 32.340000 0.770000 101 153 125 0
28.380000 32.340000 0.770000 102 152 124 0
28.600000 32.340000 0.880000 102 152 124 0
28.820000 32.340000 0.880000 101 153 125 0
29.040000 32.340000 0.880000 101 153 125 0
29.260000 32.340000 0.880000 102 152 124 0
29.480000 32.340000 0.880000 103 153 125 0
29.700000 32.340000 0.990000 103 153 125 0
29.920000 32.340000 0.990000 103 153 125 0
30.140000 32.340000 0.990000 104 152 123 0
30.360000 32.340000 0.990000 104 152 123 0
30.580000 32.340000 0.990000 103 153 123 0
30.800000 32.340000 1.100000 103 153 123 0
31.020000 32.340000 1.100000 102 154 126 0
31.240000 32.340000 1.100000 102 154 126 0
31.460000 32.340000 1.100000 103 155 127 0
31.680000 32.340000 1.100000 102 154 126 0
31.900000 32.340000 1.210000 104 154 124 0
32.120000 32.340000 1.210000 105 155 125 0
32.340000 32.340000 1.210000 103 155 127 0
32.560000 32.340000 1.980000 103 155 127 0
32.780000 32.340000 1.980000 101 155 126 0
33.000000 32.340000 1.980000 101 155 126 0
33.220000 32.340000 2.530000 101 153 126 0
33.440000 32.340000 2.970000 99 151 124 0
33.660000 32.340000 3.520000 101 149 120 0
33.880000 32.340000 3.520000 99 147 118 0
34.100000 32.340000 3.520000 96 139 114 0
34.320000 32.340000 4.290000 90 133 108 0
34.540000 32.340000 4.290000 95 122 100 0
34.760000 32.340000 4.290000 91 118 96 0
34.980000 32.340000 4.400000 93 114 92 0
35.200000 32.340000 4.400000 93 114 92 0
35.420000 32.340000 4.400000 105 107 89 0
35.640000 32.340000 4.400000 104 106 88 0
35.860000 32.340000 4.400000 109 107 87 0
36.080000 32.340000 4.400000 111 109 89 0
36.300000 32.340000 4.400000 110 111 90 0
36.520000 32.340000 4.400000 111 112 91 0
36.740000 32.340000 4.400000 116 113 93 0
36.960000 32.340000 4.400000 116 113 93 0
37.180000 32.340000 4.400000 116 114 96 0
0.000000 32.560000 1.430000 132 128 111 0
0.220000 32.560000 1.540000 132 128 111 0
0.440000 32.560000 1.540000 132 128 111 0
0.660000 32.560000 1.540000 132 128 111 0
0.880000 32.560000 1.540000 131 127 110 0
1.100000 32.560000 1.430000 131 127 110 0
1.320000 32.560000 1.540000 130 126 109 0
1.540000 32.560000 1.540000 130 127 107 0
1.760000 32.560000 2.200000 130 127 107 0
1.980000 32.560000 2.200000 130 127 107 0
2.200000 32.560000 1.540000 130 127 107 0
2.420000 32.560000 1.540000 129 126 106 0
2.640000 32.560000 1.540000 129 126 106 0
2.860000 32.560000 2.200000 128 125 105 0
3.080000 32.560000 2.200000 127 124 104 0
3.300000 32.560000 2.200000 125 123 105 0
3.520000 32.560000 2.200000 124 122 104 0
3.740000 32.560000 1.430000 124 122 104 0
3.960000 32.560000 1.430000 123 121 103 0
4.180000 32.560000 2.200000 124 120 103 0
4.400000 32.560000 2.200000 125 121 104 0
4.620000 32.560000 2.200000 125 122 102 0
4.840000 32.560000 2.200000 125 122 102 0
5.060000 32.560000 2.200000 126 123 103 0
5.280000 32.560000 2.200000 128 125 105 0
5.500000 32.560000 2.200000 130 128 108 0
5.720000 32.560000 2.200000 129 127 107 0
5.940000 32.560000 2.200000 131 128 108 0
6.160000 32.560000 2.200000 130 127 107 0
6.380000 32.560000 2.200000 129 126 106 0
6.600000 32.560000 2.200000 131 128 108 0
6.820000 32.560000 2.200000 131 128 108 0
7.040000 32.560000 2.200000 129 126 106 0
7.260000 32.560000 2.200000 127 128 109 0
7.480000 32.560000 2.200000 128 129 110 0
7.700000 32.560000 1.540000 114 135 115 0
7.920000 32.560000 1.540000 116 137 117 0
8.140000 32.560000 0.880000 109 140 119 0
8.360000 32.560000 0.880000 109 140 119 0
8.580000 32.560000 0.880000 108 139 118 0
8.800000 32.560000 0.880000 107 138 117 0
9.020000 32.560000 0.880000 107 138 117 0
9.240000 32.560000 0.880000 106 137 116 0
9.460000 32.560000 0.220000 107 138 117 0
9.680000 32.560000 0.220000 107 138 117 0
9.900000 32.560000 0.880000 106 137 116 0
10.120000 32.560000 0.880000 107 138 117 0
10.340000 32.560000 0.880000 106 137 116 0
10.560000 32.560000 0.880000 107 138 117 0
10.780000 32.560000 0.880000 105 138 116 0
11.000000 32.560000 0.880000 104 137 115 0
11.220000 32.560000 0.880000 105 136 115 0
11.440000 32.560000 0.880000 104 135 114 0
11.660000 32.560000 0.880000 103 136 114 0
11.880000 32.560000 0.880000 102 135 113 0
12.100000 32.560000 0.880000 102 135 113 0
12.320000 32.560000 0.880000 102 135 113 0
12.540000 32.560000 0.880000 102 135 113 0
12.760000 32.560000 0.880000 102 135 113 0
12.980000 32.560000 0.880000 102 135 113 0
13.200000 32.560000 0.880000 101 134 112 0
13.420000 32.560000 0.880000 100 135 112 0
13.640000 32.560000 0.880000 98 133 110 0
13.860000 32.560000 0.880000 98 133 110 0
14.080000 32.560000 0.880000 98 133 110 0
14.300000 32.560000 0.880000 97 132 109 0
14.520000 32.560000 0.880000 98 133 110 0
14.740000 32.560000 0.880000 98 133 110 0
14.960000 32.560000 0.880000 97 132 109 0
15.180000 32.560000 0.220000 95 132 109 0
15.400000 32.560000 0.220000 94 131 108 0
15.620000 32.560000 0.220000 94 131 108 0
15.840000 32.560000 0.220000 94 131 108 0
16.060000 32.560000 0.220000 93 130 107 0
16.280000 32.560000 0.220000 93 130 107 0
16.500000 32.560000 0.220000 94 131 108 0
16.720000 32.560000 0.220000 94 131 108 0
16.940000 32.560000 0.220000 94 131 108 0
17.160000 32.560000 0.220000 95 132 109 0
17.380000 32.560000 0.220000 95 132 109 0
18.700000 32.560000 2.310000 94 136 111 0
18.920000 32.560000 8.580000 95 137 112 0
19.140000 32.560000 11.330000 94 139 114 0
19.360000 32.560000 7.260000 95 140 115 0
19.580000 32.560000 7.260000 95 140 115 0
19.800000 32.560000 12.760000 96 141 116 0
20.020000 32.560000 15.620000 97 142 117 0
20.240000 32.560000 15.620000 96 141 116 0
20.460000 32.560000 12.870000 95 143 116 0
20.680000 32.560000 7.370000 96 144 117 0
20.900000 32.560000 4.620000 97 145 118 0
21.120000 32.560000 3.190000 98 146 119 0
21.340000 32.560000 0.440000 98 146 119 0
25.080000 32.560000 0.440000 104 158 129 0
25.300000 32.560000 0.880000 105 159 130 0
25.520000 32.560000 1.430000 106 160 131 0
25.740000 32.560000 2.090000 104 158 129 0
25.960000 32.560000 1.430000 104 158 129 0
26.180000 32.560000 1.430000 104 156 128 0
26.400000 32.560000 1.430000 105 157 129 0
26.620000 32.560000 1.430000 105 155 127 0
26.840000 32.560000 1.430000 105 155 127 0
27.060000 32.560000 0.770000 104 154 126 0
27.280000 32.560000 0.770000 104 154 126 0
27.500000 32.560000 0.770000 104 154 126 0
27.720000 32.560000 0.770000 105 155 127 0
27.940000 32.560000 0.770000 104 156 128 0
28.160000 32.560000 0.770000 103 155 127 0
28.380000 32.560000 0.770000 105 155 127 0
28.600000 32.560000 0.770000 103 153 125 0
28.820000 32.560000 0.880000 101 153 125 0
29.040000 32.560000 0.880000 102 154 126 0
29.260000 32.560000 0.880000 104 154 126 0
29.480000 32.560000 0.880000 104 154 126 0
29.700000 32.560000 0.880000 104 154 126 0
29.920000 32.560000 0.990000 104 154 126 0
30.140000 32.560000 0.990000 106 154 125 0
30.360000 32.560000 0.990000 105 153 124 0
30.580000 32.560000 0.990000 105 155 125 0
30.800000 32.560000 0.990000 104 154 124 0
31.020000 32.560000 1.100000 103 155 127 0
31.240000 32.560000 1.100000 103 155 127 0
31.460000 32.560000 1.100000 103 155 127 0
31.680000 32.560000 1.100000 103 155 127 0
31.900000 32.560000 1.100000 105 155 125 0
32.120000 32.560000 1.210000 106 156 126 0
32.340000 32.560000 1.210000 105 157 129 0
32.560000 32.560000 1.210000 104 156 128 0
32.780000 32.560000 1.980000 102 156 127 0
33.000000 32.560000 1.980000 102 156 127 0
33.220000 32.560000 1.980000 103 155 128 0
33.440000 32.560000 2.530000 101 153 126 0
33.660000 32.560000 2.970000 103 151 122 0
33.880000 32.560000 3.520000 102 150 121 0
34.100000 32.560000 3.520000 102 145 120 0
34.320000 32.560000 4.290000 100 143 118 0
34.540000 32.560000 4.290000 107 134 112 0
34.760000 32.560000 4.290000 100 127 105 0
34.980000 32.560000 4.290000 99 120 98 0
35.200000 32.560000 4.400000 97 118 96 0
35.420000 32.560000 4.400000 107 109 91 0
35.640000 32.560000 4.400000 107 109 91 0
35.860000 32.560000 4.400000 108 106 86 0
36.080000 32.560000 4.400000 108 106 86 0
36.300000 32.560000 4.400000 107 108 87 0
36.520000 32.560000 4.400000 109 110 89 0
36.740000 32.560000 4.400000 114 111 91 0
36.960000 32.560000 4.400000 116 113 93 0
37.180000 32.560000 4.400000 114 112 94 0
0.000000 32.780000 1.540000 132 128 111 0
0.220000 32.780000 1.540000 132 128 111 0
0.440000 32.780000 1.540000 131 127 110 0
0.660000 32.780000 1.540000 132 128 111 0
0.880000 32.780000 1.540000 131 127 110 0
1.100000 32.780000 2.200000 130 126 109 0
1.320000 32.780000 2.200000 130 126 109 0
1.540000 32.780000 2.200000 131 127 110 0
1.760000 32.780000 2.200000 131 127 110 0
1.980000 32.780000 2.200000 129 125 108 0
2.200000 32.780000 2.200000 130 126 109 0
2.420000 32.780000 1.540000 129 125 108 0
2.640000 32.780000 1.540000 128 124 107 0
2.860000 32.780000 2.200000 127 123 106 0
3.080000 32.780000 2.200000 128 124 107 0
3.300000 32.780000 2.200000 123 124 105 0
3.520000 32.780000 1.540000 123 124 105 0
3.740000 32.780000 2.200000 124 120 103 0
3.960000 32.780000 2.200000 124 120 103 0
4.180000 32.780000 2.200000 123 121 103 0
4.400000 32.780000 2.200000 123 121 103 0
4.620000 32.780000 2.200000 122 118 101 0
4.840000 32.780000 1.540000 122 118 101 0
5.060000 32.780000 2.200000 122 120 100 0
5.280000 32.780000 2.200000 123 121 101 0
5.500000 32.780000 2.200000 125 122 102 0
5.720000 32.780000 2.200000 127 124 104 0
5.940000 32.780000 2.200000 128 125 105 0
6.160000 32.780000 2.200000 130 127 107 0
6.380000 32.780000 2.200000 130 127 107 0
6.600000 32.780000 2.200000 130 127 107 0
6.820000 32.780000 2.200000 127 128 109 0
7.040000 32.780000 2.200000 127 128 109 0
7.260000 32.780000 1.540000 111 135 114 0
7.480000 32.780000 1.540000 114 138 117 0
7.700000 32.780000 1.540000 112 139 117 0
7.920000 32.780000 0.880000 112 139 117 0
8.140000 32.780000 0.880000 112 140 120 0
8.360000 32.780000 0.880000 111 139 119 0
8.580000 32.780000 0.880000 108 139 118 0
8.800000 32.780000 0.880000 106 137 116 0
9.020000 32.780000 0.880000 106 137 116 0
9.240000 32.780000 0.880000 106 137 116 0
9.460000 32.780000 0.220000 110 138 118 0
9.680000 32.780000 0.220000 110 138 118 0
9.900000 32.780000 0.880000 107 138 117 0
10.120000 32.780000 0.880000 107 138 117 0
10.340000 32.780000 0.880000 106 137 116 0
10.560000 32.780000 0.880000 107 138 117 0
10.780000 32.780000 0.880000 106 137 116 0
11.000000 32.780000 0.880000 105 136 115 0
11.220000 32.780000 0.880000 105 136 115 0
11.440000 32.780000 0.880000 105 136 115 0
11.660000 32.780000 0.880000 103 135 115 0
11.880000 32.780000 0.880000 102 134 114 0
12.100000 32.780000 0.880000 102 135 113 0
12.320000 32.780000 0.880000 101 134 112 0
12.540000 32.780000 0.880000 102 135 113 0
12.760000 32.780000 0.880000 101 134 112 0
12.980000 32.780000 0.880000 102 135 113 0
13.200000 32.780000 0.880000 102 135 113 0
13.420000 32.780000 0.880000 101 133 113 0
13.640000 32.780000 0.880000 99 131 111 0
13.860000 32.780000 0.880000 97 132 109 0
14.080000 32.780000 0.880000 98 133 110 0
14.300000 32.780000 0.880000 98 133 110 0
14.520000 32.780000 0.880000 98 133 110 0
14.740000 32.780000 0.880000 97 132 109 0
14.960000 32.780000 0.220000 96 131 108 0
15.180000 32.780000 0.220000 95 132 110 0
15.400000 32.780000 0.220000 94 131 109 0
15.620000 32.780000 0.220000 94 131 109 0
15.840000 32.780000 0.220000 94 131 109 0
16.060000 32.780000 0.220000 93 130 107 0
16.280000 32.780000 0.220000 93 130 107 0
16.500000 32.780000 0.220000 93 130 107 0
16.720000 32.780000 0.220000 94 131 108 0
16.940000 32.780000 0.220000 94 131 108 0
17.160000 32.780000 0.220000 95 132 109 0
17.380000 32.780000 0.220000 93 132 108 0
18.700000 32.780000 2.310000 94 136 111 0
18.920000 32.780000 9.900000 96 138 113 0
19.140000 32.780000 16.830000 96 139 114 0
19.360000 32.780000 16.940000 98 141 116 0
19.580000 32.780000 16.940000 97 142 116 0
19.800000 32.780000 19.690000 97 142 116 0
20.020000 32.780000 21.120000 97 142 116 0
20.240000 32.780000 20.460000 98 143 117 0
20.460000 32.780000 19.030000 95 145 117 0
20.680000 32.780000 16.940000 97 147 119 0
20.900000 32.780000 15.620000 97 146 120 0
21.120000 32.780000 12.870000 98 147 121 0
21.340000 32.780000 7.370000 95 149 120 0
21.560000 32.780000 3.190000 96 150 121 0
21.780000 32.780000 0.440000 98 150 122 0
25.300000 32.780000 0.440000 106 160 131 0
25.520000 32.780000 1.540000 107 161 132 0
25.740000 32.780000 2.090000 106 160 132 0
25.960000 32.780000 2.090000 106 160 132 0
26.180000 32.780000 2.090000 105 159 130 0
26.400000 32.780000 1.430000 105 159 130 0
26.620000 32.780000 1.430000 105 157 129 0
26.840000 32.780000 1.430000 105 157 129 0
27.060000 32.780000 1.430000 105 157 129 0
27.280000 32.780000 0.770000 104 156 128 0
27.500000 32.780000 0.770000 104 156 128 0
27.720000 32.780000 0.770000 105 157 129 0
27.940000 32.780000 0.770000 104 156 128 0
28.160000 32.780000 0.770000 104 156 128 0
28.380000 32.780000 0.770000 106 156 126 0
28.600000 32.780000 0.770000 106 156 126 0
28.820000 32.780000 0.880000 103 155 127 0
29.040000 32.780000 0.880000 102 154 126 0
29.260000 32.780000 0.880000 102 154 126 0
29.480000 32.780000 0.880000 102 154 126 0
29.700000 32.780000 0.880000 103 155 127 0
29.920000 32.780000 0.880000 104 156 128 0
30.140000 32.780000 0.990000 106 156 128 0
30.360000 32.780000 0.990000 107 157 129 0
30.580000 32.780000 0.990000 105 155 127 0
30.800000 32.780000 0.990000 106 156 128 0
31.020000 32.780000 0.990000 103 157 128 0
31.240000 32.780000 1.100000 103 157 128 0
31.460000 32.780000 1.100000 104 158 130 0
31.680000 32.780000 1.100000 103 157 129 0
31.900000 32.780000 1.100000 102 158 128 0
32.120000 32.780000 1.100000 103 159 129 0
32.340000 32.780000 1.210000 104 158 129 0
32.560000 32.780000 1.210000 103 157 128 0
32.780000 32.780000 1.210000 105 159 131 0
33.000000 32.780000 1.980000 103 157 129 0
33.220000 32.780000 1.980000 103 158 130 0
33.440000 32.780000 1.980000 101 156 128 0
33.660000 32.780000 2.530000 103 155 128 0
33.880000 32.780000 2.970000 103 155 128 0
34.100000 32.780000 3.520000 102 152 124 0
34.320000 32.780000 3.520000 101 151 123 0
34.540000 32.780000 4.290000 99 149 121 0
34.760000 32.780000 4.290000 95 145 117 0
34.980000 32.780000 4.290000 99 141 114 0
35.200000 32.780000 4.290000 93 135 108 0
35.420000 32.780000 4.400000 93 130 107 0
35.640000 32.780000 4.400000 88 125 102 0
35.860000 32.780000 4.400000 97 115 96 0
36.080000 32.780000 4.400000 94 112 93 0
36.300000 32.780000 4.510000 102 109 89 0
36.520000 32.780000 4.510000 103 110 90 0
36.740000 32.780000 4.510000 111 109 91 0
36.960000 32.780000 4.510000 112 110 92 0
37.180000 32.780000 4.510000 111 112 89 0
0.000000 33.000000 1.540000 131 127 110 0
0.220000 33.000000 1.540000 131 127 110 0
0.440000 33.000000 2.200000 130 126 109 0
0.660000 33.000000 2.200000 131 127 110 0
0.880000 33.000000 2.200000 131 127 110 0
1.100000 33.000000 2.200000 131 127 110 0
1.320000 33.000000 2.200000 131 127 110 0
1.540000 33.000000 2.200000 131 127 110 0
1.760000 33.000000 2.200000 130 126 109 0
1.980000 33.000000 2.200000 130 126 109 0
2.200000 33.000000 2.200000 130 126 109 0
2.420000 33.000000 2.200000 130 126 109 0
2.640000 33.000000 2.200000 129 125 108 0
2.860000 33.000000 2.200000 129 125 108 0
3.080000 33.000000 1.540000 128 124 107 0
3.300000 33.000000 1.540000 123 124 105 0
3.520000 33.000000 1.540000 122 123 104 0
3.740000 33.000000 2.200000 125 121 104 0
3.960000 33.000000 2.200000 125 121 104 0
4.180000 33.000000 2.200000 121 119 101 0
4.400000 33.000000 2.200000 122 120 102 0
4.620000 33.000000 1.540000 121 117 100 0
4.840000 33.000000 1.540000 122 118 101 0
5.060000 33.000000 1.540000 122 120 100 0
5.280000 33.000000 2.200000 122 120 100 0
5.500000 33.000000 2.200000 123 120 100 0
5.720000 33.000000 2.200000 123 120 100 0
5.940000 33.000000 2.200000 124 121 101 0
6.160000 33.000000 2.200000 125 122 102 0
6.380000 33.000000 2.200000 127 124 104 0
6.600000 33.000000 2.200000 129 126 106 0
6.820000 33.000000 1.540000 127 128 109 0
7.040000 33.000000 1.540000 128 129 110 0
7.260000 33.000000 1.540000 114 138 117 0
7.480000 33.000000 0.880000 114 138 117 0
7.700000 33.000000 0.880000 113 140 118 0
7.920000 33.000000 0.880000 113 140 118 0
8.140000 33.000000 0.880000 112 140 120 0
8.360000 33.000000 0.880000 110 138 118 0
8.580000 33.000000 0.880000 108 139 118 0
8.800000 33.000000 0.880000 107 138 117 0
9.020000 33.000000 0.880000 107 138 117 0
9.240000 33.000000 0.880000 107 138 117 0
9.460000 33.000000 0.880000 110 138 118 0
9.680000 33.000000 0.880000 110 138 118 0
9.900000 33.000000 0.880000 108 139 118 0
10.120000 33.000000 0.880000 107 138 117 0
10.340000 33.000000 0.880000 107 138 117 0
10.560000 33.000000 0.880000 107 138 117 0
10.780000 33.000000 0.880000 106 137 116 0
11.000000 33.000000 0.880000 106 137 116 0
11.220000 33.000000 0.880000 105 136 115 0
11.440000 33.000000 0.880000 104 135 114 0
11.660000 33.000000 0.880000 103 135 115 0
11.880000 33.000000 0.880000 102 134 114 0
12.100000 33.000000 0.880000 102 135 113 0
12.320000 33.000000 0.880000 101 134 112 0
12.540000 33.000000 0.880000 101 134 112 0
12.760000 33.000000 0.880000 102 135 113 0
12.980000 33.000000 0.880000 101 134 112 0
13.200000 33.000000 0.880000 101 134 112 0
13.420000 33.000000 0.880000 101 133 113 0
13.640000 33.000000 0.880000 100 132 112 0
13.860000 33.000000 0.880000 98 133 110 0
14.080000 33.000000 0.880000 98 133 110 0
14.300000 33.000000 0.880000 98 133 110 0
14.520000 33.000000 0.880000 98 133 110 0
14.740000 33.000000 0.110000 97 132 109 0
14.960000 33.000000 0.110000 95 130 107 0
15.180000 33.000000 0.220000 95 132 110 0
15.400000 33.000000 0.220000 95 132 110 0
15.620000 33.000000 0.220000 94 131 109 0
15.840000 33.000000 0.220000 94 131 109 0
16.060000 33.000000 0.220000 92 129 106 0
16.280000 33.000000 0.220000 93 130 107 0
16.500000 33.000000 0.220000 92 129 106 0
16.720000 33.000000 0.220000 93 130 107 0
16.940000 33.000000 0.220000 95 132 109 0
17.160000 33.000000 0.220000 95 132 109 0
17.600000 33.000000 0.880000 96 135 111 0
17.820000 33.000000 2.310000 95 134 110 0
18.040000 33.000000 2.310000 96 135 111 0
18.260000 33.000000 3.740000 95 137 112 0
18.480000 33.000000 5.060000 95 137 112 0
18.700000 33.000000 7.810000 95 137 112 0
18.920000 33.000000 14.080000 96 138 113 0
19.140000 33.000000 19.580000 98 141 116 0
19.360000 33.000000 21.010000 99 142 117 0
19.580000 33.000000 21.010000 98 143 117 0
19.800000 33.000000 21.010000 98 143 117 0
20.020000 33.000000 21.010000 99 144 118 0
20.240000 33.000000 20.350000 99 144 118 0
20.460000 33.000000 20.460000 96 146 118 0
20.680000 33.000000 20.460000 98 148 120 0
20.900000 33.000000 20.460000 98 147 121 0
21.120000 33.000000 19.030000 99 148 122 0
21.340000 33.000000 16.280000 96 150 121 0
21.560000 33.000000 12.870000 99 153 124 0
21.780000 33.000000 7.370000 100 152 124 0
22.000000 33.000000 4.620000 101 153 125 0
22.220000 33.000000 3.190000 101 153 125 0
22.440000 33.000000 0.440000 100 152 124 0
25.520000 33.000000 0.990000 107 161 132 0
25.740000 33.000000 1.430000 107 161 133 0
25.960000 33.000000 2.090000 106 160 132 0
26.180000 33.000000 2.090000 107 161 132 0
26.400000 33.000000 2.200000 107 161 132 0
26.620000 33.000000 2.200000 108 160 132 0
26.840000 33.000000 1.430000 107 159 131 0
27.060000 33.000000 1.430000 105 157 129 0
27.280000 33.000000 1.430000 105 157 129 0
27.500000 33.000000 0.770000 106 158 130 0
27.720000 33.000000 0.770000 106 158 130 0
27.940000 33.000000 0.770000 106 158 130 0
28.160000 33.000000 0.770000 105 157 129 0
28.380000 33.000000 0.770000 108 158 128 0
28.600000 33.000000 0.770000 106 156 126 0
28.820000 33.000000 0.770000 104 156 128 0
29.040000 33.000000 0.880000 104 156 128 0
29.260000 33.000000 0.880000 104 156 128 0
29.480000 33.000000 0.880000 104 156 128 0
29.700000 33.000000 0.880000 103 155 127 0
29.920000 33.000000 0.880000 104 156 128 0
30.140000 33.000000 0.880000 107 157 129 0
30.360000 33.000000 0.990000 107 157 129 0
30.580000 33.000000 0.990000 109 159 131 0
30.800000 33.000000 0.990000 107 157 129 0
31.020000 33.000000 0.990000 105 159 130 0
31.240000 33.000000 0.990000 104 158 129 0
31.460000 33.000000 1.100000 105 159 131 0
31.680000 33.000000 1.100000 105 159 131 0
31.900000 33.000000 1.100000 104 160 130 0
32.120000 33.000000 1.100000 103 159 129 0
32.340000 33.000000 1.100000 104 158 129 0
32.560000 33.000000 1.210000 104 158 129 0
32.780000 33.000000 1.210000 106 160 132 0
33.000000 33.000000 1.980000 105 159 131 0
33.220000 33.000000 1.980000 104 159 131 0
33.440000 33.000000 1.980000 104 159 131 0
33.660000 33.000000 1.980000 104 156 129 0
33.880000 33.000000 2.530000 104 156 129 0
34.100000 33.000000 2.970000 105 155 127 0
34.320000 33.000000 3.520000 105 155 127 0
34.540000 33.000000 3.520000 102 152 124 0
34.760000 33.000000 4.290000 101 151 123 0
34.980000 33.000000 4.290000 103 145 118 0
35.200000 33.000000 4.290000 102 144 117 0
35.420000 33.000000 4.290000 101 138 115 0
35.640000 33.000000 4.400000 95 132 109 0
35.860000 33.000000 4.400000 104 122 103 0
36.080000 33.000000 4.400000 99 117 98 0
36.300000 33.000000 4.510000 103 110 90 0
36.520000 33.000000 4.510000 101 108 88 0
36.740000 33.000000 4.510000 108 106 88 0
36.960000 33.000000 4.510000 110 108 90 0
37.180000 33.000000 4.510000 109 110 87 0
0.000000 33.220000 2.200000 131 127 110 0
0.220000 33.220000 2.200000 131 127 110 0
0.440000 33.220000 2.200000 130 126 109 0
0.660000 33.220000 2.200000 131 127 110 0
0.880000 33.220000 2.200000 132 128 111 0
1.100000 33.220000 2.200000 131 127 110 0
1.320000 33.220000 2.200000 130 126 109 0
1.540000 33.220000 2.200000 130 127 107 0
1.760000 33.220000 2.200000 130 127 107 0
1.980000 33.220000 2.200000 129 127 109 0
2.200000 33.220000 2.200000 128 126 108 0
2.420000 33.220000 2.200000 128 126 108 0
2.640000 33.220000 2.200000 128 126 108 0
2.860000 33.220000 2.200000 127 125 107 0
3.080000 33.220000 2.200000 126 124 106 0
3.300000 33.220000 1.540000 126 123 103 0
3.520000 33.220000 1.540000 126 123 103 0
3.740000 33.220000 2.200000 125 123 105 0
3.960000 33.220000 2.200000 123 121 103 0
4.180000 33.220000 2.200000 123 121 103 0
4.400000 33.220000 1.540000 122 120 102 0
4.620000 33.220000 1.540000 120 121 102 0
4.840000 33.220000 1.540000 119 120 101 0
5.060000 33.220000 1.540000 121 119 99 0
5.280000 33.220000 1.540000 121 119 99 0
5.500000 33.220000 1.540000 120 121 102 0
5.720000 33.220000 1.540000 119 120 101 0
5.940000 33.220000 2.200000 120 118 98 0
6.160000 33.220000 2.200000 121 119 99 0
6.380000 33.220000 1.540000 121 122 103 0
6.600000 33.220000 1.540000 122 123 104 0
6.820000 33.220000 1.540000 107 134 114 0
7.040000 33.220000 0.880000 110 137 117 0
7.260000 33.220000 0.880000 110 141 120 0
7.480000 33.220000 0.880000 112 143 122 0
7.700000 33.220000 0.880000 110 141 120 0
7.920000 33.220000 0.880000 110 141 120 0
8.140000 33.220000 0.220000 109 140 119 0
8.360000 33.220000 0.220000 107 138 117 0
8.580000 33.220000 0.220000 111 139 119 0
8.800000 33.220000 0.220000 109 137 117 0
9.020000 33.220000 0.220000 111 139 119 0
9.240000 33.220000 0.220000 111 139 119 0
9.460000 33.220000 0.880000 109 140 119 0
9.680000 33.220000 0.880000 109 140 119 0
9.900000 33.220000 0.880000 108 139 118 0
10.120000 33.220000 0.880000 107 138 117 0
10.340000 33.220000 0.880000 107 138 117 0
10.560000 33.220000 0.880000 106 137 116 0
10.780000 33.220000 0.880000 104 137 115 0
11.000000 33.220000 0.880000 104 137 115 0
11.220000 33.220000 0.220000 102 135 113 0
11.440000 33.220000 0.220000 103 136 114 0
11.660000 33.220000 0.880000 104 137 115 0
11.880000 33.220000 0.880000 102 135 113 0
12.100000 33.220000 0.880000 101 134 112 0
12.320000 33.220000 0.880000 101 134 112 0
12.540000 33.220000 0.880000 102 135 113 0
12.760000 33.220000 0.880000 101 134 112 0
12.980000 33.220000 0.880000 99 134 111 0
13.200000 33.220000 0.880000 100 135 112 0
13.420000 33.220000 0.880000 99 134 111 0
13.640000 33.220000 0.880000 98 133 110 0
13.860000 33.220000 0.880000 98 132 111 0
14.080000 33.220000 0.880000 98 132 111 0
14.300000 33.220000 0.880000 95 132 109 0
14.520000 33.220000 0.110000 95 132 109 0
14.740000 33.220000 0.110000 95 132 110 0
14.960000 33.220000 0.110000 95 132 110 0
15.180000 33.220000 0.110000 94 131 108 0
15.400000 33.220000 0.110000 95 132 109 0
15.620000 33.220000 0.220000 96 131 108 0
15.840000 33.220000 0.220000 96 131 108 0
16.060000 33.220000 0.220000 93 130 107 0
16.280000 33.220000 0.220000 94 131 108 0
16.500000 33.220000 0.220000 94 131 108 0
16.720000 33.220000 0.220000 94 131 108 0
16.940000 33.220000 0.220000 94 131 108 0
17.600000 33.220000 3.630000 93 134 111 0
17.820000 33.220000 9.240000 94 135 112 0
18.040000 33.220000 10.560000 94 135 112 0
18.260000 33.220000 12.650000 95 138 113 0
18.480000 33.220000 15.400000 95 138 113 0
18.700000 33.220000 16.830000 95 140 115 0
18.920000 33.220000 19.580000 97 142 117 0
19.140000 33.220000 21.010000 95 142 117 0
19.360000 33.220000 21.010000 97 144 119 0
