ply
format ascii 1.0
element vertex 1144
property float x
property float y
property float z
property uchar red
property uchar green
property uchar blue
property uchar alpha
end_header
21.120000 4.840000 14.740000 229 185 151 0
21.340000 4.840000 15.510000 228 184 150 0
21.560000 4.840000 15.510000 226 183 146 0
21.780000 4.840000 15.510000 225 182 145 0
22.000000 4.840000 15.620000 224 181 144 0
22.220000 4.840000 15.620000 225 182 145 0
22.440000 4.840000 16.390000 223 179 145 0
22.660000 4.840000 16.390000 223 179 145 0
22.880000 4.840000 16.500000 222 178 144 0
23.100000 4.840000 16.500000 222 178 144 0
23.320000 4.840000 17.160000 222 177 143 0
23.540000 4.840000 18.260000 220 175 141 0
23.760000 4.840000 18.810000 218 174 142 0
23.980000 4.840000 19.470000 216 172 140 0
24.200000 4.840000 19.470000 213 172 141 0
24.420000 4.840000 19.580000 211 170 139 0
24.640000 4.840000 20.350000 210 168 139 0
24.860000 4.840000 20.350000 209 167 138 0
25.080000 4.840000 19.030000 210 165 137 0
25.300000 4.840000 13.530000 210 165 137 0
25.520000 4.840000 6.050000 207 165 136 0
25.740000 4.840000 1.100000 209 167 138 0
26.180000 4.840000 0.330000 208 167 142 0
26.400000 4.840000 0.880000 207 169 145 0
26.620000 4.840000 0.990000 207 169 145 0
26.840000 4.840000 1.100000 210 169 144 0
27.060000 4.840000 1.210000 212 171 146 0
27.280000 4.840000 1.210000 216 178 150 0
27.500000 4.840000 1.320000 216 178 150 0
27.720000 4.840000 1.320000 210 169 144 0
27.940000 4.840000 1.760000 202 161 136 0
28.160000 4.840000 2.200000 186 146 133 0
28.380000 4.840000 2.200000 190 150 137 0
28.600000 4.840000 1.650000 188 173 161 0
28.820000 4.840000 1.760000 200 185 173 0
29.040000 4.840000 1.100000 206 198 190 0
29.260000 4.840000 1.210000 216 208 200 0
29.480000 4.840000 1.210000 218 210 202 0
29.700000 4.840000 1.320000 219 211 203 0
29.920000 4.840000 1.870000 220 212 204 0
30.140000 4.840000 2.970000 220 212 204 0
30.360000 4.840000 3.520000 221 213 205 0
30.580000 4.840000 3.520000 220 212 204 0
30.800000 4.840000 3.520000 220 212 204 0
31.020000 4.840000 3.630000 220 212 204 0
31.240000 4.840000 4.290000 220 212 204 0
31.460000 4.840000 4.290000 220 212 204 0
31.680000 4.840000 4.400000 219 211 203 0
31.900000 4.840000 4.400000 219 211 203 0
32.120000 4.840000 4.400000 219 211 203 0
32.340000 4.840000 4.400000 219 211 203 0
32.560000 4.840000 4.510000 218 210 202 0
32.780000 4.840000 4.510000 215 207 199 0
33.000000 4.840000 4.620000 216 207 197 0
33.220000 4.840000 3.960000 212 203 193 0
33.440000 4.840000 4.510000 214 195 184 0
33.660000 4.840000 5.060000 210 191 180 0
33.880000 4.840000 4.950000 210 183 169 0
34.100000 4.840000 4.950000 208 181 167 0
34.320000 4.840000 5.610000 204 180 165 0
34.540000 4.840000 5.720000 208 184 169 0
34.760000 4.840000 6.380000 205 194 183 0
34.980000 4.840000 7.040000 211 200 189 0
35.200000 4.840000 7.700000 214 206 199 0
35.420000 4.840000 9.020000 218 210 203 0
35.640000 4.840000 9.020000 217 212 204 0
35.860000 4.840000 9.790000 217 212 204 0
36.080000 4.840000 9.790000 218 213 205 0
36.300000 4.840000 10.450000 219 214 206 0
36.520000 4.840000 10.560000 219 214 206 0
36.740000 4.840000 10.560000 220 215 207 0
36.960000 4.840000 11.220000 220 215 207 0
37.180000 4.840000 11.220000 221 216 208 0
0.000000 5.060000 4.290000 144 119 86 0
0.220000 5.060000 4.290000 144 119 86 0
0.440000 5.060000 4.290000 144 119 86 0
0.660000 5.060000 4.290000 145 120 87 0
0.880000 5.060000 4.290000 144 119 86 0
1.100000 5.060000 4.290000 142 117 84 0
1.320000 5.060000 4.290000 143 118 85 0
1.540000 5.060000 4.290000 142 117 84 0
1.760000 5.060000 4.290000 143 118 85 0
1.980000 5.060000 4.290000 142 117 84 0
2.200000 5.060000 4.290000 141 116 83 0
2.420000 5.060000 4.290000 142 117 84 0
2.640000 5.060000 4.290000 143 115 86 0
2.860000 5.060000 4.290000 143 115 86 0
3.080000 5.060000 4.400000 142 117 84 0
3.300000 5.060000 4.400000 142 117 84 0
3.520000 5.060000 4.290000 143 118 85 0
3.740000 5.060000 5.060000 143 118 85 0
3.960000 5.060000 4.400000 144 117 85 0
4.180000 5.060000 4.400000 143 116 84 0
4.400000 5.060000 4.400000 143 115 86 0
4.620000 5.060000 4.400000 144 116 87 0
4.840000 5.060000 5.060000 144 116 87 0
5.060000 5.060000 5.060000 143 115 86 0
5.280000 5.060000 5.060000 144 117 85 0
5.500000 5.060000 5.060000 144 117 85 0
5.720000 5.060000 5.060000 145 118 86 0
5.940000 5.060000 5.060000 145 118 86 0
6.160000 5.060000 5.060000 145 117 88 0
6.380000 5.060000 5.060000 145 117 88 0
6.600000 5.060000 5.060000 145 117 88 0
6.820000 5.060000 5.060000 145 117 88 0
7.040000 5.060000 5.060000 145 117 88 0
7.260000 5.060000 5.060000 146 118 89 0
7.480000 5.060000 5.060000 146 119 87 0
7.700000 5.060000 5.060000 149 122 90 0
7.920000 5.060000 5.060000 158 123 90 0
8.140000 5.060000 5.060000 162 127 94 0
8.360000 5.060000 5.060000 173 132 97 0
8.580000 5.060000 5.060000 179 138 103 0
8.800000 5.060000 5.170000 188 141 106 0
9.020000 5.060000 5.170000 195 148 113 0
9.240000 5.060000 5.170000 202 160 119 0
9.460000 5.060000 5.170000 205 163 122 0
9.680000 5.060000 5.280000 208 168 127 0
9.900000 5.060000 5.280000 212 172 131 0
10.120000 5.060000 5.390000 214 176 135 0
10.340000 5.060000 5.390000 214 176 135 0
10.560000 5.060000 6.050000 216 176 136 0
10.780000 5.060000 7.150000 214 174 134 0
11.000000 5.060000 7.040000 215 177 136 0
11.220000 5.060000 7.040000 215 177 136 0
11.440000 5.060000 7.040000 217 179 137 0
11.660000 5.060000 7.150000 218 180 138 0
11.880000 5.060000 7.150000 218 180 138 0
12.100000 5.060000 7.260000 219 181 139 0
12.320000 5.060000 7.260000 221 181 141 0
12.540000 5.060000 7.260000 220 180 140 0
12.760000 5.060000 7.370000 221 181 140 0
12.980000 5.060000 7.370000 222 182 141 0
13.200000 5.060000 7.370000 222 182 141 0
13.420000 5.060000 7.480000 221 181 140 0
13.640000 5.060000 7.480000 222 182 142 0
13.860000 5.060000 7.590000 222 182 142 0
14.080000 5.060000 8.140000 222 182 142 0
14.300000 5.060000 9.240000 222 182 142 0
14.520000 5.060000 9.790000 222 182 141 0
14.740000 5.060000 9.680000 222 182 141 0
14.960000 5.060000 10.450000 223 183 142 0
15.180000 5.060000 10.450000 222 182 141 0
15.400000 5.060000 10.560000 222 182 142 0
15.620000 5.060000 10.560000 223 183 143 0
15.840000 5.060000 10.560000 224 181 142 0
16.060000 5.060000 11.330000 224 181 142 0
16.280000 5.060000 11.330000 223 181 140 0
16.500000 5.060000 11.330000 223 181 140 0
16.720000 5.060000 11.330000 223 181 140 0
16.940000 5.060000 11.440000 223 181 140 0
17.160000 5.060000 11.440000 224 181 142 0
17.380000 5.060000 12.100000 223 180 141 0
17.600000 5.060000 12.210000 224 181 142 0
17.820000 5.060000 12.210000 225 182 143 0
18.040000 5.060000 12.210000 224 184 144 0
18.260000 5.060000 12.210000 226 186 146 0
18.480000 5.060000 12.320000 226 186 146 0
18.700000 5.060000 12.320000 226 186 146 0
18.920000 5.060000 12.320000 228 185 148 0
19.140000 5.060000 13.090000 227 184 147 0
19.360000 5.060000 12.980000 227 184 147 0
19.580000 5.060000 13.970000 226 183 146 0
19.800000 5.060000 14.520000 227 184 147 0
20.020000 5.060000 14.630000 227 184 147 0
20.240000 5.060000 14.630000 225 185 147 0
20.460000 5.060000 14.630000 225 185 147 0
20.680000 5.060000 14.630000 228 185 148 0
20.900000 5.060000 14.740000 228 185 148 0
21.120000 5.060000 14.740000 228 184 150 0
21.340000 5.060000 14.740000 228 184 150 0
21.560000 5.060000 15.510000 228 185 148 0
21.780000 5.060000 15.510000 225 182 145 0
22.000000 5.060000 15.620000 225 182 145 0
22.220000 5.060000 15.620000 225 182 145 0
22.440000 5.060000 15.620000 224 181 144 0
22.660000 5.060000 16.390000 223 180 143 0
22.880000 5.060000 16.390000 222 178 144 0
23.100000 5.060000 16.500000 222 178 144 0
23.320000 5.060000 17.160000 221 176 142 0
23.540000 5.060000 17.710000 221 176 142 0
23.760000 5.060000 18.810000 219 175 141 0
23.980000 5.060000 19.470000 218 174 140 0
24.200000 5.060000 19.470000 217 173 141 0
24.420000 5.060000 19.580000 216 172 140 0
24.640000 5.060000 20.240000 215 171 139 0
24.860000 5.060000 20.350000 213 169 137 0
25.080000 5.060000 20.350000 211 167 135 0
25.300000 5.060000 19.030000 211 167 135 0
25.520000 5.060000 12.870000 209 167 138 0
25.740000 5.060000 3.300000 210 168 139 0
26.400000 5.060000 0.220000 207 169 143 0
26.620000 5.060000 0.880000 206 168 142 0
26.840000 5.060000 0.990000 207 169 143 0
27.060000 5.060000 0.990000 208 170 144 0
27.280000 5.060000 1.100000 210 169 147 0
27.500000 5.060000 1.210000 210 169 147 0
27.720000 5.060000 1.210000 203 166 143 0
27.940000 5.060000 1.760000 195 158 135 0
28.160000 5.060000 2.200000 186 147 125 0
28.380000 5.060000 2.090000 183 144 122 0
28.600000 5.060000 2.200000 185 143 124 0
28.820000 5.060000 1.540000 198 156 137 0
29.040000 5.060000 1.650000 205 172 158 0
29.260000 5.060000 1.760000 217 184 170 0
29.480000 5.060000 1.210000 215 196 176 0
29.700000 5.060000 1.320000 221 202 182 0
29.920000 5.060000 1.870000 220 209 198 0
30.140000 5.060000 2.970000 221 210 199 0
30.360000 5.060000 3.520000 221 212 202 0
30.580000 5.060000 3.520000 222 213 203 0
30.800000 5.060000 3.520000 223 212 203 0
31.020000 5.060000 3.630000 222 211 202 0
31.240000 5.060000 3.630000 222 212 198 0
31.460000 5.060000 4.290000 221 211 197 0
31.680000 5.060000 4.400000 225 208 195 0
31.900000 5.060000 4.400000 224 207 194 0
32.120000 5.060000 4.400000 227 201 184 0
32.340000 5.060000 4.400000 223 197 180 0
32.560000 5.060000 3.740000 222 190 174 0
32.780000 5.060000 3.850000 217 185 169 0
33.000000 5.060000 3.300000 219 180 160 0
33.220000 5.060000 3.300000 214 175 155 0
33.440000 5.060000 3.740000 210 167 143 0
33.660000 5.060000 4.290000 208 165 141 0
33.880000 5.060000 4.180000 211 163 136 0
34.100000 5.060000 4.180000 213 165 138 0
34.320000 5.060000 4.290000 212 167 141 0
34.540000 5.060000 4.950000 215 170 144 0
34.760000 5.060000 5.060000 212 177 153 0
34.980000 5.060000 5.720000 219 184 160 0
35.200000 5.060000 7.040000 209 201 193 0
35.420000 5.060000 8.360000 217 209 201 0
35.640000 5.060000 9.020000 217 212 204 0
35.860000 5.060000 9.790000 217 212 204 0
36.080000 5.060000 9.790000 217 212 204 0
36.300000 5.060000 10.450000 218 213 205 0
36.520000 5.060000 10.560000 219 214 206 0
36.740000 5.060000 10.560000 218 213 205 0
36.960000 5.060000 11.220000 219 214 206 0
37.180000 5.060000 11.220000 220 215 207 0
0.000000 5.280000 4.290000 144 119 86 0
0.220000 5.280000 4.290000 143 118 85 0
0.440000 5.280000 4.290000 145 120 87 0
0.660000 5.280000 4.290000 144 119 86 0
0.880000 5.280000 4.290000 144 119 86 0
1.100000 5.280000 4.290000 143 118 85 0
1.320000 5.280000 4.290000 143 118 85 0
1.540000 5.280000 4.290000 142 117 84 0
1.760000 5.280000 4.290000 141 116 83 0
1.980000 5.280000 4.290000 142 117 84 0
2.200000 5.280000 4.290000 141 116 83 0
2.420000 5.280000 4.290000 142 117 84 0
2.640000 5.280000 4.290000 142 114 85 0
2.860000 5.280000 4.290000 142 114 85 0
3.080000 5.280000 4.290000 142 117 84 0
3.300000 5.280000 4.290000 141 116 83 0
3.520000 5.280000 4.290000 143 118 85 0
3.740000 5.280000 4.290000 143 118 85 0
3.960000 5.280000 4.290000 144 117 85 0
4.180000 5.280000 4.400000 143 116 84 0
4.400000 5.280000 4.400000 144 116 87 0
4.620000 5.280000 5.060000 143 115 86 0
4.840000 5.280000 5.060000 144 116 87 0
5.060000 5.280000 5.060000 144 116 87 0
5.280000 5.280000 5.060000 144 117 85 0
5.500000 5.280000 5.060000 145 118 86 0
5.720000 5.280000 5.060000 145 118 86 0
5.940000 5.280000 5.060000 145 118 86 0
6.160000 5.280000 5.060000 146 118 89 0
6.380000 5.280000 5.060000 145 117 88 0
6.600000 5.280000 5.060000 145 117 88 0
6.820000 5.280000 5.060000 145 117 88 0
7.040000 5.280000 5.060000 146 118 89 0
7.260000 5.280000 5.060000 145 117 88 0
7.480000 5.280000 5.060000 146 119 87 0
7.700000 5.280000 5.060000 148 121 89 0
7.920000 5.280000 5.060000 160 125 92 0
8.140000 5.280000 5.060000 164 129 96 0
8.360000 5.280000 5.060000 173 132 97 0
8.580000 5.280000 5.060000 179 138 103 0
8.800000 5.280000 5.170000 186 139 104 0
9.020000 5.280000 5.170000 194 147 112 0
9.240000 5.280000 5.170000 198 156 115 0
9.460000 5.280000 5.170000 203 161 120 0
9.680000 5.280000 5.280000 204 164 123 0
9.900000 5.280000 5.280000 211 171 130 0
10.120000 5.280000 5.280000 214 176 135 0
10.340000 5.280000 5.390000 214 176 135 0
10.560000 5.280000 6.050000 215 175 135 0
10.780000 5.280000 6.490000 215 175 135 0
11.000000 5.280000 7.040000 214 176 135 0
11.220000 5.280000 7.040000 214 176 135 0
11.440000 5.280000 7.040000 215 177 135 0
11.660000 5.280000 7.150000 216 178 136 0
11.880000 5.280000 7.150000 217 179 137 0
12.100000 5.280000 7.260000 219 181 139 0
12.320000 5.280000 7.260000 219 179 139 0
12.540000 5.280000 7.260000 219 179 139 0
12.760000 5.280000 7.370000 221 181 140 0
12.980000 5.280000 7.370000 220 180 139 0
13.200000 5.280000 7.370000 221 181 140 0
13.420000 5.280000 7.480000 221 181 140 0
13.640000 5.280000 7.480000 222 182 142 0
13.860000 5.280000 7.480000 222 182 142 0
14.080000 5.280000 7.480000 221 181 141 0
14.300000 5.280000 8.690000 221 181 141 0
14.520000 5.280000 9.130000 223 183 142 0
14.740000 5.280000 9.680000 221 181 140 0
14.960000 5.280000 9.790000 222 182 141 0
15.180000 5.280000 9.790000 222 182 141 0
15.400000 5.280000 10.450000 222 182 142 0
15.620000 5.280000 10.560000 221 181 141 0
15.840000 5.280000 10.560000 222 179 140 0
16.060000 5.280000 11.330000 222 179 140 0
16.280000 5.280000 11.330000 223 181 140 0
16.500000 5.280000 11.330000 221 179 138 0
16.720000 5.280000 11.330000 222 180 139 0
16.940000 5.280000 11.330000 221 179 138 0
17.160000 5.280000 11.440000 222 179 140 0
17.380000 5.280000 12.100000 223 180 141 0
17.600000 5.280000 12.210000 224 181 142 0
17.820000 5.280000 12.210000 225 182 143 0
18.040000 5.280000 12.210000 224 184 144 0
18.260000 5.280000 12.210000 225 185 145 0
18.480000 5.280000 12.320000 226 186 146 0
18.700000 5.280000 12.320000 226 186 146 0
18.920000 5.280000 12.320000 228 185 148 0
19.140000 5.280000 12.430000 228 185 148 0
19.360000 5.280000 12.980000 227 184 147 0
19.580000 5.280000 13.970000 227 184 147 0
19.800000 5.280000 14.520000 227 184 147 0
20.020000 5.280000 14.520000 227 184 147 0
20.240000 5.280000 14.630000 225 185 147 0
20.460000 5.280000 14.630000 226 186 148 0
20.680000 5.280000 14.630000 227 184 147 0
20.900000 5.280000 14.740000 227 184 147 0
21.120000 5.280000 14.740000 227 183 149 0
21.340000 5.280000 14.740000 228 184 150 0
21.560000 5.280000 14.850000 227 184 147 0
21.780000 5.280000 15.510000 226 183 146 0
22.000000 5.280000 15.620000 226 183 146 0
22.220000 5.280000 15.620000 224 181 144 0
22.440000 5.280000 15.620000 222 179 142 0
22.660000 5.280000 16.390000 222 179 142 0
22.880000 5.280000 16.390000 220 176 142 0
23.100000 5.280000 16.500000 220 176 142 0
23.320000 5.280000 17.270000 221 176 142 0
23.540000 5.280000 17.820000 220 175 141 0
23.760000 5.280000 18.810000 218 174 140 0
23.980000 5.280000 19.470000 219 175 141 0
24.200000 5.280000 19.470000 218 174 142 0
24.420000 5.280000 20.240000 219 175 143 0
24.640000 5.280000 20.240000 218 174 142 0
24.860000 5.280000 20.350000 216 172 140 0
25.080000 5.280000 20.350000 215 171 139 0
25.300000 5.280000 20.460000 213 169 137 0
25.520000 5.280000 16.280000 211 169 140 0
25.740000 5.280000 7.370000 211 169 140 0
25.960000 5.280000 0.550000 208 168 140 0
26.620000 5.280000 0.990000 208 170 144 0
26.840000 5.280000 0.880000 207 169 143 0
27.060000 5.280000 1.540000 206 168 142 0
27.280000 5.280000 1.650000 209 168 146 0
27.500000 5.280000 0.990000 208 167 145 0
27.720000 5.280000 1.650000 202 165 142 0
27.940000 5.280000 1.540000 197 160 137 0
28.160000 5.280000 1.540000 194 155 133 0
28.380000 5.280000 2.200000 189 150 128 0
28.600000 5.280000 2.090000 189 147 128 0
28.820000 5.280000 2.090000 188 146 127 0
29.040000 5.280000 2.200000 184 151 137 0
29.260000 5.280000 1.650000 193 160 146 0
29.480000 5.280000 1.760000 196 177 157 0
29.700000 5.280000 1.870000 202 183 163 0
29.920000 5.280000 1.760000 203 192 181 0
30.140000 5.280000 2.860000 208 197 186 0
30.360000 5.280000 3.520000 209 200 190 0
30.580000 5.280000 3.520000 211 202 192 0
30.800000 5.280000 3.520000 212 201 192 0
31.020000 5.280000 3.520000 213 202 193 0
31.240000 5.280000 3.630000 211 201 187 0
31.460000 5.280000 3.630000 209 199 185 0
31.680000 5.280000 3.630000 209 192 179 0
31.900000 5.280000 3.630000 204 187 174 0
32.120000 5.280000 3.630000 209 183 166 0
32.340000 5.280000 3.630000 203 177 160 0
32.560000 5.280000 3.080000 200 168 152 0
32.780000 5.280000 2.420000 198 166 150 0
33.000000 5.280000 2.640000 200 161 141 0
33.220000 5.280000 1.980000 199 160 140 0
33.440000 5.280000 2.530000 204 161 137 0
33.660000 5.280000 2.970000 206 163 139 0
33.880000 5.280000 3.520000 212 164 137 0
34.100000 5.280000 4.180000 213 165 138 0
34.320000 5.280000 4.180000 214 169 143 0
34.540000 5.280000 4.290000 217 172 146 0
34.760000 5.280000 4.950000 212 177 153 0
34.980000 5.280000 5.060000 215 180 156 0
35.200000 5.280000 6.380000 204 196 188 0
35.420000 5.280000 7.700000 213 205 197 0
35.640000 5.280000 9.020000 216 211 203 0
35.860000 5.280000 9.790000 216 211 203 0
36.080000 5.280000 9.790000 217 212 204 0
36.300000 5.280000 10.450000 218 213 205 0
36.520000 5.280000 10.560000 218 213 205 0
36.740000 5.280000 10.560000 219 214 206 0
36.960000 5.280000 11.220000 220 215 207 0
37.180000 5.280000 11.330000 220 215 207 0
0.000000 5.500000 4.290000 144 119 86 0
0.220000 5.500000 4.290000 144 119 86 0
0.440000 5.500000 4.290000 144 119 86 0
0.660000 5.500000 4.290000 146 121 88 0
0.880000 5.500000 4.290000 145 120 87 0
1.100000 5.500000 4.290000 144 119 86 0
1.320000 5.500000 4.290000 143 118 85 0
1.540000 5.500000 4.290000 143 118 85 0
1.760000 5.500000 4.290000 142 117 84 0
1.980000 5.500000 4.290000 142 117 84 0
2.200000 5.500000 4.290000 142 117 84 0
2.420000 5.500000 4.290000 142 117 84 0
2.640000 5.500000 4.290000 142 115 83 0
2.860000 5.500000 4.290000 142 115 83 0
3.080000 5.500000 4.290000 141 116 83 0
3.300000 5.500000 4.290000 141 116 83 0
3.520000 5.500000 4.290000 142 117 84 0
3.740000 5.500000 4.290000 143 118 85 0
3.960000 5.500000 4.290000 142 117 84 0
4.180000 5.500000 5.060000 142 117 84 0
4.400000 5.500000 5.060000 143 116 84 0
4.620000 5.500000 5.060000 143 116 84 0
4.840000 5.500000 5.060000 143 116 84 0
5.060000 5.500000 5.060000 144 117 85 0
5.280000 5.500000 5.060000 143 117 87 0
5.500000 5.500000 5.060000 143 117 87 0
5.720000 5.500000 5.060000 144 116 87 0
5.940000 5.500000 5.060000 144 116 87 0
6.160000 5.500000 5.060000 146 119 87 0
6.380000 5.500000 5.060000 146 119 87 0
6.600000 5.500000 5.060000 145 117 88 0
6.820000 5.500000 5.060000 144 116 87 0
7.040000 5.500000 5.060000 144 116 87 0
7.260000 5.500000 5.060000 145 117 88 0
7.480000 5.500000 5.060000 147 120 88 0
7.700000 5.500000 5.060000 148 121 89 0
7.920000 5.500000 5.060000 158 123 86 0
8.140000 5.500000 5.060000 163 128 91 0
8.360000 5.500000 5.060000 173 133 102 0
8.580000 5.500000 5.060000 177 137 106 0
8.800000 5.500000 5.170000 184 141 104 0
9.020000 5.500000 5.170000 188 145 108 0
9.240000 5.500000 5.170000 194 151 114 0
9.460000 5.500000 5.170000 201 158 121 0
9.680000 5.500000 5.280000 202 162 121 0
9.900000 5.500000 5.280000 209 169 128 0
10.120000 5.500000 5.280000 214 176 134 0
10.340000 5.500000 5.390000 214 176 134 0
10.560000 5.500000 6.050000 214 176 135 0
10.780000 5.500000 6.600000 214 176 135 0
11.000000 5.500000 7.040000 214 176 135 0
11.220000 5.500000 7.040000 215 177 136 0
11.440000 5.500000 7.040000 215 177 136 0
11.660000 5.500000 7.150000 215 177 136 0
11.880000 5.500000 7.150000 218 178 137 0
12.100000 5.500000 7.150000 218 178 137 0
12.320000 5.500000 7.260000 220 180 139 0
12.540000 5.500000 7.260000 220 180 139 0
12.760000 5.500000 7.370000 220 180 139 0
12.980000 5.500000 7.370000 221 181 140 0
13.200000 5.500000 7.370000 220 180 139 0
13.420000 5.500000 7.480000 221 181 140 0
13.640000 5.500000 7.480000 221 181 140 0
13.860000 5.500000 7.480000 221 181 140 0
14.080000 5.500000 7.590000 221 181 140 0
14.300000 5.500000 8.140000 221 181 140 0
14.520000 5.500000 9.130000 221 181 141 0
14.740000 5.500000 9.680000 221 181 141 0
14.960000 5.500000 9.790000 221 181 140 0
15.180000 5.500000 9.790000 221 181 140 0
15.400000 5.500000 9.790000 223 181 140 0
15.620000 5.500000 10.560000 222 180 139 0
15.840000 5.500000 10.560000 222 178 138 0
16.060000 5.500000 10.560000 221 177 137 0
16.280000 5.500000 11.330000 221 176 138 0
16.500000 5.500000 11.330000 221 176 138 0
16.720000 5.500000 11.330000 220 178 137 0
16.940000 5.500000 11.330000 220 178 137 0
17.160000 5.500000 11.440000 220 177 138 0
17.380000 5.500000 11.440000 222 179 140 0
17.600000 5.500000 11.440000 223 180 141 0
17.820000 5.500000 12.210000 224 181 142 0
18.040000 5.500000 12.210000 224 181 142 0
18.260000 5.500000 12.210000 227 184 145 0
18.480000 5.500000 12.320000 226 183 146 0
18.700000 5.500000 12.320000 228 185 148 0
18.920000 5.500000 12.320000 228 185 148 0
19.140000 5.500000 12.430000 228 185 148 0
19.360000 5.500000 12.980000 227 184 147 0
19.580000 5.500000 14.080000 227 184 147 0
19.800000 5.500000 14.630000 227 184 147 0
20.020000 5.500000 14.520000 228 185 148 0
20.240000 5.500000 14.630000 227 184 147 0
20.460000 5.500000 14.630000 228 185 148 0
20.680000 5.500000 14.630000 228 185 148 0
20.900000 5.500000 14.740000 227 184 147 0
21.120000 5.500000 14.740000 227 182 146 0
21.340000 5.500000 14.740000 228 183 147 0
21.560000 5.500000 14.740000 227 182 146 0
21.780000 5.500000 15.510000 226 181 145 0
22.000000 5.500000 15.620000 225 180 144 0
22.220000 5.500000 15.620000 224 179 143 0
22.440000 5.500000 15.620000 224 179 143 0
22.660000 5.500000 16.390000 223 178 142 0
22.880000 5.500000 16.390000 220 176 142 0
23.100000 5.500000 16.500000 220 176 142 0
23.320000 5.500000 17.160000 219 175 141 0
23.540000 5.500000 17.820000 221 177 143 0
23.760000 5.500000 18.810000 220 176 142 0
23.980000 5.500000 19.360000 221 177 143 0
24.200000 5.500000 19.470000 221 177 145 0
24.420000 5.500000 20.240000 221 177 145 0
24.640000 5.500000 20.240000 222 178 146 0
24.860000 5.500000 20.240000 220 176 144 0
25.080000 5.500000 20.350000 215 174 141 0
25.300000 5.500000 20.350000 213 172 139 0
25.520000 5.500000 17.710000 213 171 142 0
25.740000 5.500000 10.120000 212 170 141 0
25.960000 5.500000 1.870000 211 170 139 0
26.620000 5.500000 0.440000 209 169 139 0
26.840000 5.500000 0.990000 207 169 141 0
27.060000 5.500000 0.880000 206 168 140 0
27.280000 5.500000 1.540000 206 168 144 0
27.500000 5.500000 1.540000 207 169 145 0
27.720000 5.500000 1.540000 205 167 141 0
27.940000 5.500000 1.540000 203 165 139 0
28.160000 5.500000 1.540000 198 163 136 0
28.380000 5.500000 1.540000 197 162 135 0
28.600000 5.500000 1.540000 195 158 137 0
28.820000 5.500000 2.200000 192 155 134 0
29.040000 5.500000 2.200000 190 154 135 0
29.260000 5.500000 2.200000 189 153 134 0
29.480000 5.500000 2.200000 191 152 134 0
29.700000 5.500000 2.200000 194 155 137 0
29.920000 5.500000 2.200000 206 167 149 0
30.140000 5.500000 2.860000 211 172 154 0
30.360000 5.500000 2.860000 212 174 156 0
30.580000 5.500000 2.860000 211 173 155 0
30.800000 5.500000 2.860000 212 174 156 0
31.020000 5.500000 2.860000 213 175 157 0
31.240000 5.500000 2.860000 212 173 155 0
31.460000 5.500000 2.970000 210 171 153 0
31.680000 5.500000 2.970000 209 167 150 0
31.900000 5.500000 2.970000 205 163 146 0
32.120000 5.500000 2.310000 198 159 139 0
32.340000 5.500000 2.310000 196 157 137 0
32.560000 5.500000 1.760000 199 156 132 0
32.780000 5.500000 1.870000 201 158 134 0
33.000000 5.500000 1.210000 205 160 134 0
33.220000 5.500000 1.320000 208 163 137 0
33.440000 5.500000 1.980000 211 163 135 0
33.660000 5.500000 2.530000 215 167 139 0
33.880000 5.500000 2.970000 218 172 143 0
34.100000 5.500000 3.520000 222 176 147 0
34.320000 5.500000 4.180000 222 177 149 0
34.540000 5.500000 4.290000 221 176 148 0
34.760000 5.500000 4.290000 218 176 149 0
34.980000 5.500000 5.060000 220 178 151 0
35.200000 5.500000 5.720000 216 188 171 0
35.420000 5.500000 7.040000 224 196 179 0
35.640000 5.500000 9.020000 217 209 202 0
35.860000 5.500000 9.680000 218 210 203 0
36.080000 5.500000 9.790000 217 212 204 0
36.300000 5.500000 10.450000 217 212 204 0
36.520000 5.500000 10.560000 218 212 207 0
36.740000 5.500000 11.220000 218 212 207 0
36.960000 5.500000 11.220000 218 213 205 0
37.180000 5.500000 11.330000 219 214 206 0
0.000000 5.720000 4.290000 143 118 85 0
0.220000 5.720000 4.290000 143 118 85 0
0.440000 5.720000 4.290000 143 118 85 0
0.660000 5.720000 4.290000 145 120 87 0
0.880000 5.720000 4.290000 145 120 87 0
1.100000 5.720000 4.290000 145 120 87 0
1.320000 5.720000 4.290000 144 119 86 0
1.540000 5.720000 4.290000 143 118 85 0
1.760000 5.720000 4.290000 142 117 84 0
1.980000 5.720000 4.290000 142 117 84 0
2.200000 5.720000 4.290000 142 117 84 0
2.420000 5.720000 4.290000 141 116 83 0
2.640000 5.720000 4.290000 143 116 84 0
2.860000 5.720000 4.290000 143 116 84 0
3.080000 5.720000 4.290000 141 116 83 0
3.300000 5.720000 4.290000 142 117 84 0
3.520000 5.720000 4.290000 142 117 84 0
3.740000 5.720000 4.290000 142 117 84 0
3.960000 5.720000 4.290000 143 118 85 0
4.180000 5.720000 5.060000 142 117 84 0
4.400000 5.720000 5.060000 144 117 85 0
4.620000 5.720000 5.060000 144 117 85 0
4.840000 5.720000 5.060000 143 116 84 0
5.060000 5.720000 5.060000 143 116 84 0
5.280000 5.720000 5.060000 142 116 86 0
5.500000 5.720000 5.060000 143 117 87 0
5.720000 5.720000 5.060000 144 116 87 0
5.940000 5.720000 5.060000 145 117 88 0
6.160000 5.720000 5.060000 145 118 86 0
6.380000 5.720000 5.060000 146 119 87 0
6.600000 5.720000 5.060000 146 118 89 0
6.820000 5.720000 5.060000 146 118 89 0
7.040000 5.720000 5.060000 144 116 87 0
7.260000 5.720000 5.060000 146 118 89 0
7.480000 5.720000 5.060000 146 119 87 0
7.700000 5.720000 5.060000 147 120 88 0
7.920000 5.720000 5.060000 159 124 87 0
8.140000 5.720000 5.060000 163 128 91 0
8.360000 5.720000 5.060000 172 132 101 0
8.580000 5.720000 5.060000 177 137 106 0
8.800000 5.720000 5.170000 182 139 102 0
9.020000 5.720000 5.170000 185 142 105 0
9.240000 5.720000 5.170000 193 150 113 0
9.460000 5.720000 5.170000 198 155 118 0
9.680000 5.720000 5.170000 203 163 122 0
9.900000 5.720000 5.280000 208 168 127 0
10.120000 5.720000 5.280000 212 174 132 0
10.340000 5.720000 6.050000 214 176 134 0
10.560000 5.720000 6.050000 213 175 134 0
10.780000 5.720000 6.050000 214 176 135 0
11.000000 5.720000 6.490000 215 177 136 0
11.220000 5.720000 7.040000 215 177 136 0
11.440000 5.720000 7.040000 215 177 136 0
11.660000 5.720000 7.040000 215 177 136 0
11.880000 5.720000 7.150000 217 177 136 0
12.100000 5.720000 7.150000 218 178 137 0
12.320000 5.720000 7.260000 218 178 137 0
12.540000 5.720000 7.260000 219 179 138 0
12.760000 5.720000 6.600000 220 180 139 0
12.980000 5.720000 6.710000 220 180 139 0
13.200000 5.720000 6.710000 221 181 140 0
13.420000 5.720000 6.710000 220 180 139 0
13.640000 5.720000 6.820000 221 181 140 0
13.860000 5.720000 6.820000 221 181 140 0
14.080000 5.720000 7.590000 221 181 140 0
14.300000 5.720000 7.480000 221 181 140 0
14.520000 5.720000 8.580000 222 182 142 0
14.740000 5.720000 9.020000 221 181 141 0
14.960000 5.720000 9.020000 222 182 141 0
15.180000 5.720000 9.790000 220 180 139 0
15.400000 5.720000 9.790000 221 179 138 0
15.620000 5.720000 9.790000 221 179 138 0
15.840000 5.720000 9.900000 221 177 137 0
16.060000 5.720000 10.560000 220 176 136 0
16.280000 5.720000 10.560000 220 175 137 0
16.500000 5.720000 10.560000 219 174 136 0
16.720000 5.720000 10.670000 218 176 135 0
16.940000 5.720000 10.670000 218 176 135 0
17.160000 5.720000 11.440000 219 176 137 0
17.380000 5.720000 11.440000 220 177 138 0
17.600000 5.720000 11.440000 222 179 140 0
17.820000 5.720000 11.550000 223 180 141 0
18.040000 5.720000 12.210000 224 181 142 0
18.260000 5.720000 12.210000 225 182 143 0
18.480000 5.720000 12.210000 227 184 147 0
18.700000 5.720000 12.320000 227 184 147 0
18.920000 5.720000 12.320000 227 184 147 0
19.140000 5.720000 12.430000 228 185 148 0
19.360000 5.720000 13.090000 227 184 147 0
19.580000 5.720000 13.530000 227 184 147 0
19.800000 5.720000 13.970000 228 185 148 0
20.020000 5.720000 14.520000 228 185 148 0
20.240000 5.720000 14.630000 228 185 148 0
20.460000 5.720000 14.630000 227 184 147 0
20.680000 5.720000 14.630000 228 185 148 0
20.900000 5.720000 14.740000 227 184 147 0
21.120000 5.720000 14.740000 227 182 146 0
21.340000 5.720000 14.740000 227 182 146 0
21.560000 5.720000 14.740000 226 181 145 0
21.780000 5.720000 15.510000 225 180 144 0
22.000000 5.720000 15.620000 223 178 142 0
22.220000 5.720000 15.620000 222 177 141 0
22.440000 5.720000 15.620000 222 177 141 0
22.660000 5.720000 16.390000 221 176 140 0
22.880000 5.720000 16.390000 220 176 142 0
23.100000 5.720000 17.160000 220 176 142 0
23.320000 5.720000 17.160000 221 177 143 0
23.540000 5.720000 17.820000 221 177 143 0
23.760000 5.720000 18.810000 221 177 143 0
23.980000 5.720000 19.360000 223 179 145 0
24.200000 5.720000 20.130000 224 180 148 0
24.420000 5.720000 20.130000 223 179 147 0
24.640000 5.720000 20.240000 224 180 148 0
24.860000 5.720000 20.240000 222 178 146 0
25.080000 5.720000 20.240000 219 178 145 0
25.300000 5.720000 20.350000 217 176 143 0
25.520000 5.720000 16.940000 216 174 145 0
25.740000 5.720000 7.370000 214 172 143 0
25.960000 5.720000 0.440000 214 173 142 0
27.060000 5.720000 0.440000 207 169 141 0
27.280000 5.720000 0.880000 207 169 145 0
27.500000 5.720000 1.540000 205 167 143 0
27.720000 5.720000 1.430000 205 167 141 0
27.940000 5.720000 1.540000 205 167 141 0
28.160000 5.720000 1.540000 201 166 139 0
28.380000 5.720000 1.540000 201 166 139 0
28.600000 5.720000 1.540000 199 162 141 0
28.820000 5.720000 1.540000 196 159 138 0
29.040000 5.720000 1.540000 193 157 138 0
29.260000 5.720000 1.540000 191 155 136 0
29.480000 5.720000 2.200000 191 152 134 0
29.700000 5.720000 2.090000 191 152 134 0
29.920000 5.720000 2.090000 191 152 134 0
30.140000 5.720000 2.200000 192 153 135 0
30.360000 5.720000 2.200000 191 153 135 0
30.580000 5.720000 2.200000 191 153 135 0
30.800000 5.720000 2.200000 194 156 138 0
31.020000 5.720000 2.200000 193 155 137 0
31.240000 5.720000 2.200000 196 157 139 0
31.460000 5.720000 2.200000 194 155 137 0
31.680000 5.720000 2.200000 194 152 135 0
31.900000 5.720000 1.650000 193 151 134 0
32.120000 5.720000 1.760000 195 156 136 0
32.340000 5.720000 1.100000 196 157 137 0
32.560000 5.720000 1.100000 202 159 135 0
32.780000 5.720000 1.210000 205 162 138 0
33.000000 5.720000 1.210000 212 167 141 0
33.220000 5.720000 1.320000 217 172 146 0
33.440000 5.720000 1.320000 223 175 147 0
33.660000 5.720000 1.980000 225 177 149 0
33.880000 5.720000 2.530000 226 180 151 0
34.100000 5.720000 3.630000 226 180 151 0
34.320000 5.720000 4.180000 226 181 153 0
34.540000 5.720000 4.180000 226 181 153 0
34.760000 5.720000 4.290000 223 181 154 0
34.980000 5.720000 4.950000 224 182 155 0
35.200000 5.720000 5.720000 213 185 168 0
35.420000 5.720000 7.040000 220 192 175 0
35.640000 5.720000 8.360000 211 203 196 0
35.860000 5.720000 9.680000 218 210 203 0
36.080000 5.720000 10.450000 216 211 203 0
36.300000 5.720000 10.450000 217 212 204 0
36.520000 5.720000 10.560000 218 212 207 0
36.740000 5.720000 11.220000 218 212 207 0
36.960000 5.720000 11.220000 218 213 205 0
37.180000 5.720000 11.330000 219 214 206 0
0.000000 5.940000 4.290000 142 117 84 0
0.220000 5.940000 4.290000 143 118 85 0
0.440000 5.940000 4.290000 142 117 84 0
0.660000 5.940000 4.290000 143 118 85 0
0.880000 5.940000 4.290000 144 119 86 0
1.100000 5.940000 4.290000 145 120 87 0
1.320000 5.940000 4.290000 145 120 87 0
1.540000 5.940000 4.290000 143 118 85 0
1.760000 5.940000 4.290000 142 117 84 0
1.980000 5.940000 4.290000 142 117 84 0
2.200000 5.940000 4.290000 142 117 84 0
2.420000 5.940000 4.290000 142 117 84 0
2.640000 5.940000 4.290000 143 118 85 0
2.860000 5.940000 4.290000 142 117 84 0
3.080000 5.940000 4.290000 144 117 85 0
3.300000 5.940000 4.290000 143 116 84 0
3.520000 5.940000 4.290000 142 117 84 0
3.740000 5.940000 4.290000 142 117 84 0
3.960000 5.940000 4.290000 142 117 84 0
4.180000 5.940000 4.290000 142 117 84 0
4.400000 5.940000 4.290000 142 117 84 0
4.620000 5.940000 5.060000 143 118 85 0
4.840000 5.940000 5.060000 144 116 87 0
5.060000 5.940000 5.060000 144 116 87 0
5.280000 5.940000 5.060000 143 118 85 0
5.500000 5.940000 5.060000 143 118 85 0
5.720000 5.940000 5.060000 146 119 87 0
5.940000 5.940000 5.060000 145 118 86 0
6.160000 5.940000 5.060000 144 118 88 0
6.380000 5.940000 5.060000 144 118 88 0
6.600000 5.940000 5.060000 144 118 88 0
6.820000 5.940000 5.060000 145 119 89 0
7.040000 5.940000 5.060000 145 119 89 0
7.260000 5.940000 5.060000 144 118 88 0
7.480000 5.940000 5.060000 146 118 89 0
7.700000 5.940000 5.060000 148 120 91 0
7.920000 5.940000 5.060000 154 123 90 0
8.140000 5.940000 5.060000 158 127 94 0
8.360000 5.940000 5.060000 169 130 92 0
8.580000 5.940000 5.060000 177 138 100 0
8.800000 5.940000 5.060000 184 137 104 0
9.020000 5.940000 5.170000 185 138 105 0
9.240000 5.940000 5.170000 191 146 108 0
9.460000 5.940000 5.170000 198 153 115 0
9.680000 5.940000 5.170000 202 160 117 0
9.900000 5.940000 5.280000 208 166 123 0
10.120000 5.940000 5.280000 211 173 131 0
10.340000 5.940000 5.280000 213 175 133 0
10.560000 5.940000 6.050000 215 177 136 0
10.780000 5.940000 6.050000 215 177 136 0
11.000000 5.940000 6.710000 215 177 136 0
11.220000 5.940000 7.150000 215 177 136 0
11.440000 5.940000 7.040000 216 178 137 0
11.660000 5.940000 7.040000 216 178 137 0
11.880000 5.940000 7.040000 216 178 136 0
12.100000 5.940000 7.150000 217 179 137 0
12.320000 5.940000 7.150000 218 180 139 0
12.540000 5.940000 7.260000 218 180 139 0
12.760000 5.940000 6.600000 220 180 139 0
12.980000 5.940000 6.600000 220 180 139 0
13.200000 5.940000 6.710000 221 181 140 0
13.420000 5.940000 6.710000 220 180 139 0
13.640000 5.940000 6.710000 220 180 139 0
13.860000 5.940000 6.820000 221 181 140 0
14.080000 5.940000 6.820000 221 181 140 0
14.300000 5.940000 7.480000 221 181 140 0
14.520000 5.940000 8.030000 221 181 140 0
14.740000 5.940000 8.470000 221 181 140 0
14.960000 5.940000 9.020000 220 180 139 0
15.180000 5.940000 9.020000 219 179 138 0
15.400000 5.940000 9.130000 219 179 138 0
15.620000 5.940000 9.130000 219 179 138 0
15.840000 5.940000 9.790000 219 177 136 0
16.060000 5.940000 9.900000 219 177 136 0
16.280000 5.940000 9.900000 218 176 135 0
16.500000 5.940000 9.900000 219 177 136 0
16.720000 5.940000 10.670000 218 175 136 0
16.940000 5.940000 10.670000 218 175 136 0
17.160000 5.940000 10.670000 219 176 137 0
17.380000 5.940000 10.780000 220 177 138 0
17.600000 5.940000 10.780000 222 177 139 0
17.820000 5.940000 11.440000 223 178 140 0
18.040000 5.940000 11.550000 223 180 141 0
18.260000 5.940000 11.550000 225 182 143 0
18.480000 5.940000 11.550000 226 183 146 0
18.700000 5.940000 12.320000 226 183 146 0
18.920000 5.940000 12.320000 228 185 148 0
19.140000 5.940000 12.320000 228 185 148 0
19.360000 5.940000 12.430000 229 186 149 0
19.580000 5.940000 12.980000 227 184 147 0
19.800000 5.940000 13.420000 228 185 148 0
20.020000 5.940000 14.630000 228 185 148 0
20.240000 5.940000 14.520000 228 185 148 0
20.460000 5.940000 14.630000 228 185 148 0
20.680000 5.940000 14.630000 228 185 148 0
20.900000 5.940000 14.740000 227 184 147 0
21.120000 5.940000 14.740000 226 182 148 0
21.340000 5.940000 14.740000 226 182 148 0
21.560000 5.940000 15.510000 225 181 147 0
21.780000 5.940000 15.510000 222 178 144 0
22.000000 5.940000 15.510000 222 178 144 0
22.220000 5.940000 15.620000 221 177 143 0
22.440000 5.940000 15.620000 221 176 142 0
22.660000 5.940000 16.390000 220 175 141 0
22.880000 5.940000 16.390000 221 177 143 0
23.100000 5.940000 17.160000 221 177 143 0
23.320000 5.940000 17.160000 221 177 145 0
23.540000 5.940000 17.820000 222 178 146 0
23.760000 5.940000 18.920000 221 180 147 0
23.980000 5.940000 19.470000 223 182 149 0
24.200000 5.940000 20.130000 224 183 150 0
24.420000 5.940000 20.130000 223 182 149 0
24.640000 5.940000 20.240000 225 181 149 0
24.860000 5.940000 20.900000 225 181 149 0
25.080000 5.940000 21.010000 223 179 149 0
25.300000 5.940000 21.010000 221 177 147 0
25.520000 5.940000 16.940000 221 177 147 0
25.740000 5.940000 7.260000 220 176 146 0
25.960000 5.940000 0.440000 220 176 146 0
27.280000 5.940000 0.440000 209 168 143 0
27.500000 5.940000 0.990000 207 166 141 0
27.720000 5.940000 1.540000 207 167 139 0
27.940000 5.940000 1.540000 206 166 138 0
28.160000 5.940000 1.540000 205 163 136 0
28.380000 5.940000 1.540000 205 163 136 0
28.600000 5.940000 1.540000 202 159 135 0
28.820000 5.940000 1.540000 200 157 133 0
29.040000 5.940000 1.540000 199 156 135 0
29.260000 5.940000 1.540000 197 154 133 0
29.480000 5.940000 1.430000 194 151 130 0
29.700000 5.940000 1.430000 194 151 130 0
29.920000 5.940000 1.430000 194 151 130 0
30.140000 5.940000 1.540000 195 152 131 0
30.360000 5.940000 1.540000 194 151 130 0
30.580000 5.940000 1.540000 194 151 130 0
30.800000 5.940000 1.540000 194 153 131 0
31.020000 5.940000 1.540000 194 153 131 0
31.240000 5.940000 1.540000 195 152 130 0
31.460000 5.940000 1.540000 195 152 130 0
31.680000 5.940000 1.540000 196 153 129 0
31.900000 5.940000 0.990000 200 157 133 0
32.120000 5.940000 1.100000 205 160 134 0
32.340000 5.940000 1.100000 207 162 136 0
32.560000 5.940000 1.100000 214 168 140 0
32.780000 5.940000 1.210000 220 174 146 0
33.000000 5.940000 1.210000 223 178 150 0
33.220000 5.940000 1.210000 226 181 153 0
33.440000 5.940000 1.320000 224 181 157 0
33.660000 5.940000 1.320000 227 184 160 0
33.880000 5.940000 1.870000 227 182 156 0
34.100000 5.940000 2.970000 228 183 157 0
34.320000 5.940000 3.520000 228 181 156 0
34.540000 5.940000 4.180000 229 182 157 0
34.760000 5.940000 4.290000 228 183 155 0
34.980000 5.940000 4.290000 227 182 154 0
35.200000 5.940000 5.720000 224 181 159 0
35.420000 5.940000 7.040000 226 183 161 0
35.640000 5.940000 8.360000 207 199 192 0
35.860000 5.940000 9.680000 215 207 200 0
36.080000 5.940000 10.450000 216 211 203 0
36.300000 5.940000 10.450000 217 212 204 0
36.520000 5.940000 10.560000 217 211 206 0
36.740000 5.940000 11.220000 218 212 207 0
36.960000 5.940000 11.330000 218 213 205 0
37.180000 5.940000 11.330000 218 213 205 0
0.000000 6.160000 4.290000 143 118 85 0
0.220000 6.160000 4.290000 142 117 84 0
0.440000 6.160000 4.290000 142 117 84 0
0.660000 6.160000 4.290000 143 118 85 0
0.880000 6.160000 4.290000 144 119 86 0
1.100000 6.160000 4.290000 144 119 86 0
1.320000 6.160000 4.290000 145 120 87 0
1.540000 6.160000 4.290000 143 118 85 0
1.760000 6.160000 4.290000 143 118 85 0
1.980000 6.160000 4.290000 143 118 85 0
2.200000 6.160000 4.290000 143 118 85 0
2.420000 6.160000 4.290000 143 118 85 0
2.640000 6.160000 4.290000 142 117 84 0
2.860000 6.160000 4.290000 142 117 84 0
3.080000 6.160000 4.290000 143 116 84 0
3.300000 6.160000 4.290000 143 116 84 0
3.520000 6.160000 4.290000 142 117 84 0
3.740000 6.160000 4.290000 142 117 84 0
3.960000 6.160000 4.290000 141 116 83 0
4.180000 6.160000 4.290000 143 118 85 0
4.400000 6.160000 4.290000 143 118 85 0
4.620000 6.160000 4.290000 142 117 84 0
4.840000 6.160000 4.290000 145 117 88 0
5.060000 6.160000 4.290000 145 117 88 0
5.280000 6.160000 4.290000 143 118 85 0
5.500000 6.160000 4.290000 144 119 86 0
5.720000 6.160000 5.060000 145 118 86 0
5.940000 6.160000 5.060000 145 118 86 0
6.160000 6.160000 5.060000 145 119 89 0
6.380000 6.160000 5.060000 144 118 88 0
6.600000 6.160000 5.060000 143 117 87 0
6.820000 6.160000 5.060000 144 118 88 0
7.040000 6.160000 5.060000 144 118 88 0
7.260000 6.160000 5.060000 145 119 89 0
7.480000 6.160000 5.060000 145 117 88 0
7.700000 6.160000 5.060000 147 119 90 0
7.920000 6.160000 5.060000 155 124 91 0
8.140000 6.160000 5.060000 158 127 94 0
8.360000 6.160000 5.060000 167 128 90 0
8.580000 6.160000 5.060000 174 135 97 0
8.800000 6.160000 5.060000 183 136 103 0
9.020000 6.160000 5.170000 185 138 105 0
9.240000 6.160000 5.170000 189 144 106 0
9.460000 6.160000 5.170000 196 151 113 0
9.680000 6.160000 5.170000 201 159 116 0
9.900000 6.160000 5.170000 207 165 122 0
10.120000 6.160000 5.280000 210 172 130 0
10.340000 6.160000 5.280000 214 176 134 0
10.560000 6.160000 6.050000 214 176 135 0
10.780000 6.160000 6.050000 215 177 136 0
11.000000 6.160000 6.160000 215 177 136 0
11.220000 6.160000 6.710000 216 178 137 0
11.440000 6.160000 7.150000 216 178 137 0
11.660000 6.160000 7.040000 217 179 138 0
11.880000 6.160000 7.040000 217 179 137 0
12.100000 6.160000 7.150000 217 179 137 0
12.320000 6.160000 7.150000 218 180 139 0
12.540000 6.160000 7.150000 218 180 139 0
12.760000 6.160000 7.260000 220 180 139 0
12.980000 6.160000 6.600000 219 179 138 0
13.200000 6.160000 6.600000 220 180 139 0
13.420000 6.160000 6.710000 222 182 141 0
13.640000 6.160000 6.710000 221 181 140 0
13.860000 6.160000 6.820000 221 181 140 0
14.080000 6.160000 6.820000 221 181 140 0
14.300000 6.160000 6.820000 222 182 141 0
14.520000 6.160000 7.480000 221 181 140 0
14.740000 6.160000 7.920000 220 180 139 0
14.960000 6.160000 8.360000 221 181 140 0
15.180000 6.160000 9.020000 220 180 139 0
15.400000 6.160000 9.020000 220 180 139 0
15.620000 6.160000 9.130000 219 179 138 0
15.840000 6.160000 9.130000 221 179 138 0
16.060000 6.160000 9.130000 219 177 136 0
16.280000 6.160000 9.900000 218 176 135 0
16.500000 6.160000 9.900000 219 177 136 0
16.720000 6.160000 9.900000 218 175 136 0
16.940000 6.160000 9.900000 219 176 137 0
17.160000 6.160000 10.670000 219 176 137 0
17.380000 6.160000 10.670000 219 176 137 0
17.600000 6.160000 10.780000 222 177 139 0
17.820000 6.160000 10.780000 222 177 139 0
18.040000 6.160000 11.550000 222 179 140 0
18.260000 6.160000 11.550000 225 182 143 0
18.480000 6.160000 11.550000 226 183 146 0
18.700000 6.160000 11.550000 226 183 146 0
18.920000 6.160000 11.660000 227 184 147 0
19.140000 6.160000 12.320000 227 184 147 0
19.360000 6.160000 12.430000 228 185 148 0
19.580000 6.160000 12.320000 227 184 147 0
19.800000 6.160000 12.870000 229 186 149 0
20.020000 6.160000 13.970000 227 184 147 0
20.240000 6.160000 14.520000 228 185 148 0
20.460000 6.160000 14.630000 228 185 148 0
20.680000 6.160000 14.630000 227 184 147 0
20.900000 6.160000 14.630000 228 185 148 0
21.120000 6.160000 14.740000 227 183 149 0
21.340000 6.160000 15.400000 226 182 148 0
21.560000 6.160000 15.400000 226 182 148 0
21.780000 6.160000 15.510000 225 181 147 0
22.000000 6.160000 15.510000 223 179 145 0
22.220000 6.160000 15.620000 222 178 144 0
22.440000 6.160000 16.280000 223 178 144 0
22.660000 6.160000 16.390000 221 176 142 0
22.880000 6.160000 17.050000 221 177 143 0
23.100000 6.160000 17.160000 222 178 144 0
23.320000 6.160000 17.820000 223 179 147 0
23.540000 6.160000 17.930000 225 181 149 0
23.760000 6.160000 19.030000 224 183 150 0
23.980000 6.160000 19.470000 226 185 152 0
24.200000 6.160000 20.130000 225 184 151 0
24.420000 6.160000 20.130000 226 185 152 0
24.640000 6.160000 20.900000 227 183 151 0
24.860000 6.160000 20.900000 226 182 150 0
25.080000 6.160000 20.900000 225 181 151 0
25.300000 6.160000 19.580000 224 180 150 0
25.520000 6.160000 15.510000 223 179 149 0
25.740000 6.160000 8.580000 221 177 147 0
25.960000 6.160000 1.760000 221 177 147 0
27.720000 6.160000 0.440000 206 166 138 0
27.940000 6.160000 0.990000 206 166 138 0
28.160000 6.160000 0.880000 205 163 136 0
28.380000 6.160000 0.880000 203 161 134 0
28.600000 6.160000 1.540000 202 159 135 0
28.820000 6.160000 1.430000 201 158 134 0
29.040000 6.160000 1.430000 199 156 135 0
29.260000 6.160000 1.430000 197 154 133 0
29.480000 6.160000 1.430000 196 153 132 0
29.700000 6.160000 1.430000 194 151 130 0
29.920000 6.160000 1.430000 195 152 131 0
30.140000 6.160000 1.540000 195 152 131 0
30.360000 6.160000 1.540000 195 152 131 0
30.580000 6.160000 1.540000 195 152 131 0
30.800000 6.160000 1.540000 194 153 131 0
31.020000 6.160000 1.540000 195 154 132 0
31.240000 6.160000 1.540000 200 157 135 0
31.460000 6.160000 1.540000 201 158 136 0
31.680000 6.160000 0.880000 203 160 136 0
31.900000 6.160000 0.990000 208 165 141 0
32.120000 6.160000 1.100000 216 171 145 0
32.340000 6.160000 1.100000 218 173 147 0
32.560000 6.160000 1.100000 223 177 149 0
32.780000 6.160000 1.210000 227 181 153 0
33.000000 6.160000 1.210000 226 181 153 0
33.220000 6.160000 1.210000 230 185 157 0
33.440000 6.160000 1.320000 230 187 163 0
33.660000 6.160000 1.320000 232 189 165 0
33.880000 6.160000 1.870000 233 188 162 0
34.100000 6.160000 2.970000 231 186 160 0
34.320000 6.160000 3.520000 232 185 160 0
34.540000 6.160000 4.180000 230 183 158 0
34.760000 6.160000 4.290000 231 186 158 0
34.980000 6.160000 4.290000 228 183 155 0
35.200000 6.160000 4.950000 224 181 159 0
35.420000 6.160000 7.040000 223 180 158 0
35.640000 6.160000 9.020000 205 197 190 0
35.860000 6.160000 9.680000 214 206 199 0
36.080000 6.160000 10.450000 216 211 203 0
36.300000 6.160000 10.450000 216 211 203 0
36.520000 6.160000 10.560000 217 211 206 0
36.740000 6.160000 11.220000 218 212 207 0
36.960000 6.160000 11.330000 218 213 205 0
37.180000 6.160000 11.330000 219 214 206 0
0.000000 6.380000 4.290000 142 117 84 0
0.220000 6.380000 4.290000 142 117 84 0
0.440000 6.380000 4.290000 141 116 83 0
0.660000 6.380000 4.290000 142 117 84 0
0.880000 6.380000 4.290000 143 118 85 0
1.100000 6.380000 4.290000 143 118 85 0
1.320000 6.380000 4.290000 144 118 88 0
1.540000 6.380000 4.290000 143 117 87 0
1.760000 6.380000 4.290000 144 118 88 0
1.980000 6.380000 4.290000 143 117 87 0
2.200000 6.380000 4.290000 143 117 87 0
2.420000 6.380000 4.290000 143 117 87 0
2.640000 6.380000 4.290000 141 115 85 0
2.860000 6.380000 4.290000 142 116 86 0
3.080000 6.380000 4.290000 142 116 86 0
3.300000 6.380000 4.290000 142 116 86 0
3.520000 6.380000 4.290000 143 115 86 0
3.740000 6.380000 4.290000 143 115 86 0
3.960000 6.380000 4.290000 144 116 87 0
4.180000 6.380000 4.290000 143 115 86 0
4.400000 6.380000 4.290000 143 115 86 0
4.620000 6.380000 4.290000 144 116 87 0
4.840000 6.380000 4.290000 144 118 88 0
5.060000 6.380000 4.290000 143 117 87 0
5.280000 6.380000 4.290000 145 117 88 0
5.500000 6.380000 4.290000 145 117 88 0
5.720000 6.380000 4.290000 145 117 88 0
5.940000 6.380000 5.060000 145 117 88 0
6.160000 6.380000 5.060000 144 118 88 0
6.380000 6.380000 5.060000 145 119 89 0
6.600000 6.380000 5.060000 145 119 89 0
6.820000 6.380000 5.060000 145 119 89 0
7.040000 6.380000 5.060000 145 117 88 0
7.260000 6.380000 5.060000 146 118 89 0
7.480000 6.380000 5.060000 146 118 89 0
7.700000 6.380000 5.060000 147 119 90 0
7.920000 6.380000 5.060000 150 123 91 0
8.140000 6.380000 5.060000 153 126 94 0
8.360000 6.380000 5.060000 162 127 92 0
8.580000 6.380000 5.060000 167 132 97 0
8.800000 6.380000 5.060000 178 138 100 0
9.020000 6.380000 5.060000 179 139 101 0
9.240000 6.380000 5.170000 187 142 104 0
9.460000 6.380000 5.170000 194 149 111 0
9.680000 6.380000 5.170000 199 160 116 0
9.900000 6.380000 5.170000 204 165 121 0
10.120000 6.380000 5.280000 209 171 129 0
10.340000 6.380000 5.280000 215 177 135 0
10.560000 6.380000 5.280000 217 179 138 0
10.780000 6.380000 6.050000 216 178 137 0
11.000000 6.380000 6.160000 216 178 137 0
11.220000 6.380000 6.160000 217 179 138 0
11.440000 6.380000 6.710000 217 179 138 0
11.660000 6.380000 7.150000 217 179 138 0
11.880000 6.380000 7.040000 217 179 137 0
12.100000 6.380000 7.040000 216 178 136 0
12.320000 6.380000 7.150000 217 179 138 0
12.540000 6.380000 7.150000 217 179 138 0
12.760000 6.380000 7.260000 219 179 139 0
12.980000 6.380000 7.260000 221 181 141 0
13.200000 6.380000 6.600000 220 180 140 0
13.420000 6.380000 6.710000 221 181 141 0
13.640000 6.380000 6.710000 221 181 140 0
13.860000 6.380000 6.710000 222 182 141 0
14.080000 6.380000 6.820000 221 181 141 0
14.300000 6.380000 6.820000 222 182 142 0
14.520000 6.380000 7.480000 223 183 143 0
14.740000 6.380000 8.030000 222 182 142 0
14.960000 6.380000 8.470000 222 182 142 0
15.180000 6.380000 9.020000 221 181 141 0
15.400000 6.380000 9.020000 220 180 140 0
15.620000 6.380000 9.020000 220 180 140 0
15.840000 6.380000 9.130000 221 178 139 0
