ply
format ascii 1.0
element vertex 1135
property float x
property float y
property float z
property uchar red
property uchar green
property uchar blue
property uchar alpha
end_header
24.640000 2.420000 0.220000 217 179 151 0
24.860000 2.420000 0.440000 217 179 151 0
25.080000 2.420000 1.760000 219 179 149 0
25.300000 2.420000 1.980000 219 179 149 0
25.520000 2.420000 2.200000 222 182 152 0
25.740000 2.420000 2.420000 222 182 152 0
25.960000 2.420000 2.420000 223 183 153 0
26.180000 2.420000 3.960000 225 185 155 0
26.400000 2.420000 3.960000 229 185 155 0
26.620000 2.420000 5.060000 229 185 155 0
26.840000 2.420000 5.940000 220 188 168 0
27.060000 2.420000 4.400000 228 196 176 0
27.280000 2.420000 3.080000 216 208 200 0
27.500000 2.420000 1.760000 218 210 202 0
27.720000 2.420000 1.980000 219 211 203 0
27.940000 2.420000 1.980000 219 211 203 0
28.160000 2.420000 1.980000 219 211 203 0
28.380000 2.420000 2.200000 219 211 203 0
28.600000 2.420000 2.200000 220 212 204 0
28.820000 2.420000 3.740000 220 212 204 0
29.040000 2.420000 3.740000 219 211 203 0
29.260000 2.420000 3.740000 219 211 203 0
29.480000 2.420000 3.960000 219 211 203 0
29.700000 2.420000 3.960000 220 212 204 0
29.920000 2.420000 5.060000 220 212 204 0
30.140000 2.420000 5.940000 220 212 204 0
30.360000 2.420000 7.040000 220 212 204 0
30.580000 2.420000 7.040000 219 211 203 0
30.800000 2.420000 7.040000 219 211 203 0
31.020000 2.420000 7.260000 220 212 204 0
31.240000 2.420000 8.580000 220 212 204 0
31.460000 2.420000 8.800000 219 211 203 0
31.680000 2.420000 8.800000 220 212 204 0
31.900000 2.420000 8.800000 220 212 204 0
32.120000 2.420000 9.020000 221 213 206 0
32.340000 2.420000 9.020000 220 212 205 0
32.560000 2.420000 9.020000 217 212 204 0
32.780000 2.420000 9.240000 218 213 205 0
33.000000 2.420000 9.240000 221 213 206 0
33.220000 2.420000 9.240000 220 212 205 0
33.440000 2.420000 10.780000 220 212 205 0
33.660000 2.420000 10.780000 220 212 205 0
33.880000 2.420000 10.780000 220 212 205 0
34.100000 2.420000 11.880000 221 213 206 0
34.320000 2.420000 12.760000 220 212 205 0
34.540000 2.420000 14.080000 219 211 204 0
34.760000 2.420000 14.080000 218 210 203 0
34.980000 2.420000 14.080000 217 209 202 0
35.200000 2.420000 14.080000 216 208 201 0
35.420000 2.420000 15.620000 214 206 199 0
35.640000 2.420000 16.940000 214 206 199 0
35.860000 2.420000 19.580000 220 212 205 0
36.080000 2.420000 20.900000 222 214 207 0
36.300000 2.420000 20.900000 225 217 210 0
36.520000 2.420000 21.120000 224 216 209 0
36.740000 2.420000 21.120000 225 217 210 0
36.960000 2.420000 22.660000 226 218 211 0
37.180000 2.420000 22.660000 226 218 211 0
0.000000 2.640000 8.580000 143 116 82 0
0.220000 2.640000 8.580000 142 115 81 0
0.440000 2.640000 8.580000 143 116 84 0
0.660000 2.640000 8.580000 144 117 85 0
0.880000 2.640000 8.580000 143 116 84 0
1.100000 2.640000 8.580000 142 115 83 0
1.320000 2.640000 8.580000 143 116 82 0
1.540000 2.640000 8.580000 142 115 81 0
1.760000 2.640000 8.580000 142 115 81 0
1.980000 2.640000 8.580000 142 115 81 0
2.200000 2.640000 8.800000 142 115 83 0
2.420000 2.640000 8.800000 143 116 84 0
2.640000 2.640000 8.800000 142 115 83 0
2.860000 2.640000 8.800000 141 114 82 0
3.080000 2.640000 8.800000 142 115 83 0
3.300000 2.640000 8.800000 142 115 83 0
3.520000 2.640000 8.800000 142 115 81 0
3.740000 2.640000 8.800000 143 116 82 0
3.960000 2.640000 8.800000 144 117 85 0
4.180000 2.640000 8.800000 143 116 84 0
4.400000 2.640000 8.800000 144 117 85 0
4.620000 2.640000 8.800000 144 117 85 0
4.840000 2.640000 8.800000 145 118 86 0
5.060000 2.640000 8.800000 145 118 86 0
5.280000 2.640000 10.120000 145 118 86 0
5.500000 2.640000 10.120000 145 118 86 0
5.720000 2.640000 10.120000 146 116 85 0
5.940000 2.640000 10.120000 146 116 85 0
6.160000 2.640000 10.120000 143 116 84 0
6.380000 2.640000 10.120000 145 118 86 0
6.600000 2.640000 10.120000 149 119 88 0
6.820000 2.640000 10.120000 151 121 90 0
7.040000 2.640000 10.120000 156 121 88 0
7.260000 2.640000 10.120000 159 124 91 0
7.480000 2.640000 10.120000 169 125 91 0
7.700000 2.640000 10.120000 173 129 95 0
7.920000 2.640000 10.340000 179 139 99 0
8.140000 2.640000 10.340000 188 148 108 0
8.360000 2.640000 10.340000 197 157 116 0
8.580000 2.640000 10.340000 203 163 122 0
8.800000 2.640000 11.660000 207 167 126 0
9.020000 2.640000 11.880000 208 168 127 0
9.240000 2.640000 11.880000 209 169 129 0
9.460000 2.640000 12.980000 212 172 132 0
9.680000 2.640000 14.080000 213 173 132 0
9.900000 2.640000 14.080000 213 173 132 0
10.120000 2.640000 14.080000 214 174 133 0
10.340000 2.640000 14.300000 213 173 132 0
10.560000 2.640000 14.300000 214 174 133 0
10.780000 2.640000 14.300000 215 175 134 0
11.000000 2.640000 14.520000 217 177 136 0
11.220000 2.640000 14.520000 217 177 136 0
11.440000 2.640000 14.520000 218 178 137 0
11.660000 2.640000 14.740000 218 178 137 0
11.880000 2.640000 14.740000 219 179 138 0
12.100000 2.640000 16.060000 219 179 138 0
12.320000 2.640000 16.280000 220 180 139 0
12.540000 2.640000 16.280000 221 181 140 0
12.760000 2.640000 16.280000 222 182 141 0
12.980000 2.640000 16.500000 223 183 142 0
13.200000 2.640000 16.500000 223 183 142 0
13.420000 2.640000 17.600000 224 184 143 0
13.640000 2.640000 18.480000 223 183 143 0
13.860000 2.640000 19.580000 224 184 144 0
14.080000 2.640000 20.900000 225 185 145 0
14.300000 2.640000 20.900000 225 185 145 0
14.520000 2.640000 20.900000 223 183 142 0
14.740000 2.640000 21.120000 223 183 142 0
14.960000 2.640000 21.120000 225 183 142 0
15.180000 2.640000 21.120000 223 181 140 0
15.400000 2.640000 22.660000 223 181 140 0
15.620000 2.640000 22.660000 223 181 140 0
15.840000 2.640000 22.660000 222 180 139 0
16.060000 2.640000 22.660000 223 181 140 0
16.280000 2.640000 22.880000 223 181 140 0
16.500000 2.640000 22.880000 224 182 141 0
16.720000 2.640000 22.880000 225 182 143 0
16.940000 2.640000 24.420000 225 182 143 0
17.160000 2.640000 24.420000 224 181 142 0
17.380000 2.640000 24.420000 223 180 141 0
17.600000 2.640000 24.420000 224 179 141 0
17.820000 2.640000 24.640000 223 178 140 0
18.040000 2.640000 24.640000 222 177 139 0
18.260000 2.640000 24.640000 222 177 139 0
18.480000 2.640000 26.180000 222 177 139 0
18.700000 2.640000 25.960000 221 176 138 0
18.920000 2.640000 27.940000 221 176 138 0
19.140000 2.640000 29.040000 220 175 137 0
19.360000 2.640000 29.260000 219 174 136 0
19.580000 2.640000 29.260000 218 173 135 0
19.800000 2.640000 29.260000 218 173 135 0
20.020000 2.640000 29.260000 219 174 136 0
20.240000 2.640000 29.480000 218 175 138 0
20.460000 2.640000 29.480000 218 175 138 0
20.680000 2.640000 31.020000 218 175 138 0
20.900000 2.640000 31.020000 218 175 138 0
21.120000 2.640000 31.020000 219 176 139 0
21.340000 2.640000 31.240000 218 175 138 0
21.560000 2.640000 32.560000 219 174 138 0
21.780000 2.640000 32.780000 217 172 136 0
22.000000 2.640000 32.780000 214 170 136 0
22.220000 2.640000 34.320000 212 168 134 0
22.440000 2.640000 35.420000 209 168 137 0
22.660000 2.640000 37.840000 211 170 139 0
22.880000 2.640000 38.940000 211 170 135 0
23.100000 2.640000 39.160000 211 170 135 0
23.320000 2.640000 39.380000 211 170 137 0
23.540000 2.640000 39.600000 213 172 139 0
23.760000 2.640000 38.500000 214 173 142 0
23.980000 2.640000 24.640000 217 176 145 0
24.200000 2.640000 6.600000 217 177 147 0
24.640000 2.640000 0.220000 217 179 151 0
24.860000 2.640000 0.220000 217 179 151 0
25.080000 2.640000 1.760000 218 178 148 0
25.300000 2.640000 1.980000 218 178 148 0
25.520000 2.640000 2.200000 219 179 149 0
25.740000 2.640000 2.200000 222 182 152 0
25.960000 2.640000 2.420000 223 183 153 0
26.180000 2.640000 2.640000 224 184 154 0
26.400000 2.640000 3.960000 228 184 154 0
26.620000 2.640000 3.740000 228 184 154 0
26.840000 2.640000 5.940000 219 187 167 0
27.060000 2.640000 5.720000 226 194 174 0
27.280000 2.640000 4.400000 213 205 197 0
27.500000 2.640000 3.080000 218 210 202 0
27.720000 2.640000 1.760000 218 210 202 0
27.940000 2.640000 1.980000 219 211 203 0
28.160000 2.640000 1.980000 219 211 203 0
28.380000 2.640000 2.200000 219 211 203 0
28.600000 2.640000 2.200000 219 211 203 0
28.820000 2.640000 3.740000 219 211 203 0
29.040000 2.640000 3.740000 220 212 204 0
29.260000 2.640000 3.740000 219 211 203 0
29.480000 2.640000 3.960000 220 212 204 0
29.700000 2.640000 3.960000 220 212 204 0
29.920000 2.640000 5.060000 220 212 204 0
30.140000 2.640000 5.940000 220 212 204 0
30.360000 2.640000 7.040000 219 211 203 0
30.580000 2.640000 7.040000 219 211 203 0
30.800000 2.640000 7.040000 219 211 203 0
31.020000 2.640000 7.260000 220 212 204 0
31.240000 2.640000 8.580000 219 211 203 0
31.460000 2.640000 8.800000 220 212 204 0
31.680000 2.640000 8.800000 220 212 204 0
31.900000 2.640000 8.800000 220 212 204 0
32.120000 2.640000 9.020000 220 212 205 0
32.340000 2.640000 9.020000 221 213 206 0
32.560000 2.640000 9.020000 218 213 205 0
32.780000 2.640000 9.240000 218 213 205 0
33.000000 2.640000 9.240000 220 212 205 0
33.220000 2.640000 9.240000 221 213 206 0
33.440000 2.640000 9.460000 220 212 205 0
33.660000 2.640000 10.780000 219 211 204 0
33.880000 2.640000 11.000000 220 212 205 0
34.100000 2.640000 10.780000 218 210 203 0
34.320000 2.640000 12.760000 219 211 204 0
34.540000 2.640000 14.080000 219 211 204 0
34.760000 2.640000 14.080000 218 210 203 0
34.980000 2.640000 14.080000 217 209 202 0
35.200000 2.640000 14.080000 214 206 199 0
35.420000 2.640000 15.620000 213 205 198 0
35.640000 2.640000 16.940000 214 206 199 0
35.860000 2.640000 19.580000 221 213 206 0
36.080000 2.640000 20.900000 223 215 208 0
36.300000 2.640000 20.900000 222 214 207 0
36.520000 2.640000 21.120000 223 215 208 0
36.740000 2.640000 21.120000 225 217 210 0
36.960000 2.640000 22.660000 226 218 211 0
37.180000 2.640000 22.660000 226 218 211 0
0.000000 2.860000 8.580000 142 115 83 0
0.220000 2.860000 8.580000 142 115 83 0
0.440000 2.860000 8.580000 143 116 84 0
0.660000 2.860000 8.580000 143 116 84 0
0.880000 2.860000 8.580000 143 116 84 0
1.100000 2.860000 8.580000 143 116 84 0
1.320000 2.860000 8.580000 142 115 81 0
1.540000 2.860000 8.580000 142 115 81 0
1.760000 2.860000 8.580000 142 115 83 0
1.980000 2.860000 8.580000 142 115 83 0
2.200000 2.860000 8.800000 141 114 82 0
2.420000 2.860000 8.800000 142 115 83 0
2.640000 2.860000 8.800000 142 115 83 0
2.860000 2.860000 8.800000 141 114 82 0
3.080000 2.860000 8.800000 142 115 83 0
3.300000 2.860000 8.800000 142 115 83 0
3.520000 2.860000 8.800000 143 116 84 0
3.740000 2.860000 8.800000 143 116 84 0
3.960000 2.860000 8.800000 145 115 84 0
4.180000 2.860000 8.800000 145 115 84 0
4.400000 2.860000 8.800000 146 116 85 0
4.620000 2.860000 8.800000 146 116 85 0
4.840000 2.860000 8.800000 145 118 86 0
5.060000 2.860000 8.800000 146 119 87 0
5.280000 2.860000 8.800000 146 119 87 0
5.500000 2.860000 10.120000 145 118 86 0
5.720000 2.860000 10.120000 147 117 86 0
5.940000 2.860000 10.120000 146 116 85 0
6.160000 2.860000 10.120000 147 117 86 0
6.380000 2.860000 10.120000 146 116 85 0
6.600000 2.860000 10.120000 146 119 87 0
6.820000 2.860000 10.120000 147 120 88 0
7.040000 2.860000 10.120000 150 120 89 0
7.260000 2.860000 10.120000 153 123 92 0
7.480000 2.860000 10.120000 159 124 91 0
7.700000 2.860000 10.120000 162 127 94 0
7.920000 2.860000 10.120000 179 134 100 0
8.140000 2.860000 10.340000 187 142 108 0
8.360000 2.860000 10.340000 195 153 110 0
8.580000 2.860000 10.340000 204 162 119 0
8.800000 2.860000 10.340000 206 166 125 0
9.020000 2.860000 10.560000 210 170 129 0
9.240000 2.860000 10.780000 211 173 132 0
9.460000 2.860000 11.880000 211 173 132 0
9.680000 2.860000 14.080000 213 175 134 0
9.900000 2.860000 14.080000 215 177 136 0
10.120000 2.860000 14.080000 215 175 134 0
10.340000 2.860000 14.080000 214 174 133 0
10.560000 2.860000 14.300000 214 174 133 0
10.780000 2.860000 14.300000 216 176 135 0
11.000000 2.860000 14.300000 217 177 136 0
11.220000 2.860000 14.520000 217 177 136 0
11.440000 2.860000 14.520000 219 179 138 0
11.660000 2.860000 14.520000 218 178 137 0
11.880000 2.860000 14.740000 219 179 138 0
12.100000 2.860000 16.060000 220 180 139 0
12.320000 2.860000 16.280000 220 180 139 0
12.540000 2.860000 16.280000 222 182 141 0
12.760000 2.860000 16.280000 223 183 142 0
12.980000 2.860000 16.500000 222 182 141 0
13.200000 2.860000 16.500000 223 183 142 0
13.420000 2.860000 16.500000 223 183 142 0
13.640000 2.860000 17.380000 224 184 143 0
13.860000 2.860000 19.580000 225 185 144 0
14.080000 2.860000 20.900000 225 185 144 0
14.300000 2.860000 20.900000 225 185 144 0
14.520000 2.860000 20.900000 224 184 143 0
14.740000 2.860000 20.900000 223 183 142 0
14.960000 2.860000 21.120000 224 182 141 0
15.180000 2.860000 21.120000 224 182 141 0
15.400000 2.860000 22.440000 223 181 140 0
15.620000 2.860000 22.660000 223 181 140 0
15.840000 2.860000 22.660000 222 180 139 0
16.060000 2.860000 22.660000 223 181 140 0
16.280000 2.860000 22.660000 223 180 141 0
16.500000 2.860000 22.880000 224 181 142 0
16.720000 2.860000 22.880000 224 181 142 0
16.940000 2.860000 22.880000 225 182 143 0
17.160000 2.860000 24.420000 224 181 142 0
17.380000 2.860000 24.420000 223 180 141 0
17.600000 2.860000 24.420000 224 179 141 0
17.820000 2.860000 24.640000 223 178 140 0
18.040000 2.860000 24.640000 222 177 139 0
18.260000 2.860000 24.640000 223 178 140 0
18.480000 2.860000 26.180000 221 177 137 0
18.700000 2.860000 25.960000 221 177 137 0
18.920000 2.860000 28.160000 221 176 138 0
19.140000 2.860000 29.260000 220 175 137 0
19.360000 2.860000 29.260000 220 175 137 0
19.580000 2.860000 29.260000 219 174 136 0
19.800000 2.860000 29.260000 219 174 136 0
20.020000 2.860000 29.260000 220 175 137 0
20.240000 2.860000 29.480000 219 174 138 0
20.460000 2.860000 29.480000 219 174 138 0
20.680000 2.860000 31.020000 218 175 138 0
20.900000 2.860000 31.020000 219 176 139 0
21.120000 2.860000 31.020000 220 175 139 0
21.340000 2.860000 31.240000 219 174 138 0
21.560000 2.860000 31.240000 217 172 136 0
21.780000 2.860000 32.780000 217 172 136 0
22.000000 2.860000 32.780000 215 172 135 0
22.220000 2.860000 34.320000 214 171 134 0
22.440000 2.860000 35.640000 212 168 136 0
22.660000 2.860000 36.520000 213 169 137 0
22.880000 2.860000 38.940000 213 169 137 0
23.100000 2.860000 39.160000 213 169 137 0
23.320000 2.860000 39.380000 209 168 137 0
23.540000 2.860000 39.600000 210 169 138 0
23.760000 2.860000 41.140000 213 172 141 0
23.980000 2.860000 30.140000 215 174 143 0
24.200000 2.860000 8.140000 216 175 144 0
24.640000 2.860000 0.440000 217 177 149 0
24.860000 2.860000 0.220000 215 175 147 0
25.080000 2.860000 0.440000 218 176 147 0
25.300000 2.860000 1.980000 217 175 146 0
25.520000 2.860000 2.200000 217 177 146 0
25.740000 2.860000 2.200000 219 179 148 0
25.960000 2.860000 2.420000 223 182 151 0
26.180000 2.860000 2.420000 225 184 153 0
26.400000 2.860000 3.960000 224 184 153 0
26.620000 2.860000 3.740000 224 184 153 0
26.840000 2.860000 5.940000 223 185 159 0
27.060000 2.860000 5.720000 227 189 163 0
27.280000 2.860000 4.400000 211 204 193 0
27.500000 2.860000 3.080000 218 211 200 0
27.720000 2.860000 1.760000 219 211 203 0
27.940000 2.860000 1.980000 220 212 204 0
28.160000 2.860000 1.980000 220 212 204 0
28.380000 2.860000 2.200000 220 212 204 0
28.600000 2.860000 2.200000 220 212 204 0
28.820000 2.860000 3.740000 221 213 205 0
29.040000 2.860000 3.740000 220 212 204 0
29.260000 2.860000 3.740000 220 212 204 0
29.480000 2.860000 3.960000 220 212 204 0
29.700000 2.860000 3.960000 220 212 204 0
29.920000 2.860000 5.060000 220 212 204 0
30.140000 2.860000 5.940000 220 212 204 0
30.360000 2.860000 7.040000 220 212 204 0
30.580000 2.860000 7.040000 219 211 203 0
30.800000 2.860000 7.040000 220 212 204 0
31.020000 2.860000 7.260000 220 212 204 0
31.240000 2.860000 8.580000 220 212 204 0
31.460000 2.860000 8.800000 220 212 204 0
31.680000 2.860000 8.800000 220 212 204 0
31.900000 2.860000 8.800000 220 212 204 0
32.120000 2.860000 9.020000 220 212 204 0
32.340000 2.860000 9.020000 220 212 204 0
32.560000 2.860000 9.020000 219 211 204 0
32.780000 2.860000 9.240000 220 212 205 0
33.000000 2.860000 9.240000 221 213 205 0
33.220000 2.860000 9.240000 220 212 204 0
33.440000 2.860000 9.460000 220 212 205 0
33.660000 2.860000 10.780000 220 212 205 0
33.880000 2.860000 11.000000 219 211 204 0
34.100000 2.860000 10.780000 219 211 204 0
34.320000 2.860000 12.760000 219 211 204 0
34.540000 2.860000 13.860000 218 210 203 0
34.760000 2.860000 14.080000 218 210 203 0
34.980000 2.860000 14.080000 217 209 202 0
35.200000 2.860000 14.080000 214 206 199 0
35.420000 2.860000 15.620000 213 205 198 0
35.640000 2.860000 18.260000 214 209 201 0
35.860000 2.860000 19.580000 220 215 207 0
36.080000 2.860000 20.900000 220 215 207 0
36.300000 2.860000 20.900000 222 217 209 0
36.520000 2.860000 21.120000 222 217 209 0
36.740000 2.860000 21.120000 223 218 210 0
36.960000 2.860000 22.660000 225 217 210 0
37.180000 2.860000 22.660000 226 218 211 0
0.000000 3.080000 8.580000 143 116 84 0
0.220000 3.080000 8.580000 143 116 84 0
0.440000 3.080000 8.580000 143 116 84 0
0.660000 3.080000 8.580000 143 116 84 0
0.880000 3.080000 8.580000 143 116 84 0
1.100000 3.080000 8.580000 143 116 84 0
1.320000 3.080000 8.580000 143 116 82 0
1.540000 3.080000 8.580000 142 115 81 0
1.760000 3.080000 8.580000 143 116 84 0
1.980000 3.080000 8.580000 142 115 83 0
2.200000 3.080000 8.580000 141 114 82 0
2.420000 3.080000 8.800000 142 115 83 0
2.640000 3.080000 8.800000 142 115 83 0
2.860000 3.080000 8.800000 142 115 83 0
3.080000 3.080000 8.800000 141 114 82 0
3.300000 3.080000 8.800000 142 115 83 0
3.520000 3.080000 8.800000 143 116 84 0
3.740000 3.080000 8.800000 143 116 84 0
3.960000 3.080000 8.800000 146 116 85 0
4.180000 3.080000 8.800000 145 115 84 0
4.400000 3.080000 8.800000 145 115 84 0
4.620000 3.080000 8.800000 147 117 86 0
4.840000 3.080000 8.800000 145 118 86 0
5.060000 3.080000 10.120000 145 118 86 0
5.280000 3.080000 10.120000 144 117 85 0
5.500000 3.080000 10.120000 145 118 86 0
5.720000 3.080000 10.120000 147 117 86 0
5.940000 3.080000 10.120000 147 117 86 0
6.160000 3.080000 10.120000 146 116 85 0
6.380000 3.080000 10.120000 146 116 85 0
6.600000 3.080000 10.120000 145 118 86 0
6.820000 3.080000 10.120000 146 119 87 0
7.040000 3.080000 10.120000 148 118 87 0
7.260000 3.080000 10.120000 150 120 89 0
7.480000 3.080000 10.120000 156 121 88 0
7.700000 3.080000 10.120000 160 125 92 0
7.920000 3.080000 10.120000 174 129 95 0
8.140000 3.080000 10.340000 185 140 106 0
8.360000 3.080000 10.340000 194 152 109 0
8.580000 3.080000 10.340000 203 161 118 0
8.800000 3.080000 10.340000 204 164 123 0
9.020000 3.080000 10.560000 208 168 127 0
9.240000 3.080000 10.780000 211 173 132 0
9.460000 3.080000 12.100000 212 174 133 0
9.680000 3.080000 12.980000 213 175 134 0
9.900000 3.080000 14.080000 214 176 135 0
10.120000 3.080000 14.080000 216 176 135 0
10.340000 3.080000 14.080000 215 175 134 0
10.560000 3.080000 14.300000 215 175 134 0
10.780000 3.080000 14.300000 215 175 134 0
11.000000 3.080000 14.300000 217 177 136 0
11.220000 3.080000 14.520000 216 176 135 0
11.440000 3.080000 14.520000 217 177 136 0
11.660000 3.080000 14.520000 218 178 137 0
11.880000 3.080000 14.740000 219 179 138 0
12.100000 3.080000 14.740000 219 179 138 0
12.320000 3.080000 16.060000 220 180 139 0
12.540000 3.080000 16.280000 221 181 140 0
12.760000 3.080000 16.280000 222 182 141 0
12.980000 3.080000 16.280000 223 183 142 0
13.200000 3.080000 16.500000 224 184 143 0
13.420000 3.080000 16.500000 223 183 142 0
13.640000 3.080000 17.600000 224 184 143 0
13.860000 3.080000 19.800000 225 185 144 0
14.080000 3.080000 20.900000 225 185 144 0
14.300000 3.080000 20.900000 226 186 145 0
14.520000 3.080000 20.900000 224 184 143 0
14.740000 3.080000 20.900000 223 183 142 0
14.960000 3.080000 21.120000 224 182 141 0
15.180000 3.080000 21.120000 225 183 142 0
15.400000 3.080000 21.120000 224 182 141 0
15.620000 3.080000 22.660000 224 182 141 0
15.840000 3.080000 22.660000 225 183 142 0
16.060000 3.080000 22.660000 224 182 141 0
16.280000 3.080000 22.660000 224 181 142 0
16.500000 3.080000 22.880000 224 181 142 0
16.720000 3.080000 22.880000 225 182 143 0
16.940000 3.080000 22.880000 225 182 143 0
17.160000 3.080000 24.420000 224 181 142 0
17.380000 3.080000 24.420000 224 181 142 0
17.600000 3.080000 24.420000 225 180 142 0
17.820000 3.080000 24.640000 224 179 141 0
18.040000 3.080000 24.640000 222 177 139 0
18.260000 3.080000 24.640000 223 178 140 0
18.480000 3.080000 24.640000 222 178 138 0
18.700000 3.080000 26.180000 221 177 137 0
18.920000 3.080000 27.060000 222 177 139 0
19.140000 3.080000 27.940000 220 175 137 0
19.360000 3.080000 29.040000 220 175 137 0
19.580000 3.080000 29.260000 220 175 137 0
19.800000 3.080000 29.260000 222 177 139 0
20.020000 3.080000 29.260000 220 175 137 0
20.240000 3.080000 29.480000 220 175 139 0
20.460000 3.080000 29.480000 219 174 138 0
20.680000 3.080000 30.800000 217 174 137 0
20.900000 3.080000 31.020000 218 175 138 0
21.120000 3.080000 31.020000 218 173 137 0
21.340000 3.080000 31.020000 219 174 138 0
21.560000 3.080000 31.240000 217 172 136 0
21.780000 3.080000 32.780000 217 172 136 0
22.000000 3.080000 32.780000 216 173 136 0
22.220000 3.080000 33.000000 215 172 135 0
22.440000 3.080000 34.320000 215 171 139 0
22.660000 3.080000 35.420000 215 171 139 0
22.880000 3.080000 37.620000 214 170 138 0
23.100000 3.080000 38.940000 213 169 137 0
23.320000 3.080000 39.160000 209 168 137 0
23.540000 3.080000 39.380000 209 168 137 0
23.760000 3.080000 40.920000 209 168 137 0
23.980000 3.080000 32.780000 211 170 139 0
24.200000 3.080000 13.640000 213 172 141 0
24.420000 3.080000 1.100000 214 173 142 0
24.860000 3.080000 0.220000 214 174 146 0
25.080000 3.080000 0.440000 215 173 144 0
25.300000 3.080000 1.980000 215 173 144 0
25.520000 3.080000 1.980000 216 176 145 0
25.740000 3.080000 2.200000 217 177 146 0
25.960000 3.080000 2.420000 220 179 148 0
26.180000 3.080000 2.420000 222 181 150 0
26.400000 3.080000 3.960000 222 182 151 0
26.620000 3.080000 3.740000 223 183 152 0
26.840000 3.080000 6.160000 221 183 157 0
27.060000 3.080000 5.720000 222 184 158 0
27.280000 3.080000 5.720000 210 203 192 0
27.500000 3.080000 3.080000 215 208 197 0
27.720000 3.080000 3.300000 219 211 203 0
27.940000 3.080000 1.980000 219 211 203 0
28.160000 3.080000 1.980000 220 212 204 0
28.380000 3.080000 2.200000 221 213 205 0
28.600000 3.080000 2.200000 220 212 204 0
28.820000 3.080000 3.740000 220 212 204 0
29.040000 3.080000 3.740000 220 212 204 0
29.260000 3.080000 3.740000 221 213 205 0
29.480000 3.080000 3.960000 220 212 204 0
29.700000 3.080000 3.960000 220 212 204 0
29.920000 3.080000 5.280000 220 212 204 0
30.140000 3.080000 5.940000 220 212 204 0
30.360000 3.080000 7.040000 220 212 204 0
30.580000 3.080000 7.040000 220 212 204 0
30.800000 3.080000 7.040000 220 212 204 0
31.020000 3.080000 7.260000 221 213 205 0
31.240000 3.080000 8.580000 220 212 204 0
31.460000 3.080000 8.800000 220 212 204 0
31.680000 3.080000 8.800000 220 212 204 0
31.900000 3.080000 8.800000 219 211 203 0
32.120000 3.080000 9.020000 220 212 204 0
32.340000 3.080000 9.020000 221 213 205 0
32.560000 3.080000 9.020000 221 213 206 0
32.780000 3.080000 9.240000 220 212 205 0
33.000000 3.080000 9.240000 220 212 204 0
33.220000 3.080000 9.240000 219 211 203 0
33.440000 3.080000 10.780000 219 211 204 0
33.660000 3.080000 10.780000 219 211 204 0
33.880000 3.080000 11.000000 220 212 205 0
34.100000 3.080000 10.780000 219 211 204 0
34.320000 3.080000 12.760000 219 211 204 0
34.540000 3.080000 13.860000 218 210 203 0
34.760000 3.080000 14.080000 217 209 202 0
34.980000 3.080000 14.080000 216 208 201 0
35.200000 3.080000 14.080000 213 205 198 0
35.420000 3.080000 16.940000 213 205 198 0
35.640000 3.080000 18.040000 219 214 206 0
35.860000 3.080000 20.900000 220 215 207 0
36.080000 3.080000 20.900000 221 216 208 0
36.300000 3.080000 20.900000 221 216 208 0
36.520000 3.080000 21.120000 222 217 209 0
36.740000 3.080000 21.120000 223 218 210 0
36.960000 3.080000 22.660000 224 216 209 0
37.180000 3.080000 22.660000 225 217 210 0
0.000000 3.300000 8.580000 142 117 84 0
0.220000 3.300000 8.580000 142 117 84 0
0.440000 3.300000 8.580000 141 116 83 0
0.660000 3.300000 8.580000 142 117 84 0
0.880000 3.300000 8.580000 142 117 84 0
1.100000 3.300000 8.580000 142 117 84 0
1.320000 3.300000 8.580000 141 116 83 0
1.540000 3.300000 8.580000 141 116 83 0
1.760000 3.300000 8.580000 141 116 83 0
1.980000 3.300000 8.580000 141 116 83 0
2.200000 3.300000 8.580000 142 115 83 0
2.420000 3.300000 8.580000 141 114 82 0
2.640000 3.300000 8.800000 141 114 82 0
2.860000 3.300000 8.800000 142 115 83 0
3.080000 3.300000 8.800000 142 115 83 0
3.300000 3.300000 8.800000 141 114 82 0
3.520000 3.300000 8.800000 142 115 83 0
3.740000 3.300000 8.800000 142 115 83 0
3.960000 3.300000 8.800000 142 115 83 0
4.180000 3.300000 8.800000 142 115 83 0
4.400000 3.300000 8.800000 143 116 84 0
4.620000 3.300000 8.800000 143 116 84 0
4.840000 3.300000 10.120000 143 116 84 0
5.060000 3.300000 10.120000 145 118 86 0
5.280000 3.300000 10.120000 145 118 86 0
5.500000 3.300000 10.120000 145 118 86 0
5.720000 3.300000 10.120000 145 118 86 0
5.940000 3.300000 10.120000 145 118 86 0
6.160000 3.300000 10.120000 145 118 86 0
6.380000 3.300000 10.120000 145 118 86 0
6.600000 3.300000 10.120000 144 117 85 0
6.820000 3.300000 10.120000 146 119 87 0
7.040000 3.300000 10.120000 146 119 87 0
7.260000 3.300000 10.120000 146 119 87 0
7.480000 3.300000 10.120000 148 118 87 0
7.700000 3.300000 10.120000 154 124 93 0
7.920000 3.300000 10.120000 168 129 93 0
8.140000 3.300000 10.340000 177 138 102 0
8.360000 3.300000 10.340000 192 148 108 0
8.580000 3.300000 10.340000 202 158 118 0
8.800000 3.300000 10.340000 205 163 122 0
9.020000 3.300000 10.340000 208 166 125 0
9.240000 3.300000 10.560000 210 172 130 0
9.460000 3.300000 10.780000 211 173 131 0
9.680000 3.300000 11.880000 213 175 134 0
9.900000 3.300000 12.980000 214 176 135 0
10.120000 3.300000 14.080000 215 177 135 0
10.340000 3.300000 14.080000 214 176 134 0
10.560000 3.300000 14.080000 215 175 134 0
10.780000 3.300000 14.300000 214 174 133 0
11.000000 3.300000 14.300000 215 175 134 0
11.220000 3.300000 14.300000 217 177 136 0
11.440000 3.300000 14.520000 218 178 137 0
11.660000 3.300000 14.520000 219 179 138 0
11.880000 3.300000 14.520000 219 179 138 0
12.100000 3.300000 14.740000 220 180 139 0
12.320000 3.300000 16.060000 220 180 139 0
12.540000 3.300000 16.280000 223 183 142 0
12.760000 3.300000 16.280000 223 183 142 0
12.980000 3.300000 16.280000 223 183 142 0
13.200000 3.300000 16.500000 225 185 144 0
13.420000 3.300000 16.500000 225 185 144 0
13.640000 3.300000 17.600000 225 185 145 0
13.860000 3.300000 18.480000 225 185 145 0
14.080000 3.300000 19.580000 224 184 144 0
14.300000 3.300000 20.900000 223 183 143 0
14.520000 3.300000 20.900000 224 184 143 0
14.740000 3.300000 20.900000 224 184 143 0
14.960000 3.300000 21.120000 223 183 142 0
15.180000 3.300000 21.120000 224 184 143 0
15.400000 3.300000 21.120000 225 185 145 0
15.620000 3.300000 22.660000 224 184 144 0
15.840000 3.300000 22.660000 224 184 144 0
16.060000 3.300000 22.660000 223 183 143 0
16.280000 3.300000 22.660000 224 181 142 0
16.500000 3.300000 22.880000 225 182 143 0
16.720000 3.300000 22.880000 224 181 142 0
16.940000 3.300000 22.880000 225 182 143 0
17.160000 3.300000 24.420000 225 182 143 0
17.380000 3.300000 24.420000 224 181 142 0
17.600000 3.300000 24.420000 224 181 142 0
17.820000 3.300000 24.420000 223 180 141 0
18.040000 3.300000 24.640000 225 181 141 0
18.260000 3.300000 24.640000 224 180 140 0
18.480000 3.300000 24.640000 223 179 139 0
18.700000 3.300000 26.180000 222 178 138 0
18.920000 3.300000 25.960000 222 177 139 0
19.140000 3.300000 27.940000 222 177 139 0
19.360000 3.300000 29.040000 220 177 138 0
19.580000 3.300000 29.260000 222 179 140 0
19.800000 3.300000 29.260000 222 179 140 0
20.020000 3.300000 29.260000 222 179 140 0
20.240000 3.300000 29.260000 221 176 138 0
20.460000 3.300000 29.480000 219 174 136 0
20.680000 3.300000 30.800000 218 173 137 0
20.900000 3.300000 31.020000 219 174 138 0
21.120000 3.300000 31.020000 218 173 137 0
21.340000 3.300000 31.020000 218 173 137 0
21.560000 3.300000 31.240000 216 171 135 0
21.780000 3.300000 32.560000 218 173 137 0
22.000000 3.300000 32.780000 216 171 135 0
22.220000 3.300000 32.780000 217 172 136 0
22.440000 3.300000 33.000000 215 171 137 0
22.660000 3.300000 34.320000 215 171 137 0
22.880000 3.300000 36.520000 212 171 140 0
23.100000 3.300000 38.940000 212 171 140 0
23.320000 3.300000 39.160000 210 169 138 0
23.540000 3.300000 39.160000 208 167 136 0
23.760000 3.300000 40.920000 208 166 137 0
23.980000 3.300000 38.280000 208 166 137 0
24.200000 3.300000 24.640000 212 171 140 0
24.420000 3.300000 6.600000 213 172 141 0
24.860000 3.300000 0.440000 214 174 144 0
25.080000 3.300000 0.220000 213 173 143 0
25.300000 3.300000 1.760000 214 174 144 0
25.520000 3.300000 1.980000 216 174 145 0
25.740000 3.300000 2.200000 217 175 146 0
25.960000 3.300000 2.200000 218 177 146 0
26.180000 3.300000 2.420000 220 179 148 0
26.400000 3.300000 2.420000 222 181 150 0
26.620000 3.300000 3.960000 222 181 150 0
26.840000 3.300000 5.060000 222 180 151 0
27.060000 3.300000 5.940000 224 182 153 0
27.280000 3.300000 5.720000 215 195 179 0
27.500000 3.300000 4.400000 221 201 185 0
27.720000 3.300000 3.300000 216 211 202 0
27.940000 3.300000 1.980000 217 212 203 0
28.160000 3.300000 1.980000 220 212 204 0
28.380000 3.300000 2.200000 220 212 204 0
28.600000 3.300000 2.200000 220 212 204 0
28.820000 3.300000 2.200000 220 212 204 0
29.040000 3.300000 3.740000 220 212 204 0
29.260000 3.300000 3.740000 220 212 204 0
29.480000 3.300000 3.960000 220 212 204 0
29.700000 3.300000 3.960000 220 212 204 0
29.920000 3.300000 3.960000 220 212 204 0
30.140000 3.300000 5.060000 220 212 204 0
30.360000 3.300000 7.260000 220 212 204 0
30.580000 3.300000 7.040000 221 213 205 0
30.800000 3.300000 7.040000 220 212 204 0
31.020000 3.300000 8.580000 220 212 204 0
31.240000 3.300000 8.580000 220 212 204 0
31.460000 3.300000 8.800000 221 213 205 0
31.680000 3.300000 8.800000 220 212 204 0
31.900000 3.300000 8.800000 220 212 204 0
32.120000 3.300000 9.020000 220 212 204 0
32.340000 3.300000 9.020000 220 212 204 0
32.560000 3.300000 9.020000 220 212 204 0
32.780000 3.300000 9.240000 220 212 204 0
33.000000 3.300000 9.240000 220 212 205 0
33.220000 3.300000 9.240000 220 212 205 0
33.440000 3.300000 10.780000 218 213 205 0
33.660000 3.300000 10.780000 218 213 205 0
33.880000 3.300000 11.000000 219 211 203 0
34.100000 3.300000 10.780000 219 211 203 0
34.320000 3.300000 12.760000 216 211 203 0
34.540000 3.300000 13.860000 216 211 203 0
34.760000 3.300000 14.080000 216 208 201 0
34.980000 3.300000 14.080000 215 207 200 0
35.200000 3.300000 15.400000 211 206 198 0
35.420000 3.300000 16.720000 213 208 200 0
35.640000 3.300000 19.360000 222 214 207 0
35.860000 3.300000 20.900000 222 214 207 0
36.080000 3.300000 20.900000 221 216 208 0
36.300000 3.300000 20.900000 221 216 208 0
36.520000 3.300000 21.120000 221 216 208 0
36.740000 3.300000 21.120000 222 217 209 0
36.960000 3.300000 22.660000 222 217 209 0
37.180000 3.300000 22.660000 222 217 209 0
0.000000 3.520000 8.580000 142 117 84 0
0.220000 3.520000 8.580000 142 117 84 0
0.440000 3.520000 8.580000 142 117 84 0
0.660000 3.520000 8.580000 141 116 83 0
0.880000 3.520000 8.580000 142 117 84 0
1.100000 3.520000 8.580000 143 118 85 0
1.320000 3.520000 8.580000 141 116 83 0
1.540000 3.520000 8.580000 143 118 85 0
1.760000 3.520000 8.580000 141 116 83 0
1.980000 3.520000 8.580000 141 116 83 0
2.200000 3.520000 8.580000 143 116 84 0
2.420000 3.520000 8.580000 143 116 84 0
2.640000 3.520000 8.800000 142 115 83 0
2.860000 3.520000 8.800000 144 117 85 0
3.080000 3.520000 8.800000 142 115 83 0
3.300000 3.520000 8.800000 142 115 83 0
3.520000 3.520000 8.800000 143 116 84 0
3.740000 3.520000 8.800000 142 115 83 0
3.960000 3.520000 8.800000 142 115 83 0
4.180000 3.520000 8.800000 142 115 83 0
4.400000 3.520000 8.800000 142 115 83 0
4.620000 3.520000 10.120000 143 116 84 0
4.840000 3.520000 10.120000 143 116 84 0
5.060000 3.520000 10.120000 144 117 85 0
5.280000 3.520000 10.120000 144 117 85 0
5.500000 3.520000 10.120000 145 118 86 0
5.720000 3.520000 10.120000 146 119 87 0
5.940000 3.520000 10.120000 145 118 86 0
6.160000 3.520000 10.120000 145 118 86 0
6.380000 3.520000 10.120000 145 118 86 0
6.600000 3.520000 10.120000 144 117 85 0
6.820000 3.520000 10.120000 145 118 86 0
7.040000 3.520000 10.120000 145 118 86 0
7.260000 3.520000 10.120000 145 118 86 0
7.480000 3.520000 10.120000 148 118 87 0
7.700000 3.520000 10.120000 151 121 90 0
7.920000 3.520000 10.120000 163 124 88 0
8.140000 3.520000 10.120000 174 135 99 0
8.360000 3.520000 10.340000 189 145 105 0
8.580000 3.520000 10.340000 198 154 114 0
8.800000 3.520000 10.340000 204 162 121 0
9.020000 3.520000 10.340000 208 166 125 0
9.240000 3.520000 10.560000 209 171 129 0
9.460000 3.520000 10.780000 212 174 132 0
9.680000 3.520000 10.780000 213 175 134 0
9.900000 3.520000 11.880000 214 176 135 0
10.120000 3.520000 14.080000 214 176 134 0
10.340000 3.520000 14.080000 214 176 134 0
10.560000 3.520000 14.080000 213 173 132 0
10.780000 3.520000 14.080000 215 175 134 0
11.000000 3.520000 14.300000 215 175 134 0
11.220000 3.520000 14.300000 217 177 136 0
11.440000 3.520000 14.520000 218 178 137 0
11.660000 3.520000 14.520000 218 178 137 0
11.880000 3.520000 14.520000 219 179 138 0
12.100000 3.520000 14.740000 221 181 140 0
12.320000 3.520000 16.060000 222 182 141 0
12.540000 3.520000 16.280000 223 183 142 0
12.760000 3.520000 16.280000 224 184 143 0
12.980000 3.520000 16.280000 224 184 143 0
13.200000 3.520000 16.280000 225 185 144 0
13.420000 3.520000 16.500000 226 186 145 0
13.640000 3.520000 16.500000 226 186 146 0
13.860000 3.520000 17.380000 226 186 146 0
14.080000 3.520000 19.580000 226 186 146 0
14.300000 3.520000 20.900000 225 185 145 0
14.520000 3.520000 20.900000 224 184 143 0
14.740000 3.520000 20.900000 225 185 144 0
14.960000 3.520000 20.900000 225 185 144 0
15.180000 3.520000 21.120000 225 185 144 0
15.400000 3.520000 21.120000 225 185 145 0
15.620000 3.520000 22.440000 224 184 144 0
15.840000 3.520000 22.660000 224 184 144 0
16.060000 3.520000 22.660000 224 184 144 0
16.280000 3.520000 22.660000 226 183 144 0
16.500000 3.520000 22.660000 225 182 143 0
16.720000 3.520000 22.880000 225 182 143 0
16.940000 3.520000 22.880000 225 182 143 0
17.160000 3.520000 24.420000 226 183 144 0
17.380000 3.520000 24.420000 226 183 144 0
17.600000 3.520000 24.420000 224 181 142 0
17.820000 3.520000 24.420000 223 180 141 0
18.040000 3.520000 24.640000 225 181 141 0
18.260000 3.520000 24.640000 224 180 140 0
18.480000 3.520000 24.640000 224 180 140 0
18.700000 3.520000 24.860000 223 179 139 0
18.920000 3.520000 25.960000 223 178 140 0
19.140000 3.520000 28.160000 224 179 141 0
19.360000 3.520000 29.260000 224 181 142 0
19.580000 3.520000 29.260000 223 180 141 0
19.800000 3.520000 29.260000 224 181 142 0
20.020000 3.520000 29.260000 223 180 141 0
20.240000 3.520000 29.260000 222 177 139 0
20.460000 3.520000 29.480000 221 176 138 0
20.680000 3.520000 29.480000 219 174 138 0
20.900000 3.520000 31.020000 219 174 138 0
21.120000 3.520000 31.020000 219 174 138 0
21.340000 3.520000 31.020000 219 174 138 0
21.560000 3.520000 31.240000 218 173 137 0
21.780000 3.520000 31.240000 218 173 137 0
22.000000 3.520000 32.780000 218 173 137 0
22.220000 3.520000 32.780000 218 173 137 0
22.440000 3.520000 33.000000 218 174 140 0
22.660000 3.520000 34.320000 217 173 139 0
22.880000 3.520000 35.420000 215 174 143 0
23.100000 3.520000 37.620000 215 174 143 0
23.320000 3.520000 38.940000 213 172 141 0
23.540000 3.520000 39.160000 210 169 138 0
23.760000 3.520000 40.700000 208 166 137 0
23.980000 3.520000 40.920000 209 167 138 0
24.200000 3.520000 32.780000 210 169 138 0
24.420000 3.520000 13.640000 212 171 140 0
24.640000 3.520000 1.100000 212 172 142 0
25.080000 3.520000 0.220000 213 173 143 0
25.300000 3.520000 1.760000 214 174 144 0
25.520000 3.520000 1.980000 215 173 144 0
25.740000 3.520000 1.980000 216 174 145 0
25.960000 3.520000 2.200000 217 176 145 0
26.180000 3.520000 2.420000 219 178 147 0
26.400000 3.520000 2.420000 221 180 149 0
26.620000 3.520000 3.960000 221 180 149 0
26.840000 3.520000 3.740000 221 179 150 0
27.060000 3.520000 6.160000 221 179 150 0
27.280000 3.520000 5.720000 208 188 172 0
27.500000 3.520000 4.400000 218 198 182 0
27.720000 3.520000 3.080000 214 209 200 0
27.940000 3.520000 1.980000 216 211 202 0
28.160000 3.520000 1.980000 221 213 205 0
28.380000 3.520000 2.200000 220 212 204 0
28.600000 3.520000 2.200000 220 212 204 0
28.820000 3.520000 2.200000 221 213 205 0
29.040000 3.520000 2.420000 220 212 204 0
29.260000 3.520000 3.740000 220 212 204 0
29.480000 3.520000 3.960000 221 213 205 0
29.700000 3.520000 3.960000 222 214 206 0
29.920000 3.520000 3.960000 220 212 204 0
30.140000 3.520000 5.280000 221 213 205 0
30.360000 3.520000 5.940000 221 213 205 0
30.580000 3.520000 7.040000 221 213 205 0
30.800000 3.520000 7.040000 220 212 204 0
31.020000 3.520000 8.580000 221 213 205 0
31.240000 3.520000 8.580000 221 213 205 0
31.460000 3.520000 8.800000 221 213 205 0
31.680000 3.520000 8.800000 221 213 205 0
31.900000 3.520000 8.800000 220 212 204 0
32.120000 3.520000 8.800000 220 212 204 0
32.340000 3.520000 9.020000 220 212 204 0
32.560000 3.520000 9.020000 221 213 205 0
32.780000 3.520000 9.240000 220 212 204 0
33.000000 3.520000 10.560000 220 212 205 0
33.220000 3.520000 10.780000 221 213 206 0
33.440000 3.520000 10.780000 218 213 205 0
33.660000 3.520000 11.000000 217 212 204 0
33.880000 3.520000 11.000000 219 211 203 0
34.100000 3.520000 11.880000 218 210 202 0
34.320000 3.520000 12.760000 216 211 203 0
34.540000 3.520000 13.860000 215 210 202 0
34.760000 3.520000 14.080000 215 207 200 0
34.980000 3.520000 14.080000 214 206 199 0
35.200000 3.520000 15.620000 211 206 198 0
35.420000 3.520000 16.940000 217 212 204 0
35.640000 3.520000 19.580000 222 214 207 0
35.860000 3.520000 20.900000 222 214 207 0
36.080000 3.520000 20.900000 221 216 208 0
36.300000 3.520000 20.900000 221 216 208 0
36.520000 3.520000 21.120000 221 216 208 0
36.740000 3.520000 21.120000 222 217 209 0
36.960000 3.520000 22.660000 222 217 209 0
37.180000 3.520000 22.660000 222 217 209 0
0.000000 3.740000 8.580000 142 117 84 0
0.220000 3.740000 8.580000 144 119 86 0
0.440000 3.740000 8.580000 143 118 85 0
0.660000 3.740000 8.580000 143 118 85 0
0.880000 3.740000 8.580000 143 118 85 0
1.100000 3.740000 8.580000 143 118 85 0
1.320000 3.740000 8.580000 142 117 84 0
1.540000 3.740000 8.580000 141 116 83 0
1.760000 3.740000 8.580000 142 117 84 0
1.980000 3.740000 8.580000 141 116 83 0
2.200000 3.740000 8.800000 143 116 84 0
2.420000 3.740000 8.800000 144 117 85 0
2.640000 3.740000 8.800000 143 116 84 0
2.860000 3.740000 8.800000 142 115 83 0
3.080000 3.740000 8.800000 142 115 83 0
3.300000 3.740000 8.800000 142 115 83 0
3.520000 3.740000 8.800000 143 116 84 0
3.740000 3.740000 8.800000 143 116 84 0
3.960000 3.740000 8.800000 142 115 83 0
4.180000 3.740000 8.800000 143 116 84 0
4.400000 3.740000 10.120000 143 116 84 0
4.620000 3.740000 10.120000 143 116 84 0
4.840000 3.740000 10.120000 143 116 84 0
5.060000 3.740000 8.800000 144 117 85 0
5.280000 3.740000 10.120000 144 117 85 0
5.500000 3.740000 10.120000 144 117 85 0
5.720000 3.740000 10.120000 146 119 87 0
5.940000 3.740000 10.120000 146 119 87 0
6.160000 3.740000 10.120000 146 119 87 0
6.380000 3.740000 10.120000 145 118 86 0
6.600000 3.740000 10.120000 145 118 86 0
6.820000 3.740000 10.120000 145 118 86 0
7.040000 3.740000 10.120000 144 117 85 0
7.260000 3.740000 10.120000 145 118 86 0
7.480000 3.740000 10.120000 148 118 87 0
7.700000 3.740000 10.120000 149 119 88 0
7.920000 3.740000 10.120000 158 123 86 0
8.140000 3.740000 10.120000 165 130 93 0
8.360000 3.740000 10.340000 184 141 104 0
8.580000 3.740000 10.340000 194 151 114 0
8.800000 3.740000 10.340000 200 160 120 0
9.020000 3.740000 10.340000 204 164 124 0
9.240000 3.740000 10.340000 209 169 128 0
9.460000 3.740000 10.560000 212 172 131 0
9.680000 3.740000 10.780000 213 173 132 0
9.900000 3.740000 12.100000 214 174 133 0
10.120000 3.740000 12.980000 213 173 132 0
10.340000 3.740000 14.080000 214 174 133 0
10.560000 3.740000 14.080000 214 174 133 0
10.780000 3.740000 14.080000 215 175 134 0
11.000000 3.740000 14.300000 215 175 134 0
11.220000 3.740000 14.300000 217 177 136 0
11.440000 3.740000 14.300000 218 178 137 0
11.660000 3.740000 14.520000 220 180 139 0
11.880000 3.740000 14.520000 220 180 139 0
12.100000 3.740000 14.520000 221 181 140 0
12.320000 3.740000 14.740000 222 182 141 0
12.540000 3.740000 16.060000 222 182 141 0
12.760000 3.740000 16.280000 224 184 144 0
12.980000 3.740000 16.280000 225 185 145 0
13.200000 3.740000 16.280000 225 185 144 0
13.420000 3.740000 16.500000 225 185 144 0
13.640000 3.740000 16.500000 226 186 145 0
13.860000 3.740000 17.600000 226 186 145 0
14.080000 3.740000 19.800000 226 186 146 0
14.300000 3.740000 20.900000 226 186 146 0
14.520000 3.740000 20.900000 226 186 145 0
14.740000 3.740000 20.900000 225 185 144 0
14.960000 3.740000 20.900000 225 185 144 0
15.180000 3.740000 21.120000 226 186 145 0
15.400000 3.740000 21.120000 226 186 146 0
15.620000 3.740000 21.120000 225 185 145 0
15.840000 3.740000 22.660000 228 185 146 0
16.060000 3.740000 22.660000 226 183 144 0
16.280000 3.740000 22.660000 226 183 144 0
16.500000 3.740000 22.660000 227 184 145 0
16.720000 3.740000 22.880000 226 183 144 0
16.940000 3.740000 22.880000 226 183 144 0
17.160000 3.740000 22.880000 226 183 144 0
17.380000 3.740000 24.420000 226 183 144 0
17.600000 3.740000 24.420000 226 183 144 0
17.820000 3.740000 24.420000 225 182 143 0
18.040000 3.740000 24.640000 225 182 143 0
18.260000 3.740000 24.640000 225 182 143 0
18.480000 3.740000 24.640000 225 182 143 0
18.700000 3.740000 24.640000 223 180 141 0
18.920000 3.740000 26.180000 223 180 141 0
19.140000 3.740000 27.060000 225 182 143 0
19.360000 3.740000 27.940000 225 182 145 0
19.580000 3.740000 29.040000 226 183 146 0
19.800000 3.740000 29.260000 225 182 145 0
20.020000 3.740000 29.260000 225 182 145 0
20.240000 3.740000 29.260000 223 180 143 0
20.460000 3.740000 29.480000 222 179 142 0
20.680000 3.740000 29.480000 220 177 140 0
20.900000 3.740000 30.800000 219 176 139 0
21.120000 3.740000 31.020000 220 176 142 0
21.340000 3.740000 31.020000 219 175 141 0
21.560000 3.740000 31.020000 220 175 139 0
21.780000 3.740000 31.240000 219 174 138 0
22.000000 3.740000 32.780000 217 173 139 0
22.220000 3.740000 32.780000 217 173 139 0
22.440000 3.740000 32.780000 218 174 140 0
22.660000 3.740000 33.000000 218 174 140 0
22.880000 3.740000 34.320000 218 174 142 0
23.100000 3.740000 36.520000 218 174 142 0
23.320000 3.740000 37.620000 214 173 140 0
23.540000 3.740000 38.940000 212 171 138 0
23.760000 3.740000 39.160000 211 169 140 0
23.980000 3.740000 40.700000 211 169 140 0
24.200000 3.740000 38.060000 209 169 139 0
24.420000 3.740000 27.280000 210 170 140 0
24.640000 3.740000 12.100000 211 171 141 0
24.860000 3.740000 2.200000 211 171 141 0
25.080000 3.740000 0.660000 211 174 143 0
25.300000 3.740000 0.440000 211 174 143 0
25.520000 3.740000 1.760000 213 173 143 0
25.740000 3.740000 1.980000 213 173 143 0
25.960000 3.740000 2.200000 213 173 143 0
26.180000 3.740000 2.200000 216 176 146 0
26.400000 3.740000 2.420000 218 177 146 0
26.620000 3.740000 2.420000 219 178 147 0
26.840000 3.740000 3.960000 219 178 147 0
27.060000 3.740000 5.060000 219 178 147 0
27.280000 3.740000 5.940000 219 181 155 0
27.500000 3.740000 5.720000 229 191 165 0
27.720000 3.740000 4.400000 216 208 200 0
27.940000 3.740000 3.300000 219 211 203 0
28.160000 3.740000 1.980000 221 213 205 0
28.380000 3.740000 1.980000 220 212 204 0
28.600000 3.740000 2.200000 221 213 205 0
28.820000 3.740000 2.200000 221 213 205 0
29.040000 3.740000 2.420000 220 212 204 0
29.260000 3.740000 2.420000 220 212 204 0
29.480000 3.740000 3.960000 221 213 205 0
29.700000 3.740000 3.960000 221 213 205 0
29.920000 3.740000 3.960000 221 213 205 0
30.140000 3.740000 5.060000 220 212 204 0
30.360000 3.740000 7.260000 220 212 204 0
30.580000 3.740000 7.040000 220 212 204 0
30.800000 3.740000 8.580000 222 214 206 0
31.020000 3.740000 8.580000 221 213 205 0
31.240000 3.740000 8.580000 221 213 205 0
31.460000 3.740000 8.800000 221 213 205 0
31.680000 3.740000 8.800000 220 212 204 0
31.900000 3.740000 8.800000 221 213 205 0
32.120000 3.740000 8.800000 220 212 204 0
32.340000 3.740000 9.020000 220 212 204 0
32.560000 3.740000 9.020000 220 212 204 0
32.780000 3.740000 9.240000 221 213 205 0
33.000000 3.740000 10.560000 220 212 205 0
33.220000 3.740000 10.780000 220 212 205 0
33.440000 3.740000 10.780000 220 212 205 0
33.660000 3.740000 11.000000 220 212 205 0
33.880000 3.740000 10.780000 219 211 204 0
34.100000 3.740000 11.660000 219 211 204 0
34.320000 3.740000 14.080000 218 210 203 0
34.540000 3.740000 13.860000 216 208 201 0
34.760000 3.740000 14.080000 215 207 200 0
34.980000 3.740000 15.400000 214 206 199 0
35.200000 3.740000 15.620000 213 208 200 0
35.420000 3.740000 17.160000 219 214 206 0
35.640000 3.740000 18.260000 221 213 206 0
35.860000 3.740000 19.360000 222 214 207 0
36.080000 3.740000 20.900000 220 215 207 0
36.300000 3.740000 20.900000 221 216 208 0
36.520000 3.740000 21.120000 221 216 208 0
36.740000 3.740000 21.120000 222 217 209 0
36.960000 3.740000 22.660000 221 216 208 0
37.180000 3.740000 22.660000 222 217 209 0
0.000000 3.960000 8.580000 143 118 85 0
0.220000 3.960000 8.580000 144 119 86 0
0.440000 3.960000 8.580000 144 119 86 0
0.660000 3.960000 8.580000 145 120 87 0
0.880000 3.960000 8.580000 144 119 86 0
1.100000 3.960000 8.580000 142 117 84 0
1.320000 3.960000 8.580000 142 117 84 0
1.540000 3.960000 8.580000 142 117 84 0
1.760000 3.960000 8.580000 141 116 83 0
1.980000 3.960000 8.580000 141 116 83 0
2.200000 3.960000 8.800000 142 115 83 0
2.420000 3.960000 8.800000 143 116 84 0
2.640000 3.960000 8.800000 143 116 84 0
2.860000 3.960000 8.800000 143 116 84 0
3.080000 3.960000 8.800000 142 115 83 0
3.300000 3.960000 8.800000 143 116 84 0
3.520000 3.960000 8.800000 143 116 84 0
3.740000 3.960000 8.800000 143 116 84 0
3.960000 3.960000 8.800000 143 116 84 0
4.180000 3.960000 8.800000 144 117 85 0
4.400000 3.960000 10.120000 144 117 85 0
4.620000 3.960000 10.120000 143 116 84 0
4.840000 3.960000 10.120000 143 116 84 0
5.060000 3.960000 10.120000 143 116 84 0
5.280000 3.960000 10.120000 144 117 85 0
5.500000 3.960000 10.120000 144 117 85 0
5.720000 3.960000 10.120000 145 118 86 0
5.940000 3.960000 10.120000 145 118 86 0
6.160000 3.960000 10.120000 145 118 86 0
6.380000 3.960000 10.120000 145 118 86 0
6.600000 3.960000 10.120000 145 118 86 0
6.820000 3.960000 10.120000 145 118 86 0
7.040000 3.960000 10.120000 144 117 85 0
7.260000 3.960000 10.120000 145 118 86 0
7.480000 3.960000 10.120000 148 118 87 0
7.700000 3.960000 10.120000 149 119 88 0
7.920000 3.960000 10.120000 154 119 82 0
8.140000 3.960000 10.120000 164 129 92 0
8.360000 3.960000 10.120000 182 139 102 0
8.580000 3.960000 10.340000 190 147 110 0
8.800000 3.960000 10.340000 199 159 119 0
9.020000 3.960000 10.340000 204 164 124 0
9.240000 3.960000 10.340000 207 167 126 0
9.460000 3.960000 10.560000 212 172 131 0
9.680000 3.960000 10.780000 213 173 132 0
9.900000 3.960000 10.780000 213 173 132 0
10.120000 3.960000 11.880000 213 173 132 0
10.340000 3.960000 14.080000 213 173 132 0
10.560000 3.960000 14.080000 214 174 133 0
10.780000 3.960000 14.080000 214 174 133 0
11.000000 3.960000 14.080000 216 176 135 0
11.220000 3.960000 14.300000 217 177 136 0
11.440000 3.960000 14.300000 218 178 137 0
11.660000 3.960000 14.520000 219 179 138 0
11.880000 3.960000 14.520000 220 180 139 0
12.100000 3.960000 14.520000 221 181 140 0
12.320000 3.960000 14.740000 222 182 141 0
12.540000 3.960000 14.740000 222 182 141 0
12.760000 3.960000 16.280000 223 183 143 0
12.980000 3.960000 16.280000 225 185 145 0
13.200000 3.960000 16.280000 225 185 144 0
13.420000 3.960000 16.500000 226 186 145 0
