ply
format ascii 1.0
element vertex 1102
property float x
property float y
property float z
property uchar red
property uchar green
property uchar blue
property uchar alpha
end_header
36.080000 14.300000 2.200000 186 176 146 0
36.300000 14.300000 2.420000 187 175 146 0
36.520000 14.300000 3.740000 188 176 147 0
36.740000 14.300000 3.740000 187 177 147 0
36.960000 14.300000 3.960000 186 176 146 0
37.180000 14.300000 3.960000 187 177 149 0
0.000000 14.520000 39.820000 184 177 144 0
0.220000 14.520000 40.040000 182 177 143 0
0.440000 14.520000 40.040000 181 176 142 0
0.660000 14.520000 40.040000 183 176 143 0
0.880000 14.520000 38.500000 184 177 144 0
1.100000 14.520000 31.020000 182 177 143 0
1.320000 14.520000 18.260000 182 177 143 0
1.540000 14.520000 5.500000 183 176 143 0
2.420000 14.520000 0.220000 183 176 143 0
2.640000 14.520000 0.220000 183 176 143 0
2.860000 14.520000 0.220000 182 175 142 0
3.080000 14.520000 0.220000 182 175 142 0
3.300000 14.520000 0.220000 182 177 143 0
3.520000 14.520000 0.440000 183 178 144 0
3.740000 14.520000 0.440000 182 177 143 0
3.960000 14.520000 0.440000 182 177 143 0
4.180000 14.520000 1.980000 181 176 142 0
4.400000 14.520000 1.980000 182 177 143 0
4.620000 14.520000 1.980000 182 175 142 0
4.840000 14.520000 1.980000 183 176 143 0
5.060000 14.520000 2.200000 182 177 143 0
5.280000 14.520000 2.200000 182 177 143 0
5.500000 14.520000 2.200000 183 176 143 0
5.720000 14.520000 2.420000 183 176 143 0
5.940000 14.520000 2.420000 183 176 143 0
6.160000 14.520000 3.740000 183 176 143 0
6.380000 14.520000 3.960000 182 177 143 0
6.600000 14.520000 3.960000 182 177 143 0
6.820000 14.520000 3.960000 183 178 144 0
7.040000 14.520000 4.180000 183 178 144 0
7.260000 14.520000 5.060000 185 180 146 0
7.480000 14.520000 5.940000 183 178 144 0
7.700000 14.520000 7.040000 185 178 145 0
7.920000 14.520000 7.040000 184 177 144 0
8.140000 14.520000 8.580000 185 178 145 0
8.360000 14.520000 8.580000 184 177 144 0
8.580000 14.520000 8.580000 184 177 144 0
8.800000 14.520000 8.800000 184 177 144 0
9.020000 14.520000 8.800000 182 177 143 0
9.240000 14.520000 8.800000 181 176 142 0
9.460000 14.520000 8.800000 181 176 142 0
9.680000 14.520000 9.020000 181 176 142 0
9.900000 14.520000 9.020000 180 175 141 0
10.120000 14.520000 9.020000 181 176 142 0
10.340000 14.520000 10.560000 181 176 142 0
10.560000 14.520000 10.560000 180 175 141 0
10.780000 14.520000 10.560000 180 175 141 0
11.000000 14.520000 10.780000 179 174 140 0
11.220000 14.520000 10.780000 178 174 140 0
11.440000 14.520000 10.780000 175 171 137 0
11.660000 14.520000 10.780000 176 171 137 0
11.880000 14.520000 11.000000 178 173 139 0
12.100000 14.520000 11.000000 182 175 142 0
12.320000 14.520000 12.100000 183 176 143 0
12.540000 14.520000 14.300000 183 176 143 0
12.760000 14.520000 15.400000 182 175 142 0
12.980000 14.520000 15.400000 183 176 143 0
13.200000 14.520000 15.400000 182 175 142 0
13.420000 14.520000 15.400000 184 177 144 0
13.640000 14.520000 15.620000 183 176 143 0
13.860000 14.520000 15.620000 183 176 143 0
14.080000 14.520000 15.620000 184 177 144 0
14.300000 14.520000 15.840000 183 176 143 0
14.520000 14.520000 15.840000 182 175 142 0
14.740000 14.520000 15.840000 182 175 142 0
14.960000 14.520000 15.840000 183 176 143 0
15.180000 14.520000 16.060000 182 175 142 0
15.400000 14.520000 17.380000 182 175 142 0
15.620000 14.520000 17.600000 182 175 142 0
15.840000 14.520000 17.600000 182 175 142 0
16.060000 14.520000 17.600000 182 175 142 0
16.280000 14.520000 17.600000 181 174 141 0
16.500000 14.520000 17.820000 183 176 143 0
16.720000 14.520000 17.820000 182 175 142 0
16.940000 14.520000 17.820000 182 175 142 0
17.160000 14.520000 18.920000 183 176 143 0
17.380000 14.520000 21.120000 183 176 143 0
17.600000 14.520000 22.220000 182 175 142 0
17.820000 14.520000 22.220000 182 175 142 0
18.040000 14.520000 22.440000 182 175 142 0
18.260000 14.520000 22.440000 183 176 143 0
18.480000 14.520000 22.440000 182 175 142 0
18.700000 14.520000 22.440000 181 174 141 0
18.920000 14.520000 22.660000 182 175 142 0
19.140000 14.520000 23.980000 181 176 142 0
19.360000 14.520000 24.200000 181 176 142 0
19.580000 14.520000 24.200000 182 175 142 0
19.800000 14.520000 24.200000 181 174 141 0
20.020000 14.520000 24.200000 182 175 142 0
20.240000 14.520000 24.420000 182 175 142 0
20.460000 14.520000 24.420000 181 174 141 0
20.680000 14.520000 24.420000 182 175 142 0
20.900000 14.520000 24.640000 180 175 141 0
21.120000 14.520000 25.960000 180 175 141 0
21.340000 14.520000 25.960000 182 175 142 0
21.560000 14.520000 26.180000 180 173 140 0
21.780000 14.520000 26.180000 179 173 142 0
22.000000 14.520000 25.960000 179 173 142 0
22.220000 14.520000 27.940000 178 172 141 0
22.440000 14.520000 29.040000 179 173 142 0
22.660000 14.520000 29.260000 178 172 141 0
22.880000 14.520000 29.260000 179 173 142 0
23.100000 14.520000 29.260000 180 173 142 0
23.320000 14.520000 29.480000 180 173 142 0
23.540000 14.520000 29.480000 179 173 142 0
23.760000 14.520000 29.480000 178 172 141 0
23.980000 14.520000 29.480000 179 173 142 0
24.200000 14.520000 29.700000 179 173 142 0
24.420000 14.520000 31.020000 178 172 141 0
24.640000 14.520000 31.240000 179 173 142 0
24.860000 14.520000 31.240000 179 172 141 0
25.080000 14.520000 31.240000 180 173 142 0
25.300000 14.520000 31.240000 180 173 142 0
25.520000 14.520000 31.460000 180 173 142 0
25.740000 14.520000 31.460000 181 175 144 0
25.960000 14.520000 33.000000 181 175 144 0
26.180000 14.520000 33.000000 181 175 144 0
26.400000 14.520000 33.000000 180 174 143 0
26.620000 14.520000 34.100000 181 174 143 0
26.840000 14.520000 34.980000 181 174 143 0
27.060000 14.520000 36.080000 181 174 143 0
27.280000 14.520000 36.080000 180 173 142 0
27.500000 14.520000 36.080000 180 173 142 0
27.720000 14.520000 37.620000 180 173 142 0
27.940000 14.520000 37.620000 180 173 142 0
28.160000 14.520000 37.840000 180 173 142 0
28.380000 14.520000 37.840000 181 174 143 0
28.600000 14.520000 37.840000 180 173 142 0
28.820000 14.520000 37.840000 181 174 143 0
29.040000 14.520000 38.060000 181 174 143 0
29.260000 14.520000 38.060000 180 173 142 0
29.480000 14.520000 38.060000 181 174 143 0
29.700000 14.520000 39.600000 183 176 145 0
29.920000 14.520000 39.600000 183 176 145 0
30.140000 14.520000 39.600000 185 175 145 0
30.360000 14.520000 39.820000 184 174 144 0
30.580000 14.520000 39.820000 182 175 144 0
30.800000 14.520000 39.820000 183 176 145 0
31.020000 14.520000 39.820000 182 175 144 0
31.240000 14.520000 39.820000 182 175 144 0
31.460000 14.520000 40.040000 184 174 144 0
31.680000 14.520000 40.040000 184 174 144 0
31.900000 14.520000 37.180000 185 175 145 0
32.120000 14.520000 24.640000 184 174 144 0
32.340000 14.520000 7.480000 184 174 144 0
32.560000 14.520000 0.220000 185 175 145 0
33.440000 14.520000 0.220000 185 175 145 0
33.660000 14.520000 0.220000 186 176 146 0
33.880000 14.520000 0.220000 185 175 145 0
34.100000 14.520000 0.220000 185 175 145 0
34.320000 14.520000 0.440000 185 175 145 0
34.540000 14.520000 0.440000 185 175 145 0
34.760000 14.520000 1.760000 186 176 146 0
34.980000 14.520000 1.980000 186 176 146 0
35.200000 14.520000 1.980000 185 175 145 0
35.420000 14.520000 1.980000 185 175 147 0
35.640000 14.520000 2.200000 186 176 148 0
35.860000 14.520000 2.200000 186 176 146 0
36.080000 14.520000 2.200000 186 176 146 0
36.300000 14.520000 2.420000 188 176 147 0
36.520000 14.520000 3.740000 187 175 146 0
36.740000 14.520000 3.740000 187 177 147 0
36.960000 14.520000 3.960000 186 176 146 0
37.180000 14.520000 3.960000 187 177 149 0
0.000000 14.740000 40.040000 184 177 144 0
0.220000 14.740000 40.040000 183 176 143 0
0.440000 14.740000 40.040000 182 175 142 0
0.660000 14.740000 40.040000 183 176 143 0
0.880000 14.740000 35.860000 182 175 142 0
1.100000 14.740000 22.880000 183 176 143 0
1.320000 14.740000 9.900000 183 176 143 0
1.540000 14.740000 2.860000 183 176 143 0
2.420000 14.740000 0.220000 183 176 143 0
2.640000 14.740000 0.220000 182 175 142 0
2.860000 14.740000 0.220000 182 175 142 0
3.080000 14.740000 0.220000 183 176 143 0
3.300000 14.740000 0.220000 182 175 142 0
3.520000 14.740000 0.440000 183 176 143 0
3.740000 14.740000 0.440000 184 177 144 0
3.960000 14.740000 0.440000 183 176 143 0
4.180000 14.740000 1.980000 180 175 141 0
4.400000 14.740000 1.980000 182 177 143 0
4.620000 14.740000 1.980000 180 175 141 0
4.840000 14.740000 1.980000 180 175 141 0
5.060000 14.740000 2.200000 182 175 142 0
5.280000 14.740000 2.200000 182 175 142 0
5.500000 14.740000 2.200000 183 176 143 0
5.720000 14.740000 2.420000 182 175 142 0
5.940000 14.740000 2.420000 181 176 142 0
6.160000 14.740000 3.740000 181 176 142 0
6.380000 14.740000 3.960000 182 177 143 0
6.600000 14.740000 3.960000 182 177 143 0
6.820000 14.740000 3.960000 181 174 141 0
7.040000 14.740000 4.180000 182 175 142 0
7.260000 14.740000 5.060000 183 176 143 0
7.480000 14.740000 5.940000 183 176 143 0
7.700000 14.740000 7.040000 183 176 143 0
7.920000 14.740000 7.040000 184 177 144 0
8.140000 14.740000 8.580000 184 177 144 0
8.360000 14.740000 8.580000 182 175 142 0
8.580000 14.740000 8.580000 183 176 143 0
8.800000 14.740000 8.800000 182 175 142 0
9.020000 14.740000 8.800000 182 175 142 0
9.240000 14.740000 8.800000 181 174 141 0
9.460000 14.740000 8.800000 179 174 140 0
9.680000 14.740000 9.020000 180 175 141 0
9.900000 14.740000 9.020000 182 175 142 0
10.120000 14.740000 9.020000 182 175 142 0
10.340000 14.740000 10.560000 182 175 144 0
10.560000 14.740000 10.560000 182 175 144 0
10.780000 14.740000 10.560000 181 174 141 0
11.000000 14.740000 10.780000 181 174 141 0
11.220000 14.740000 10.780000 179 174 140 0
11.440000 14.740000 10.780000 176 171 137 0
11.660000 14.740000 10.780000 178 171 140 0
11.880000 14.740000 11.000000 178 171 140 0
12.100000 14.740000 11.000000 178 171 138 0
12.320000 14.740000 12.100000 182 175 142 0
12.540000 14.740000 14.300000 181 174 141 0
12.760000 14.740000 15.400000 182 175 142 0
12.980000 14.740000 15.400000 181 176 142 0
13.200000 14.740000 15.400000 180 175 141 0
13.420000 14.740000 15.400000 181 174 141 0
13.640000 14.740000 15.620000 183 176 143 0
13.860000 14.740000 15.620000 183 176 143 0
14.080000 14.740000 15.620000 183 176 143 0
14.300000 14.740000 15.840000 182 175 142 0
14.520000 14.740000 15.840000 182 175 142 0
14.740000 14.740000 15.840000 180 175 141 0
14.960000 14.740000 15.840000 180 175 141 0
15.180000 14.740000 16.060000 181 174 141 0
15.400000 14.740000 17.380000 183 176 143 0
15.620000 14.740000 17.600000 180 175 141 0
15.840000 14.740000 17.600000 181 176 142 0
16.060000 14.740000 17.600000 180 173 140 0
16.280000 14.740000 17.600000 182 175 142 0
16.500000 14.740000 17.820000 181 174 141 0
16.720000 14.740000 17.820000 182 175 142 0
16.940000 14.740000 17.820000 181 174 141 0
17.160000 14.740000 18.920000 182 175 142 0
17.380000 14.740000 21.120000 180 175 141 0
17.600000 14.740000 22.220000 180 175 141 0
17.820000 14.740000 22.220000 182 175 142 0
18.040000 14.740000 22.440000 182 175 142 0
18.260000 14.740000 22.440000 182 175 142 0
18.480000 14.740000 22.440000 183 176 143 0
18.700000 14.740000 22.440000 180 173 140 0
18.920000 14.740000 22.660000 181 174 141 0
19.140000 14.740000 23.980000 183 176 143 0
19.360000 14.740000 24.200000 183 176 143 0
19.580000 14.740000 24.200000 181 174 141 0
19.800000 14.740000 24.200000 182 175 142 0
20.020000 14.740000 24.200000 182 175 142 0
20.240000 14.740000 24.420000 182 175 142 0
20.460000 14.740000 24.420000 182 175 142 0
20.680000 14.740000 24.420000 182 175 142 0
20.900000 14.740000 24.640000 181 174 143 0
21.120000 14.740000 25.960000 181 174 143 0
21.340000 14.740000 25.960000 180 174 143 0
21.560000 14.740000 26.180000 179 173 142 0
21.780000 14.740000 26.180000 179 173 142 0
22.000000 14.740000 25.960000 178 172 141 0
22.220000 14.740000 27.940000 178 172 141 0
22.440000 14.740000 29.040000 179 173 142 0
22.660000 14.740000 29.260000 180 173 142 0
22.880000 14.740000 29.260000 179 172 141 0
23.100000 14.740000 29.260000 179 172 141 0
23.320000 14.740000 29.480000 180 173 142 0
23.540000 14.740000 29.480000 179 173 142 0
23.760000 14.740000 29.480000 178 172 141 0
23.980000 14.740000 29.480000 179 173 144 0
24.200000 14.740000 29.700000 178 172 143 0
24.420000 14.740000 31.020000 179 171 143 0
24.640000 14.740000 31.240000 179 171 143 0
24.860000 14.740000 31.240000 179 172 141 0
25.080000 14.740000 31.240000 179 172 141 0
25.300000 14.740000 31.240000 178 172 143 0
25.520000 14.740000 31.460000 178 172 143 0
25.740000 14.740000 31.460000 180 174 143 0
25.960000 14.740000 33.000000 181 175 144 0
26.180000 14.740000 33.000000 181 174 143 0
26.400000 14.740000 33.000000 180 173 142 0
26.620000 14.740000 34.100000 180 173 142 0
26.840000 14.740000 34.980000 181 174 143 0
27.060000 14.740000 36.080000 180 172 144 0
27.280000 14.740000 36.080000 180 172 144 0
27.500000 14.740000 36.080000 179 171 143 0
27.720000 14.740000 37.620000 179 171 143 0
27.940000 14.740000 37.620000 180 173 142 0
28.160000 14.740000 37.840000 179 172 141 0
28.380000 14.740000 37.840000 179 173 144 0
28.600000 14.740000 37.840000 179 173 144 0
28.820000 14.740000 37.840000 180 172 144 0
29.040000 14.740000 38.060000 180 172 144 0
29.260000 14.740000 38.060000 181 173 145 0
29.480000 14.740000 38.060000 181 173 145 0
29.700000 14.740000 39.600000 181 174 143 0
29.920000 14.740000 39.600000 181 174 143 0
30.140000 14.740000 39.600000 181 173 145 0
30.360000 14.740000 39.820000 181 173 145 0
30.580000 14.740000 39.820000 181 173 145 0
30.800000 14.740000 39.820000 182 174 146 0
31.020000 14.740000 39.820000 182 175 144 0
31.240000 14.740000 39.820000 181 174 143 0
31.460000 14.740000 40.040000 185 175 145 0
31.680000 14.740000 40.040000 185 175 145 0
31.900000 14.740000 34.540000 181 173 145 0
32.120000 14.740000 22.000000 181 173 145 0
32.340000 14.740000 9.240000 181 173 145 0
32.560000 14.740000 1.760000 181 173 145 0
33.440000 14.740000 0.220000 185 175 145 0
33.660000 14.740000 0.220000 186 176 146 0
33.880000 14.740000 0.220000 185 175 145 0
34.100000 14.740000 0.220000 185 175 147 0
34.320000 14.740000 0.440000 184 174 146 0
34.540000 14.740000 0.440000 185 175 145 0
34.760000 14.740000 1.760000 185 175 145 0
34.980000 14.740000 1.980000 186 176 146 0
35.200000 14.740000 1.980000 185 175 145 0
35.420000 14.740000 1.980000 185 175 147 0
35.640000 14.740000 2.200000 185 175 147 0
35.860000 14.740000 2.200000 184 174 146 0
36.080000 14.740000 2.200000 186 176 148 0
36.300000 14.740000 2.420000 187 175 148 0
36.520000 14.740000 3.740000 187 175 148 0
36.740000 14.740000 3.740000 186 176 146 0
36.960000 14.740000 3.960000 185 175 145 0
37.180000 14.740000 3.960000 186 176 148 0
0.000000 14.960000 40.040000 184 177 144 0
0.220000 14.960000 40.040000 184 177 144 0
0.440000 14.960000 40.040000 183 176 143 0
0.660000 14.960000 40.040000 183 176 143 0
0.880000 14.960000 37.180000 182 175 142 0
1.100000 14.960000 24.420000 182 175 142 0
1.320000 14.960000 7.260000 183 176 143 0
2.420000 14.960000 0.220000 183 176 143 0
2.640000 14.960000 0.220000 183 176 143 0
2.860000 14.960000 0.220000 182 175 142 0
3.080000 14.960000 0.220000 182 175 142 0
3.300000 14.960000 0.220000 183 176 143 0
3.520000 14.960000 0.440000 183 176 143 0
3.740000 14.960000 0.440000 183 176 143 0
3.960000 14.960000 0.440000 184 177 144 0
4.180000 14.960000 1.980000 182 177 143 0
4.400000 14.960000 1.980000 181 176 142 0
4.620000 14.960000 1.980000 182 177 143 0
4.840000 14.960000 1.980000 181 176 142 0
5.060000 14.960000 2.200000 182 175 142 0
5.280000 14.960000 2.200000 183 176 143 0
5.500000 14.960000 2.200000 182 175 142 0
5.720000 14.960000 2.420000 183 176 143 0
5.940000 14.960000 2.420000 182 177 143 0
6.160000 14.960000 3.740000 181 176 142 0
6.380000 14.960000 3.960000 181 176 142 0
6.600000 14.960000 3.960000 182 177 143 0
6.820000 14.960000 3.960000 182 175 142 0
7.040000 14.960000 3.960000 183 176 143 0
7.260000 14.960000 5.060000 183 176 143 0
7.480000 14.960000 5.940000 183 176 143 0
7.700000 14.960000 7.040000 182 175 142 0
7.920000 14.960000 7.040000 184 177 144 0
8.140000 14.960000 8.580000 185 178 145 0
8.360000 14.960000 8.580000 184 177 144 0
8.580000 14.960000 8.580000 183 176 143 0
8.800000 14.960000 8.800000 183 176 143 0
9.020000 14.960000 8.800000 183 176 143 0
9.240000 14.960000 8.800000 181 174 141 0
9.460000 14.960000 8.800000 179 174 140 0
9.680000 14.960000 9.020000 181 176 142 0
9.900000 14.960000 9.020000 182 175 142 0
10.120000 14.960000 9.020000 183 176 143 0
10.340000 14.960000 10.560000 182 175 144 0
10.560000 14.960000 10.560000 182 175 144 0
10.780000 14.960000 10.560000 183 176 143 0
11.000000 14.960000 10.780000 182 175 142 0
11.220000 14.960000 10.780000 181 176 142 0
11.440000 14.960000 10.780000 179 174 140 0
11.660000 14.960000 10.780000 179 172 141 0
11.880000 14.960000 11.000000 179 172 141 0
12.100000 14.960000 11.000000 180 173 140 0
12.320000 14.960000 12.100000 182 175 142 0
12.540000 14.960000 14.300000 181 174 141 0
12.760000 14.960000 15.400000 181 174 141 0
12.980000 14.960000 15.400000 179 174 140 0
13.200000 14.960000 15.400000 179 174 140 0
13.420000 14.960000 15.400000 180 173 140 0
13.640000 14.960000 15.620000 181 174 141 0
13.860000 14.960000 15.620000 182 175 142 0
14.080000 14.960000 15.620000 183 176 143 0
14.300000 14.960000 15.840000 182 175 142 0
14.520000 14.960000 15.840000 181 174 141 0
14.740000 14.960000 15.840000 179 174 140 0
14.960000 14.960000 15.840000 179 174 140 0
15.180000 14.960000 16.060000 180 173 140 0
15.400000 14.960000 16.060000 181 174 141 0
15.620000 14.960000 17.600000 181 176 142 0
15.840000 14.960000 17.600000 180 175 141 0
16.060000 14.960000 17.600000 182 175 142 0
16.280000 14.960000 17.600000 182 175 142 0
16.500000 14.960000 17.820000 182 175 142 0
16.720000 14.960000 17.820000 182 175 142 0
16.940000 14.960000 17.820000 183 176 143 0
17.160000 14.960000 18.920000 182 175 142 0
17.380000 14.960000 21.120000 182 177 143 0
17.600000 14.960000 22.220000 181 176 142 0
17.820000 14.960000 22.220000 182 175 142 0
18.040000 14.960000 22.440000 181 174 141 0
18.260000 14.960000 22.440000 182 175 142 0
18.480000 14.960000 22.440000 182 175 142 0
18.700000 14.960000 22.440000 182 175 142 0
18.920000 14.960000 22.660000 182 175 142 0
19.140000 14.960000 23.980000 183 176 143 0
19.360000 14.960000 24.200000 183 176 143 0
19.580000 14.960000 24.200000 182 175 142 0
19.800000 14.960000 24.200000 183 176 143 0
20.020000 14.960000 24.200000 181 174 141 0
20.240000 14.960000 24.420000 181 174 141 0
20.460000 14.960000 24.420000 182 175 142 0
20.680000 14.960000 24.420000 182 175 142 0
20.900000 14.960000 24.640000 181 174 143 0
21.120000 14.960000 25.960000 181 174 143 0
21.340000 14.960000 25.960000 180 174 143 0
21.560000 14.960000 26.180000 179 173 142 0
21.780000 14.960000 26.180000 180 174 143 0
22.000000 14.960000 25.960000 178 172 141 0
22.220000 14.960000 27.940000 178 172 141 0
22.440000 14.960000 29.040000 178 172 141 0
22.660000 14.960000 29.260000 180 173 142 0
22.880000 14.960000 29.260000 179 172 141 0
23.100000 14.960000 29.260000 179 172 141 0
23.320000 14.960000 29.480000 179 172 141 0
23.540000 14.960000 29.480000 179 173 142 0
23.760000 14.960000 29.480000 178 172 141 0
23.980000 14.960000 29.480000 178 172 143 0
24.200000 14.960000 29.700000 178 172 143 0
24.420000 14.960000 31.020000 179 171 143 0
24.640000 14.960000 31.240000 179 171 143 0
24.860000 14.960000 31.240000 178 171 140 0
25.080000 14.960000 31.240000 179 172 141 0
25.300000 14.960000 31.240000 178 172 143 0
25.520000 14.960000 31.460000 179 173 144 0
25.740000 14.960000 31.460000 178 172 141 0
25.960000 14.960000 33.000000 181 175 144 0
26.180000 14.960000 33.000000 181 174 143 0
26.400000 14.960000 33.000000 181 174 143 0
26.620000 14.960000 34.100000 181 174 143 0
26.840000 14.960000 34.980000 181 174 143 0
27.060000 14.960000 36.080000 181 173 145 0
27.280000 14.960000 36.080000 180 172 144 0
27.500000 14.960000 36.080000 179 171 143 0
27.720000 14.960000 37.620000 180 172 144 0
27.940000 14.960000 37.620000 180 173 142 0
28.160000 14.960000 37.840000 180 173 142 0
28.380000 14.960000 37.840000 179 173 144 0
28.600000 14.960000 37.840000 180 174 145 0
28.820000 14.960000 37.840000 181 173 145 0
29.040000 14.960000 38.060000 181 173 145 0
29.260000 14.960000 38.060000 181 173 145 0
29.480000 14.960000 38.060000 180 172 144 0
29.700000 14.960000 39.600000 181 174 143 0
29.920000 14.960000 39.600000 182 175 144 0
30.140000 14.960000 39.600000 181 173 145 0
30.360000 14.960000 39.820000 181 173 145 0
30.580000 14.960000 39.820000 182 174 146 0
30.800000 14.960000 39.820000 182 174 146 0
31.020000 14.960000 39.820000 182 175 144 0
31.240000 14.960000 39.820000 183 176 145 0
31.460000 14.960000 40.040000 184 174 144 0
31.680000 14.960000 40.040000 184 174 144 0
31.900000 14.960000 37.180000 182 174 146 0
32.120000 14.960000 29.040000 181 173 145 0
32.340000 14.960000 16.280000 181 173 145 0
32.560000 14.960000 4.620000 181 173 145 0
33.440000 14.960000 0.220000 184 174 144 0
33.660000 14.960000 0.220000 184 174 144 0
33.880000 14.960000 0.220000 185 175 145 0
34.100000 14.960000 0.220000 183 173 145 0
34.320000 14.960000 0.440000 183 173 145 0
34.540000 14.960000 0.440000 184 174 144 0
34.760000 14.960000 1.760000 184 174 144 0
34.980000 14.960000 1.980000 185 175 145 0
35.200000 14.960000 1.980000 184 174 144 0
35.420000 14.960000 1.980000 183 173 145 0
35.640000 14.960000 2.200000 184 174 146 0
35.860000 14.960000 2.200000 185 175 147 0
36.080000 14.960000 2.200000 185 175 147 0
36.300000 14.960000 2.420000 187 175 148 0
36.520000 14.960000 3.740000 186 174 147 0
36.740000 14.960000 3.740000 185 175 145 0
36.960000 14.960000 3.960000 186 176 146 0
37.180000 14.960000 3.960000 185 175 147 0
0.000000 15.180000 40.040000 184 177 146 0
0.220000 15.180000 40.040000 184 177 144 0
0.440000 15.180000 40.040000 184 177 144 0
0.660000 15.180000 40.040000 183 176 143 0
0.880000 15.180000 40.040000 182 175 142 0
1.100000 15.180000 32.780000 183 176 143 0
1.320000 15.180000 15.620000 183 176 143 0
1.540000 15.180000 2.860000 183 176 145 0
2.420000 15.180000 0.220000 182 175 142 0
2.640000 15.180000 0.220000 182 175 142 0
2.860000 15.180000 0.220000 181 175 144 0
3.080000 15.180000 0.220000 181 175 144 0
3.300000 15.180000 0.220000 183 176 145 0
3.520000 15.180000 0.440000 183 176 145 0
3.740000 15.180000 0.440000 183 176 143 0
3.960000 15.180000 0.440000 183 176 143 0
4.180000 15.180000 1.980000 182 175 142 0
4.400000 15.180000 1.980000 182 175 142 0
4.620000 15.180000 1.980000 182 176 145 0
4.840000 15.180000 1.980000 182 176 145 0
5.060000 15.180000 2.200000 183 176 143 0
5.280000 15.180000 2.200000 182 175 142 0
5.500000 15.180000 2.200000 182 175 144 0
5.720000 15.180000 2.420000 182 175 144 0
5.940000 15.180000 2.420000 182 175 142 0
6.160000 15.180000 3.740000 182 175 142 0
6.380000 15.180000 3.960000 182 175 144 0
6.600000 15.180000 3.960000 183 176 145 0
6.820000 15.180000 3.960000 181 174 143 0
7.040000 15.180000 3.960000 182 175 144 0
7.260000 15.180000 5.060000 182 175 144 0
7.480000 15.180000 5.940000 183 176 145 0
7.700000 15.180000 7.040000 183 176 143 0
7.920000 15.180000 7.040000 184 177 144 0
8.140000 15.180000 8.580000 183 178 144 0
8.360000 15.180000 8.580000 182 177 143 0
8.580000 15.180000 8.580000 182 177 143 0
8.800000 15.180000 8.800000 181 176 142 0
9.020000 15.180000 8.800000 183 176 143 0
9.240000 15.180000 8.800000 182 175 142 0
9.460000 15.180000 8.800000 182 175 142 0
9.680000 15.180000 9.020000 182 175 142 0
9.900000 15.180000 9.020000 183 176 143 0
10.120000 15.180000 9.020000 182 175 142 0
10.340000 15.180000 10.560000 183 176 143 0
10.560000 15.180000 10.560000 183 176 143 0
10.780000 15.180000 10.560000 182 177 143 0
11.000000 15.180000 10.560000 181 176 142 0
11.220000 15.180000 10.780000 182 175 144 0
11.440000 15.180000 10.780000 179 172 141 0
11.660000 15.180000 10.780000 180 170 138 0
11.880000 15.180000 11.000000 181 171 139 0
12.100000 15.180000 11.000000 179 172 139 0
12.320000 15.180000 12.100000 179 172 139 0
12.540000 15.180000 14.300000 179 172 139 0
12.760000 15.180000 15.400000 178 171 138 0
12.980000 15.180000 15.400000 179 172 139 0
13.200000 15.180000 15.400000 178 171 138 0
13.420000 15.180000 15.400000 180 170 138 0
13.640000 15.180000 15.620000 180 170 138 0
13.860000 15.180000 15.620000 182 172 140 0
14.080000 15.180000 15.620000 182 172 140 0
14.300000 15.180000 15.840000 180 173 142 0
14.520000 15.180000 15.840000 179 172 141 0
14.740000 15.180000 15.840000 178 171 138 0
14.960000 15.180000 15.840000 180 173 140 0
15.180000 15.180000 16.060000 182 172 140 0
15.400000 15.180000 16.060000 182 172 140 0
15.620000 15.180000 17.600000 181 174 141 0
15.840000 15.180000 17.600000 181 174 141 0
16.060000 15.180000 17.600000 181 174 141 0
16.280000 15.180000 17.600000 182 175 142 0
16.500000 15.180000 17.820000 182 175 142 0
16.720000 15.180000 17.820000 183 176 143 0
16.940000 15.180000 17.820000 184 177 144 0
17.160000 15.180000 18.920000 183 176 143 0
17.380000 15.180000 21.120000 182 175 142 0
17.600000 15.180000 22.220000 182 175 142 0
17.820000 15.180000 22.220000 182 175 142 0
18.040000 15.180000 22.440000 181 174 141 0
18.260000 15.180000 22.440000 181 174 141 0
18.480000 15.180000 22.440000 182 175 142 0
18.700000 15.180000 22.440000 181 174 141 0
18.920000 15.180000 22.660000 182 175 142 0
19.140000 15.180000 23.980000 182 175 142 0
19.360000 15.180000 24.200000 182 175 142 0
19.580000 15.180000 24.200000 182 175 142 0
19.800000 15.180000 24.200000 181 174 141 0
20.020000 15.180000 24.200000 181 174 141 0
20.240000 15.180000 24.420000 181 174 141 0
20.460000 15.180000 24.420000 182 175 142 0
20.680000 15.180000 24.420000 182 175 142 0
20.900000 15.180000 24.640000 181 174 143 0
21.120000 15.180000 25.960000 181 174 143 0
21.340000 15.180000 25.960000 181 174 141 0
21.560000 15.180000 26.180000 180 173 140 0
21.780000 15.180000 26.180000 179 172 139 0
22.000000 15.180000 25.960000 180 173 140 0
22.220000 15.180000 27.940000 180 173 142 0
22.440000 15.180000 29.040000 179 172 141 0
22.660000 15.180000 29.260000 180 173 142 0
22.880000 15.180000 29.260000 179 172 141 0
23.100000 15.180000 29.260000 178 171 140 0
23.320000 15.180000 29.480000 179 172 141 0
23.540000 15.180000 29.480000 179 172 141 0
23.760000 15.180000 29.480000 180 173 142 0
23.980000 15.180000 29.480000 180 173 142 0
24.200000 15.180000 29.700000 180 173 142 0
24.420000 15.180000 31.020000 179 172 141 0
24.640000 15.180000 31.240000 179 172 141 0
24.860000 15.180000 31.240000 179 172 141 0
25.080000 15.180000 31.240000 179 172 141 0
25.300000 15.180000 31.240000 179 172 141 0
25.520000 15.180000 31.460000 179 172 141 0
25.740000 15.180000 31.460000 180 173 142 0
25.960000 15.180000 33.000000 180 173 142 0
26.180000 15.180000 33.000000 181 174 143 0
26.400000 15.180000 33.000000 181 174 143 0
26.620000 15.180000 34.100000 181 174 143 0
26.840000 15.180000 34.980000 181 174 143 0
27.060000 15.180000 36.080000 181 174 141 0
27.280000 15.180000 36.080000 180 173 140 0
27.500000 15.180000 36.080000 180 173 142 0
27.720000 15.180000 37.620000 181 174 143 0
27.940000 15.180000 37.620000 180 173 142 0
28.160000 15.180000 37.840000 180 173 142 0
28.380000 15.180000 37.840000 180 173 142 0
28.600000 15.180000 37.840000 181 174 143 0
28.820000 15.180000 37.840000 184 174 144 0
29.040000 15.180000 38.060000 183 173 143 0
29.260000 15.180000 38.060000 181 174 143 0
29.480000 15.180000 38.060000 180 173 142 0
29.700000 15.180000 39.600000 183 173 143 0
29.920000 15.180000 39.600000 183 173 143 0
30.140000 15.180000 39.600000 182 175 144 0
30.360000 15.180000 39.820000 181 174 143 0
30.580000 15.180000 39.820000 184 174 144 0
30.800000 15.180000 39.820000 185 175 145 0
31.020000 15.180000 39.820000 184 174 144 0
31.240000 15.180000 39.820000 184 174 144 0
31.460000 15.180000 40.040000 183 173 143 0
31.680000 15.180000 40.040000 183 173 143 0
31.900000 15.180000 40.040000 185 175 145 0
32.120000 15.180000 31.680000 184 174 144 0
32.340000 15.180000 14.740000 182 172 142 0
32.560000 15.180000 1.760000 183 173 143 0
33.440000 15.180000 0.220000 183 173 143 0
33.660000 15.180000 0.220000 183 173 143 0
33.880000 15.180000 0.220000 184 174 144 0
34.100000 15.180000 0.220000 184 172 143 0
34.320000 15.180000 0.440000 184 172 143 0
34.540000 15.180000 0.440000 184 172 143 0
34.760000 15.180000 1.760000 185 173 144 0
34.980000 15.180000 1.980000 184 174 146 0
35.200000 15.180000 1.980000 184 174 146 0
35.420000 15.180000 1.980000 186 174 147 0
35.640000 15.180000 2.200000 186 174 147 0
35.860000 15.180000 2.200000 186 174 147 0
36.080000 15.180000 2.200000 185 173 146 0
36.300000 15.180000 2.420000 186 174 145 0
36.520000 15.180000 3.740000 187 175 146 0
36.740000 15.180000 3.740000 186 174 147 0
36.960000 15.180000 3.960000 185 173 146 0
37.180000 15.180000 3.960000 186 174 147 0
0.000000 15.400000 40.040000 183 176 145 0
0.220000 15.400000 40.040000 183 176 143 0
0.440000 15.400000 40.040000 184 177 144 0
0.660000 15.400000 40.040000 183 176 143 0
0.880000 15.400000 40.040000 182 175 142 0
1.100000 15.400000 38.280000 184 177 144 0
1.320000 15.400000 26.620000 182 175 142 0
1.540000 15.400000 8.360000 183 176 145 0
2.420000 15.400000 0.220000 183 176 143 0
2.640000 15.400000 0.220000 182 175 142 0
2.860000 15.400000 0.220000 181 175 144 0
3.080000 15.400000 0.220000 181 175 144 0
3.300000 15.400000 0.220000 184 177 146 0
3.520000 15.400000 0.440000 183 176 145 0
3.740000 15.400000 0.440000 183 176 143 0
3.960000 15.400000 0.440000 183 176 143 0
4.180000 15.400000 1.980000 182 175 142 0
4.400000 15.400000 1.980000 183 176 143 0
4.620000 15.400000 1.980000 181 175 144 0
4.840000 15.400000 1.980000 181 175 144 0
5.060000 15.400000 2.200000 183 176 143 0
5.280000 15.400000 2.200000 182 175 142 0
5.500000 15.400000 2.200000 183 176 145 0
5.720000 15.400000 2.420000 182 175 144 0
5.940000 15.400000 2.420000 183 176 143 0
6.160000 15.400000 3.740000 183 176 143 0
6.380000 15.400000 3.960000 183 176 145 0
6.600000 15.400000 3.960000 182 175 144 0
6.820000 15.400000 3.960000 182 175 144 0
7.040000 15.400000 3.960000 182 175 144 0
7.260000 15.400000 5.060000 182 175 144 0
7.480000 15.400000 5.940000 182 175 144 0
7.700000 15.400000 7.040000 184 177 144 0
7.920000 15.400000 7.040000 184 177 144 0
8.140000 15.400000 8.580000 183 178 144 0
8.360000 15.400000 8.580000 183 178 144 0
8.580000 15.400000 8.580000 183 178 144 0
8.800000 15.400000 8.580000 182 177 143 0
9.020000 15.400000 8.800000 182 175 142 0
9.240000 15.400000 8.800000 183 176 143 0
9.460000 15.400000 8.800000 182 175 142 0
9.680000 15.400000 9.020000 183 176 143 0
9.900000 15.400000 9.020000 183 176 143 0
10.120000 15.400000 9.020000 183 176 143 0
10.340000 15.400000 10.560000 183 176 143 0
10.560000 15.400000 10.560000 182 175 142 0
10.780000 15.400000 10.560000 181 176 142 0
11.000000 15.400000 10.560000 181 176 142 0
11.220000 15.400000 10.780000 181 174 143 0
11.440000 15.400000 10.780000 179 172 141 0
11.660000 15.400000 10.780000 180 170 138 0
11.880000 15.400000 11.000000 180 170 138 0
12.100000 15.400000 11.000000 178 171 138 0
12.320000 15.400000 12.100000 177 170 137 0
12.540000 15.400000 14.300000 177 170 137 0
12.760000 15.400000 15.180000 177 170 137 0
12.980000 15.400000 15.400000 176 169 136 0
13.200000 15.400000 15.400000 175 168 135 0
13.420000 15.400000 15.400000 178 168 136 0
13.640000 15.400000 15.620000 179 169 137 0
13.860000 15.400000 15.620000 180 170 138 0
14.080000 15.400000 15.620000 181 171 139 0
14.300000 15.400000 15.620000 179 172 141 0
14.520000 15.400000 15.840000 178 171 140 0
14.740000 15.400000 15.840000 178 171 138 0
14.960000 15.400000 15.840000 179 172 139 0
15.180000 15.400000 16.060000 182 172 140 0
15.400000 15.400000 16.060000 181 171 139 0
15.620000 15.400000 17.600000 179 172 139 0
15.840000 15.400000 17.600000 181 174 141 0
16.060000 15.400000 17.600000 181 174 141 0
16.280000 15.400000 17.600000 181 174 141 0
16.500000 15.400000 17.820000 182 175 142 0
16.720000 15.400000 17.820000 182 175 142 0
16.940000 15.400000 17.820000 182 175 142 0
17.160000 15.400000 18.920000 183 176 143 0
17.380000 15.400000 21.120000 183 176 143 0
17.600000 15.400000 22.220000 183 176 143 0
17.820000 15.400000 22.220000 183 176 143 0
18.040000 15.400000 22.440000 182 175 142 0
18.260000 15.400000 22.440000 182 175 142 0
18.480000 15.400000 22.440000 181 174 141 0
18.700000 15.400000 22.440000 182 175 142 0
18.920000 15.400000 22.660000 182 175 142 0
19.140000 15.400000 23.980000 183 176 143 0
19.360000 15.400000 23.980000 182 175 142 0
19.580000 15.400000 24.200000 182 175 142 0
19.800000 15.400000 24.200000 183 176 143 0
20.020000 15.400000 24.200000 181 174 141 0
20.240000 15.400000 24.420000 182 175 142 0
20.460000 15.400000 24.420000 182 175 142 0
20.680000 15.400000 24.420000 181 174 141 0
20.900000 15.400000 24.640000 181 174 143 0
21.120000 15.400000 25.960000 181 174 143 0
21.340000 15.400000 25.960000 182 175 142 0
21.560000 15.400000 26.180000 180 173 140 0
21.780000 15.400000 26.180000 180 173 140 0
22.000000 15.400000 25.960000 181 174 141 0
22.220000 15.400000 27.940000 181 174 143 0
22.440000 15.400000 29.040000 180 173 142 0
22.660000 15.400000 29.260000 181 174 143 0
22.880000 15.400000 29.260000 181 174 143 0
23.100000 15.400000 29.260000 180 173 142 0
23.320000 15.400000 29.480000 180 173 142 0
23.540000 15.400000 29.480000 179 172 141 0
23.760000 15.400000 29.480000 179 172 141 0
23.980000 15.400000 29.480000 179 172 141 0
24.200000 15.400000 29.700000 180 173 142 0
24.420000 15.400000 31.020000 179 172 141 0
24.640000 15.400000 31.240000 179 172 141 0
24.860000 15.400000 31.240000 179 172 141 0
25.080000 15.400000 31.240000 181 174 143 0
25.300000 15.400000 31.240000 182 175 144 0
25.520000 15.400000 31.460000 180 173 142 0
25.740000 15.400000 31.460000 181 174 143 0
25.960000 15.400000 33.000000 180 173 142 0
26.180000 15.400000 33.000000 181 174 143 0
26.400000 15.400000 33.000000 181 174 143 0
26.620000 15.400000 34.100000 182 175 144 0
26.840000 15.400000 34.980000 181 174 143 0
27.060000 15.400000 36.080000 182 175 142 0
27.280000 15.400000 36.080000 182 175 142 0
27.500000 15.400000 36.080000 181 174 143 0
27.720000 15.400000 37.620000 181 174 143 0
27.940000 15.400000 37.620000 181 174 143 0
28.160000 15.400000 37.620000 180 173 142 0
28.380000 15.400000 37.840000 181 174 143 0
28.600000 15.400000 37.840000 181 174 143 0
28.820000 15.400000 37.840000 182 172 142 0
29.040000 15.400000 38.060000 184 174 144 0
29.260000 15.400000 38.060000 180 173 142 0
29.480000 15.400000 38.060000 182 175 144 0
29.700000 15.400000 39.600000 184 174 144 0
29.920000 15.400000 39.600000 183 173 143 0
30.140000 15.400000 39.600000 181 174 143 0
30.360000 15.400000 39.820000 183 176 145 0
30.580000 15.400000 39.820000 184 174 144 0
30.800000 15.400000 39.820000 185 175 145 0
31.020000 15.400000 39.820000 185 175 145 0
31.240000 15.400000 39.820000 184 174 144 0
31.460000 15.400000 40.040000 184 174 144 0
31.680000 15.400000 40.040000 184 174 144 0
31.900000 15.400000 40.040000 185 175 145 0
32.120000 15.400000 29.040000 184 174 144 0
32.340000 15.400000 9.240000 184 174 144 0
33.440000 15.400000 0.220000 183 173 143 0
33.660000 15.400000 0.220000 183 173 143 0
33.880000 15.400000 0.220000 182 172 142 0
34.100000 15.400000 0.220000 184 172 143 0
34.320000 15.400000 0.440000 183 171 142 0
34.540000 15.400000 0.440000 183 171 142 0
34.760000 15.400000 1.760000 186 174 145 0
34.980000 15.400000 1.980000 184 174 146 0
35.200000 15.400000 1.980000 183 173 145 0
35.420000 15.400000 1.980000 185 173 146 0
35.640000 15.400000 2.200000 185 173 146 0
35.860000 15.400000 2.200000 185 173 146 0
36.080000 15.400000 2.200000 185 173 146 0
36.300000 15.400000 2.420000 185 173 144 0
36.520000 15.400000 3.740000 185 173 144 0
36.740000 15.400000 3.740000 185 173 146 0
36.960000 15.400000 3.960000 185 173 146 0
37.180000 15.400000 3.960000 184 172 145 0
0.000000 15.620000 40.040000 184 177 144 0
0.220000 15.620000 40.040000 184 177 144 0
0.440000 15.620000 40.040000 184 177 144 0
0.660000 15.620000 40.040000 184 177 143 0
0.880000 15.620000 40.040000 184 177 143 0
1.100000 15.620000 38.280000 184 177 144 0
1.320000 15.620000 26.620000 184 177 144 0
1.540000 15.620000 8.360000 183 176 143 0
2.420000 15.620000 0.220000 183 176 143 0
2.640000 15.620000 0.220000 184 177 144 0
2.860000 15.620000 0.220000 184 177 144 0
3.080000 15.620000 0.220000 183 176 143 0
3.300000 15.620000 0.220000 183 176 143 0
3.520000 15.620000 0.440000 183 176 143 0
3.740000 15.620000 0.440000 183 176 143 0
3.960000 15.620000 0.440000 184 177 144 0
4.180000 15.620000 1.980000 183 176 143 0
4.400000 15.620000 1.980000 184 177 144 0
4.620000 15.620000 1.980000 183 176 143 0
4.840000 15.620000 1.980000 184 177 144 0
5.060000 15.620000 2.200000 183 176 143 0
5.280000 15.620000 2.200000 183 176 143 0
5.500000 15.620000 2.200000 183 176 143 0
5.720000 15.620000 2.420000 183 176 143 0
5.940000 15.620000 2.420000 184 177 144 0
6.160000 15.620000 3.740000 184 177 144 0
6.380000 15.620000 3.960000 184 177 144 0
6.600000 15.620000 3.960000 183 176 143 0
6.820000 15.620000 3.960000 183 176 143 0
7.040000 15.620000 3.960000 184 177 144 0
7.260000 15.620000 5.060000 184 177 143 0
7.480000 15.620000 5.940000 184 177 143 0
7.700000 15.620000 7.040000 183 176 143 0
7.920000 15.620000 7.040000 183 176 143 0
8.140000 15.620000 8.580000 184 177 144 0
8.360000 15.620000 8.580000 185 178 145 0
8.580000 15.620000 8.580000 185 178 145 0
8.800000 15.620000 8.580000 184 177 144 0
9.020000 15.620000 8.800000 184 177 143 0
9.240000 15.620000 8.800000 183 176 142 0
9.460000 15.620000 8.800000 184 177 144 0
9.680000 15.620000 9.020000 183 176 143 0
9.900000 15.620000 9.020000 183 176 143 0
10.120000 15.620000 9.020000 182 175 142 0
10.340000 15.620000 10.560000 183 176 142 0
10.560000 15.620000 10.560000 183 176 142 0
10.780000 15.620000 10.560000 182 175 141 0
11.000000 15.620000 10.560000 179 172 138 0
11.220000 15.620000 10.780000 181 172 138 0
11.440000 15.620000 10.780000 180 171 137 0
11.660000 15.620000 10.780000 181 170 135 0
11.880000 15.620000 11.000000 181 170 135 0
12.100000 15.620000 11.000000 178 169 133 0
12.320000 15.620000 12.100000 177 168 132 0
12.540000 15.620000 12.980000 177 168 134 0
12.760000 15.620000 14.080000 176 167 133 0
12.980000 15.620000 14.080000 174 167 133 0
13.200000 15.620000 15.400000 175 168 134 0
13.420000 15.620000 15.400000 177 168 134 0
13.640000 15.620000 15.400000 179 170 136 0
13.860000 15.620000 15.620000 178 171 137 0
14.080000 15.620000 15.620000 178 171 137 0
14.300000 15.620000 15.620000 178 171 137 0
14.520000 15.620000 15.620000 178 171 137 0
14.740000 15.620000 15.840000 179 172 138 0
14.960000 15.620000 15.840000 179 172 138 0
15.180000 15.620000 15.840000 182 173 139 0
15.400000 15.620000 16.060000 181 172 138 0
15.620000 15.620000 17.380000 179 172 138 0
15.840000 15.620000 17.600000 181 174 140 0
16.060000 15.620000 17.600000 181 174 140 0
16.280000 15.620000 17.600000 182 175 141 0
16.500000 15.620000 17.820000 181 174 140 0
16.720000 15.620000 17.820000 181 174 140 0
16.940000 15.620000 17.820000 185 176 142 0
17.160000 15.620000 18.920000 185 176 142 0
17.380000 15.620000 21.120000 183 176 142 0
17.600000 15.620000 22.220000 183 176 142 0
17.820000 15.620000 22.220000 183 176 142 0
18.040000 15.620000 22.440000 182 175 141 0
18.260000 15.620000 22.440000 182 175 141 0
18.480000 15.620000 22.440000 182 175 141 0
18.700000 15.620000 22.440000 182 175 142 0
18.920000 15.620000 23.980000 182 175 142 0
19.140000 15.620000 23.980000 182 175 142 0
19.360000 15.620000 23.980000 182 175 142 0
19.580000 15.620000 24.200000 183 176 142 0
19.800000 15.620000 24.200000 183 176 142 0
20.020000 15.620000 24.200000 183 176 142 0
20.240000 15.620000 24.420000 183 176 142 0
20.460000 15.620000 24.420000 182 175 142 0
20.680000 15.620000 24.420000 182 175 142 0
20.900000 15.620000 24.640000 181 174 141 0
21.120000 15.620000 24.640000 182 175 142 0
21.340000 15.620000 25.960000 183 176 143 0
21.560000 15.620000 26.180000 183 176 143 0
21.780000 15.620000 26.180000 182 175 142 0
22.000000 15.620000 25.960000 182 175 142 0
22.220000 15.620000 27.940000 182 175 142 0
22.440000 15.620000 29.040000 181 174 141 0
22.660000 15.620000 29.260000 182 175 144 0
22.880000 15.620000 29.260000 182 175 144 0
23.100000 15.620000 29.260000 180 173 140 0
23.320000 15.620000 29.480000 181 174 141 0
23.540000 15.620000 29.480000 180 173 140 0
23.760000 15.620000 29.480000 180 173 140 0
23.980000 15.620000 29.480000 180 173 140 0
24.200000 15.620000 29.700000 181 174 141 0
24.420000 15.620000 31.020000 182 175 142 0
24.640000 15.620000 31.240000 180 173 140 0
24.860000 15.620000 31.240000 179 172 139 0
25.080000 15.620000 31.240000 181 174 141 0
25.300000 15.620000 31.240000 180 173 140 0
25.520000 15.620000 31.460000 181 174 141 0
25.740000 15.620000 31.460000 182 175 142 0
25.960000 15.620000 33.000000 181 174 141 0
26.180000 15.620000 33.000000 181 174 141 0
26.400000 15.620000 33.000000 182 175 142 0
26.620000 15.620000 34.100000 182 175 144 0
26.840000 15.620000 34.980000 182 175 144 0
27.060000 15.620000 36.080000 182 175 142 0
27.280000 15.620000 36.080000 182 175 142 0
27.500000 15.620000 36.080000 182 175 142 0
27.720000 15.620000 37.620000 182 175 142 0
27.940000 15.620000 37.620000 184 174 142 0
28.160000 15.620000 37.620000 184 174 142 0
28.380000 15.620000 37.840000 184 174 142 0
28.600000 15.620000 37.840000 185 175 143 0
28.820000 15.620000 37.840000 184 174 142 0
29.040000 15.620000 38.060000 184 174 142 0
29.260000 15.620000 38.060000 185 175 143 0
29.480000 15.620000 38.060000 182 172 140 0
29.700000 15.620000 39.600000 182 172 140 0
29.920000 15.620000 39.600000 184 174 142 0
30.140000 15.620000 39.600000 185 175 145 0
30.360000 15.620000 39.820000 185 175 145 0
30.580000 15.620000 39.820000 185 175 145 0
30.800000 15.620000 39.820000 187 177 147 0
31.020000 15.620000 39.820000 186 176 146 0
31.240000 15.620000 39.820000 185 175 145 0
31.460000 15.620000 40.040000 184 174 142 0
31.680000 15.620000 40.040000 185 175 143 0
31.900000 15.620000 40.040000 185 175 145 0
32.120000 15.620000 29.040000 185 175 145 0
32.340000 15.620000 9.240000 184 174 144 0
33.440000 15.620000 0.220000 182 172 140 0
33.660000 15.620000 0.220000 183 171 142 0
33.880000 15.620000 0.220000 183 171 142 0
34.100000 15.620000 0.220000 184 172 143 0
34.320000 15.620000 0.440000 184 172 143 0
34.540000 15.620000 0.440000 184 172 143 0
34.760000 15.620000 1.760000 184 172 143 0
34.980000 15.620000 1.980000 184 174 144 0
35.200000 15.620000 1.980000 184 174 144 0
35.420000 15.620000 1.980000 184 172 143 0
35.640000 15.620000 2.200000 184 172 143 0
35.860000 15.620000 2.200000 185 173 144 0
36.080000 15.620000 2.200000 185 173 144 0
36.300000 15.620000 2.420000 184 172 143 0
36.520000 15.620000 3.740000 184 172 143 0
36.740000 15.620000 3.740000 183 171 142 0
36.960000 15.620000 3.960000 185 173 144 0
37.180000 15.620000 3.960000 186 174 145 0
0.000000 15.840000 40.040000 185 178 145 0
0.220000 15.840000 40.040000 184 177 144 0
0.440000 15.840000 40.040000 185 178 145 0
0.660000 15.840000 40.040000 185 178 144 0
0.880000 15.840000 40.040000 185 178 144 0
1.100000 15.840000 35.420000 184 177 144 0
1.320000 15.840000 21.120000 184 177 144 0
1.540000 15.840000 5.500000 185 178 145 0
2.420000 15.840000 0.220000 183 176 143 0
2.640000 15.840000 0.220000 185 178 145 0
2.860000 15.840000 0.220000 184 177 144 0
3.080000 15.840000 0.220000 184 177 144 0
3.300000 15.840000 0.220000 184 177 144 0
3.520000 15.840000 0.440000 183 176 143 0
3.740000 15.840000 0.440000 184 177 144 0
3.960000 15.840000 0.440000 183 176 143 0
4.180000 15.840000 1.980000 184 177 144 0
4.400000 15.840000 1.980000 184 177 144 0
4.620000 15.840000 1.980000 184 177 144 0
4.840000 15.840000 1.980000 184 177 144 0
5.060000 15.840000 2.200000 183 176 143 0
5.280000 15.840000 2.200000 183 176 143 0
5.500000 15.840000 2.200000 184 177 144 0
5.720000 15.840000 2.420000 184 177 144 0
5.940000 15.840000 2.420000 185 178 145 0
6.160000 15.840000 3.740000 184 177 144 0
6.380000 15.840000 3.960000 183 176 143 0
6.600000 15.840000 3.960000 182 175 142 0
6.820000 15.840000 3.960000 183 176 143 0
7.040000 15.840000 3.960000 185 178 145 0
7.260000 15.840000 5.060000 184 177 143 0
7.480000 15.840000 5.940000 184 177 143 0
7.700000 15.840000 7.040000 184 177 144 0
7.920000 15.840000 7.040000 184 177 144 0
8.140000 15.840000 8.580000 184 177 144 0
8.360000 15.840000 8.580000 185 178 145 0
8.580000 15.840000 8.580000 184 177 144 0
8.800000 15.840000 8.580000 184 177 144 0
9.020000 15.840000 8.800000 183 176 142 0
9.240000 15.840000 8.800000 183 176 142 0
9.460000 15.840000 8.800000 183 176 143 0
9.680000 15.840000 8.800000 184 177 144 0
9.900000 15.840000 9.020000 183 176 143 0
10.120000 15.840000 9.020000 182 175 142 0
10.340000 15.840000 10.560000 183 176 142 0
10.560000 15.840000 10.560000 183 176 142 0
10.780000 15.840000 10.560000 179 172 138 0
11.000000 15.840000 10.560000 177 170 136 0
11.220000 15.840000 10.780000 177 168 134 0
11.440000 15.840000 10.780000 175 166 132 0
11.660000 15.840000 10.780000 177 166 131 0
11.880000 15.840000 10.780000 176 165 130 0
12.100000 15.840000 11.000000 176 167 131 0
12.320000 15.840000 10.780000 177 168 132 0
12.540000 15.840000 12.100000 177 168 134 0
12.760000 15.840000 13.200000 177 168 134 0
12.980000 15.840000 12.980000 176 169 135 0
13.200000 15.840000 14.080000 177 170 136 0
13.420000 15.840000 14.080000 180 171 137 0
13.640000 15.840000 15.400000 181 172 138 0
13.860000 15.840000 15.400000 178 171 137 0
14.080000 15.840000 15.400000 180 173 139 0
14.300000 15.840000 15.620000 179 172 138 0
14.520000 15.840000 15.620000 179 172 138 0
14.740000 15.840000 15.620000 181 174 140 0
14.960000 15.840000 15.620000 180 173 139 0
15.180000 15.840000 15.840000 182 173 139 0
15.400000 15.840000 15.840000 182 173 139 0
15.620000 15.840000 15.840000 179 172 138 0
15.840000 15.840000 17.380000 180 173 139 0
16.060000 15.840000 17.380000 181 174 140 0
16.280000 15.840000 17.600000 181 174 140 0
16.500000 15.840000 17.600000 181 174 140 0
16.720000 15.840000 17.820000 181 174 140 0
16.940000 15.840000 17.820000 184 175 141 0
17.160000 15.840000 18.920000 185 176 142 0
17.380000 15.840000 21.120000 183 176 142 0
17.600000 15.840000 22.220000 183 176 142 0
17.820000 15.840000 22.220000 182 175 141 0
18.040000 15.840000 22.440000 183 176 142 0
18.260000 15.840000 22.440000 182 175 141 0
18.480000 15.840000 22.440000 182 175 141 0
18.700000 15.840000 22.440000 183 176 143 0
18.920000 15.840000 23.980000 184 177 144 0
19.140000 15.840000 23.980000 183 176 143 0
19.360000 15.840000 23.980000 182 175 142 0
19.580000 15.840000 24.200000 183 176 142 0
19.800000 15.840000 24.200000 184 177 143 0
20.020000 15.840000 24.200000 182 175 141 0
20.240000 15.840000 24.420000 183 176 142 0
20.460000 15.840000 24.420000 184 177 144 0
20.680000 15.840000 24.420000 183 176 143 0
20.900000 15.840000 24.640000 182 175 142 0
21.120000 15.840000 24.640000 183 176 143 0
21.340000 15.840000 25.960000 183 176 143 0
21.560000 15.840000 26.180000 183 176 143 0
21.780000 15.840000 26.180000 182 175 142 0
22.000000 15.840000 25.960000 181 174 141 0
22.220000 15.840000 27.940000 181 174 141 0
22.440000 15.840000 29.040000 182 175 142 0
22.660000 15.840000 29.260000 182 175 144 0
22.880000 15.840000 29.260000 182 175 144 0
23.100000 15.840000 29.260000 182 175 142 0
23.320000 15.840000 29.480000 181 174 141 0
23.540000 15.840000 29.480000 182 175 142 0
23.760000 15.840000 29.480000 181 174 141 0
23.980000 15.840000 29.480000 180 173 140 0
24.200000 15.840000 29.700000 181 174 141 0
24.420000 15.840000 31.020000 183 176 143 0
24.640000 15.840000 31.240000 181 174 141 0
24.860000 15.840000 31.240000 180 173 140 0
25.080000 15.840000 31.240000 181 174 141 0
25.300000 15.840000 31.240000 182 175 142 0
25.520000 15.840000 31.460000 183 176 143 0
25.740000 15.840000 31.460000 183 176 143 0
