ply
format ascii 1.0
element vertex 1107
property float x
property float y
property float z
property uchar red
property uchar green
property uchar blue
property uchar alpha
end_header
29.260000 21.120000 20.020000 200 181 162 0
29.480000 21.120000 20.020000 200 181 162 0
29.700000 21.120000 20.020000 200 181 162 0
29.920000 21.120000 20.020000 199 180 160 0
30.140000 21.120000 20.570000 200 181 161 0
30.360000 21.120000 16.060000 200 181 161 0
30.580000 21.120000 5.610000 200 181 161 0
31.020000 21.120000 0.110000 200 181 162 0
31.240000 21.120000 0.110000 201 182 163 0
31.460000 21.120000 0.110000 199 180 161 0
31.680000 21.120000 0.110000 201 182 162 0
31.900000 21.120000 0.110000 200 181 161 0
32.120000 21.120000 0.220000 201 182 163 0
32.340000 21.120000 0.220000 201 182 163 0
32.560000 21.120000 0.990000 200 181 162 0
32.780000 21.120000 0.990000 200 181 162 0
33.000000 21.120000 0.990000 199 180 161 0
33.220000 21.120000 1.100000 200 181 162 0
33.440000 21.120000 1.100000 201 182 162 0
33.660000 21.120000 1.100000 201 182 162 0
33.880000 21.120000 1.210000 201 182 163 0
34.100000 21.120000 1.870000 201 182 163 0
34.320000 21.120000 1.980000 200 181 161 0
34.540000 21.120000 1.980000 201 182 162 0
34.760000 21.120000 1.980000 200 181 162 0
34.980000 21.120000 2.530000 199 180 161 0
35.200000 21.120000 2.970000 199 180 161 0
35.420000 21.120000 3.520000 199 180 161 0
35.640000 21.120000 4.290000 200 178 160 0
35.860000 21.120000 4.290000 196 174 156 0
36.080000 21.120000 4.400000 193 174 155 0
36.300000 21.120000 4.510000 196 177 158 0
36.520000 21.120000 5.280000 198 179 160 0
36.740000 21.120000 5.280000 198 179 160 0
36.960000 21.120000 5.390000 201 179 161 0
37.180000 21.120000 5.390000 201 179 161 0
0.000000 21.340000 19.800000 196 181 155 0
0.220000 21.340000 19.800000 196 181 155 0
0.440000 21.340000 19.800000 195 180 154 0
0.660000 21.340000 19.800000 196 181 155 0
0.880000 21.340000 19.910000 195 180 154 0
1.100000 21.340000 19.910000 194 179 153 0
1.320000 21.340000 19.910000 194 179 153 0
1.540000 21.340000 19.910000 195 180 154 0
1.760000 21.340000 19.910000 195 180 154 0
1.980000 21.340000 20.020000 196 181 155 0
2.200000 21.340000 20.020000 195 180 154 0
2.420000 21.340000 14.520000 194 179 153 0
2.640000 21.340000 4.620000 194 179 153 0
3.740000 21.340000 0.110000 194 179 153 0
3.960000 21.340000 0.110000 195 180 154 0
4.180000 21.340000 0.110000 195 180 154 0
4.400000 21.340000 0.110000 196 181 155 0
4.620000 21.340000 0.110000 195 180 154 0
4.840000 21.340000 0.110000 194 179 153 0
5.060000 21.340000 0.220000 195 180 154 0
5.280000 21.340000 0.880000 195 180 154 0
5.500000 21.340000 0.990000 195 180 154 0
5.720000 21.340000 0.990000 194 179 155 0
5.940000 21.340000 0.990000 196 181 157 0
6.160000 21.340000 1.100000 194 179 153 0
6.380000 21.340000 1.100000 195 180 154 0
6.600000 21.340000 1.100000 195 180 154 0
6.820000 21.340000 1.100000 194 179 153 0
7.040000 21.340000 1.210000 195 180 154 0
7.260000 21.340000 1.870000 195 180 154 0
7.480000 21.340000 1.980000 195 180 156 0
7.700000 21.340000 1.980000 194 179 155 0
7.920000 21.340000 1.980000 195 180 156 0
8.140000 21.340000 2.530000 196 181 157 0
8.360000 21.340000 2.970000 196 181 157 0
8.580000 21.340000 3.520000 196 181 157 0
8.800000 21.340000 3.520000 196 181 157 0
9.020000 21.340000 4.290000 196 181 157 0
9.240000 21.340000 4.290000 197 182 158 0
9.460000 21.340000 4.290000 196 181 157 0
9.680000 21.340000 4.400000 196 181 157 0
9.900000 21.340000 4.400000 197 182 158 0
10.120000 21.340000 4.400000 197 182 158 0
10.340000 21.340000 4.400000 197 182 158 0
10.560000 21.340000 4.510000 197 182 158 0
10.780000 21.340000 4.510000 198 183 159 0
11.000000 21.340000 5.280000 197 182 158 0
11.220000 21.340000 5.280000 194 179 155 0
11.440000 21.340000 5.280000 194 179 155 0
11.660000 21.340000 5.390000 194 179 155 0
11.880000 21.340000 5.940000 193 177 156 0
12.100000 21.340000 7.150000 192 176 155 0
12.320000 21.340000 7.040000 194 178 157 0
12.540000 21.340000 7.700000 195 179 158 0
12.760000 21.340000 7.810000 195 179 158 0
12.980000 21.340000 7.810000 195 179 158 0
13.200000 21.340000 7.810000 195 179 158 0
13.420000 21.340000 7.810000 195 179 158 0
13.640000 21.340000 7.920000 194 178 157 0
13.860000 21.340000 7.920000 194 178 157 0
14.080000 21.340000 7.920000 194 178 157 0
14.300000 21.340000 8.030000 194 178 157 0
14.520000 21.340000 8.690000 195 179 158 0
14.740000 21.340000 8.800000 195 179 158 0
14.960000 21.340000 8.800000 195 179 158 0
15.180000 21.340000 8.800000 195 179 158 0
15.400000 21.340000 8.910000 195 179 158 0
15.620000 21.340000 8.910000 193 177 156 0
15.840000 21.340000 8.910000 195 179 158 0
16.060000 21.340000 9.460000 194 178 157 0
16.280000 21.340000 10.560000 195 179 158 0
16.500000 21.340000 11.110000 195 179 158 0
16.720000 21.340000 11.110000 195 179 158 0
16.940000 21.340000 11.220000 195 179 158 0
17.160000 21.340000 11.220000 194 178 157 0
17.380000 21.340000 11.220000 195 179 158 0
17.600000 21.340000 11.330000 195 179 158 0
17.820000 21.340000 11.330000 195 179 158 0
18.040000 21.340000 12.100000 194 178 157 0
18.260000 21.340000 12.100000 195 179 158 0
18.480000 21.340000 12.100000 197 179 160 0
18.700000 21.340000 12.210000 196 178 159 0
18.920000 21.340000 12.210000 196 180 160 0
19.140000 21.340000 12.210000 196 180 160 0
19.360000 21.340000 12.320000 198 180 161 0
19.580000 21.340000 12.980000 197 179 160 0
19.800000 21.340000 13.090000 196 179 158 0
20.020000 21.340000 13.090000 197 180 159 0
20.240000 21.340000 13.640000 198 180 161 0
20.460000 21.340000 13.970000 198 180 161 0
20.680000 21.340000 14.520000 198 180 161 0
20.900000 21.340000 14.630000 199 181 162 0
21.120000 21.340000 14.630000 199 181 162 0
21.340000 21.340000 14.630000 199 181 162 0
21.560000 21.340000 14.740000 200 183 162 0
21.780000 21.340000 14.740000 200 183 162 0
22.000000 21.340000 15.510000 201 183 164 0
22.220000 21.340000 15.510000 204 186 167 0
22.440000 21.340000 15.510000 202 184 165 0
22.660000 21.340000 15.620000 202 184 165 0
22.880000 21.340000 15.620000 202 184 165 0
23.100000 21.340000 15.620000 201 183 164 0
23.320000 21.340000 15.620000 198 179 159 0
23.540000 21.340000 15.730000 191 172 152 0
23.760000 21.340000 15.730000 189 170 151 0
23.980000 21.340000 15.730000 190 171 152 0
24.200000 21.340000 15.730000 193 175 156 0
24.420000 21.340000 15.730000 196 178 159 0
24.640000 21.340000 15.840000 197 179 160 0
24.860000 21.340000 16.500000 198 180 161 0
25.080000 21.340000 16.500000 199 182 161 0
25.300000 21.340000 17.050000 201 184 163 0
25.520000 21.340000 17.490000 201 183 164 0
25.740000 21.340000 18.040000 201 183 164 0
25.960000 21.340000 18.040000 200 182 163 0
26.180000 21.340000 18.810000 200 182 163 0
26.400000 21.340000 18.810000 200 182 163 0
26.620000 21.340000 18.920000 201 183 164 0
26.840000 21.340000 18.920000 200 181 161 0
27.060000 21.340000 18.920000 201 182 162 0
27.280000 21.340000 19.030000 201 182 163 0
27.500000 21.340000 19.030000 201 182 163 0
27.720000 21.340000 19.030000 201 182 163 0
27.940000 21.340000 19.800000 201 182 163 0
28.160000 21.340000 19.800000 201 182 163 0
28.380000 21.340000 19.800000 200 181 162 0
28.600000 21.340000 19.910000 201 182 162 0
28.820000 21.340000 19.910000 199 180 160 0
29.040000 21.340000 19.910000 200 181 162 0
29.260000 21.340000 20.020000 201 182 163 0
29.480000 21.340000 20.020000 200 181 162 0
29.700000 21.340000 20.020000 201 182 163 0
29.920000 21.340000 20.020000 201 182 163 0
30.140000 21.340000 20.570000 200 181 162 0
30.360000 21.340000 16.060000 200 181 161 0
30.580000 21.340000 5.610000 201 182 162 0
31.020000 21.340000 0.110000 200 181 161 0
31.240000 21.340000 0.110000 201 182 163 0
31.460000 21.340000 0.110000 200 181 162 0
31.680000 21.340000 0.110000 201 182 163 0
31.900000 21.340000 0.110000 201 182 163 0
32.120000 21.340000 0.220000 201 182 162 0
32.340000 21.340000 0.220000 201 182 162 0
32.560000 21.340000 0.990000 201 182 162 0
32.780000 21.340000 0.990000 199 180 160 0
33.000000 21.340000 0.990000 200 181 161 0
33.220000 21.340000 1.100000 201 182 162 0
33.440000 21.340000 1.100000 201 182 163 0
33.660000 21.340000 1.100000 200 181 162 0
33.880000 21.340000 1.210000 201 182 163 0
34.100000 21.340000 1.870000 200 181 162 0
34.320000 21.340000 1.980000 200 181 161 0
34.540000 21.340000 1.980000 200 181 161 0
34.760000 21.340000 1.980000 200 181 162 0
34.980000 21.340000 2.530000 200 181 162 0
35.200000 21.340000 2.970000 201 182 163 0
35.420000 21.340000 3.520000 199 180 161 0
35.640000 21.340000 4.290000 198 179 160 0
35.860000 21.340000 4.290000 195 176 157 0
36.080000 21.340000 4.400000 194 175 156 0
36.300000 21.340000 4.510000 196 177 158 0
36.520000 21.340000 5.280000 199 180 161 0
36.740000 21.340000 5.280000 199 180 161 0
36.960000 21.340000 5.390000 198 179 160 0
37.180000 21.340000 5.390000 199 180 161 0
0.000000 21.560000 19.800000 195 180 154 0
0.220000 21.560000 19.800000 196 181 155 0
0.440000 21.560000 19.800000 196 181 155 0
0.660000 21.560000 19.800000 194 179 153 0
0.880000 21.560000 19.910000 195 180 154 0
1.100000 21.560000 19.910000 194 179 153 0
1.320000 21.560000 19.910000 195 180 154 0
1.540000 21.560000 19.910000 194 179 153 0
1.760000 21.560000 20.020000 195 180 154 0
1.980000 21.560000 20.020000 196 181 155 0
2.200000 21.560000 20.020000 195 180 154 0
2.420000 21.560000 15.840000 194 179 153 0
2.640000 21.560000 7.370000 195 180 154 0
2.860000 21.560000 0.880000 196 181 155 0
3.740000 21.560000 0.110000 194 179 153 0
3.960000 21.560000 0.110000 196 181 155 0
4.180000 21.560000 0.110000 195 180 154 0
4.400000 21.560000 0.110000 196 181 155 0
4.620000 21.560000 0.110000 195 180 154 0
4.840000 21.560000 0.110000 195 180 154 0
5.060000 21.560000 0.220000 195 180 154 0
5.280000 21.560000 0.880000 195 180 154 0
5.500000 21.560000 0.990000 194 179 153 0
5.720000 21.560000 0.990000 195 180 156 0
5.940000 21.560000 0.990000 195 180 156 0
6.160000 21.560000 1.100000 195 180 154 0
6.380000 21.560000 1.100000 195 180 154 0
6.600000 21.560000 1.100000 195 180 154 0
6.820000 21.560000 1.100000 194 179 153 0
7.040000 21.560000 1.870000 196 181 155 0
7.260000 21.560000 1.870000 195 180 154 0
7.480000 21.560000 1.980000 194 179 155 0
7.700000 21.560000 1.980000 195 180 156 0
7.920000 21.560000 1.980000 195 180 156 0
8.140000 21.560000 2.530000 196 181 157 0
8.360000 21.560000 2.970000 196 181 157 0
8.580000 21.560000 3.520000 196 181 157 0
8.800000 21.560000 3.520000 196 181 157 0
9.020000 21.560000 4.290000 196 181 157 0
9.240000 21.560000 4.290000 196 181 157 0
9.460000 21.560000 4.290000 197 182 158 0
9.680000 21.560000 4.400000 197 182 158 0
9.900000 21.560000 4.400000 198 183 159 0
10.120000 21.560000 4.400000 197 182 158 0
10.340000 21.560000 4.400000 197 182 158 0
10.560000 21.560000 4.510000 198 183 159 0
10.780000 21.560000 4.510000 198 183 159 0
11.000000 21.560000 5.280000 197 182 158 0
11.220000 21.560000 5.280000 194 179 155 0
11.440000 21.560000 5.280000 194 179 155 0
11.660000 21.560000 5.390000 194 179 155 0
11.880000 21.560000 5.940000 195 179 158 0
12.100000 21.560000 7.150000 195 179 158 0
12.320000 21.560000 7.040000 196 180 159 0
12.540000 21.560000 7.700000 195 179 158 0
12.760000 21.560000 7.810000 195 179 158 0
12.980000 21.560000 7.810000 196 180 159 0
13.200000 21.560000 7.810000 196 180 159 0
13.420000 21.560000 7.810000 195 179 158 0
13.640000 21.560000 7.920000 194 178 157 0
13.860000 21.560000 7.920000 193 177 156 0
14.080000 21.560000 7.920000 195 179 158 0
14.300000 21.560000 8.030000 195 179 158 0
14.520000 21.560000 8.690000 195 179 158 0
14.740000 21.560000 8.800000 195 179 158 0
14.960000 21.560000 8.800000 196 180 159 0
15.180000 21.560000 8.800000 196 180 159 0
15.400000 21.560000 8.910000 195 179 158 0
15.620000 21.560000 8.910000 192 176 155 0
15.840000 21.560000 8.910000 193 177 156 0
16.060000 21.560000 9.460000 195 179 158 0
16.280000 21.560000 10.560000 195 179 158 0
16.500000 21.560000 11.110000 195 179 158 0
16.720000 21.560000 11.110000 195 179 158 0
16.940000 21.560000 11.220000 195 179 158 0
17.160000 21.560000 11.220000 196 180 159 0
17.380000 21.560000 11.220000 195 179 158 0
17.600000 21.560000 11.330000 196 180 159 0
17.820000 21.560000 11.330000 195 179 158 0
18.040000 21.560000 12.100000 197 181 160 0
18.260000 21.560000 12.100000 195 179 158 0
18.480000 21.560000 12.100000 197 179 160 0
18.700000 21.560000 12.210000 196 178 159 0
18.920000 21.560000 12.210000 196 180 160 0
19.140000 21.560000 12.210000 196 180 160 0
19.360000 21.560000 12.320000 198 180 161 0
19.580000 21.560000 12.980000 197 179 160 0
19.800000 21.560000 13.090000 198 181 160 0
20.020000 21.560000 13.090000 198 181 160 0
20.240000 21.560000 13.640000 198 180 161 0
20.460000 21.560000 13.970000 198 180 161 0
20.680000 21.560000 14.520000 197 179 160 0
20.900000 21.560000 14.630000 199 181 162 0
21.120000 21.560000 14.630000 199 181 162 0
21.340000 21.560000 14.630000 199 181 162 0
21.560000 21.560000 14.740000 199 182 161 0
21.780000 21.560000 14.740000 201 184 163 0
22.000000 21.560000 15.510000 201 183 164 0
22.220000 21.560000 15.510000 202 184 165 0
22.440000 21.560000 15.510000 202 184 165 0
22.660000 21.560000 15.620000 202 184 165 0
22.880000 21.560000 15.620000 202 184 165 0
23.100000 21.560000 15.620000 200 182 163 0
23.320000 21.560000 15.620000 198 179 159 0
23.540000 21.560000 15.730000 191 172 152 0
23.760000 21.560000 15.730000 188 169 150 0
23.980000 21.560000 15.730000 190 171 152 0
24.200000 21.560000 15.730000 192 174 155 0
24.420000 21.560000 15.730000 196 178 159 0
24.640000 21.560000 15.840000 196 178 159 0
24.860000 21.560000 16.500000 198 180 161 0
25.080000 21.560000 16.500000 199 182 161 0
25.300000 21.560000 17.050000 201 184 163 0
25.520000 21.560000 17.490000 201 183 164 0
25.740000 21.560000 18.040000 201 183 164 0
25.960000 21.560000 18.040000 201 183 164 0
26.180000 21.560000 18.810000 201 183 164 0
26.400000 21.560000 18.810000 201 183 164 0
26.620000 21.560000 18.920000 200 182 163 0
26.840000 21.560000 18.920000 201 182 162 0
27.060000 21.560000 18.920000 201 182 162 0
27.280000 21.560000 19.030000 201 182 163 0
27.500000 21.560000 19.030000 202 183 164 0
27.720000 21.560000 19.030000 201 182 163 0
27.940000 21.560000 19.800000 201 182 163 0
28.160000 21.560000 19.800000 201 182 163 0
28.380000 21.560000 19.800000 200 181 162 0
28.600000 21.560000 19.910000 200 181 161 0
28.820000 21.560000 19.910000 201 182 162 0
29.040000 21.560000 19.910000 200 181 162 0
29.260000 21.560000 20.020000 201 182 163 0
29.480000 21.560000 20.020000 200 181 162 0
29.700000 21.560000 20.020000 201 182 163 0
29.920000 21.560000 20.020000 200 181 162 0
30.140000 21.560000 20.570000 201 182 163 0
30.360000 21.560000 16.060000 201 182 162 0
30.580000 21.560000 5.610000 200 181 161 0
31.020000 21.560000 0.110000 200 181 161 0
31.240000 21.560000 0.110000 201 182 163 0
31.460000 21.560000 0.110000 201 182 163 0
31.680000 21.560000 0.110000 202 183 164 0
31.900000 21.560000 0.110000 201 182 163 0
32.120000 21.560000 0.220000 201 182 162 0
32.340000 21.560000 0.220000 200 181 161 0
32.560000 21.560000 0.990000 201 182 162 0
32.780000 21.560000 0.990000 201 182 162 0
33.000000 21.560000 0.990000 200 181 161 0
33.220000 21.560000 1.100000 201 182 162 0
33.440000 21.560000 1.100000 200 181 162 0
33.660000 21.560000 1.100000 200 181 162 0
33.880000 21.560000 1.210000 201 182 163 0
34.100000 21.560000 1.870000 201 182 163 0
34.320000 21.560000 1.980000 200 181 161 0
34.540000 21.560000 1.980000 200 181 161 0
34.760000 21.560000 1.980000 200 181 162 0
34.980000 21.560000 2.530000 200 181 162 0
35.200000 21.560000 2.970000 200 181 162 0
35.420000 21.560000 3.520000 200 181 162 0
35.640000 21.560000 4.290000 198 179 160 0
35.860000 21.560000 4.290000 196 177 158 0
36.080000 21.560000 4.290000 194 175 156 0
36.300000 21.560000 4.510000 197 178 159 0
36.520000 21.560000 5.280000 200 181 162 0
36.740000 21.560000 5.280000 199 180 161 0
36.960000 21.560000 5.390000 200 181 162 0
37.180000 21.560000 5.390000 200 181 162 0
0.000000 21.780000 19.800000 193 181 152 0
0.220000 21.780000 19.800000 194 182 153 0
0.440000 21.780000 19.800000 195 180 154 0
0.660000 21.780000 19.800000 195 180 154 0
0.880000 21.780000 19.910000 195 180 152 0
1.100000 21.780000 19.910000 195 180 152 0
1.320000 21.780000 19.910000 194 179 153 0
1.540000 21.780000 19.910000 195 180 154 0
1.760000 21.780000 19.910000 195 180 152 0
1.980000 21.780000 20.020000 196 181 153 0
2.200000 21.780000 20.020000 195 180 154 0
2.420000 21.780000 17.270000 194 179 153 0
2.640000 21.780000 9.460000 195 180 154 0
2.860000 21.780000 2.200000 195 180 154 0
3.740000 21.780000 0.110000 196 181 153 0
3.960000 21.780000 0.110000 194 179 153 0
4.180000 21.780000 0.110000 196 181 155 0
4.400000 21.780000 0.110000 196 181 155 0
4.620000 21.780000 0.110000 196 181 155 0
4.840000 21.780000 0.110000 196 181 155 0
5.060000 21.780000 0.220000 195 180 154 0
5.280000 21.780000 0.880000 196 181 155 0
5.500000 21.780000 0.990000 196 181 155 0
5.720000 21.780000 0.990000 195 180 154 0
5.940000 21.780000 0.990000 195 180 154 0
6.160000 21.780000 1.100000 195 180 154 0
6.380000 21.780000 1.100000 195 180 154 0
6.600000 21.780000 1.100000 195 180 154 0
6.820000 21.780000 1.100000 195 180 154 0
7.040000 21.780000 1.870000 195 180 154 0
7.260000 21.780000 1.870000 194 179 153 0
7.480000 21.780000 1.980000 195 180 154 0
7.700000 21.780000 1.980000 195 180 154 0
7.920000 21.780000 1.980000 195 180 156 0
8.140000 21.780000 2.530000 196 181 157 0
8.360000 21.780000 2.970000 197 180 157 0
8.580000 21.780000 3.520000 196 179 156 0
8.800000 21.780000 3.520000 198 181 158 0
9.020000 21.780000 4.290000 197 180 157 0
9.240000 21.780000 4.290000 197 182 158 0
9.460000 21.780000 4.290000 197 182 158 0
9.680000 21.780000 4.400000 197 182 158 0
9.900000 21.780000 4.400000 197 182 158 0
10.120000 21.780000 4.400000 197 182 158 0
10.340000 21.780000 4.400000 197 182 158 0
10.560000 21.780000 4.510000 197 182 158 0
10.780000 21.780000 4.510000 198 183 159 0
11.000000 21.780000 5.280000 197 182 158 0
11.220000 21.780000 5.280000 195 180 156 0
11.440000 21.780000 5.280000 194 179 155 0
11.660000 21.780000 5.390000 193 178 154 0
11.880000 21.780000 5.940000 194 179 155 0
12.100000 21.780000 7.150000 195 180 156 0
12.320000 21.780000 7.040000 196 180 159 0
12.540000 21.780000 7.700000 195 179 158 0
12.760000 21.780000 7.810000 195 180 156 0
12.980000 21.780000 7.810000 196 181 157 0
13.200000 21.780000 7.810000 195 179 158 0
13.420000 21.780000 7.810000 195 179 158 0
13.640000 21.780000 7.920000 196 179 156 0
13.860000 21.780000 7.920000 196 179 156 0
14.080000 21.780000 7.920000 195 178 157 0
14.300000 21.780000 8.030000 196 179 158 0
14.520000 21.780000 8.690000 195 179 158 0
14.740000 21.780000 8.800000 195 179 158 0
14.960000 21.780000 8.800000 197 180 159 0
15.180000 21.780000 8.800000 196 179 158 0
15.400000 21.780000 8.910000 195 180 156 0
15.620000 21.780000 8.910000 195 180 156 0
15.840000 21.780000 8.910000 196 179 158 0
16.060000 21.780000 9.460000 196 179 158 0
16.280000 21.780000 10.560000 196 180 159 0
16.500000 21.780000 11.110000 195 179 158 0
16.720000 21.780000 11.110000 196 180 159 0
16.940000 21.780000 11.220000 196 180 159 0
17.160000 21.780000 11.220000 196 181 157 0
17.380000 21.780000 11.220000 195 180 156 0
17.600000 21.780000 11.330000 196 179 158 0
17.820000 21.780000 11.330000 197 180 159 0
18.040000 21.780000 11.330000 197 180 159 0
18.260000 21.780000 12.100000 196 179 158 0
18.480000 21.780000 12.100000 197 180 159 0
18.700000 21.780000 12.210000 197 180 159 0
18.920000 21.780000 12.210000 196 180 159 0
19.140000 21.780000 12.210000 197 181 160 0
19.360000 21.780000 12.320000 197 181 160 0
19.580000 21.780000 12.980000 197 181 160 0
19.800000 21.780000 13.090000 198 181 160 0
20.020000 21.780000 13.090000 197 180 159 0
20.240000 21.780000 13.640000 198 181 160 0
20.460000 21.780000 13.970000 198 181 160 0
20.680000 21.780000 14.520000 198 182 161 0
20.900000 21.780000 14.630000 197 181 160 0
21.120000 21.780000 14.630000 199 182 161 0
21.340000 21.780000 14.630000 200 183 162 0
21.560000 21.780000 14.740000 200 182 163 0
21.780000 21.780000 14.740000 200 182 163 0
22.000000 21.780000 15.510000 201 183 164 0
22.220000 21.780000 15.510000 202 184 165 0
22.440000 21.780000 15.510000 202 186 165 0
22.660000 21.780000 15.620000 201 185 164 0
22.880000 21.780000 15.620000 202 185 164 0
23.100000 21.780000 15.620000 202 185 164 0
23.320000 21.780000 15.620000 202 181 159 0
23.540000 21.780000 15.730000 194 173 151 0
23.760000 21.780000 15.730000 191 169 150 0
23.980000 21.780000 15.730000 191 169 150 0
24.200000 21.780000 15.730000 193 176 155 0
24.420000 21.780000 15.730000 194 177 156 0
24.640000 21.780000 15.840000 198 179 160 0
24.860000 21.780000 16.500000 199 180 161 0
25.080000 21.780000 16.500000 201 183 164 0
25.300000 21.780000 17.050000 202 184 165 0
25.520000 21.780000 17.490000 202 185 164 0
25.740000 21.780000 18.040000 201 184 163 0
25.960000 21.780000 18.040000 201 184 163 0
26.180000 21.780000 18.810000 201 184 163 0
26.400000 21.780000 18.810000 202 183 164 0
26.620000 21.780000 18.920000 201 182 163 0
26.840000 21.780000 18.920000 201 183 164 0
27.060000 21.780000 18.920000 200 182 163 0
27.280000 21.780000 19.030000 201 182 162 0
27.500000 21.780000 19.030000 201 182 162 0
27.720000 21.780000 19.030000 200 183 162 0
27.940000 21.780000 19.800000 201 184 163 0
28.160000 21.780000 19.800000 201 182 163 0
28.380000 21.780000 19.800000 200 181 162 0
28.600000 21.780000 19.910000 201 182 163 0
28.820000 21.780000 19.910000 201 182 163 0
29.040000 21.780000 19.910000 200 183 162 0
29.260000 21.780000 20.020000 200 183 162 0
29.480000 21.780000 20.020000 201 182 163 0
29.700000 21.780000 20.020000 201 182 163 0
29.920000 21.780000 20.020000 200 181 162 0
30.140000 21.780000 20.570000 201 182 163 0
30.360000 21.780000 16.060000 201 182 163 0
30.580000 21.780000 5.610000 202 183 164 0
31.020000 21.780000 0.110000 201 182 162 0
31.240000 21.780000 0.110000 201 182 163 0
31.460000 21.780000 0.110000 201 182 163 0
31.680000 21.780000 0.110000 201 182 162 0
31.900000 21.780000 0.110000 201 182 162 0
32.120000 21.780000 0.220000 201 182 163 0
32.340000 21.780000 0.220000 201 182 163 0
32.560000 21.780000 0.990000 201 182 162 0
32.780000 21.780000 0.990000 201 182 162 0
33.000000 21.780000 0.990000 201 182 163 0
33.220000 21.780000 1.100000 201 182 163 0
33.440000 21.780000 1.100000 200 181 162 0
33.660000 21.780000 1.100000 201 182 163 0
33.880000 21.780000 1.210000 201 182 163 0
34.100000 21.780000 1.870000 201 182 163 0
34.320000 21.780000 1.980000 201 182 162 0
34.540000 21.780000 1.980000 200 181 161 0
34.760000 21.780000 1.980000 201 182 162 0
34.980000 21.780000 2.530000 200 181 161 0
35.200000 21.780000 2.970000 200 181 161 0
35.420000 21.780000 3.520000 200 181 161 0
35.640000 21.780000 4.290000 197 178 159 0
35.860000 21.780000 4.290000 197 178 159 0
36.080000 21.780000 4.290000 195 176 157 0
36.300000 21.780000 4.400000 197 178 159 0
36.520000 21.780000 5.280000 198 179 159 0
36.740000 21.780000 5.280000 199 180 160 0
36.960000 21.780000 5.390000 200 181 161 0
37.180000 21.780000 5.390000 199 180 160 0
0.000000 22.000000 19.800000 194 182 153 0
0.220000 22.000000 19.800000 195 183 154 0
0.440000 22.000000 19.800000 196 181 155 0
0.660000 22.000000 19.800000 195 180 154 0
0.880000 22.000000 19.910000 195 180 152 0
1.100000 22.000000 19.910000 195 180 152 0
1.320000 22.000000 19.910000 196 181 155 0
1.540000 22.000000 19.910000 195 180 154 0
1.760000 22.000000 19.910000 195 180 152 0
1.980000 22.000000 20.020000 195 180 152 0
2.200000 22.000000 20.020000 195 180 154 0
2.420000 22.000000 17.270000 194 179 153 0
2.640000 22.000000 9.460000 195 180 154 0
2.860000 22.000000 2.200000 196 181 155 0
3.960000 22.000000 0.110000 195 180 154 0
4.180000 22.000000 0.110000 195 180 154 0
4.400000 22.000000 0.110000 196 181 155 0
4.620000 22.000000 0.110000 196 181 155 0
4.840000 22.000000 0.110000 196 181 155 0
5.060000 22.000000 0.220000 196 181 155 0
5.280000 22.000000 0.880000 196 181 155 0
5.500000 22.000000 0.990000 196 181 155 0
5.720000 22.000000 0.990000 196 181 155 0
5.940000 22.000000 0.990000 195 180 154 0
6.160000 22.000000 1.100000 196 181 155 0
6.380000 22.000000 1.100000 196 181 155 0
6.600000 22.000000 1.100000 195 180 154 0
6.820000 22.000000 1.100000 195 180 154 0
7.040000 22.000000 1.210000 195 180 154 0
7.260000 22.000000 1.870000 196 181 155 0
7.480000 22.000000 1.980000 195 180 154 0
7.700000 22.000000 1.980000 196 181 155 0
7.920000 22.000000 1.980000 196 181 157 0
8.140000 22.000000 2.530000 195 180 156 0
8.360000 22.000000 2.970000 197 180 157 0
8.580000 22.000000 3.520000 196 179 156 0
8.800000 22.000000 3.520000 197 180 157 0
9.020000 22.000000 3.520000 198 181 158 0
9.240000 22.000000 4.290000 197 182 158 0
9.460000 22.000000 4.290000 196 181 157 0
9.680000 22.000000 4.400000 197 182 158 0
9.900000 22.000000 4.400000 197 182 158 0
10.120000 22.000000 4.400000 197 182 158 0
10.340000 22.000000 4.400000 197 182 158 0
10.560000 22.000000 4.510000 198 183 159 0
10.780000 22.000000 4.510000 198 183 159 0
11.000000 22.000000 5.280000 197 182 158 0
11.220000 22.000000 5.280000 196 181 157 0
11.440000 22.000000 5.280000 194 179 155 0
11.660000 22.000000 5.390000 194 179 155 0
11.880000 22.000000 5.940000 196 181 157 0
12.100000 22.000000 7.150000 195 180 156 0
12.320000 22.000000 7.040000 195 179 158 0
12.540000 22.000000 7.700000 196 180 159 0
12.760000 22.000000 7.700000 195 180 156 0
12.980000 22.000000 7.810000 195 180 156 0
13.200000 22.000000 7.810000 196 180 159 0
13.420000 22.000000 7.810000 195 179 158 0
13.640000 22.000000 7.920000 196 179 156 0
13.860000 22.000000 7.920000 197 180 157 0
14.080000 22.000000 7.920000 196 179 158 0
14.300000 22.000000 8.030000 196 179 158 0
14.520000 22.000000 8.690000 196 180 159 0
14.740000 22.000000 8.800000 195 179 158 0
14.960000 22.000000 8.800000 196 179 158 0
15.180000 22.000000 8.800000 197 180 159 0
15.400000 22.000000 8.910000 196 181 157 0
15.620000 22.000000 8.910000 196 181 157 0
15.840000 22.000000 8.910000 196 179 158 0
16.060000 22.000000 9.460000 196 179 158 0
16.280000 22.000000 10.560000 196 180 159 0
16.500000 22.000000 11.110000 196 180 159 0
16.720000 22.000000 11.110000 197 181 160 0
16.940000 22.000000 11.220000 196 180 159 0
17.160000 22.000000 11.220000 197 182 158 0
17.380000 22.000000 11.220000 196 181 157 0
17.600000 22.000000 11.330000 197 180 159 0
17.820000 22.000000 11.330000 197 180 159 0
18.040000 22.000000 11.330000 197 180 159 0
18.260000 22.000000 12.100000 197 180 159 0
18.480000 22.000000 12.100000 197 180 159 0
18.700000 22.000000 12.210000 197 180 159 0
18.920000 22.000000 12.210000 197 181 160 0
19.140000 22.000000 12.210000 196 180 159 0
19.360000 22.000000 12.320000 197 181 160 0
19.580000 22.000000 12.980000 197 181 160 0
19.800000 22.000000 13.090000 198 181 160 0
20.020000 22.000000 13.090000 198 181 160 0
20.240000 22.000000 13.640000 198 181 160 0
20.460000 22.000000 13.970000 198 181 160 0
20.680000 22.000000 14.520000 198 182 161 0
20.900000 22.000000 14.630000 198 182 161 0
21.120000 22.000000 14.630000 199 182 161 0
21.340000 22.000000 14.630000 200 183 162 0
21.560000 22.000000 14.740000 200 182 163 0
21.780000 22.000000 14.740000 200 182 163 0
22.000000 22.000000 14.740000 201 183 164 0
22.220000 22.000000 15.510000 202 184 165 0
22.440000 22.000000 15.510000 202 186 165 0
22.660000 22.000000 15.620000 202 186 165 0
22.880000 22.000000 15.620000 203 186 165 0
23.100000 22.000000 15.620000 201 184 163 0
23.320000 22.000000 15.620000 201 180 158 0
23.540000 22.000000 15.730000 192 171 149 0
23.760000 22.000000 15.730000 191 169 150 0
23.980000 22.000000 15.730000 193 171 152 0
24.200000 22.000000 15.730000 193 176 155 0
24.420000 22.000000 15.730000 196 179 158 0
24.640000 22.000000 15.840000 199 180 161 0
24.860000 22.000000 16.500000 199 180 161 0
25.080000 22.000000 16.500000 200 182 163 0
25.300000 22.000000 17.050000 202 184 165 0
25.520000 22.000000 17.490000 201 184 163 0
25.740000 22.000000 18.040000 202 185 164 0
25.960000 22.000000 18.040000 202 185 164 0
26.180000 22.000000 18.810000 201 184 163 0
26.400000 22.000000 18.810000 201 182 163 0
26.620000 22.000000 18.920000 201 182 163 0
26.840000 22.000000 18.920000 200 182 163 0
27.060000 22.000000 18.920000 199 181 162 0
27.280000 22.000000 19.030000 201 182 162 0
27.500000 22.000000 19.030000 201 182 162 0
27.720000 22.000000 19.030000 201 184 163 0
27.940000 22.000000 19.800000 201 184 163 0
28.160000 22.000000 19.800000 201 182 163 0
28.380000 22.000000 19.800000 200 181 162 0
28.600000 22.000000 19.910000 201 182 163 0
28.820000 22.000000 19.910000 201 182 163 0
29.040000 22.000000 19.910000 199 182 161 0
29.260000 22.000000 20.020000 201 184 163 0
29.480000 22.000000 20.020000 200 181 162 0
29.700000 22.000000 20.020000 201 182 163 0
29.920000 22.000000 20.020000 201 182 163 0
30.140000 22.000000 20.570000 200 181 162 0
30.360000 22.000000 16.060000 201 182 163 0
30.580000 22.000000 5.610000 201 182 163 0
31.020000 22.000000 0.110000 201 182 162 0
31.240000 22.000000 0.110000 200 181 162 0
31.460000 22.000000 0.110000 200 181 162 0
31.680000 22.000000 0.110000 201 182 162 0
31.900000 22.000000 0.110000 201 182 162 0
32.120000 22.000000 0.220000 201 182 163 0
32.340000 22.000000 0.220000 201 182 163 0
32.560000 22.000000 0.990000 201 182 162 0
32.780000 22.000000 0.990000 201 182 162 0
33.000000 22.000000 0.990000 201 182 163 0
33.220000 22.000000 1.100000 202 183 164 0
33.440000 22.000000 1.100000 201 182 163 0
33.660000 22.000000 1.100000 200 181 162 0
33.880000 22.000000 1.210000 201 182 163 0
34.100000 22.000000 1.870000 201 182 163 0
34.320000 22.000000 1.980000 200 181 161 0
34.540000 22.000000 1.980000 200 181 161 0
34.760000 22.000000 1.980000 200 181 161 0
34.980000 22.000000 2.530000 200 181 161 0
35.200000 22.000000 2.970000 200 181 161 0
35.420000 22.000000 3.520000 200 181 161 0
35.640000 22.000000 4.290000 199 180 161 0
35.860000 22.000000 4.290000 196 177 158 0
36.080000 22.000000 4.290000 196 177 158 0
36.300000 22.000000 4.400000 197 178 159 0
36.520000 22.000000 5.280000 200 181 161 0
36.740000 22.000000 5.280000 199 180 160 0
36.960000 22.000000 5.390000 199 180 160 0
37.180000 22.000000 5.390000 200 181 161 0
0.000000 22.220000 19.800000 196 184 155 0
0.220000 22.220000 19.800000 195 183 154 0
0.440000 22.220000 19.800000 194 182 155 0
0.660000 22.220000 19.800000 194 182 155 0
0.880000 22.220000 19.910000 193 181 154 0
1.100000 22.220000 19.910000 194 182 155 0
1.320000 22.220000 19.910000 195 180 154 0
1.540000 22.220000 19.910000 196 181 155 0
1.760000 22.220000 19.910000 196 181 153 0
1.980000 22.220000 20.020000 195 180 152 0
2.200000 22.220000 20.020000 195 180 154 0
2.420000 22.220000 18.590000 194 179 153 0
2.640000 22.220000 12.320000 195 180 154 0
2.860000 22.220000 3.740000 195 180 154 0
3.080000 22.220000 0.110000 195 180 154 0
3.960000 22.220000 0.110000 195 180 154 0
4.180000 22.220000 0.110000 196 181 155 0
4.400000 22.220000 0.110000 196 181 157 0
4.620000 22.220000 0.110000 196 181 157 0
4.840000 22.220000 0.110000 196 181 155 0
5.060000 22.220000 0.220000 197 182 156 0
5.280000 22.220000 0.220000 197 182 156 0
5.500000 22.220000 0.990000 196 181 155 0
5.720000 22.220000 0.990000 195 180 154 0
5.940000 22.220000 0.990000 195 180 154 0
6.160000 22.220000 1.100000 196 181 157 0
6.380000 22.220000 1.100000 196 181 157 0
6.600000 22.220000 1.100000 196 181 155 0
6.820000 22.220000 1.100000 195 180 154 0
7.040000 22.220000 1.210000 195 180 154 0
7.260000 22.220000 1.870000 195 180 154 0
7.480000 22.220000 1.980000 195 180 154 0
7.700000 22.220000 1.980000 195 180 154 0
7.920000 22.220000 1.980000 195 180 156 0
8.140000 22.220000 2.530000 195 180 156 0
8.360000 22.220000 2.970000 195 180 156 0
8.580000 22.220000 3.520000 196 181 157 0
8.800000 22.220000 3.520000 196 181 155 0
9.020000 22.220000 3.520000 198 183 157 0
9.240000 22.220000 4.290000 197 182 158 0
9.460000 22.220000 4.290000 198 183 159 0
9.680000 22.220000 4.400000 197 182 158 0
9.900000 22.220000 4.400000 197 182 158 0
10.120000 22.220000 4.400000 198 183 159 0
10.340000 22.220000 4.400000 197 182 158 0
10.560000 22.220000 4.510000 199 184 160 0
10.780000 22.220000 4.510000 199 184 160 0
11.000000 22.220000 5.280000 197 182 158 0
11.220000 22.220000 5.280000 196 181 157 0
11.440000 22.220000 5.280000 194 178 157 0
11.660000 22.220000 5.390000 194 178 157 0
11.880000 22.220000 5.940000 196 181 157 0
12.100000 22.220000 7.150000 196 181 157 0
12.320000 22.220000 7.040000 196 179 158 0
12.540000 22.220000 7.700000 197 180 159 0
12.760000 22.220000 7.700000 195 179 158 0
12.980000 22.220000 7.810000 196 180 159 0
13.200000 22.220000 7.810000 196 180 159 0
13.420000 22.220000 7.810000 196 180 159 0
13.640000 22.220000 7.920000 196 180 159 0
13.860000 22.220000 7.920000 196 180 159 0
14.080000 22.220000 7.920000 196 180 159 0
14.300000 22.220000 8.030000 195 179 158 0
14.520000 22.220000 8.030000 197 180 159 0
14.740000 22.220000 8.800000 197 180 159 0
14.960000 22.220000 8.800000 195 179 158 0
15.180000 22.220000 8.800000 196 180 159 0
15.400000 22.220000 8.910000 196 180 159 0
15.620000 22.220000 8.910000 195 179 158 0
15.840000 22.220000 8.910000 197 180 159 0
16.060000 22.220000 9.460000 197 180 159 0
16.280000 22.220000 10.560000 197 179 160 0
16.500000 22.220000 11.110000 196 178 159 0
16.720000 22.220000 11.110000 196 180 160 0
16.940000 22.220000 11.220000 198 182 162 0
17.160000 22.220000 11.220000 197 181 160 0
17.380000 22.220000 11.220000 196 180 159 0
17.600000 22.220000 11.330000 197 180 159 0
17.820000 22.220000 11.330000 198 181 160 0
18.040000 22.220000 12.100000 198 182 162 0
18.260000 22.220000 12.100000 197 181 161 0
18.480000 22.220000 12.100000 198 180 161 0
18.700000 22.220000 12.210000 198 180 161 0
18.920000 22.220000 12.210000 198 181 160 0
19.140000 22.220000 12.210000 198 181 160 0
19.360000 22.220000 12.320000 198 180 161 0
19.580000 22.220000 12.980000 198 180 161 0
19.800000 22.220000 13.090000 198 182 162 0
20.020000 22.220000 13.090000 197 181 161 0
20.240000 22.220000 12.980000 198 180 161 0
20.460000 22.220000 13.970000 199 181 162 0
20.680000 22.220000 14.520000 199 181 162 0
20.900000 22.220000 14.630000 199 181 162 0
21.120000 22.220000 14.630000 198 182 162 0
21.340000 22.220000 14.630000 198 182 162 0
21.560000 22.220000 14.740000 199 183 163 0
21.780000 22.220000 14.740000 200 184 164 0
22.000000 22.220000 14.740000 200 184 163 0
22.220000 22.220000 15.510000 201 185 164 0
22.440000 22.220000 15.510000 202 186 165 0
22.660000 22.220000 15.620000 203 187 166 0
22.880000 22.220000 15.620000 203 185 166 0
23.100000 22.220000 15.620000 200 182 163 0
23.320000 22.220000 15.620000 201 179 160 0
23.540000 22.220000 15.730000 194 172 153 0
23.760000 22.220000 15.730000 192 169 150 0
23.980000 22.220000 15.730000 193 170 151 0
24.200000 22.220000 15.730000 195 176 157 0
24.420000 22.220000 15.730000 197 178 159 0
24.640000 22.220000 15.840000 199 180 161 0
24.860000 22.220000 16.500000 200 181 162 0
25.080000 22.220000 16.500000 200 183 162 0
25.300000 22.220000 17.050000 202 185 164 0
25.520000 22.220000 17.490000 202 185 164 0
25.740000 22.220000 18.040000 202 185 164 0
25.960000 22.220000 18.040000 203 184 165 0
26.180000 22.220000 18.810000 202 183 164 0
26.400000 22.220000 18.810000 203 184 165 0
26.620000 22.220000 18.810000 202 183 164 0
26.840000 22.220000 18.920000 201 184 163 0
27.060000 22.220000 18.920000 202 185 164 0
27.280000 22.220000 18.920000 200 183 162 0
27.500000 22.220000 19.030000 201 184 163 0
27.720000 22.220000 19.030000 201 182 163 0
27.940000 22.220000 19.800000 201 182 163 0
28.160000 22.220000 19.800000 202 183 163 0
28.380000 22.220000 19.800000 201 182 162 0
28.600000 22.220000 19.910000 200 183 162 0
28.820000 22.220000 19.910000 200 183 162 0
29.040000 22.220000 19.910000 201 184 163 0
29.260000 22.220000 20.020000 199 182 161 0
29.480000 22.220000 20.020000 201 182 163 0
29.700000 22.220000 20.020000 201 182 163 0
29.920000 22.220000 20.020000 201 182 162 0
30.140000 22.220000 20.570000 201 182 162 0
30.360000 22.220000 16.060000 199 182 161 0
30.580000 22.220000 5.610000 201 184 163 0
31.020000 22.220000 0.110000 200 182 163 0
31.240000 22.220000 0.110000 201 182 163 0
31.460000 22.220000 0.110000 201 182 163 0
31.680000 22.220000 0.110000 202 183 163 0
31.900000 22.220000 0.110000 201 182 162 0
32.120000 22.220000 0.220000 200 183 162 0
32.340000 22.220000 0.220000 200 183 162 0
32.560000 22.220000 0.220000 200 183 162 0
32.780000 22.220000 0.990000 200 183 162 0
33.000000 22.220000 0.990000 201 182 163 0
33.220000 22.220000 1.100000 201 182 163 0
33.440000 22.220000 1.100000 201 182 162 0
33.660000 22.220000 1.100000 201 182 162 0
33.880000 22.220000 1.210000 200 183 162 0
34.100000 22.220000 1.870000 199 182 161 0
34.320000 22.220000 1.980000 200 183 162 0
34.540000 22.220000 1.980000 200 183 162 0
34.760000 22.220000 1.980000 201 182 163 0
34.980000 22.220000 2.530000 200 181 162 0
35.200000 22.220000 2.970000 200 181 161 0
35.420000 22.220000 3.520000 201 182 162 0
35.640000 22.220000 4.290000 199 180 161 0
35.860000 22.220000 4.290000 198 179 160 0
36.080000 22.220000 4.290000 196 177 157 0
36.300000 22.220000 4.400000 197 178 158 0
36.520000 22.220000 5.280000 198 179 160 0
36.740000 22.220000 5.280000 200 181 162 0
36.960000 22.220000 5.390000 200 181 162 0
37.180000 22.220000 5.390000 200 181 162 0
0.000000 22.440000 19.800000 195 183 154 0
0.220000 22.440000 19.800000 195 183 154 0
0.440000 22.440000 19.800000 195 183 156 0
0.660000 22.440000 19.800000 193 181 154 0
0.880000 22.440000 19.910000 194 182 155 0
1.100000 22.440000 19.910000 194 182 155 0
1.320000 22.440000 19.910000 197 182 156 0
1.540000 22.440000 19.910000 196 181 155 0
1.760000 22.440000 19.910000 196 181 153 0
1.980000 22.440000 20.020000 195 180 152 0
2.200000 22.440000 20.020000 195 180 154 0
2.420000 22.440000 20.020000 194 179 153 0
2.640000 22.440000 15.070000 196 181 155 0
2.860000 22.440000 4.510000 195 180 154 0
3.080000 22.440000 0.110000 196 181 155 0
3.960000 22.440000 0.110000 196 181 155 0
4.180000 22.440000 0.110000 196 181 155 0
4.400000 22.440000 0.110000 196 181 157 0
4.620000 22.440000 0.110000 195 180 156 0
4.840000 22.440000 0.110000 196 181 155 0
5.060000 22.440000 0.220000 196 181 155 0
5.280000 22.440000 0.220000 196 181 155 0
5.500000 22.440000 0.990000 196 181 155 0
5.720000 22.440000 0.990000 196 181 155 0
5.940000 22.440000 0.990000 196 181 155 0
6.160000 22.440000 0.990000 196 181 157 0
6.380000 22.440000 1.100000 196 181 157 0
6.600000 22.440000 1.100000 195 180 154 0
6.820000 22.440000 1.100000 196 181 155 0
7.040000 22.440000 1.210000 195 180 154 0
7.260000 22.440000 1.870000 195 180 154 0
7.480000 22.440000 1.980000 196 181 155 0
7.700000 22.440000 1.980000 195 180 154 0
7.920000 22.440000 1.980000 196 181 157 0
8.140000 22.440000 2.530000 197 182 158 0
8.360000 22.440000 2.970000 196 181 157 0
8.580000 22.440000 3.520000 197 182 158 0
8.800000 22.440000 3.520000 196 181 155 0
9.020000 22.440000 3.520000 197 182 156 0
9.240000 22.440000 4.290000 197 182 158 0
9.460000 22.440000 4.290000 197 182 158 0
9.680000 22.440000 4.400000 198 183 159 0
9.900000 22.440000 4.400000 199 184 160 0
10.120000 22.440000 4.400000 198 183 159 0
10.340000 22.440000 4.400000 198 183 159 0
10.560000 22.440000 4.510000 199 184 160 0
10.780000 22.440000 4.510000 199 184 160 0
11.000000 22.440000 5.280000 198 183 159 0
11.220000 22.440000 5.280000 196 181 157 0
11.440000 22.440000 5.280000 195 179 158 0
11.660000 22.440000 5.390000 194 178 157 0
11.880000 22.440000 5.940000 196 181 157 0
12.100000 22.440000 7.150000 196 181 157 0
12.320000 22.440000 7.040000 198 181 160 0
12.540000 22.440000 7.040000 197 180 159 0
12.760000 22.440000 7.700000 196 180 159 0
12.980000 22.440000 7.810000 197 181 160 0
13.200000 22.440000 7.810000 197 181 160 0
13.420000 22.440000 7.810000 196 180 159 0
13.640000 22.440000 7.920000 197 181 160 0
13.860000 22.440000 7.920000 196 180 159 0
14.080000 22.440000 7.920000 197 181 160 0
14.300000 22.440000 8.030000 196 180 159 0
14.520000 22.440000 8.030000 197 180 159 0
14.740000 22.440000 8.800000 197 180 159 0
14.960000 22.440000 8.800000 195 179 158 0
15.180000 22.440000 8.800000 195 179 158 0
15.400000 22.440000 8.910000 196 180 159 0
15.620000 22.440000 8.910000 196 180 159 0
15.840000 22.440000 8.910000 197 180 159 0
16.060000 22.440000 9.460000 198 181 160 0
16.280000 22.440000 10.560000 198 180 161 0
16.500000 22.440000 11.110000 196 178 159 0
16.720000 22.440000 11.110000 197 181 161 0
16.940000 22.440000 11.220000 197 181 161 0
17.160000 22.440000 11.220000 198 182 161 0
17.380000 22.440000 11.220000 197 181 160 0
17.600000 22.440000 11.330000 197 180 159 0
17.820000 22.440000 11.330000 198 181 160 0
18.040000 22.440000 12.100000 197 181 161 0
18.260000 22.440000 12.100000 198 182 162 0
18.480000 22.440000 12.100000 198 180 161 0
18.700000 22.440000 12.210000 199 181 162 0
18.920000 22.440000 12.210000 199 182 161 0
19.140000 22.440000 12.210000 198 181 160 0
19.360000 22.440000 12.320000 198 180 161 0
19.580000 22.440000 12.980000 198 180 161 0
19.800000 22.440000 13.090000 198 182 162 0
20.020000 22.440000 13.090000 199 183 163 0
20.240000 22.440000 13.640000 199 181 162 0
20.460000 22.440000 13.970000 199 181 162 0
20.680000 22.440000 14.520000 199 181 162 0
20.900000 22.440000 14.630000 198 180 161 0
21.120000 22.440000 14.630000 198 182 162 0
21.340000 22.440000 14.630000 199 183 163 0
21.560000 22.440000 14.740000 199 183 163 0
21.780000 22.440000 14.740000 200 184 164 0
22.000000 22.440000 14.740000 200 184 163 0
22.220000 22.440000 15.510000 201 185 164 0
22.440000 22.440000 15.510000 202 186 165 0
22.660000 22.440000 15.620000 203 187 166 0
22.880000 22.440000 15.620000 204 186 167 0
23.100000 22.440000 15.620000 202 184 165 0
23.320000 22.440000 15.620000 200 178 159 0
23.540000 22.440000 15.730000 193 171 152 0
23.760000 22.440000 15.730000 194 171 152 0
23.980000 22.440000 15.730000 194 171 152 0
24.200000 22.440000 15.730000 194 175 156 0
24.420000 22.440000 15.730000 198 179 160 0
24.640000 22.440000 15.840000 201 182 163 0
24.860000 22.440000 16.500000 200 181 162 0
25.080000 22.440000 16.500000 200 183 162 0
25.300000 22.440000 17.050000 201 184 163 0
25.520000 22.440000 17.490000 202 185 164 0
25.740000 22.440000 18.040000 202 185 164 0
25.960000 22.440000 18.040000 203 184 165 0
26.180000 22.440000 18.810000 202 183 164 0
26.400000 22.440000 18.810000 203 184 165 0
26.620000 22.440000 18.810000 202 183 164 0
26.840000 22.440000 18.920000 201 184 163 0
27.060000 22.440000 18.920000 202 185 164 0
27.280000 22.440000 18.920000 200 183 162 0
27.500000 22.440000 19.030000 201 184 163 0
27.720000 22.440000 19.030000 202 183 164 0
27.940000 22.440000 19.800000 201 182 163 0
28.160000 22.440000 19.800000 202 183 163 0
28.380000 22.440000 19.800000 201 182 162 0
28.600000 22.440000 19.910000 200 183 162 0
28.820000 22.440000 19.910000 201 184 163 0
29.040000 22.440000 19.910000 200 183 162 0
29.260000 22.440000 20.020000 201 184 163 0
29.480000 22.440000 20.020000 202 183 164 0
29.700000 22.440000 20.020000 201 182 163 0
29.920000 22.440000 20.020000 201 182 162 0
30.140000 22.440000 20.570000 201 182 162 0
30.360000 22.440000 16.060000 200 183 162 0
30.580000 22.440000 5.610000 200 183 162 0
31.020000 22.440000 0.110000 200 182 163 0
31.240000 22.440000 0.110000 202 183 164 0
31.460000 22.440000 0.110000 201 182 163 0
31.680000 22.440000 0.110000 201 182 162 0
31.900000 22.440000 0.110000 202 183 163 0
32.120000 22.440000 0.220000 200 183 162 0
32.340000 22.440000 0.220000 201 184 163 0
32.560000 22.440000 0.220000 200 183 162 0
32.780000 22.440000 0.990000 200 183 162 0
33.000000 22.440000 0.990000 201 182 163 0
33.220000 22.440000 1.100000 201 182 163 0
33.440000 22.440000 1.100000 201 182 162 0
33.660000 22.440000 1.100000 201 182 162 0
33.880000 22.440000 1.210000 200 183 162 0
34.100000 22.440000 1.870000 200 183 162 0
34.320000 22.440000 1.980000 200 183 162 0
34.540000 22.440000 1.980000 200 183 162 0
34.760000 22.440000 1.980000 201 182 163 0
34.980000 22.440000 2.530000 200 181 162 0
35.200000 22.440000 2.970000 201 182 162 0
35.420000 22.440000 3.520000 200 181 161 0
35.640000 22.440000 4.290000 198 179 160 0
35.860000 22.440000 4.290000 196 177 158 0
36.080000 22.440000 4.290000 196 177 157 0
36.300000 22.440000 4.400000 196 177 157 0
36.520000 22.440000 5.280000 199 180 161 0
36.740000 22.440000 5.280000 199 180 161 0
36.960000 22.440000 5.280000 201 182 163 0
37.180000 22.440000 5.390000 200 181 162 0
0.000000 22.660000 19.800000 197 182 158 0
0.220000 22.660000 19.800000 197 182 158 0
0.440000 22.660000 19.800000 194 182 155 0
0.660000 22.660000 19.800000 195 183 156 0
0.880000 22.660000 19.910000 194 182 155 0
1.100000 22.660000 19.910000 194 182 155 0
1.320000 22.660000 19.910000 196 181 155 0
1.540000 22.660000 19.910000 196 181 155 0
1.760000 22.660000 19.910000 196 181 155 0
1.980000 22.660000 20.020000 195 180 154 0
2.200000 22.660000 20.020000 194 182 155 0
2.420000 22.660000 18.590000 193 181 154 0
2.640000 22.660000 12.320000 196 181 155 0
2.860000 22.660000 3.740000 196 181 155 0
3.080000 22.660000 0.110000 195 180 154 0
3.960000 22.660000 0.110000 195 180 156 0
4.180000 22.660000 0.110000 196 181 157 0
4.400000 22.660000 0.110000 197 182 156 0
4.620000 22.660000 0.110000 196 181 155 0
4.840000 22.660000 0.110000 197 182 156 0
5.060000 22.660000 0.220000 196 181 155 0
5.280000 22.660000 0.220000 197 182 156 0
5.500000 22.660000 0.990000 196 181 155 0
5.720000 22.660000 0.990000 197 182 158 0
5.940000 22.660000 0.990000 196 181 157 0
6.160000 22.660000 0.990000 197 182 158 0
6.380000 22.660000 1.100000 195 180 156 0
6.600000 22.660000 1.100000 196 181 157 0
6.820000 22.660000 1.100000 196 181 157 0
7.040000 22.660000 1.210000 197 182 158 0
7.260000 22.660000 1.870000 195 180 156 0
7.480000 22.660000 1.980000 195 180 156 0
7.700000 22.660000 1.980000 196 181 157 0
7.920000 22.660000 1.980000 197 182 158 0
8.140000 22.660000 2.530000 196 181 157 0
8.360000 22.660000 2.970000 195 182 158 0
8.580000 22.660000 3.520000 195 182 158 0
8.800000 22.660000 3.520000 196 181 157 0
9.020000 22.660000 3.520000 197 182 158 0
9.240000 22.660000 4.290000 197 182 158 0
9.460000 22.660000 4.290000 197 182 158 0
9.680000 22.660000 4.400000 197 182 158 0
9.900000 22.660000 4.400000 198 183 159 0
10.120000 22.660000 4.400000 195 182 158 0
10.340000 22.660000 4.400000 196 183 159 0
10.560000 22.660000 4.510000 196 183 159 0
10.780000 22.660000 4.510000 196 183 159 0
11.000000 22.660000 5.280000 198 183 159 0
11.220000 22.660000 5.280000 196 181 157 0
11.440000 22.660000 5.280000 194 178 157 0
11.660000 22.660000 5.390000 193 177 156 0
11.880000 22.660000 5.940000 196 180 159 0
12.100000 22.660000 7.150000 197 181 160 0
12.320000 22.660000 7.040000 197 181 160 0
12.540000 22.660000 7.040000 198 182 161 0
12.760000 22.660000 7.700000 197 181 160 0
12.980000 22.660000 7.810000 197 181 160 0
13.200000 22.660000 7.810000 197 181 160 0
13.420000 22.660000 7.810000 197 181 160 0
13.640000 22.660000 7.920000 197 181 160 0
13.860000 22.660000 7.920000 196 180 159 0
14.080000 22.660000 7.920000 196 180 159 0
14.300000 22.660000 8.030000 197 181 160 0
14.520000 22.660000 8.030000 196 180 159 0
14.740000 22.660000 8.800000 196 180 159 0
14.960000 22.660000 8.800000 196 180 160 0
15.180000 22.660000 8.800000 196 180 160 0
15.400000 22.660000 8.910000 195 179 158 0
15.620000 22.660000 8.910000 196 180 159 0
15.840000 22.660000 8.910000 196 180 159 0
16.060000 22.660000 9.460000 198 182 161 0
16.280000 22.660000 10.560000 197 181 160 0
16.500000 22.660000 11.110000 197 181 160 0
16.720000 22.660000 11.110000 197 181 161 0
16.940000 22.660000 11.220000 198 182 162 0
17.160000 22.660000 11.220000 199 183 162 0
17.380000 22.660000 11.220000 198 182 161 0
