ply
format ascii 1.0
element vertex 1127
property float x
property float y
property float z
property uchar red
property uchar green
property uchar blue
property uchar alpha
end_header
20.240000 2.640000 23.980000 190 171 149 0
20.460000 2.640000 24.200000 190 171 149 0
20.680000 2.640000 24.200000 190 171 149 0
20.900000 2.640000 24.200000 191 172 150 0
21.120000 2.640000 24.420000 190 172 147 0
21.340000 2.640000 24.420000 190 172 147 0
21.560000 2.640000 24.420000 191 173 148 0
21.780000 2.640000 25.960000 191 173 148 0
22.000000 2.640000 25.960000 192 174 149 0
22.220000 2.640000 26.180000 192 174 149 0
22.440000 2.640000 25.960000 192 174 149 0
22.660000 2.640000 27.940000 191 173 148 0
22.880000 2.640000 29.040000 192 174 149 0
23.100000 2.640000 29.260000 193 175 150 0
23.320000 2.640000 29.260000 193 174 152 0
23.540000 2.640000 29.260000 191 172 150 0
23.760000 2.640000 29.480000 191 172 150 0
23.980000 2.640000 29.480000 191 172 150 0
24.200000 2.640000 29.480000 192 173 151 0
24.420000 2.640000 29.700000 192 173 151 0
24.640000 2.640000 29.700000 192 173 151 0
24.860000 2.640000 31.020000 190 171 149 0
25.080000 2.640000 31.240000 191 170 148 0
25.300000 2.640000 31.240000 189 168 146 0
25.520000 2.640000 33.880000 189 170 148 0
25.740000 2.640000 36.740000 192 173 151 0
25.960000 2.640000 38.060000 195 176 156 0
26.180000 2.640000 38.060000 194 175 155 0
26.400000 2.640000 38.060000 195 176 154 0
26.620000 2.640000 39.600000 194 175 153 0
26.840000 2.640000 39.600000 197 175 156 0
27.060000 2.640000 39.600000 194 172 153 0
27.280000 2.640000 39.820000 196 177 157 0
27.500000 2.640000 39.820000 197 178 158 0
27.720000 2.640000 39.820000 197 178 158 0
27.940000 2.640000 39.820000 197 178 158 0
28.160000 2.640000 40.040000 198 179 160 0
28.380000 2.640000 40.040000 197 178 159 0
28.600000 2.640000 40.040000 198 179 160 0
28.820000 2.640000 40.040000 197 178 159 0
29.040000 2.640000 39.820000 196 177 157 0
29.260000 2.640000 31.240000 195 176 156 0
29.480000 2.640000 10.120000 194 172 153 0
29.700000 2.640000 0.220000 186 164 145 0
30.580000 2.640000 2.860000 181 158 139 0
30.800000 2.640000 8.360000 180 158 139 0
31.020000 2.640000 16.720000 180 158 139 0
31.240000 2.640000 26.400000 181 158 139 0
31.460000 2.640000 31.900000 182 159 140 0
31.680000 2.640000 23.760000 182 160 141 0
31.900000 2.640000 9.900000 183 161 142 0
32.120000 2.640000 4.400000 185 162 143 0
32.340000 2.640000 1.760000 186 163 144 0
33.220000 2.640000 0.440000 192 169 150 0
33.440000 2.640000 0.440000 191 169 151 0
33.660000 2.640000 0.440000 194 172 154 0
33.880000 2.640000 0.440000 195 173 155 0
34.100000 2.640000 0.660000 195 173 155 0
34.320000 2.640000 1.980000 196 172 155 0
34.540000 2.640000 2.200000 196 172 155 0
34.760000 2.640000 2.200000 197 173 156 0
34.980000 2.640000 2.200000 197 173 156 0
35.200000 2.640000 2.420000 197 173 156 0
35.420000 2.640000 3.740000 197 173 156 0
35.640000 2.640000 3.960000 197 173 156 0
35.860000 2.640000 3.960000 196 172 155 0
36.080000 2.640000 5.280000 196 172 155 0
36.300000 2.640000 5.940000 196 172 155 0
36.520000 2.640000 7.040000 195 171 154 0
36.740000 2.640000 8.360000 197 173 156 0
36.960000 2.640000 8.580000 196 173 154 0
37.180000 2.640000 8.580000 196 173 154 0
0.000000 2.860000 37.620000 183 173 141 0
0.220000 2.860000 37.620000 183 173 141 0
0.440000 2.860000 37.840000 182 175 144 0
0.660000 2.860000 37.840000 181 174 143 0
0.880000 2.860000 37.840000 180 173 140 0
1.100000 2.860000 38.060000 180 173 140 0
1.320000 2.860000 38.060000 180 173 142 0
1.540000 2.860000 38.060000 181 174 143 0
1.760000 2.860000 39.600000 182 172 142 0
1.980000 2.860000 39.600000 183 173 143 0
2.200000 2.860000 39.600000 182 172 142 0
2.420000 2.860000 39.600000 182 172 142 0
2.640000 2.860000 39.820000 182 172 140 0
2.860000 2.860000 39.820000 181 171 139 0
3.080000 2.860000 39.820000 181 171 139 0
3.300000 2.860000 39.820000 181 171 139 0
3.520000 2.860000 30.360000 181 171 141 0
3.740000 2.860000 8.140000 180 170 140 0
4.620000 2.860000 0.880000 177 167 137 0
4.840000 2.860000 0.880000 182 170 141 0
5.060000 2.860000 2.200000 183 171 142 0
5.280000 2.860000 2.200000 183 173 143 0
5.500000 2.860000 2.420000 183 173 143 0
5.720000 2.860000 2.420000 185 173 144 0
5.940000 2.860000 3.740000 184 172 143 0
6.160000 2.860000 3.960000 184 174 144 0
6.380000 2.860000 3.960000 184 174 144 0
6.600000 2.860000 3.960000 184 174 144 0
6.820000 2.860000 5.060000 185 175 145 0
7.040000 2.860000 7.260000 185 175 145 0
7.260000 2.860000 7.040000 185 175 145 0
7.480000 2.860000 8.360000 187 175 146 0
7.700000 2.860000 8.580000 187 175 146 0
7.920000 2.860000 8.580000 186 176 146 0
8.140000 2.860000 8.580000 187 177 147 0
8.360000 2.860000 8.800000 188 176 147 0
8.580000 2.860000 8.800000 189 177 148 0
8.800000 2.860000 8.800000 190 178 149 0
9.020000 2.860000 9.020000 190 178 149 0
9.240000 2.860000 9.020000 190 180 150 0
9.460000 2.860000 10.560000 190 180 150 0
9.680000 2.860000 10.560000 189 179 149 0
9.900000 2.860000 10.560000 189 179 149 0
10.120000 2.860000 10.560000 188 177 145 0
10.340000 2.860000 10.780000 187 176 144 0
10.560000 2.860000 10.780000 182 170 141 0
10.780000 2.860000 10.780000 175 163 134 0
11.000000 2.860000 10.780000 170 153 128 0
11.220000 2.860000 10.780000 167 150 125 0
11.440000 2.860000 10.780000 165 151 120 0
11.660000 2.860000 10.780000 165 151 120 0
11.880000 2.860000 10.560000 167 151 121 0
12.100000 2.860000 10.560000 167 151 121 0
12.320000 2.860000 10.560000 166 152 121 0
12.540000 2.860000 10.560000 166 152 121 0
12.760000 2.860000 11.440000 168 152 124 0
12.980000 2.860000 11.220000 169 153 125 0
13.200000 2.860000 12.540000 172 154 127 0
13.420000 2.860000 12.540000 175 157 130 0
13.640000 2.860000 12.540000 178 162 134 0
13.860000 2.860000 13.860000 182 166 138 0
14.080000 2.860000 13.860000 182 167 141 0
14.300000 2.860000 13.860000 183 168 142 0
14.520000 2.860000 13.860000 185 170 144 0
14.740000 2.860000 14.080000 186 171 145 0
14.960000 2.860000 14.080000 187 171 143 0
15.180000 2.860000 15.620000 188 172 144 0
15.400000 2.860000 15.620000 187 171 143 0
15.620000 2.860000 15.620000 188 172 144 0
15.840000 2.860000 15.840000 190 173 148 0
16.060000 2.860000 15.840000 190 173 148 0
16.280000 2.860000 15.840000 190 174 146 0
16.500000 2.860000 15.840000 188 172 144 0
16.720000 2.860000 16.060000 188 172 144 0
16.940000 2.860000 17.380000 189 173 145 0
17.160000 2.860000 17.600000 189 172 147 0
17.380000 2.860000 17.600000 190 173 148 0
17.600000 2.860000 17.600000 190 173 148 0
17.820000 2.860000 17.820000 189 172 147 0
18.040000 2.860000 17.820000 189 172 147 0
18.260000 2.860000 18.920000 189 172 147 0
18.480000 2.860000 21.120000 189 172 147 0
18.700000 2.860000 22.220000 188 171 146 0
18.920000 2.860000 22.220000 189 172 147 0
19.140000 2.860000 22.440000 190 173 148 0
19.360000 2.860000 22.440000 191 174 149 0
19.580000 2.860000 22.440000 189 172 147 0
19.800000 2.860000 23.980000 190 171 149 0
20.020000 2.860000 23.980000 190 171 149 0
20.240000 2.860000 23.980000 190 171 149 0
20.460000 2.860000 24.200000 191 172 150 0
20.680000 2.860000 24.200000 191 174 151 0
20.900000 2.860000 24.200000 190 173 150 0
21.120000 2.860000 24.420000 190 172 147 0
21.340000 2.860000 24.420000 191 173 148 0
21.560000 2.860000 24.420000 191 172 150 0
21.780000 2.860000 25.960000 192 173 151 0
22.000000 2.860000 25.960000 191 172 150 0
22.220000 2.860000 26.180000 192 173 151 0
22.440000 2.860000 25.960000 191 172 150 0
22.660000 2.860000 28.160000 192 173 151 0
22.880000 2.860000 29.260000 192 173 151 0
23.100000 2.860000 29.260000 193 174 152 0
23.320000 2.860000 29.260000 192 173 151 0
23.540000 2.860000 29.260000 192 173 151 0
23.760000 2.860000 29.480000 192 173 151 0
23.980000 2.860000 29.480000 191 172 150 0
24.200000 2.860000 29.480000 192 173 151 0
24.420000 2.860000 29.700000 192 173 151 0
24.640000 2.860000 29.700000 191 172 150 0
24.860000 2.860000 31.020000 191 172 150 0
25.080000 2.860000 31.240000 190 171 149 0
25.300000 2.860000 31.240000 188 169 147 0
25.520000 2.860000 32.560000 189 170 150 0
25.740000 2.860000 35.200000 190 171 151 0
25.960000 2.860000 38.060000 193 174 154 0
26.180000 2.860000 38.060000 194 175 155 0
26.400000 2.860000 38.060000 196 177 155 0
26.620000 2.860000 39.600000 194 175 153 0
26.840000 2.860000 39.600000 195 176 156 0
27.060000 2.860000 39.600000 195 176 156 0
27.280000 2.860000 39.820000 196 177 158 0
27.500000 2.860000 39.820000 196 177 158 0
27.720000 2.860000 39.820000 196 179 158 0
27.940000 2.860000 39.820000 196 179 158 0
28.160000 2.860000 40.040000 196 179 158 0
28.380000 2.860000 40.040000 197 180 159 0
28.600000 2.860000 40.040000 197 179 160 0
28.820000 2.860000 40.040000 197 179 160 0
29.040000 2.860000 39.820000 196 177 158 0
29.260000 2.860000 31.020000 196 177 158 0
29.480000 2.860000 9.900000 195 176 154 0
31.020000 2.860000 2.860000 179 157 138 0
31.240000 2.860000 8.360000 180 158 139 0
31.460000 2.860000 11.220000 181 159 140 0
31.680000 2.860000 7.040000 182 159 140 0
31.900000 2.860000 3.080000 184 161 142 0
33.220000 2.860000 0.440000 190 168 150 0
33.440000 2.860000 0.440000 191 169 150 0
33.660000 2.860000 0.440000 192 170 151 0
33.880000 2.860000 0.440000 194 171 152 0
34.100000 2.860000 0.660000 195 172 153 0
34.320000 2.860000 1.980000 196 172 155 0
34.540000 2.860000 2.200000 196 172 155 0
34.760000 2.860000 2.200000 195 173 155 0
34.980000 2.860000 2.200000 195 173 155 0
35.200000 2.860000 2.420000 196 174 156 0
35.420000 2.860000 3.740000 196 174 156 0
35.640000 2.860000 3.960000 197 174 155 0
35.860000 2.860000 3.960000 197 174 155 0
36.080000 2.860000 3.960000 197 174 155 0
36.300000 2.860000 5.060000 196 173 154 0
36.520000 2.860000 7.260000 196 172 155 0
36.740000 2.860000 8.360000 196 172 155 0
36.960000 2.860000 8.580000 196 173 154 0
37.180000 2.860000 8.580000 195 172 153 0
0.000000 3.080000 37.620000 184 174 142 0
0.220000 3.080000 37.620000 184 174 142 0
0.440000 3.080000 37.840000 181 174 143 0
0.660000 3.080000 37.840000 181 174 143 0
0.880000 3.080000 37.840000 181 174 141 0
1.100000 3.080000 38.060000 180 173 140 0
1.320000 3.080000 38.060000 181 174 143 0
1.540000 3.080000 38.060000 180 173 142 0
1.760000 3.080000 39.600000 182 172 142 0
1.980000 3.080000 39.600000 182 172 142 0
2.200000 3.080000 39.600000 182 172 142 0
2.420000 3.080000 39.600000 182 172 142 0
2.640000 3.080000 39.820000 181 171 139 0
2.860000 3.080000 39.820000 181 171 139 0
3.080000 3.080000 39.820000 181 171 139 0
3.300000 3.080000 39.820000 180 170 138 0
3.520000 3.080000 30.360000 179 169 139 0
3.740000 3.080000 8.140000 179 169 139 0
4.400000 3.080000 0.880000 177 167 137 0
4.620000 3.080000 0.660000 181 171 141 0
4.840000 3.080000 2.200000 184 172 143 0
5.060000 3.080000 2.200000 185 173 144 0
5.280000 3.080000 2.200000 183 173 143 0
5.500000 3.080000 2.420000 184 174 144 0
5.720000 3.080000 2.420000 185 173 144 0
5.940000 3.080000 2.420000 186 174 145 0
6.160000 3.080000 3.960000 184 174 144 0
6.380000 3.080000 3.960000 183 173 143 0
6.600000 3.080000 3.960000 184 174 144 0
6.820000 3.080000 5.060000 184 174 144 0
7.040000 3.080000 7.260000 185 175 145 0
7.260000 3.080000 7.040000 185 175 145 0
7.480000 3.080000 8.360000 187 175 146 0
7.700000 3.080000 8.580000 187 175 146 0
7.920000 3.080000 8.580000 187 177 147 0
8.140000 3.080000 8.580000 187 177 147 0
8.360000 3.080000 8.800000 189 177 148 0
8.580000 3.080000 8.800000 189 177 148 0
8.800000 3.080000 8.800000 189 177 148 0
9.020000 3.080000 9.020000 190 178 149 0
9.240000 3.080000 9.020000 189 179 149 0
9.460000 3.080000 10.560000 189 179 149 0
9.680000 3.080000 10.560000 189 179 149 0
9.900000 3.080000 10.560000 188 178 148 0
10.120000 3.080000 10.560000 188 177 145 0
10.340000 3.080000 10.780000 185 174 142 0
10.560000 3.080000 10.780000 181 169 140 0
10.780000 3.080000 10.780000 172 160 131 0
11.000000 3.080000 10.780000 169 152 127 0
11.220000 3.080000 10.780000 167 150 125 0
11.440000 3.080000 10.560000 165 151 120 0
11.660000 3.080000 10.560000 165 151 120 0
11.880000 3.080000 10.560000 167 151 121 0
12.100000 3.080000 10.560000 167 151 121 0
12.320000 3.080000 10.560000 165 151 120 0
12.540000 3.080000 10.340000 166 152 121 0
12.760000 3.080000 11.440000 168 152 124 0
12.980000 3.080000 11.220000 170 154 126 0
13.200000 3.080000 12.540000 173 155 128 0
13.420000 3.080000 12.540000 177 159 132 0
13.640000 3.080000 12.540000 181 165 137 0
13.860000 3.080000 13.860000 181 165 137 0
14.080000 3.080000 13.860000 182 167 141 0
14.300000 3.080000 13.860000 184 169 143 0
14.520000 3.080000 13.860000 186 171 145 0
14.740000 3.080000 14.080000 186 171 145 0
14.960000 3.080000 14.080000 188 172 144 0
15.180000 3.080000 15.620000 188 172 144 0
15.400000 3.080000 15.620000 189 173 145 0
15.620000 3.080000 15.620000 189 173 145 0
15.840000 3.080000 15.840000 189 172 147 0
16.060000 3.080000 15.840000 189 172 147 0
16.280000 3.080000 15.840000 189 173 145 0
16.500000 3.080000 15.840000 189 173 145 0
16.720000 3.080000 16.060000 189 173 145 0
16.940000 3.080000 17.380000 189 173 145 0
17.160000 3.080000 17.600000 189 172 147 0
17.380000 3.080000 17.600000 190 173 148 0
17.600000 3.080000 17.600000 190 173 148 0
17.820000 3.080000 17.820000 190 173 148 0
18.040000 3.080000 17.820000 189 172 147 0
18.260000 3.080000 18.920000 188 171 146 0
18.480000 3.080000 21.120000 190 173 148 0
18.700000 3.080000 22.220000 190 173 148 0
18.920000 3.080000 22.220000 189 172 147 0
19.140000 3.080000 22.440000 189 172 147 0
19.360000 3.080000 22.440000 190 173 148 0
19.580000 3.080000 22.440000 190 173 148 0
19.800000 3.080000 23.980000 190 171 149 0
20.020000 3.080000 23.980000 190 171 149 0
20.240000 3.080000 23.980000 190 171 149 0
20.460000 3.080000 24.200000 192 173 151 0
20.680000 3.080000 24.200000 190 173 150 0
20.900000 3.080000 24.200000 190 173 150 0
21.120000 3.080000 24.420000 190 172 147 0
21.340000 3.080000 24.420000 190 172 147 0
21.560000 3.080000 24.420000 190 171 149 0
21.780000 3.080000 25.960000 192 173 151 0
22.000000 3.080000 25.960000 191 172 150 0
22.220000 3.080000 26.180000 192 173 151 0
22.440000 3.080000 26.180000 192 173 151 0
22.660000 3.080000 27.060000 191 172 150 0
22.880000 3.080000 27.940000 193 174 152 0
23.100000 3.080000 29.260000 192 173 151 0
23.320000 3.080000 29.260000 191 172 150 0
23.540000 3.080000 29.260000 193 174 152 0
23.760000 3.080000 29.480000 192 173 151 0
23.980000 3.080000 29.480000 192 173 151 0
24.200000 3.080000 29.480000 192 173 151 0
24.420000 3.080000 29.700000 192 173 151 0
24.640000 3.080000 29.700000 192 173 151 0
24.860000 3.080000 31.020000 191 172 150 0
25.080000 3.080000 31.240000 190 171 149 0
25.300000 3.080000 31.240000 188 169 147 0
25.520000 3.080000 32.560000 188 169 149 0
25.740000 3.080000 33.880000 189 170 150 0
25.960000 3.080000 36.740000 193 174 154 0
26.180000 3.080000 38.060000 194 175 155 0
26.400000 3.080000 38.060000 196 177 155 0
26.620000 3.080000 39.600000 196 177 155 0
26.840000 3.080000 39.600000 195 176 156 0
27.060000 3.080000 39.600000 196 177 157 0
27.280000 3.080000 39.820000 196 177 158 0
27.500000 3.080000 39.820000 196 177 158 0
27.720000 3.080000 39.820000 196 179 158 0
27.940000 3.080000 39.820000 196 179 158 0
28.160000 3.080000 40.040000 197 180 159 0
28.380000 3.080000 40.040000 197 180 159 0
28.600000 3.080000 40.040000 197 179 160 0
28.820000 3.080000 40.040000 197 179 160 0
29.040000 3.080000 41.140000 197 178 159 0
29.260000 3.080000 31.020000 195 176 157 0
29.480000 3.080000 11.220000 195 176 154 0
31.020000 3.080000 0.220000 180 158 139 0
31.240000 3.080000 0.220000 181 159 140 0
31.460000 3.080000 0.220000 180 158 139 0
31.680000 3.080000 0.220000 182 159 140 0
31.900000 3.080000 0.220000 183 160 141 0
32.120000 3.080000 0.220000 184 161 140 0
33.220000 3.080000 0.440000 191 169 151 0
33.440000 3.080000 0.440000 191 169 150 0
33.660000 3.080000 0.440000 192 170 151 0
33.880000 3.080000 0.660000 194 171 152 0
34.100000 3.080000 0.660000 195 172 153 0
34.320000 3.080000 0.660000 196 172 155 0
34.540000 3.080000 2.200000 196 172 155 0
34.760000 3.080000 2.200000 195 173 155 0
34.980000 3.080000 2.200000 196 174 156 0
35.200000 3.080000 2.420000 195 173 155 0
35.420000 3.080000 2.420000 195 173 155 0
35.640000 3.080000 3.960000 196 173 154 0
35.860000 3.080000 3.960000 198 175 156 0
36.080000 3.080000 3.960000 196 173 154 0
36.300000 3.080000 5.280000 197 174 155 0
36.520000 3.080000 7.260000 196 172 155 0
36.740000 3.080000 8.360000 195 171 154 0
36.960000 3.080000 8.580000 196 173 154 0
37.180000 3.080000 8.580000 197 174 155 0
0.000000 3.300000 37.620000 180 173 140 0
0.220000 3.300000 37.620000 181 174 141 0
0.440000 3.300000 37.840000 180 173 140 0
0.660000 3.300000 37.840000 181 174 141 0
0.880000 3.300000 37.840000 180 173 140 0
1.100000 3.300000 38.060000 181 174 141 0
1.320000 3.300000 38.060000 180 173 140 0
1.540000 3.300000 38.060000 179 172 139 0
1.760000 3.300000 39.600000 181 171 139 0
1.980000 3.300000 39.600000 182 172 140 0
2.200000 3.300000 39.600000 182 172 142 0
2.420000 3.300000 39.600000 182 172 142 0
2.640000 3.300000 39.820000 178 171 140 0
2.860000 3.300000 39.820000 178 171 140 0
3.080000 3.300000 39.820000 178 171 138 0
3.300000 3.300000 37.180000 177 170 137 0
3.520000 3.300000 24.640000 177 170 137 0
3.740000 3.300000 6.600000 176 169 136 0
4.180000 3.300000 0.880000 177 167 137 0
4.400000 3.300000 0.660000 177 170 137 0
4.620000 3.300000 0.660000 181 174 141 0
4.840000 3.300000 2.200000 183 173 141 0
5.060000 3.300000 2.200000 183 173 141 0
5.280000 3.300000 2.200000 184 174 142 0
5.500000 3.300000 2.420000 184 174 142 0
5.720000 3.300000 2.420000 184 174 144 0
5.940000 3.300000 2.420000 184 174 144 0
6.160000 3.300000 3.960000 182 175 144 0
6.380000 3.300000 3.960000 183 176 145 0
6.600000 3.300000 3.960000 186 175 143 0
6.820000 3.300000 5.060000 185 174 142 0
7.040000 3.300000 7.260000 185 175 143 0
7.260000 3.300000 8.360000 185 175 143 0
7.480000 3.300000 8.360000 186 176 144 0
7.700000 3.300000 8.580000 187 177 145 0
7.920000 3.300000 8.580000 187 177 145 0
8.140000 3.300000 8.580000 187 177 145 0
8.360000 3.300000 8.800000 188 178 146 0
8.580000 3.300000 8.800000 188 178 146 0
8.800000 3.300000 8.800000 191 180 148 0
9.020000 3.300000 9.020000 191 180 148 0
9.240000 3.300000 9.020000 188 178 146 0
9.460000 3.300000 10.560000 189 179 147 0
9.680000 3.300000 10.560000 189 179 149 0
9.900000 3.300000 10.560000 189 179 149 0
10.120000 3.300000 10.560000 187 176 144 0
10.340000 3.300000 10.560000 185 174 142 0
10.560000 3.300000 10.780000 183 167 137 0
10.780000 3.300000 10.780000 175 159 129 0
11.000000 3.300000 10.780000 167 153 122 0
11.220000 3.300000 10.780000 165 151 120 0
11.440000 3.300000 10.560000 166 152 121 0
11.660000 3.300000 10.560000 166 152 121 0
11.880000 3.300000 10.560000 167 151 121 0
12.100000 3.300000 10.560000 167 151 121 0
12.320000 3.300000 10.560000 167 151 121 0
12.540000 3.300000 10.340000 169 153 123 0
12.760000 3.300000 11.220000 169 155 124 0
12.980000 3.300000 11.220000 169 155 124 0
13.200000 3.300000 12.540000 172 156 128 0
13.420000 3.300000 12.540000 177 161 133 0
13.640000 3.300000 12.760000 179 164 136 0
13.860000 3.300000 12.760000 181 166 138 0
14.080000 3.300000 13.860000 182 167 139 0
14.300000 3.300000 13.860000 184 169 141 0
14.520000 3.300000 13.860000 185 170 142 0
14.740000 3.300000 14.080000 187 172 144 0
14.960000 3.300000 15.400000 189 173 145 0
15.180000 3.300000 15.620000 189 173 145 0
15.400000 3.300000 15.620000 189 174 146 0
15.620000 3.300000 15.620000 189 174 146 0
15.840000 3.300000 15.620000 188 173 147 0
16.060000 3.300000 15.840000 187 172 146 0
16.280000 3.300000 15.840000 189 172 147 0
16.500000 3.300000 15.840000 187 170 145 0
16.720000 3.300000 16.060000 188 172 144 0
16.940000 3.300000 17.380000 189 173 145 0
17.160000 3.300000 17.600000 189 172 147 0
17.380000 3.300000 17.600000 189 172 147 0
17.600000 3.300000 17.600000 189 172 147 0
17.820000 3.300000 17.820000 188 171 146 0
18.040000 3.300000 17.820000 188 171 146 0
18.260000 3.300000 18.920000 189 172 147 0
18.480000 3.300000 21.120000 190 173 148 0
18.700000 3.300000 22.220000 189 172 147 0
18.920000 3.300000 22.220000 187 172 146 0
19.140000 3.300000 22.440000 189 174 148 0
19.360000 3.300000 22.440000 189 172 147 0
19.580000 3.300000 22.440000 190 173 148 0
19.800000 3.300000 23.980000 189 172 147 0
20.020000 3.300000 23.980000 188 171 146 0
20.240000 3.300000 23.980000 189 172 147 0
20.460000 3.300000 24.200000 189 172 147 0
20.680000 3.300000 24.200000 190 173 148 0
20.900000 3.300000 24.200000 189 172 147 0
21.120000 3.300000 24.420000 190 173 148 0
21.340000 3.300000 24.420000 191 174 149 0
21.560000 3.300000 24.420000 190 173 150 0
21.780000 3.300000 25.960000 189 172 149 0
22.000000 3.300000 25.960000 190 173 148 0
22.220000 3.300000 26.180000 191 174 149 0
22.440000 3.300000 26.180000 191 174 151 0
22.660000 3.300000 25.960000 190 173 150 0
22.880000 3.300000 28.160000 192 173 151 0
23.100000 3.300000 29.260000 191 172 150 0
23.320000 3.300000 29.260000 191 174 151 0
23.540000 3.300000 29.260000 191 174 151 0
23.760000 3.300000 29.480000 192 173 151 0
23.980000 3.300000 29.480000 192 173 151 0
24.200000 3.300000 29.480000 193 174 152 0
24.420000 3.300000 29.700000 193 174 152 0
24.640000 3.300000 29.700000 190 173 150 0
24.860000 3.300000 29.700000 190 173 150 0
25.080000 3.300000 31.240000 189 172 149 0
25.300000 3.300000 31.240000 188 171 148 0
25.520000 3.300000 31.240000 187 168 146 0
25.740000 3.300000 34.100000 189 170 148 0
25.960000 3.300000 36.740000 191 174 151 0
26.180000 3.300000 38.060000 194 177 154 0
26.400000 3.300000 38.060000 195 176 156 0
26.620000 3.300000 39.600000 195 176 156 0
26.840000 3.300000 39.600000 196 177 157 0
27.060000 3.300000 39.600000 195 176 156 0
27.280000 3.300000 39.820000 197 178 158 0
27.500000 3.300000 39.820000 196 177 157 0
27.720000 3.300000 39.820000 195 178 157 0
27.940000 3.300000 40.040000 196 179 158 0
28.160000 3.300000 40.040000 196 179 158 0
28.380000 3.300000 40.040000 196 179 158 0
28.600000 3.300000 40.040000 196 179 158 0
28.820000 3.300000 40.040000 195 178 157 0
29.040000 3.300000 40.920000 197 178 158 0
29.260000 3.300000 32.120000 196 177 157 0
29.480000 3.300000 11.000000 194 177 156 0
30.580000 3.300000 0.220000 181 158 137 0
30.800000 3.300000 0.220000 181 160 138 0
31.020000 3.300000 0.220000 181 160 138 0
31.240000 3.300000 0.220000 181 159 140 0
31.460000 3.300000 0.220000 181 159 140 0
31.680000 3.300000 0.220000 181 159 140 0
31.900000 3.300000 0.220000 181 159 140 0
32.120000 3.300000 0.440000 182 160 141 0
33.220000 3.300000 0.440000 188 166 147 0
33.440000 3.300000 0.440000 190 168 150 0
33.660000 3.300000 0.440000 192 170 152 0
33.880000 3.300000 0.660000 192 170 151 0
34.100000 3.300000 0.660000 194 172 153 0
34.320000 3.300000 0.660000 194 172 153 0
34.540000 3.300000 2.200000 194 172 153 0
34.760000 3.300000 2.200000 194 172 154 0
34.980000 3.300000 2.200000 196 174 156 0
35.200000 3.300000 2.420000 196 174 156 0
35.420000 3.300000 2.420000 196 174 156 0
35.640000 3.300000 3.960000 196 174 156 0
35.860000 3.300000 3.960000 195 173 155 0
36.080000 3.300000 3.960000 195 173 155 0
36.300000 3.300000 5.280000 196 174 156 0
36.520000 3.300000 7.260000 195 173 155 0
36.740000 3.300000 8.360000 195 173 155 0
36.960000 3.300000 8.580000 195 173 155 0
37.180000 3.300000 8.580000 194 172 154 0
0.000000 3.520000 37.620000 180 173 140 0
0.220000 3.520000 37.620000 180 173 140 0
0.440000 3.520000 37.840000 181 174 141 0
0.660000 3.520000 37.840000 180 173 140 0
0.880000 3.520000 37.840000 180 173 140 0
1.100000 3.520000 37.840000 181 174 141 0
1.320000 3.520000 38.060000 181 174 141 0
1.540000 3.520000 39.380000 180 173 140 0
1.760000 3.520000 39.600000 182 172 140 0
1.980000 3.520000 39.600000 182 172 140 0
2.200000 3.520000 39.600000 182 172 142 0
2.420000 3.520000 39.600000 181 171 141 0
2.640000 3.520000 39.820000 177 170 139 0
2.860000 3.520000 39.820000 178 171 140 0
3.080000 3.520000 39.820000 176 169 136 0
3.300000 3.520000 33.000000 176 169 136 0
3.520000 3.520000 13.640000 176 169 136 0
3.740000 3.520000 0.880000 175 168 135 0
4.180000 3.520000 0.660000 180 170 140 0
4.400000 3.520000 0.660000 179 172 139 0
4.620000 3.520000 0.660000 182 175 142 0
4.840000 3.520000 2.200000 184 174 142 0
5.060000 3.520000 2.200000 184 174 142 0
5.280000 3.520000 2.200000 184 174 142 0
5.500000 3.520000 2.420000 184 174 142 0
5.720000 3.520000 2.420000 183 173 143 0
5.940000 3.520000 2.420000 183 173 143 0
6.160000 3.520000 3.960000 181 174 143 0
6.380000 3.520000 3.960000 182 175 144 0
6.600000 3.520000 3.960000 186 175 143 0
6.820000 3.520000 5.060000 187 176 144 0
7.040000 3.520000 7.260000 185 175 143 0
7.260000 3.520000 8.360000 186 176 144 0
7.480000 3.520000 8.360000 185 175 143 0
7.700000 3.520000 8.580000 186 176 144 0
7.920000 3.520000 8.580000 187 177 145 0
8.140000 3.520000 8.580000 187 177 145 0
8.360000 3.520000 8.800000 189 179 147 0
8.580000 3.520000 8.800000 189 179 147 0
8.800000 3.520000 8.800000 190 179 147 0
9.020000 3.520000 9.020000 190 179 147 0
9.240000 3.520000 9.020000 189 179 147 0
9.460000 3.520000 10.560000 189 179 147 0
9.680000 3.520000 10.560000 188 178 148 0
9.900000 3.520000 10.560000 188 178 148 0
10.120000 3.520000 10.560000 186 175 143 0
10.340000 3.520000 10.560000 185 174 142 0
10.560000 3.520000 10.780000 181 165 135 0
10.780000 3.520000 10.780000 173 157 127 0
11.000000 3.520000 10.780000 166 152 121 0
11.220000 3.520000 10.560000 167 153 122 0
11.440000 3.520000 10.560000 166 152 121 0
11.660000 3.520000 10.560000 166 152 121 0
11.880000 3.520000 10.560000 166 150 120 0
12.100000 3.520000 10.560000 168 152 122 0
12.320000 3.520000 10.560000 168 152 122 0
12.540000 3.520000 10.340000 168 152 122 0
12.760000 3.520000 11.220000 168 154 123 0
12.980000 3.520000 11.220000 170 156 125 0
13.200000 3.520000 12.540000 173 157 129 0
13.420000 3.520000 11.440000 177 161 133 0
13.640000 3.520000 11.880000 180 165 137 0
13.860000 3.520000 11.880000 181 166 138 0
14.080000 3.520000 12.760000 184 169 141 0
14.300000 3.520000 13.860000 185 170 142 0
14.520000 3.520000 13.860000 186 171 143 0
14.740000 3.520000 14.080000 187 172 144 0
14.960000 3.520000 14.080000 189 173 145 0
15.180000 3.520000 15.620000 190 174 146 0
15.400000 3.520000 15.620000 189 174 146 0
15.620000 3.520000 15.620000 189 174 146 0
15.840000 3.520000 15.620000 187 172 146 0
16.060000 3.520000 15.840000 187 172 146 0
16.280000 3.520000 15.840000 189 172 147 0
16.500000 3.520000 15.840000 189 172 147 0
16.720000 3.520000 16.060000 189 173 145 0
16.940000 3.520000 17.380000 189 173 145 0
17.160000 3.520000 17.600000 190 173 148 0
17.380000 3.520000 17.600000 190 173 148 0
17.600000 3.520000 17.600000 189 172 147 0
17.820000 3.520000 17.820000 189 172 147 0
18.040000 3.520000 17.820000 189 172 147 0
18.260000 3.520000 18.920000 189 172 147 0
18.480000 3.520000 21.120000 190 173 148 0
18.700000 3.520000 22.220000 189 172 147 0
18.920000 3.520000 22.220000 188 173 147 0
19.140000 3.520000 22.440000 187 172 146 0
19.360000 3.520000 22.440000 189 172 147 0
19.580000 3.520000 22.440000 188 171 146 0
19.800000 3.520000 23.980000 189 172 147 0
20.020000 3.520000 23.980000 189 172 147 0
20.240000 3.520000 23.980000 189 172 147 0
20.460000 3.520000 24.200000 189 172 147 0
20.680000 3.520000 24.200000 189 172 147 0
20.900000 3.520000 24.200000 189 172 147 0
21.120000 3.520000 24.420000 189 172 147 0
21.340000 3.520000 24.420000 190 173 148 0
21.560000 3.520000 24.420000 191 174 151 0
21.780000 3.520000 25.960000 189 172 149 0
22.000000 3.520000 25.960000 191 174 149 0
22.220000 3.520000 26.180000 191 174 149 0
22.440000 3.520000 26.180000 192 175 152 0
22.660000 3.520000 25.960000 191 174 151 0
22.880000 3.520000 28.160000 192 173 151 0
23.100000 3.520000 29.260000 192 173 151 0
23.320000 3.520000 29.260000 191 174 151 0
23.540000 3.520000 29.260000 191 174 151 0
23.760000 3.520000 29.480000 193 174 152 0
23.980000 3.520000 29.480000 193 174 152 0
24.200000 3.520000 29.480000 193 174 152 0
24.420000 3.520000 29.700000 192 173 151 0
24.640000 3.520000 29.700000 191 174 151 0
24.860000 3.520000 29.700000 191 174 151 0
25.080000 3.520000 31.240000 189 172 149 0
25.300000 3.520000 31.240000 188 171 148 0
25.520000 3.520000 31.240000 187 168 146 0
25.740000 3.520000 32.560000 187 168 146 0
25.960000 3.520000 35.420000 189 172 149 0
26.180000 3.520000 38.060000 194 177 154 0
26.400000 3.520000 38.060000 196 177 157 0
26.620000 3.520000 39.600000 196 177 157 0
26.840000 3.520000 39.600000 196 177 157 0
27.060000 3.520000 39.600000 196 177 157 0
27.280000 3.520000 39.820000 196 177 157 0
27.500000 3.520000 39.820000 196 177 157 0
27.720000 3.520000 39.820000 194 177 156 0
27.940000 3.520000 39.820000 195 178 157 0
28.160000 3.520000 40.040000 195 178 157 0
28.380000 3.520000 40.040000 195 178 157 0
28.600000 3.520000 40.040000 196 179 158 0
28.820000 3.520000 41.140000 194 177 156 0
29.040000 3.520000 42.020000 195 176 156 0
29.260000 3.520000 31.900000 197 178 158 0
29.480000 3.520000 11.000000 194 177 156 0
30.360000 3.520000 0.220000 184 161 140 0
30.580000 3.520000 0.220000 182 159 138 0
30.800000 3.520000 0.220000 181 160 138 0
31.020000 3.520000 0.220000 181 160 138 0
31.240000 3.520000 0.220000 181 159 140 0
31.460000 3.520000 0.220000 181 159 140 0
31.680000 3.520000 0.220000 181 159 140 0
31.900000 3.520000 0.440000 181 159 140 0
32.120000 3.520000 0.440000 182 160 141 0
32.340000 3.520000 0.440000 183 161 142 0
32.560000 3.520000 0.440000 183 161 142 0
32.780000 3.520000 0.440000 184 162 143 0
33.000000 3.520000 0.440000 185 163 144 0
33.220000 3.520000 0.440000 186 164 145 0
33.440000 3.520000 0.440000 189 167 149 0
33.660000 3.520000 0.440000 192 170 152 0
33.880000 3.520000 0.660000 191 169 150 0
34.100000 3.520000 0.660000 192 170 151 0
34.320000 3.520000 0.660000 193 171 152 0
34.540000 3.520000 2.200000 194 172 153 0
34.760000 3.520000 2.200000 195 173 155 0
34.980000 3.520000 2.200000 196 174 156 0
35.200000 3.520000 2.420000 197 175 157 0
35.420000 3.520000 2.420000 196 174 156 0
35.640000 3.520000 3.960000 196 174 156 0
35.860000 3.520000 3.960000 196 174 156 0
36.080000 3.520000 3.960000 195 173 155 0
36.300000 3.520000 5.280000 195 173 155 0
36.520000 3.520000 7.260000 195 173 155 0
36.740000 3.520000 8.360000 196 174 156 0
36.960000 3.520000 8.580000 195 173 155 0
37.180000 3.520000 8.580000 194 172 154 0
0.000000 3.740000 37.620000 180 173 140 0
0.220000 3.740000 37.620000 180 173 140 0
0.440000 3.740000 37.840000 181 174 141 0
0.660000 3.740000 37.840000 179 172 139 0
0.880000 3.740000 37.840000 180 173 140 0
1.100000 3.740000 39.380000 179 172 139 0
1.320000 3.740000 39.380000 181 174 141 0
1.540000 3.740000 39.380000 180 173 140 0
1.760000 3.740000 39.600000 180 173 140 0
1.980000 3.740000 39.600000 179 172 139 0
2.200000 3.740000 39.600000 179 172 139 0
2.420000 3.740000 39.600000 178 171 138 0
2.640000 3.740000 39.820000 178 171 138 0
2.860000 3.740000 39.820000 177 170 137 0
3.080000 3.740000 37.180000 175 168 137 0
3.300000 3.740000 24.640000 175 168 137 0
3.520000 3.740000 6.380000 175 168 135 0
3.960000 3.740000 0.440000 181 171 141 0
4.180000 3.740000 0.440000 182 172 142 0
4.400000 3.740000 0.660000 183 173 141 0
4.620000 3.740000 0.660000 183 173 141 0
4.840000 3.740000 2.200000 181 174 143 0
5.060000 3.740000 2.200000 181 174 143 0
5.280000 3.740000 2.200000 183 173 141 0
5.500000 3.740000 2.420000 183 173 141 0
5.720000 3.740000 2.420000 185 175 143 0
5.940000 3.740000 2.420000 184 174 142 0
6.160000 3.740000 2.420000 184 174 142 0
6.380000 3.740000 3.960000 185 175 143 0
6.600000 3.740000 3.960000 184 174 142 0
6.820000 3.740000 5.060000 185 175 143 0
7.040000 3.740000 7.260000 186 176 144 0
7.260000 3.740000 8.360000 185 175 143 0
7.480000 3.740000 8.360000 186 176 144 0
7.700000 3.740000 8.580000 187 177 145 0
7.920000 3.740000 8.580000 187 177 145 0
8.140000 3.740000 8.580000 188 178 146 0
8.360000 3.740000 8.800000 188 178 148 0
8.580000 3.740000 8.800000 189 179 149 0
8.800000 3.740000 8.800000 189 179 147 0
9.020000 3.740000 9.020000 188 178 146 0
9.240000 3.740000 9.020000 189 179 147 0
9.460000 3.740000 10.560000 189 179 147 0
9.680000 3.740000 10.560000 188 178 146 0
9.900000 3.740000 10.560000 187 177 145 0
10.120000 3.740000 10.560000 186 176 146 0
10.340000 3.740000 10.560000 182 172 142 0
10.560000 3.740000 10.780000 180 164 134 0
10.780000 3.740000 10.780000 170 154 124 0
11.000000 3.740000 10.560000 167 151 121 0
11.220000 3.740000 10.560000 166 150 120 0
11.440000 3.740000 10.560000 166 150 120 0
11.660000 3.740000 10.560000 166 150 120 0
11.880000 3.740000 10.560000 166 150 122 0
12.100000 3.740000 9.240000 167 151 123 0
12.320000 3.740000 10.560000 168 152 122 0
12.540000 3.740000 11.440000 169 153 123 0
12.760000 3.740000 11.220000 169 153 123 0
12.980000 3.740000 11.220000 171 155 125 0
13.200000 3.740000 12.540000 173 157 127 0
13.420000 3.740000 11.440000 177 161 131 0
13.640000 3.740000 10.780000 180 165 137 0
13.860000 3.740000 10.780000 181 166 138 0
14.080000 3.740000 12.760000 183 168 140 0
14.300000 3.740000 13.860000 184 169 141 0
14.520000 3.740000 13.860000 188 172 144 0
14.740000 3.740000 14.080000 188 172 144 0
14.960000 3.740000 14.080000 189 173 145 0
15.180000 3.740000 15.620000 190 174 146 0
15.400000 3.740000 15.620000 190 174 146 0
15.620000 3.740000 15.620000 190 174 146 0
15.840000 3.740000 15.620000 190 174 146 0
16.060000 3.740000 15.840000 189 173 145 0
16.280000 3.740000 15.840000 189 172 147 0
16.500000 3.740000 15.840000 189 172 147 0
16.720000 3.740000 16.060000 188 171 146 0
16.940000 3.740000 16.060000 189 172 147 0
17.160000 3.740000 17.600000 189 173 145 0
17.380000 3.740000 17.600000 189 173 145 0
17.600000 3.740000 17.600000 189 172 147 0
17.820000 3.740000 17.820000 189 172 147 0
18.040000 3.740000 17.820000 189 172 147 0
18.260000 3.740000 18.920000 189 172 147 0
18.480000 3.740000 21.120000 189 172 147 0
18.700000 3.740000 22.220000 188 171 146 0
18.920000 3.740000 22.220000 189 172 147 0
19.140000 3.740000 22.440000 189 172 147 0
19.360000 3.740000 22.440000 189 171 146 0
19.580000 3.740000 22.440000 188 170 145 0
19.800000 3.740000 23.980000 189 172 147 0
20.020000 3.740000 23.980000 189 172 147 0
20.240000 3.740000 23.980000 189 172 147 0
20.460000 3.740000 24.200000 190 173 148 0
20.680000 3.740000 24.200000 190 173 148 0
20.900000 3.740000 24.200000 190 173 148 0
21.120000 3.740000 24.420000 191 173 148 0
21.340000 3.740000 24.420000 191 173 148 0
21.560000 3.740000 24.420000 192 173 151 0
21.780000 3.740000 25.960000 190 171 149 0
22.000000 3.740000 25.960000 192 173 151 0
22.220000 3.740000 26.180000 192 173 151 0
22.440000 3.740000 26.180000 192 173 151 0
22.660000 3.740000 25.960000 192 173 151 0
22.880000 3.740000 28.160000 191 172 150 0
23.100000 3.740000 29.260000 192 173 151 0
23.320000 3.740000 29.260000 193 174 152 0
23.540000 3.740000 29.260000 193 174 152 0
23.760000 3.740000 29.480000 192 173 151 0
23.980000 3.740000 29.480000 193 174 152 0
24.200000 3.740000 29.480000 193 174 152 0
24.420000 3.740000 29.700000 192 173 151 0
24.640000 3.740000 29.700000 192 173 151 0
24.860000 3.740000 29.700000 192 173 151 0
25.080000 3.740000 31.240000 191 172 150 0
25.300000 3.740000 31.240000 189 170 148 0
25.520000 3.740000 31.240000 188 169 147 0
25.740000 3.740000 32.780000 187 168 146 0
25.960000 3.740000 35.420000 190 171 151 0
26.180000 3.740000 38.060000 194 175 155 0
26.400000 3.740000 38.060000 195 176 154 0
26.620000 3.740000 39.600000 195 176 154 0
26.840000 3.740000 39.600000 195 176 156 0
27.060000 3.740000 39.600000 195 176 156 0
27.280000 3.740000 39.820000 195 176 156 0
27.500000 3.740000 39.820000 197 178 158 0
27.720000 3.740000 39.820000 197 178 158 0
27.940000 3.740000 39.820000 197 178 158 0
28.160000 3.740000 40.040000 197 178 158 0
28.380000 3.740000 40.040000 196 177 157 0
28.600000 3.740000 40.040000 197 178 158 0
28.820000 3.740000 41.140000 197 178 158 0
29.040000 3.740000 41.800000 196 177 157 0
29.260000 3.740000 31.900000 197 178 158 0
29.480000 3.740000 11.220000 197 178 158 0
30.360000 3.740000 0.220000 186 164 145 0
30.580000 3.740000 0.220000 182 160 141 0
30.800000 3.740000 0.220000 183 160 139 0
31.020000 3.740000 0.220000 182 159 138 0
31.240000 3.740000 0.220000 181 160 138 0
31.460000 3.740000 0.220000 182 161 139 0
31.680000 3.740000 0.220000 180 158 139 0
31.900000 3.740000 0.440000 181 159 140 0
32.120000 3.740000 0.440000 181 159 140 0
32.340000 3.740000 0.440000 182 160 141 0
32.560000 3.740000 0.440000 186 163 142 0
32.780000 3.740000 0.440000 184 161 140 0
33.000000 3.740000 0.440000 186 163 142 0
33.220000 3.740000 0.440000 187 164 143 0
33.440000 3.740000 0.660000 188 166 147 0
33.660000 3.740000 0.660000 190 168 149 0
33.880000 3.740000 0.660000 192 170 151 0
34.100000 3.740000 0.660000 192 170 151 0
34.320000 3.740000 0.660000 192 170 152 0
34.540000 3.740000 0.660000 194 172 154 0
34.760000 3.740000 2.200000 194 172 154 0
34.980000 3.740000 2.200000 196 174 156 0
35.200000 3.740000 2.420000 195 173 154 0
35.420000 3.740000 2.420000 196 174 155 0
35.640000 3.740000 3.960000 195 173 154 0
35.860000 3.740000 3.960000 196 174 155 0
36.080000 3.740000 3.960000 195 173 155 0
36.300000 3.740000 5.060000 195 173 155 0
36.520000 3.740000 7.260000 196 174 156 0
36.740000 3.740000 8.360000 195 173 155 0
36.960000 3.740000 8.580000 195 173 155 0
37.180000 3.740000 8.580000 195 173 155 0
0.000000 3.960000 37.620000 179 172 139 0
0.220000 3.960000 37.620000 179 172 139 0
0.440000 3.960000 37.840000 180 173 140 0
0.660000 3.960000 37.840000 180 173 140 0
0.880000 3.960000 39.160000 180 173 140 0
1.100000 3.960000 39.380000 179 172 139 0
1.320000 3.960000 39.380000 180 173 140 0
1.540000 3.960000 39.380000 179 172 139 0
1.760000 3.960000 39.600000 179 172 139 0
1.980000 3.960000 39.600000 180 173 140 0
2.200000 3.960000 39.600000 179 172 139 0
2.420000 3.960000 39.600000 178 171 138 0
2.640000 3.960000 39.820000 175 168 135 0
2.860000 3.960000 38.500000 175 168 135 0
3.080000 3.960000 27.280000 175 168 137 0
3.300000 3.960000 11.880000 175 168 137 0
3.520000 3.960000 1.980000 178 171 138 0
3.740000 3.960000 0.440000 179 172 139 0
3.960000 3.960000 0.440000 183 173 143 0
4.180000 3.960000 0.440000 183 173 143 0
4.400000 3.960000 0.660000 182 172 140 0
4.620000 3.960000 0.660000 183 173 141 0
4.840000 3.960000 0.660000 180 173 142 0
5.060000 3.960000 2.200000 180 173 142 0
5.280000 3.960000 2.200000 184 174 142 0
5.500000 3.960000 2.420000 183 173 141 0
5.720000 3.960000 2.420000 184 174 142 0
5.940000 3.960000 2.420000 185 175 143 0
6.160000 3.960000 2.420000 184 174 142 0
6.380000 3.960000 3.960000 185 175 143 0
6.600000 3.960000 3.960000 184 174 142 0
6.820000 3.960000 5.060000 185 175 143 0
7.040000 3.960000 7.260000 184 174 142 0
7.260000 3.960000 8.360000 187 177 145 0
7.480000 3.960000 8.360000 187 177 145 0
7.700000 3.960000 8.580000 187 177 145 0
7.920000 3.960000 8.580000 187 177 145 0
8.140000 3.960000 8.580000 188 178 146 0
8.360000 3.960000 8.800000 187 177 147 0
8.580000 3.960000 10.120000 189 179 149 0
8.800000 3.960000 10.340000 188 178 146 0
9.020000 3.960000 10.340000 188 178 146 0
9.240000 3.960000 10.340000 188 178 146 0
9.460000 3.960000 10.560000 188 178 146 0
9.680000 3.960000 10.560000 188 178 146 0
9.900000 3.960000 10.560000 187 177 145 0
10.120000 3.960000 10.560000 185 175 145 0
10.340000 3.960000 10.560000 182 172 142 0
10.560000 3.960000 10.560000 180 164 134 0
10.780000 3.960000 10.560000 169 153 123 0
11.000000 3.960000 10.560000 167 151 121 0
11.220000 3.960000 10.560000 166 150 120 0
11.440000 3.960000 10.560000 167 151 121 0
11.660000 3.960000 10.560000 167 151 121 0
11.880000 3.960000 9.240000 168 152 124 0
12.100000 3.960000 9.240000 168 152 124 0
12.320000 3.960000 10.340000 169 153 123 0
12.540000 3.960000 11.220000 169 153 123 0
12.760000 3.960000 11.220000 170 154 124 0
12.980000 3.960000 11.220000 170 154 124 0
13.200000 3.960000 12.540000 174 158 128 0
13.420000 3.960000 11.440000 178 162 132 0
13.640000 3.960000 10.780000 180 165 137 0
13.860000 3.960000 10.780000 183 168 140 0
14.080000 3.960000 12.760000 183 168 140 0
14.300000 3.960000 13.860000 185 170 142 0
14.520000 3.960000 13.860000 187 171 143 0
14.740000 3.960000 14.080000 189 173 145 0
14.960000 3.960000 14.080000 189 173 145 0
15.180000 3.960000 15.620000 190 174 146 0
15.400000 3.960000 15.620000 190 174 146 0
15.620000 3.960000 15.620000 190 174 146 0
15.840000 3.960000 15.620000 189 173 145 0
16.060000 3.960000 15.840000 190 174 146 0
16.280000 3.960000 15.840000 190 173 148 0
16.500000 3.960000 15.840000 189 172 147 0
16.720000 3.960000 16.060000 188 171 146 0
16.940000 3.960000 16.060000 189 172 147 0
17.160000 3.960000 17.600000 190 174 146 0
17.380000 3.960000 17.600000 189 173 145 0
17.600000 3.960000 17.600000 189 172 147 0
17.820000 3.960000 17.820000 189 172 147 0
18.040000 3.960000 17.820000 189 172 147 0
18.260000 3.960000 18.920000 189 172 147 0
18.480000 3.960000 21.120000 189 172 147 0
18.700000 3.960000 22.220000 190 173 148 0
18.920000 3.960000 22.220000 189 172 147 0
19.140000 3.960000 22.440000 189 172 147 0
19.360000 3.960000 22.440000 189 171 146 0
19.580000 3.960000 23.980000 190 172 147 0
19.800000 3.960000 23.980000 189 172 147 0
20.020000 3.960000 23.980000 191 174 149 0
20.240000 3.960000 23.980000 190 173 148 0
20.460000 3.960000 24.200000 190 173 148 0
20.680000 3.960000 24.200000 190 173 148 0
20.900000 3.960000 24.200000 190 173 148 0
21.120000 3.960000 24.420000 192 174 149 0
21.340000 3.960000 24.420000 191 173 148 0
21.560000 3.960000 24.420000 192 173 151 0
21.780000 3.960000 25.960000 191 172 150 0
22.000000 3.960000 25.960000 191 172 150 0
22.220000 3.960000 26.180000 191 172 150 0
22.440000 3.960000 26.180000 191 172 150 0
22.660000 3.960000 25.960000 192 173 151 0
22.880000 3.960000 28.160000 192 173 151 0
23.100000 3.960000 29.260000 192 173 151 0
23.320000 3.960000 29.260000 192 173 151 0
23.540000 3.960000 29.260000 194 175 153 0
23.760000 3.960000 29.480000 192 173 151 0
23.980000 3.960000 29.480000 191 172 150 0
24.200000 3.960000 29.480000 193 174 152 0
24.420000 3.960000 29.480000 191 172 150 0
24.640000 3.960000 29.700000 192 173 151 0
24.860000 3.960000 29.700000 192 173 151 0
25.080000 3.960000 31.240000 191 172 150 0
25.300000 3.960000 31.240000 190 171 149 0
25.520000 3.960000 31.240000 188 169 147 0
25.740000 3.960000 32.780000 187 168 146 0
25.960000 3.960000 34.100000 189 170 150 0
26.180000 3.960000 36.740000 191 172 152 0
26.400000 3.960000 38.060000 194 175 153 0
26.620000 3.960000 39.600000 194 175 153 0
26.840000 3.960000 39.600000 194 175 155 0
27.060000 3.960000 39.600000 196 177 157 0
27.280000 3.960000 39.820000 195 176 156 0
27.500000 3.960000 39.820000 195 176 156 0
27.720000 3.960000 39.820000 195 176 156 0
27.940000 3.960000 40.040000 197 178 158 0
28.160000 3.960000 40.040000 196 177 157 0
28.380000 3.960000 40.040000 196 177 157 0
28.600000 3.960000 40.040000 195 176 156 0
28.820000 3.960000 41.140000 196 177 157 0
29.040000 3.960000 41.800000 196 177 157 0
29.260000 3.960000 31.900000 196 177 157 0
29.480000 3.960000 11.220000 196 177 157 0
30.140000 3.960000 0.220000 191 172 152 0
30.360000 3.960000 0.220000 189 167 148 0
30.580000 3.960000 0.220000 183 161 142 0
30.800000 3.960000 0.220000 182 159 138 0
31.020000 3.960000 0.220000 181 158 137 0
31.240000 3.960000 0.220000 181 160 138 0
31.460000 3.960000 0.220000 181 160 138 0
31.680000 3.960000 0.440000 181 159 140 0
31.900000 3.960000 0.440000 179 157 138 0
32.120000 3.960000 0.440000 180 158 139 0
32.340000 3.960000 0.440000 181 159 140 0
32.560000 3.960000 0.440000 183 160 139 0
32.780000 3.960000 0.440000 185 162 141 0
33.000000 3.960000 0.440000 184 161 140 0
33.220000 3.960000 0.660000 186 163 142 0
33.440000 3.960000 0.660000 186 164 145 0
33.660000 3.960000 0.660000 189 167 148 0
33.880000 3.960000 0.660000 191 169 150 0
34.100000 3.960000 0.660000 192 170 151 0
34.320000 3.960000 0.660000 191 169 151 0
34.540000 3.960000 0.880000 194 172 154 0
34.760000 3.960000 2.200000 193 171 153 0
34.980000 3.960000 2.200000 195 173 155 0
35.200000 3.960000 2.420000 195 173 154 0
35.420000 3.960000 2.420000 196 174 155 0
35.640000 3.960000 3.960000 195 173 154 0
35.860000 3.960000 3.960000 196 174 155 0
36.080000 3.960000 3.960000 196 174 156 0
36.300000 3.960000 5.060000 196 174 156 0
36.520000 3.960000 7.260000 196 174 156 0
36.740000 3.960000 8.360000 196 174 156 0
36.960000 3.960000 8.580000 194 172 154 0
37.180000 3.960000 8.580000 195 173 155 0
0.000000 4.180000 37.620000 180 170 140 0
0.220000 4.180000 37.620000 180 170 140 0
0.440000 4.180000 37.840000 181 171 141 0
0.660000 4.180000 37.840000 179 169 139 0
0.880000 4.180000 39.160000 180 168 139 0
1.100000 4.180000 39.380000 181 169 140 0
1.320000 4.180000 39.380000 180 168 139 0
1.540000 4.180000 39.380000 180 168 139 0
1.760000 4.180000 39.600000 180 168 139 0
1.980000 4.180000 39.600000 180 168 139 0
2.200000 4.180000 39.600000 180 168 141 0
2.420000 4.180000 39.600000 178 166 139 0
2.640000 4.180000 38.280000 177 165 136 0
2.860000 4.180000 27.280000 176 164 135 0
3.080000 4.180000 11.880000 178 166 137 0
3.300000 4.180000 1.980000 181 169 140 0
3.520000 4.180000 0.440000 182 170 141 0
3.740000 4.180000 0.440000 183 171 142 0
3.960000 4.180000 0.440000 182 172 142 0
4.180000 4.180000 0.440000 181 171 141 0
4.400000 4.180000 0.660000 183 171 142 0
4.620000 4.180000 0.660000 184 172 143 0
4.840000 4.180000 0.660000 183 171 142 0
5.060000 4.180000 2.200000 183 171 142 0
5.280000 4.180000 2.200000 182 170 141 0
5.500000 4.180000 2.420000 183 171 142 0
5.720000 4.180000 2.420000 183 171 142 0
5.940000 4.180000 2.420000 184 172 143 0
6.160000 4.180000 2.420000 186 174 145 0
6.380000 4.180000 3.960000 185 173 144 0
6.600000 4.180000 3.960000 185 173 144 0
6.820000 4.180000 5.060000 185 173 144 0
7.040000 4.180000 7.260000 185 173 144 0
7.260000 4.180000 8.360000 186 174 145 0
7.480000 4.180000 8.360000 187 175 146 0
7.700000 4.180000 8.580000 186 174 145 0
7.920000 4.180000 8.580000 190 175 149 0
8.140000 4.180000 8.580000 190 175 149 0
8.360000 4.180000 8.800000 188 176 147 0
8.580000 4.180000 10.120000 188 176 147 0
8.800000 4.180000 10.340000 187 175 146 0
9.020000 4.180000 10.340000 189 177 148 0
9.240000 4.180000 10.340000 189 177 148 0
9.460000 4.180000 10.560000 190 178 149 0
9.680000 4.180000 10.560000 190 175 149 0
9.900000 4.180000 10.560000 188 173 147 0
10.120000 4.180000 10.560000 186 171 143 0
10.340000 4.180000 10.560000 182 167 139 0
10.560000 4.180000 10.560000 178 162 134 0
10.780000 4.180000 10.560000 168 152 124 0
11.000000 4.180000 10.560000 166 150 122 0
11.220000 4.180000 10.560000 165 149 121 0
11.440000 4.180000 10.560000 167 149 122 0
11.660000 4.180000 10.560000 167 149 122 0
11.880000 4.180000 9.240000 165 150 122 0
12.100000 4.180000 9.240000 166 151 123 0
12.320000 4.180000 10.340000 168 152 124 0
12.540000 4.180000 11.220000 169 153 125 0
12.760000 4.180000 11.220000 169 153 125 0
12.980000 4.180000 11.220000 170 154 126 0
13.200000 4.180000 12.540000 175 157 132 0
13.420000 4.180000 11.440000 179 161 136 0
13.640000 4.180000 10.780000 180 163 138 0
13.860000 4.180000 10.780000 182 165 140 0
14.080000 4.180000 12.760000 184 167 142 0
14.300000 4.180000 13.860000 185 168 143 0
14.520000 4.180000 13.860000 187 170 145 0
14.740000 4.180000 14.080000 188 171 146 0
14.960000 4.180000 14.080000 191 172 150 0
15.180000 4.180000 14.080000 191 172 150 0
15.400000 4.180000 15.620000 189 172 149 0
15.620000 4.180000 15.620000 189 172 149 0
15.840000 4.180000 15.620000 190 172 147 0
16.060000 4.180000 15.840000 191 173 148 0
16.280000 4.180000 15.840000 190 171 149 0
16.500000 4.180000 15.840000 189 170 148 0
16.720000 4.180000 16.060000 188 169 147 0
16.940000 4.180000 16.060000 189 170 148 0
17.160000 4.180000 17.600000 188 171 148 0
17.380000 4.180000 17.600000 187 170 147 0
