ply
format ascii 1.0
element vertex 1150
property float x
property float y
property float z
property uchar red
property uchar green
property uchar blue
property uchar alpha
end_header
23.100000 35.200000 3.630000 142 60 34 0
23.320000 35.200000 2.310000 142 60 34 0
23.540000 35.200000 2.310000 141 59 33 0
23.760000 35.200000 5.610000 141 59 33 0
23.980000 35.200000 10.450000 141 59 33 0
24.200000 35.200000 11.880000 140 58 32 0
24.420000 35.200000 6.270000 140 58 32 0
24.640000 35.200000 2.860000 141 59 33 0
24.860000 35.200000 2.200000 141 59 33 0
25.080000 35.200000 2.310000 141 59 33 0
25.300000 35.200000 2.200000 141 59 33 0
25.520000 35.200000 1.430000 140 58 32 0
25.740000 35.200000 1.540000 141 59 33 0
25.960000 35.200000 2.310000 140 58 32 0
26.180000 35.200000 0.990000 139 57 31 0
26.620000 35.200000 3.630000 140 58 32 0
26.840000 35.200000 11.880000 140 58 32 0
27.060000 35.200000 11.880000 138 56 30 0
27.280000 35.200000 4.950000 139 57 31 0
27.500000 35.200000 5.610000 139 57 31 0
27.720000 35.200000 7.040000 139 57 31 0
27.940000 35.200000 2.860000 140 58 32 0
28.160000 35.200000 2.860000 139 57 31 0
28.380000 35.200000 5.610000 140 58 32 0
28.600000 35.200000 5.610000 141 59 33 0
28.820000 35.200000 6.930000 140 59 33 0
29.040000 35.200000 4.950000 139 58 32 0
29.260000 35.200000 0.880000 141 59 33 0
29.480000 35.200000 2.860000 141 59 33 0
29.700000 35.200000 4.950000 140 59 33 0
29.920000 35.200000 3.630000 141 60 34 0
30.140000 35.200000 3.630000 141 60 34 0
30.360000 35.200000 3.740000 141 60 34 0
30.580000 35.200000 0.990000 142 61 35 0
30.800000 35.200000 1.540000 141 60 34 0
31.020000 35.200000 7.040000 141 60 34 0
31.240000 35.200000 9.130000 143 62 36 0
31.460000 35.200000 4.290000 141 63 38 0
31.680000 35.200000 0.770000 141 63 38 0
31.900000 35.200000 0.770000 143 65 40 0
32.120000 35.200000 1.430000 143 65 40 0
32.340000 35.200000 0.770000 142 64 37 0
32.560000 35.200000 0.880000 143 65 38 0
32.780000 35.200000 0.220000 146 65 39 0
33.000000 35.200000 0.880000 145 64 38 0
33.220000 35.200000 0.770000 143 65 40 0
33.440000 35.200000 0.770000 143 65 40 0
33.660000 35.200000 0.770000 144 66 41 0
33.880000 35.200000 0.880000 144 66 41 0
34.100000 35.200000 0.880000 144 67 42 0
34.320000 35.200000 0.770000 146 69 44 0
34.540000 35.200000 2.860000 141 74 43 0
34.760000 35.200000 9.790000 143 76 45 0
34.980000 35.200000 17.380000 145 81 49 0
35.200000 35.200000 16.060000 147 83 51 0
35.420000 35.200000 8.470000 148 86 56 0
35.640000 35.200000 4.950000 148 86 56 0
35.860000 35.200000 6.380000 149 87 57 0
36.080000 35.200000 7.040000 148 86 56 0
36.300000 35.200000 7.040000 146 84 54 0
36.520000 35.200000 6.380000 147 85 55 0
36.740000 35.200000 6.380000 148 84 52 0
36.960000 35.200000 6.380000 149 85 53 0
37.180000 35.200000 5.720000 148 86 56 0
0.000000 35.420000 20.900000 155 130 105 0
0.220000 35.420000 20.900000 155 127 101 0
0.440000 35.420000 20.900000 153 125 99 0
0.660000 35.420000 20.900000 150 122 96 0
0.880000 35.420000 20.900000 148 120 94 0
1.100000 35.420000 20.900000 147 119 93 0
1.320000 35.420000 20.900000 145 117 91 0
1.540000 35.420000 20.900000 146 115 90 0
1.760000 35.420000 20.900000 146 115 90 0
1.980000 35.420000 20.900000 146 115 90 0
2.200000 35.420000 20.900000 145 114 89 0
2.420000 35.420000 20.900000 145 114 89 0
2.640000 35.420000 20.900000 144 113 88 0
2.860000 35.420000 20.900000 145 114 89 0
3.080000 35.420000 20.900000 144 113 88 0
3.300000 35.420000 21.010000 143 112 87 0
3.520000 35.420000 21.010000 143 112 87 0
3.740000 35.420000 21.010000 144 113 88 0
3.960000 35.420000 20.900000 144 113 88 0
4.180000 35.420000 20.900000 145 114 89 0
4.400000 35.420000 20.900000 146 115 90 0
4.620000 35.420000 20.900000 145 114 89 0
4.840000 35.420000 20.900000 145 114 89 0
5.060000 35.420000 21.010000 146 115 90 0
5.280000 35.420000 20.240000 145 114 89 0
5.500000 35.420000 20.350000 146 113 89 0
5.720000 35.420000 20.240000 145 112 88 0
5.940000 35.420000 20.900000 145 114 89 0
6.160000 35.420000 20.900000 144 113 88 0
6.380000 35.420000 20.350000 143 112 87 0
6.600000 35.420000 20.350000 143 112 87 0
6.820000 35.420000 20.240000 143 112 87 0
7.040000 35.420000 20.900000 142 111 86 0
7.260000 35.420000 20.900000 143 110 86 0
7.480000 35.420000 20.900000 143 110 86 0
7.700000 35.420000 20.900000 140 109 86 0
7.920000 35.420000 20.350000 140 109 86 0
8.140000 35.420000 20.240000 138 107 84 0
8.360000 35.420000 20.240000 138 107 84 0
8.580000 35.420000 21.010000 140 107 85 0
8.800000 35.420000 20.900000 138 105 83 0
9.020000 35.420000 19.470000 138 105 83 0
9.240000 35.420000 15.400000 138 105 83 0
9.460000 35.420000 10.560000 136 103 81 0
9.680000 35.420000 7.150000 137 104 82 0
9.900000 35.420000 11.330000 136 103 81 0
10.120000 35.420000 18.150000 135 102 80 0
10.340000 35.420000 19.470000 136 100 79 0
10.560000 35.420000 14.630000 135 99 78 0
10.780000 35.420000 11.880000 134 98 77 0
11.000000 35.420000 15.400000 135 99 78 0
11.220000 35.420000 16.830000 135 98 75 0
11.440000 35.420000 14.080000 135 98 75 0
11.660000 35.420000 14.080000 145 90 67 0
11.880000 35.420000 16.830000 143 88 65 0
12.100000 35.420000 18.260000 143 85 60 0
12.320000 35.420000 19.690000 143 85 60 0
12.540000 35.420000 21.010000 142 83 60 0
12.760000 35.420000 21.010000 143 84 61 0
12.980000 35.420000 21.010000 144 85 62 0
13.200000 35.420000 19.690000 146 87 64 0
13.420000 35.420000 14.190000 147 88 65 0
13.640000 35.420000 5.830000 149 90 67 0
13.860000 35.420000 1.100000 152 91 67 0
18.480000 35.420000 0.220000 152 80 53 0
18.700000 35.420000 0.110000 151 79 52 0
18.920000 35.420000 0.770000 150 78 51 0
19.140000 35.420000 0.770000 151 76 50 0
19.360000 35.420000 0.770000 150 75 49 0
19.580000 35.420000 0.770000 149 72 47 0
19.800000 35.420000 0.110000 148 71 46 0
20.020000 35.420000 0.110000 149 71 46 0
20.240000 35.420000 0.110000 148 70 45 0
20.460000 35.420000 0.110000 148 67 41 0
20.680000 35.420000 0.110000 147 66 40 0
20.900000 35.420000 0.220000 146 65 39 0
21.120000 35.420000 2.200000 145 64 38 0
21.340000 35.420000 6.270000 145 64 38 0
21.560000 35.420000 4.950000 143 62 36 0
21.780000 35.420000 2.200000 144 62 36 0
22.000000 35.420000 3.630000 144 62 36 0
22.220000 35.420000 3.630000 143 61 35 0
22.440000 35.420000 5.060000 142 60 34 0
22.660000 35.420000 9.240000 142 60 34 0
22.880000 35.420000 6.380000 142 60 34 0
23.100000 35.420000 0.880000 142 60 34 0
23.540000 35.420000 2.310000 141 59 33 0
23.760000 35.420000 6.380000 141 59 33 0
23.980000 35.420000 10.450000 140 58 32 0
24.200000 35.420000 15.950000 139 57 31 0
24.420000 35.420000 14.630000 139 57 31 0
24.640000 35.420000 6.380000 140 58 32 0
24.860000 35.420000 0.880000 141 59 33 0
25.080000 35.420000 4.290000 140 58 32 0
25.300000 35.420000 7.700000 141 59 33 0
25.520000 35.420000 4.180000 140 58 32 0
25.740000 35.420000 2.860000 139 57 31 0
25.960000 35.420000 6.380000 139 57 31 0
26.180000 35.420000 5.060000 139 57 31 0
26.400000 35.420000 2.200000 140 58 32 0
26.620000 35.420000 3.520000 140 58 32 0
26.840000 35.420000 4.950000 140 58 32 0
27.060000 35.420000 4.950000 139 57 31 0
27.280000 35.420000 4.950000 139 57 31 0
27.500000 35.420000 6.380000 138 56 30 0
27.720000 35.420000 7.700000 138 56 30 0
27.940000 35.420000 4.950000 140 58 32 0
28.160000 35.420000 2.860000 140 58 32 0
28.380000 35.420000 2.860000 140 58 32 0
28.600000 35.420000 2.860000 141 59 33 0
28.820000 35.420000 5.610000 140 59 33 0
29.040000 35.420000 6.380000 140 59 33 0
29.260000 35.420000 2.200000 141 59 33 0
29.480000 35.420000 1.540000 142 60 34 0
29.700000 35.420000 2.860000 141 60 34 0
29.920000 35.420000 1.540000 142 61 35 0
30.140000 35.420000 0.220000 141 60 34 0
30.360000 35.420000 0.880000 141 60 34 0
30.580000 35.420000 2.310000 141 60 34 0
30.800000 35.420000 1.540000 142 61 35 0
31.020000 35.420000 1.430000 142 61 35 0
31.240000 35.420000 2.860000 141 60 34 0
31.460000 35.420000 1.430000 141 63 38 0
31.680000 35.420000 0.110000 143 65 40 0
31.900000 35.420000 0.110000 143 65 40 0
32.120000 35.420000 0.880000 143 65 40 0
32.340000 35.420000 0.880000 143 65 38 0
32.560000 35.420000 0.770000 143 65 38 0
32.780000 35.420000 0.110000 145 64 38 0
33.000000 35.420000 0.220000 144 63 37 0
33.220000 35.420000 0.220000 143 65 40 0
33.440000 35.420000 0.770000 143 65 40 0
33.660000 35.420000 0.770000 142 64 39 0
33.880000 35.420000 1.430000 144 66 41 0
34.100000 35.420000 0.770000 144 67 42 0
34.320000 35.420000 1.430000 146 69 44 0
34.540000 35.420000 6.380000 142 75 44 0
34.760000 35.420000 13.310000 145 78 47 0
34.980000 35.420000 16.720000 145 81 49 0
35.200000 35.420000 11.880000 148 84 52 0
35.420000 35.420000 4.290000 147 85 55 0
35.640000 35.420000 2.970000 148 86 56 0
35.860000 35.420000 6.380000 148 86 56 0
36.080000 35.420000 7.700000 147 85 55 0
36.300000 35.420000 7.040000 145 83 53 0
36.520000 35.420000 6.380000 146 84 54 0
36.740000 35.420000 6.380000 148 84 52 0
36.960000 35.420000 6.380000 148 84 52 0
37.180000 35.420000 6.380000 148 86 56 0
0.000000 35.640000 20.900000 155 129 102 0
0.220000 35.640000 20.900000 154 125 102 0
0.440000 35.640000 20.900000 151 122 99 0
0.660000 35.640000 20.900000 150 122 96 0
0.880000 35.640000 20.900000 147 119 93 0
1.100000 35.640000 20.900000 148 117 92 0
1.320000 35.640000 20.900000 147 116 91 0
1.540000 35.640000 20.900000 146 115 90 0
1.760000 35.640000 20.900000 146 115 90 0
1.980000 35.640000 20.900000 146 115 90 0
2.200000 35.640000 20.900000 145 114 89 0
2.420000 35.640000 20.900000 145 114 89 0
2.640000 35.640000 20.900000 145 114 89 0
2.860000 35.640000 20.900000 144 113 88 0
3.080000 35.640000 20.900000 144 113 88 0
3.300000 35.640000 20.900000 143 112 87 0
3.520000 35.640000 20.900000 144 113 88 0
3.740000 35.640000 20.900000 145 114 89 0
3.960000 35.640000 20.900000 145 114 89 0
4.180000 35.640000 20.900000 144 113 88 0
4.400000 35.640000 20.900000 145 114 89 0
4.620000 35.640000 20.900000 146 115 90 0
4.840000 35.640000 20.900000 146 115 90 0
5.060000 35.640000 21.010000 146 115 90 0
5.280000 35.640000 20.350000 144 113 88 0
5.500000 35.640000 20.350000 144 113 88 0
5.720000 35.640000 20.240000 145 114 89 0
5.940000 35.640000 20.900000 144 113 88 0
6.160000 35.640000 20.240000 143 112 87 0
6.380000 35.640000 20.350000 143 112 87 0
6.600000 35.640000 20.350000 143 112 87 0
6.820000 35.640000 20.240000 142 111 86 0
7.040000 35.640000 20.900000 142 111 86 0
7.260000 35.640000 20.900000 141 110 85 0
7.480000 35.640000 20.900000 141 110 85 0
7.700000 35.640000 20.900000 141 108 86 0
7.920000 35.640000 20.350000 140 107 85 0
8.140000 35.640000 20.350000 139 108 85 0
8.360000 35.640000 20.350000 139 108 85 0
8.580000 35.640000 20.240000 139 106 84 0
8.800000 35.640000 20.900000 139 106 84 0
9.020000 35.640000 20.900000 137 106 83 0
9.240000 35.640000 19.580000 135 104 81 0
9.460000 35.640000 16.830000 137 104 82 0
9.680000 35.640000 15.510000 136 103 81 0
9.900000 35.640000 16.830000 136 103 81 0
10.120000 35.640000 19.470000 134 101 79 0
10.340000 35.640000 18.810000 134 101 79 0
10.560000 35.640000 13.200000 135 102 80 0
10.780000 35.640000 13.310000 135 99 78 0
11.000000 35.640000 15.400000 134 98 77 0
11.220000 35.640000 15.400000 141 94 71 0
11.440000 35.640000 16.830000 140 93 70 0
11.660000 35.640000 18.150000 145 88 64 0
11.880000 35.640000 19.580000 142 85 61 0
12.100000 35.640000 21.010000 142 85 61 0
12.320000 35.640000 21.010000 141 84 60 0
12.540000 35.640000 21.010000 142 85 61 0
12.760000 35.640000 21.010000 143 86 62 0
12.980000 35.640000 21.010000 145 88 64 0
13.200000 35.640000 16.940000 146 89 65 0
13.420000 35.640000 7.260000 148 89 66 0
13.640000 35.640000 0.990000 149 90 67 0
18.480000 35.640000 0.110000 151 78 54 0
18.700000 35.640000 0.660000 150 77 53 0
18.920000 35.640000 0.770000 149 76 52 0
19.140000 35.640000 0.770000 151 74 49 0
19.360000 35.640000 0.770000 150 73 48 0
19.580000 35.640000 0.770000 150 72 45 0
19.800000 35.640000 0.110000 149 71 44 0
20.020000 35.640000 0.110000 148 67 41 0
20.240000 35.640000 0.110000 148 67 41 0
20.460000 35.640000 0.110000 147 66 42 0
20.680000 35.640000 0.110000 147 66 42 0
20.900000 35.640000 0.110000 147 65 39 0
21.120000 35.640000 1.540000 145 63 37 0
21.340000 35.640000 5.610000 145 63 37 0
21.560000 35.640000 7.700000 143 61 35 0
21.780000 35.640000 4.950000 144 62 36 0
22.000000 35.640000 1.430000 144 62 36 0
22.220000 35.640000 0.110000 143 60 37 0
22.440000 35.640000 2.200000 142 59 36 0
22.660000 35.640000 5.060000 144 59 34 0
22.880000 35.640000 2.200000 142 57 32 0
23.100000 35.640000 1.540000 142 57 32 0
23.320000 35.640000 2.200000 142 57 32 0
23.540000 35.640000 2.200000 142 57 32 0
23.760000 35.640000 2.310000 141 56 31 0
23.980000 35.640000 5.060000 140 58 32 0
24.200000 35.640000 13.310000 139 57 31 0
24.420000 35.640000 18.150000 142 57 32 0
24.640000 35.640000 12.650000 143 58 33 0
24.860000 35.640000 5.060000 143 58 33 0
25.080000 35.640000 7.700000 142 57 32 0
25.300000 35.640000 13.200000 143 58 33 0
25.520000 35.640000 7.700000 142 57 32 0
25.740000 35.640000 2.860000 140 58 32 0
25.960000 35.640000 5.720000 139 57 31 0
26.180000 35.640000 6.380000 139 57 31 0
26.400000 35.640000 5.610000 138 56 30 0
26.620000 35.640000 6.380000 139 57 31 0
26.840000 35.640000 4.950000 140 58 32 0
27.060000 35.640000 3.520000 139 57 31 0
27.280000 35.640000 9.130000 139 57 31 0
27.500000 35.640000 13.200000 141 59 33 0
27.720000 35.640000 11.880000 141 59 33 0
27.940000 35.640000 7.700000 141 59 33 0
28.160000 35.640000 2.200000 141 59 33 0
28.380000 35.640000 0.220000 141 59 33 0
28.600000 35.640000 0.110000 141 59 33 0
28.820000 35.640000 1.430000 142 60 34 0
29.040000 35.640000 3.520000 142 60 34 0
29.260000 35.640000 3.630000 141 60 34 0
29.480000 35.640000 1.540000 141 60 34 0
29.700000 35.640000 0.110000 142 60 34 0
29.920000 35.640000 1.540000 143 61 35 0
30.140000 35.640000 4.290000 142 60 34 0
30.360000 35.640000 7.810000 142 60 34 0
30.580000 35.640000 9.130000 141 60 34 0
30.800000 35.640000 3.630000 141 60 34 0
31.240000 35.640000 0.110000 140 62 37 0
31.460000 35.640000 0.110000 140 62 37 0
31.680000 35.640000 0.110000 143 65 40 0
31.900000 35.640000 0.220000 146 65 41 0
32.120000 35.640000 0.220000 145 64 40 0
32.340000 35.640000 0.880000 143 65 40 0
32.560000 35.640000 0.770000 143 65 40 0
32.780000 35.640000 0.880000 142 64 37 0
33.000000 35.640000 0.220000 142 64 37 0
33.220000 35.640000 0.220000 142 64 37 0
33.440000 35.640000 0.220000 142 64 37 0
33.660000 35.640000 0.880000 143 65 38 0
33.880000 35.640000 1.430000 143 65 38 0
34.100000 35.640000 0.770000 143 68 40 0
34.320000 35.640000 4.290000 146 71 43 0
34.540000 35.640000 12.540000 142 78 46 0
34.760000 35.640000 18.040000 144 80 48 0
34.980000 35.640000 16.060000 146 82 50 0
35.200000 35.640000 9.790000 147 83 51 0
35.420000 35.640000 4.290000 148 86 56 0
35.640000 35.640000 4.950000 148 86 56 0
35.860000 35.640000 7.040000 147 85 55 0
36.080000 35.640000 7.700000 146 84 54 0
36.300000 35.640000 7.040000 145 83 53 0
36.520000 35.640000 7.040000 145 83 53 0
36.740000 35.640000 7.040000 148 84 54 0
36.960000 35.640000 7.040000 148 84 54 0
37.180000 35.640000 7.040000 147 85 55 0
0.000000 35.860000 20.900000 156 130 103 0
0.220000 35.860000 20.900000 154 125 102 0
0.440000 35.860000 20.900000 152 123 100 0
0.660000 35.860000 20.900000 149 121 95 0
0.880000 35.860000 20.900000 146 118 92 0
1.100000 35.860000 20.900000 148 117 92 0
1.320000 35.860000 20.900000 146 115 90 0
1.540000 35.860000 20.900000 146 115 90 0
1.760000 35.860000 20.900000 147 116 91 0
1.980000 35.860000 20.900000 146 115 90 0
2.200000 35.860000 20.900000 146 115 90 0
2.420000 35.860000 20.900000 145 114 89 0
2.640000 35.860000 20.240000 145 114 89 0
2.860000 35.860000 20.900000 144 113 88 0
3.080000 35.860000 20.900000 144 113 88 0
3.300000 35.860000 20.900000 144 113 88 0
3.520000 35.860000 20.900000 144 113 88 0
3.740000 35.860000 20.900000 144 113 88 0
3.960000 35.860000 20.900000 144 113 88 0
4.180000 35.860000 20.900000 144 113 88 0
4.400000 35.860000 20.900000 146 115 90 0
4.620000 35.860000 20.900000 144 113 88 0
4.840000 35.860000 20.900000 146 115 90 0
5.060000 35.860000 21.010000 145 114 89 0
5.280000 35.860000 20.240000 145 114 89 0
5.500000 35.860000 20.240000 144 113 88 0
5.720000 35.860000 20.900000 144 113 88 0
5.940000 35.860000 20.900000 144 113 88 0
6.160000 35.860000 20.240000 143 112 87 0
6.380000 35.860000 20.240000 143 112 87 0
6.600000 35.860000 20.240000 143 112 87 0
6.820000 35.860000 20.900000 142 111 86 0
7.040000 35.860000 20.900000 142 111 86 0
7.260000 35.860000 20.900000 142 111 86 0
7.480000 35.860000 20.900000 141 110 85 0
7.700000 35.860000 20.900000 141 108 86 0
7.920000 35.860000 20.900000 141 108 86 0
8.140000 35.860000 20.240000 139 108 85 0
8.360000 35.860000 20.240000 139 108 85 0
8.580000 35.860000 20.240000 139 106 84 0
8.800000 35.860000 20.240000 138 105 83 0
9.020000 35.860000 20.900000 138 107 84 0
9.240000 35.860000 20.900000 136 105 82 0
9.460000 35.860000 21.010000 138 105 83 0
9.680000 35.860000 20.350000 137 104 82 0
9.900000 35.860000 20.350000 136 103 81 0
10.120000 35.860000 20.900000 135 102 80 0
10.340000 35.860000 19.470000 134 101 79 0
10.560000 35.860000 15.400000 133 100 78 0
10.780000 35.860000 13.970000 135 99 78 0
11.000000 35.860000 16.830000 134 98 77 0
11.220000 35.860000 18.260000 141 94 71 0
11.440000 35.860000 19.580000 139 92 69 0
11.660000 35.860000 20.900000 143 86 62 0
11.880000 35.860000 20.900000 141 84 60 0
12.100000 35.860000 20.900000 142 85 61 0
12.320000 35.860000 21.010000 142 85 61 0
12.540000 35.860000 21.010000 142 85 61 0
12.760000 35.860000 21.010000 144 87 63 0
12.980000 35.860000 21.010000 145 88 64 0
13.200000 35.860000 15.510000 146 89 65 0
13.420000 35.860000 4.510000 149 90 67 0
18.480000 35.860000 0.110000 148 75 51 0
18.700000 35.860000 0.660000 148 75 51 0
18.920000 35.860000 0.660000 149 76 52 0
19.140000 35.860000 0.770000 149 72 47 0
19.360000 35.860000 0.770000 148 71 46 0
19.580000 35.860000 0.110000 147 69 42 0
19.800000 35.860000 0.110000 147 69 42 0
20.020000 35.860000 0.110000 148 67 41 0
20.240000 35.860000 0.110000 146 65 39 0
20.460000 35.860000 0.110000 147 66 42 0
20.680000 35.860000 0.110000 145 64 40 0
20.900000 35.860000 0.110000 145 63 37 0
21.340000 35.860000 2.200000 144 62 36 0
21.560000 35.860000 8.580000 144 62 36 0
21.780000 35.860000 10.560000 143 61 35 0
22.000000 35.860000 4.180000 142 60 34 0
22.220000 35.860000 0.110000 141 58 35 0
22.440000 35.860000 2.200000 142 59 36 0
22.660000 35.860000 5.060000 143 58 33 0
22.880000 35.860000 2.200000 142 57 32 0
23.100000 35.860000 4.180000 142 57 32 0
23.320000 35.860000 7.700000 142 57 32 0
23.540000 35.860000 4.950000 142 57 32 0
23.760000 35.860000 2.200000 140 55 30 0
23.980000 35.860000 2.310000 140 58 32 0
24.200000 35.860000 6.380000 139 57 31 0
24.420000 35.860000 14.080000 142 57 32 0
24.640000 35.860000 15.400000 142 57 32 0
24.860000 35.860000 11.880000 142 57 32 0
25.080000 35.860000 13.970000 141 56 31 0
25.300000 35.860000 18.040000 141 56 31 0
25.520000 35.860000 13.200000 141 56 31 0
25.740000 35.860000 4.180000 139 57 31 0
25.960000 35.860000 1.430000 139 57 31 0
26.180000 35.860000 2.860000 139 57 31 0
26.400000 35.860000 2.860000 139 57 31 0
26.620000 35.860000 4.950000 139 57 31 0
26.840000 35.860000 7.700000 140 58 32 0
27.060000 35.860000 7.700000 139 57 31 0
27.280000 35.860000 10.450000 141 59 33 0
27.500000 35.860000 13.200000 140 58 32 0
27.720000 35.860000 10.450000 141 59 33 0
27.940000 35.860000 4.950000 140 58 32 0
28.160000 35.860000 1.540000 141 59 33 0
28.600000 35.860000 0.220000 142 60 34 0
28.820000 35.860000 1.430000 142 60 34 0
29.040000 35.860000 4.950000 141 59 33 0
29.260000 35.860000 6.380000 141 60 34 0
29.480000 35.860000 2.200000 140 59 33 0
29.700000 35.860000 1.430000 142 60 34 0
29.920000 35.860000 5.610000 142 60 34 0
30.140000 35.860000 10.450000 142 60 34 0
30.360000 35.860000 15.400000 141 59 33 0
30.580000 35.860000 15.400000 140 59 33 0
30.800000 35.860000 9.130000 141 60 34 0
31.020000 35.860000 4.180000 140 62 37 0
31.240000 35.860000 2.970000 142 64 39 0
31.460000 35.860000 2.970000 143 65 40 0
31.680000 35.860000 1.540000 144 66 41 0
31.900000 35.860000 0.110000 145 64 40 0
32.120000 35.860000 0.220000 145 64 40 0
32.340000 35.860000 0.880000 143 65 40 0
32.560000 35.860000 0.770000 142 64 39 0
32.780000 35.860000 1.430000 142 64 37 0
33.000000 35.860000 1.540000 141 63 36 0
33.220000 35.860000 0.880000 141 63 36 0
33.440000 35.860000 1.650000 142 64 37 0
33.660000 35.860000 1.540000 143 65 38 0
33.880000 35.860000 1.540000 144 66 39 0
34.100000 35.860000 1.540000 143 68 40 0
34.320000 35.860000 7.700000 146 71 43 0
34.540000 35.860000 15.950000 143 79 47 0
34.760000 35.860000 18.700000 145 81 49 0
34.980000 35.860000 16.720000 146 82 50 0
35.200000 35.860000 11.880000 147 83 51 0
35.420000 35.860000 7.700000 147 85 55 0
35.640000 35.860000 7.700000 148 86 56 0
35.860000 35.860000 7.700000 147 85 55 0
36.080000 35.860000 7.700000 146 84 54 0
36.300000 35.860000 6.930000 145 83 53 0
36.520000 35.860000 6.930000 147 85 55 0
36.740000 35.860000 7.040000 148 84 54 0
36.960000 35.860000 7.040000 148 84 54 0
37.180000 35.860000 7.040000 146 84 54 0
0.000000 36.080000 20.900000 155 126 103 0
0.220000 36.080000 20.900000 155 124 101 0
0.440000 36.080000 20.900000 152 121 98 0
0.660000 36.080000 20.900000 150 119 94 0
0.880000 36.080000 20.900000 149 118 93 0
1.100000 36.080000 20.900000 146 115 90 0
1.320000 36.080000 20.900000 147 116 91 0
1.540000 36.080000 20.900000 146 115 90 0
1.760000 36.080000 20.900000 146 115 90 0
1.980000 36.080000 20.900000 145 114 91 0
2.200000 36.080000 20.900000 145 114 91 0
2.420000 36.080000 20.900000 146 115 90 0
2.640000 36.080000 20.240000 144 113 88 0
2.860000 36.080000 20.900000 144 113 88 0
3.080000 36.080000 20.900000 144 113 88 0
3.300000 36.080000 20.900000 143 112 87 0
3.520000 36.080000 20.900000 144 113 88 0
3.740000 36.080000 20.900000 144 113 88 0
3.960000 36.080000 20.240000 145 114 89 0
4.180000 36.080000 20.240000 146 115 90 0
4.400000 36.080000 20.240000 146 115 90 0
4.620000 36.080000 20.900000 147 114 90 0
4.840000 36.080000 20.900000 146 113 89 0
5.060000 36.080000 20.900000 147 114 90 0
5.280000 36.080000 20.240000 146 113 89 0
5.500000 36.080000 20.240000 147 114 90 0
5.720000 36.080000 20.900000 146 113 89 0
5.940000 36.080000 20.900000 143 112 87 0
6.160000 36.080000 20.900000 143 112 87 0
6.380000 36.080000 20.900000 144 111 87 0
6.600000 36.080000 20.900000 143 110 86 0
6.820000 36.080000 20.240000 144 111 87 0
7.040000 36.080000 20.900000 142 109 85 0
7.260000 36.080000 20.790000 142 109 87 0
7.480000 36.080000 20.900000 142 109 87 0
7.700000 36.080000 20.900000 140 109 86 0
7.920000 36.080000 20.900000 140 109 86 0
8.140000 36.080000 20.900000 141 108 86 0
8.360000 36.080000 20.240000 139 106 84 0
8.580000 36.080000 20.240000 137 104 82 0
8.800000 36.080000 20.240000 138 105 83 0
9.020000 36.080000 20.900000 137 104 82 0
9.240000 36.080000 19.470000 137 104 82 0
9.460000 36.080000 18.150000 137 104 82 0
9.680000 36.080000 18.920000 137 104 82 0
9.900000 36.080000 20.350000 135 102 80 0
10.120000 36.080000 21.010000 135 102 80 0
10.340000 36.080000 20.900000 136 100 79 0
10.560000 36.080000 19.580000 135 99 78 0
10.780000 36.080000 18.150000 135 98 77 0
11.000000 36.080000 19.580000 135 98 77 0
11.220000 36.080000 21.010000 142 91 67 0
11.440000 36.080000 20.350000 140 89 65 0
11.660000 36.080000 20.900000 143 86 62 0
11.880000 36.080000 20.900000 141 84 60 0
12.100000 36.080000 20.900000 142 85 63 0
12.320000 36.080000 21.010000 142 85 63 0
12.540000 36.080000 21.010000 143 86 62 0
12.760000 36.080000 21.010000 144 87 63 0
12.980000 36.080000 19.580000 147 88 65 0
13.200000 36.080000 14.080000 148 89 66 0
13.420000 36.080000 5.830000 152 91 67 0
13.640000 36.080000 0.990000 154 93 69 0
18.480000 36.080000 0.110000 151 74 49 0
18.700000 36.080000 0.660000 151 73 48 0
18.920000 36.080000 0.770000 150 72 47 0
19.140000 36.080000 0.770000 149 71 46 0
19.360000 36.080000 0.110000 148 70 45 0
19.580000 36.080000 0.110000 148 67 43 0
19.800000 36.080000 0.110000 147 66 42 0
20.020000 36.080000 0.110000 146 65 39 0
20.240000 36.080000 0.110000 146 65 39 0
20.460000 36.080000 0.110000 145 64 38 0
20.680000 36.080000 0.110000 144 63 37 0
20.900000 36.080000 1.430000 145 63 37 0
21.120000 36.080000 4.290000 145 63 37 0
21.340000 36.080000 7.810000 144 62 36 0
21.560000 36.080000 14.080000 143 61 35 0
21.780000 36.080000 14.080000 143 61 35 0
22.000000 36.080000 4.950000 141 59 33 0
22.220000 36.080000 1.430000 142 60 34 0
22.440000 36.080000 3.630000 142 60 34 0
22.660000 36.080000 3.740000 140 58 32 0
22.880000 36.080000 0.880000 140 58 32 0
23.100000 36.080000 3.520000 139 56 33 0
23.320000 36.080000 9.130000 139 56 33 0
23.540000 36.080000 9.020000 141 56 31 0
23.760000 36.080000 6.270000 142 57 32 0
23.980000 36.080000 2.200000 138 56 30 0
24.200000 36.080000 0.880000 139 57 31 0
24.420000 36.080000 6.380000 139 57 31 0
24.640000 36.080000 13.310000 139 57 31 0
24.860000 36.080000 15.400000 138 56 30 0
25.080000 36.080000 15.510000 138 56 30 0
25.300000 36.080000 16.720000 139 57 31 0
25.520000 36.080000 14.520000 138 56 30 0
25.740000 36.080000 6.270000 139 57 31 0
25.960000 36.080000 2.860000 138 56 30 0
26.180000 36.080000 1.430000 138 56 30 0
26.620000 36.080000 1.540000 138 56 30 0
26.840000 36.080000 6.380000 139 57 31 0
27.060000 36.080000 11.880000 140 58 32 0
27.280000 36.080000 11.880000 140 58 32 0
27.500000 36.080000 9.130000 139 58 32 0
27.720000 36.080000 6.380000 140 59 33 0
27.940000 36.080000 3.520000 141 59 33 0
28.160000 36.080000 1.430000 142 60 34 0
28.380000 36.080000 0.770000 142 60 34 0
28.600000 36.080000 2.200000 141 59 33 0
28.820000 36.080000 4.290000 140 59 33 0
29.040000 36.080000 7.700000 140 59 33 0
29.260000 36.080000 7.700000 140 59 33 0
29.480000 36.080000 4.180000 140 59 33 0
29.700000 36.080000 4.950000 140 59 35 0
29.920000 36.080000 7.700000 141 60 36 0
30.140000 36.080000 10.450000 141 60 34 0
30.360000 36.080000 16.720000 140 59 33 0
30.580000 36.080000 19.470000 141 60 34 0
30.800000 36.080000 15.950000 142 61 35 0
31.020000 36.080000 9.130000 141 63 38 0
31.240000 36.080000 6.380000 142 64 39 0
31.460000 36.080000 7.810000 143 65 40 0
31.680000 36.080000 4.290000 143 65 40 0
31.900000 36.080000 0.110000 145 67 42 0
32.120000 36.080000 1.430000 143 65 40 0
32.340000 36.080000 3.520000 142 64 37 0
32.560000 36.080000 2.090000 141 63 36 0
32.780000 36.080000 1.430000 142 64 39 0
33.000000 36.080000 1.430000 140 62 37 0
33.220000 36.080000 2.200000 143 62 38 0
33.440000 36.080000 2.200000 143 62 38 0
33.660000 36.080000 1.540000 143 65 38 0
33.880000 36.080000 2.200000 145 67 40 0
34.100000 36.080000 6.380000 139 72 41 0
34.320000 36.080000 13.860000 141 74 43 0
34.540000 36.080000 18.040000 143 79 47 0
34.760000 36.080000 18.040000 146 82 50 0
34.980000 36.080000 16.720000 145 83 53 0
35.200000 36.080000 13.970000 147 85 55 0
35.420000 36.080000 10.450000 149 85 55 0
35.640000 36.080000 8.360000 149 85 55 0
35.860000 36.080000 7.700000 149 85 55 0
36.080000 36.080000 7.700000 149 85 55 0
36.300000 36.080000 7.700000 147 83 51 0
36.520000 36.080000 6.930000 147 83 51 0
36.740000 36.080000 7.040000 146 82 50 0
36.960000 36.080000 6.930000 148 84 52 0
37.180000 36.080000 7.700000 148 84 54 0
0.000000 36.300000 20.900000 153 124 101 0
0.220000 36.300000 20.900000 153 122 99 0
0.440000 36.300000 20.900000 151 120 97 0
0.660000 36.300000 20.900000 149 118 93 0
0.880000 36.300000 20.900000 149 118 93 0
1.100000 36.300000 20.900000 148 117 92 0
1.320000 36.300000 20.900000 147 116 91 0
1.540000 36.300000 20.900000 147 116 91 0
1.760000 36.300000 20.900000 146 115 90 0
1.980000 36.300000 20.900000 146 115 92 0
2.200000 36.300000 20.900000 145 114 91 0
2.420000 36.300000 20.900000 146 115 90 0
2.640000 36.300000 20.240000 146 115 90 0
2.860000 36.300000 20.900000 145 114 89 0
3.080000 36.300000 20.900000 145 114 89 0
3.300000 36.300000 20.900000 145 114 89 0
3.520000 36.300000 20.900000 145 114 89 0
3.740000 36.300000 20.900000 144 113 88 0
3.960000 36.300000 20.240000 145 114 89 0
4.180000 36.300000 20.240000 146 115 90 0
4.400000 36.300000 20.240000 145 114 89 0
4.620000 36.300000 20.240000 146 113 89 0
4.840000 36.300000 20.900000 146 113 89 0
5.060000 36.300000 20.240000 145 112 88 0
5.280000 36.300000 20.240000 146 113 89 0
5.500000 36.300000 20.240000 146 113 89 0
5.720000 36.300000 20.240000 145 112 88 0
5.940000 36.300000 20.240000 144 113 88 0
6.160000 36.300000 20.900000 143 112 87 0
6.380000 36.300000 20.900000 143 110 86 0
6.600000 36.300000 20.240000 143 110 86 0
6.820000 36.300000 20.240000 143 110 86 0
7.040000 36.300000 20.240000 143 110 86 0
7.260000 36.300000 20.790000 142 109 87 0
7.480000 36.300000 20.900000 142 109 87 0
7.700000 36.300000 20.240000 140 109 86 0
7.920000 36.300000 20.350000 139 108 85 0
8.140000 36.300000 20.350000 140 107 85 0
8.360000 36.300000 20.240000 139 106 84 0
8.580000 36.300000 20.240000 138 105 83 0
8.800000 36.300000 20.900000 137 104 82 0
9.020000 36.300000 20.790000 137 104 82 0
9.240000 36.300000 18.040000 136 103 81 0
9.460000 36.300000 15.400000 136 103 81 0
9.680000 36.300000 17.490000 136 103 81 0
9.900000 36.300000 20.240000 135 102 80 0
10.120000 36.300000 21.010000 135 102 80 0
10.340000 36.300000 20.900000 136 100 79 0
10.560000 36.300000 20.900000 135 99 78 0
10.780000 36.300000 20.900000 136 99 78 0
11.000000 36.300000 20.900000 133 96 75 0
11.220000 36.300000 20.900000 142 91 67 0
11.440000 36.300000 20.350000 139 88 64 0
11.660000 36.300000 21.010000 142 85 61 0
11.880000 36.300000 20.900000 142 85 61 0
12.100000 36.300000 20.900000 142 85 63 0
12.320000 36.300000 20.900000 143 86 64 0
12.540000 36.300000 21.010000 144 87 63 0
12.760000 36.300000 21.010000 145 88 64 0
12.980000 36.300000 18.260000 147 88 65 0
13.200000 36.300000 12.760000 150 91 68 0
13.420000 36.300000 7.260000 153 92 68 0
13.640000 36.300000 2.420000 154 93 69 0
18.480000 36.300000 0.220000 149 72 47 0
18.700000 36.300000 1.430000 149 71 46 0
18.920000 36.300000 2.750000 147 69 44 0
19.140000 36.300000 1.430000 146 68 43 0
19.360000 36.300000 1.430000 147 69 44 0
19.580000 36.300000 2.860000 147 66 42 0
19.800000 36.300000 1.540000 146 65 41 0
20.020000 36.300000 0.220000 145 64 38 0
20.240000 36.300000 0.110000 144 63 37 0
20.460000 36.300000 0.880000 145 64 38 0
20.680000 36.300000 3.630000 144 63 37 0
20.900000 36.300000 7.810000 144 62 36 0
21.120000 36.300000 12.650000 143 61 35 0
21.340000 36.300000 16.830000 143 61 35 0
21.560000 36.300000 19.580000 142 60 34 0
21.780000 36.300000 15.510000 141 59 33 0
22.000000 36.300000 5.060000 141 59 33 0
22.220000 36.300000 3.630000 141 59 33 0
22.440000 36.300000 9.240000 140 58 32 0
22.660000 36.300000 7.260000 140 58 32 0
22.880000 36.300000 3.740000 140 58 32 0
23.100000 36.300000 3.630000 139 56 33 0
23.320000 36.300000 9.020000 139 56 33 0
23.540000 36.300000 13.200000 140 55 30 0
23.760000 36.300000 9.130000 139 54 29 0
23.980000 36.300000 2.200000 138 56 30 0
24.200000 36.300000 0.110000 140 58 32 0
24.420000 36.300000 2.200000 139 57 31 0
24.640000 36.300000 9.900000 137 55 29 0
24.860000 36.300000 14.960000 138 56 30 0
25.080000 36.300000 10.780000 139 57 31 0
25.300000 36.300000 9.900000 137 55 29 0
25.520000 36.300000 11.880000 139 57 31 0
25.740000 36.300000 7.700000 139 57 31 0
25.960000 36.300000 4.950000 139 57 31 0
26.180000 36.300000 2.860000 139 57 31 0
26.620000 36.300000 1.430000 140 58 32 0
26.840000 36.300000 6.380000 141 59 33 0
27.060000 36.300000 11.880000 140 58 32 0
27.280000 36.300000 13.310000 141 59 33 0
27.500000 36.300000 10.560000 141 60 34 0
27.720000 36.300000 7.700000 140 59 33 0
27.940000 36.300000 7.700000 142 60 34 0
28.160000 36.300000 5.610000 141 59 33 0
28.380000 36.300000 4.840000 142 60 34 0
28.600000 36.300000 6.270000 141 59 33 0
28.820000 36.300000 4.180000 139 58 32 0
29.040000 36.300000 4.950000 140 59 33 0
29.260000 36.300000 6.270000 138 57 31 0
29.480000 36.300000 4.950000 139 58 32 0
29.700000 36.300000 6.490000 140 59 35 0
29.920000 36.300000 5.720000 139 58 34 0
30.140000 36.300000 9.130000 141 60 34 0
30.360000 36.300000 15.290000 141 60 34 0
30.580000 36.300000 16.610000 141 60 34 0
30.800000 36.300000 14.520000 142 61 35 0
31.020000 36.300000 10.450000 141 63 38 0
31.240000 36.300000 8.470000 143 65 40 0
31.460000 36.300000 9.130000 143 65 40 0
31.680000 36.300000 4.950000 144 66 41 0
31.900000 36.300000 0.770000 143 65 40 0
32.120000 36.300000 3.520000 141 63 38 0
32.340000 36.300000 5.610000 141 63 36 0
32.560000 36.300000 3.520000 141 63 36 0
32.780000 36.300000 1.430000 141 63 38 0
33.000000 36.300000 2.090000 141 63 38 0
33.220000 36.300000 2.200000 142 61 37 0
33.440000 36.300000 2.200000 143 62 38 0
33.660000 36.300000 1.540000 143 65 38 0
33.880000 36.300000 2.860000 145 67 40 0
34.100000 36.300000 9.790000 139 72 41 0
34.320000 36.300000 16.610000 143 76 45 0
34.540000 36.300000 18.040000 144 80 48 0
34.760000 36.300000 17.380000 146 82 50 0
34.980000 36.300000 15.950000 145 83 53 0
35.200000 36.300000 13.310000 147 85 55 0
35.420000 36.300000 10.450000 150 86 56 0
35.640000 36.300000 8.360000 148 84 54 0
35.860000 36.300000 7.700000 149 85 55 0
36.080000 36.300000 7.700000 149 85 55 0
36.300000 36.300000 7.700000 148 84 52 0
36.520000 36.300000 7.700000 147 83 51 0
36.740000 36.300000 7.700000 148 84 52 0
36.960000 36.300000 7.700000 147 83 51 0
37.180000 36.300000 7.590000 147 83 53 0
0.000000 36.520000 20.900000 153 125 99 0
0.220000 36.520000 20.900000 151 120 95 0
0.440000 36.520000 20.900000 150 119 94 0
0.660000 36.520000 20.900000 149 118 93 0
0.880000 36.520000 20.900000 148 117 92 0
1.100000 36.520000 20.900000 148 117 91 0
1.320000 36.520000 20.900000 147 116 90 0
1.540000 36.520000 20.900000 147 116 91 0
1.760000 36.520000 20.900000 147 116 91 0
1.980000 36.520000 20.900000 146 115 90 0
2.200000 36.520000 20.900000 144 113 88 0
2.420000 36.520000 20.900000 145 114 89 0
2.640000 36.520000 20.900000 144 113 88 0
2.860000 36.520000 20.900000 146 115 90 0
3.080000 36.520000 20.900000 144 113 88 0
3.300000 36.520000 20.900000 147 114 90 0
3.520000 36.520000 20.240000 146 113 89 0
3.740000 36.520000 20.240000 145 114 89 0
3.960000 36.520000 20.900000 145 114 89 0
4.180000 36.520000 20.240000 146 115 90 0
4.400000 36.520000 20.240000 146 115 90 0
4.620000 36.520000 20.900000 145 114 89 0
4.840000 36.520000 20.900000 144 113 88 0
5.060000 36.520000 20.900000 145 112 88 0
5.280000 36.520000 20.240000 146 113 89 0
5.500000 36.520000 20.350000 145 114 89 0
5.720000 36.520000 20.350000 144 113 88 0
5.940000 36.520000 20.240000 144 113 88 0
6.160000 36.520000 20.900000 143 112 87 0
6.380000 36.520000 20.900000 144 111 87 0
6.600000 36.520000 20.240000 143 110 86 0
6.820000 36.520000 20.240000 142 109 85 0
7.040000 36.520000 20.900000 142 109 85 0
7.260000 36.520000 20.790000 143 110 86 0
7.480000 36.520000 20.900000 141 108 84 0
7.700000 36.520000 20.240000 141 108 84 0
7.920000 36.520000 20.350000 141 108 84 0
8.140000 36.520000 20.350000 140 107 85 0
8.360000 36.520000 20.350000 138 105 83 0
8.580000 36.520000 20.240000 138 105 83 0
8.800000 36.520000 20.900000 137 104 82 0
9.020000 36.520000 20.900000 137 104 82 0
9.240000 36.520000 19.470000 135 102 80 0
9.460000 36.520000 18.150000 137 104 82 0
9.680000 36.520000 18.920000 136 103 81 0
9.900000 36.520000 20.900000 137 101 80 0
10.120000 36.520000 21.010000 136 100 79 0
10.340000 36.520000 20.900000 137 101 80 0
10.560000 36.520000 20.900000 136 100 79 0
10.780000 36.520000 20.900000 146 94 68 0
11.000000 36.520000 20.900000 143 91 65 0
11.220000 36.520000 21.010000 143 88 63 0
11.440000 36.520000 20.350000 142 87 62 0
11.660000 36.520000 21.010000 143 86 62 0
11.880000 36.520000 20.900000 142 85 61 0
12.100000 36.520000 20.900000 144 85 62 0
12.320000 36.520000 20.900000 145 86 63 0
12.540000 36.520000 21.010000 146 89 65 0
12.760000 36.520000 20.350000 146 89 65 0
12.980000 36.520000 19.690000 148 89 66 0
13.200000 36.520000 14.080000 151 92 69 0
13.420000 36.520000 5.830000 151 92 69 0
13.640000 36.520000 0.990000 152 93 70 0
18.480000 36.520000 0.990000 148 71 46 0
18.700000 36.520000 5.060000 148 70 43 0
18.920000 36.520000 6.380000 147 69 42 0
19.140000 36.520000 2.860000 147 66 40 0
19.360000 36.520000 2.860000 147 66 40 0
19.580000 36.520000 5.610000 146 66 38 0
19.800000 36.520000 2.200000 145 65 37 0
20.020000 36.520000 0.990000 145 63 37 0
20.240000 36.520000 3.630000 145 63 37 0
20.460000 36.520000 6.380000 144 62 36 0
20.680000 36.520000 10.560000 144 62 36 0
20.900000 36.520000 15.400000 143 61 35 0
21.120000 36.520000 19.030000 144 62 36 0
21.340000 36.520000 20.460000 143 61 35 0
21.560000 36.520000 19.030000 142 60 34 0
21.780000 36.520000 12.210000 141 59 33 0
22.000000 36.520000 4.620000 141 59 33 0
22.220000 36.520000 7.260000 141 59 33 0
22.440000 36.520000 15.400000 140 58 32 0
22.660000 36.520000 16.830000 140 58 32 0
22.880000 36.520000 12.650000 140 58 32 0
23.100000 36.520000 9.020000 139 57 31 0
23.320000 36.520000 11.880000 139 57 31 0
23.540000 36.520000 17.380000 138 56 30 0
23.760000 36.520000 12.650000 138 56 30 0
23.980000 36.520000 3.740000 138 56 29 0
24.200000 36.520000 0.880000 139 57 30 0
24.420000 36.520000 6.380000 138 56 30 0
24.640000 36.520000 14.080000 137 55 29 0
24.860000 36.520000 17.710000 138 56 30 0
25.080000 36.520000 13.640000 138 56 30 0
25.300000 36.520000 11.440000 138 56 30 0
25.520000 36.520000 11.880000 138 56 30 0
25.740000 36.520000 7.040000 140 58 32 0
25.960000 36.520000 4.290000 140 58 32 0
26.180000 36.520000 5.610000 140 58 32 0
26.400000 36.520000 4.180000 140 58 32 0
26.620000 36.520000 4.950000 140 58 32 0
26.840000 36.520000 9.130000 141 59 33 0
27.060000 36.520000 9.900000 141 59 33 0
27.280000 36.520000 13.970000 142 60 34 0
27.500000 36.520000 13.970000 140 59 33 0
27.720000 36.520000 9.130000 141 60 34 0
27.940000 36.520000 9.130000 141 59 33 0
28.160000 36.520000 10.450000 142 60 34 0
28.380000 36.520000 11.770000 140 59 33 0
28.600000 36.520000 9.020000 139 58 32 0
28.820000 36.520000 4.290000 140 59 33 0
29.040000 36.520000 4.950000 140 59 33 0
29.260000 36.520000 6.490000 139 58 32 0
29.480000 36.520000 3.190000 139 58 32 0
29.700000 36.520000 1.760000 140 59 35 0
29.920000 36.520000 3.080000 141 60 36 0
30.140000 36.520000 9.790000 140 59 33 0
30.360000 36.520000 15.290000 141 60 34 0
30.580000 36.520000 12.540000 141 60 34 0
30.800000 36.520000 11.220000 143 62 36 0
31.020000 36.520000 12.650000 141 63 38 0
31.240000 36.520000 9.900000 141 63 38 0
31.460000 36.520000 7.040000 143 65 40 0
31.680000 36.520000 6.270000 143 65 40 0
31.900000 36.520000 4.950000 143 65 38 0
32.120000 36.520000 3.630000 143 65 38 0
32.340000 36.520000 2.970000 141 63 36 0
32.560000 36.520000 1.650000 141 63 36 0
32.780000 36.520000 0.880000 141 63 38 0
33.000000 36.520000 1.430000 140 62 37 0
33.220000 36.520000 1.540000 141 63 38 0
33.440000 36.520000 0.880000 143 65 40 0
33.660000 36.520000 0.880000 143 68 40 0
33.880000 36.520000 2.090000 144 69 41 0
34.100000 36.520000 7.700000 141 75 46 0
34.320000 36.520000 13.860000 143 77 48 0
34.540000 36.520000 15.950000 145 81 51 0
34.760000 36.520000 15.950000 146 82 52 0
34.980000 36.520000 13.860000 147 85 55 0
35.200000 36.520000 11.880000 148 86 56 0
35.420000 36.520000 9.790000 150 86 54 0
35.640000 36.520000 8.360000 150 86 54 0
35.860000 36.520000 7.700000 147 85 55 0
36.080000 36.520000 7.700000 147 85 55 0
36.300000 36.520000 7.700000 149 85 53 0
36.520000 36.520000 7.700000 147 83 51 0
36.740000 36.520000 7.700000 148 83 50 0
36.960000 36.520000 8.360000 149 84 51 0
37.180000 36.520000 8.360000 147 83 51 0
0.000000 36.740000 20.900000 152 124 98 0
0.220000 36.740000 20.900000 151 120 95 0
0.440000 36.740000 20.900000 150 119 94 0
0.660000 36.740000 20.900000 149 118 93 0
0.880000 36.740000 20.900000 148 117 92 0
1.100000 36.740000 20.900000 147 116 90 0
1.320000 36.740000 20.900000 148 117 91 0
1.540000 36.740000 20.900000 146 115 90 0
1.760000 36.740000 20.900000 146 115 90 0
1.980000 36.740000 20.900000 146 115 90 0
2.200000 36.740000 20.900000 145 114 89 0
2.420000 36.740000 20.900000 144 113 88 0
2.640000 36.740000 20.900000 145 114 89 0
2.860000 36.740000 20.900000 145 114 89 0
3.080000 36.740000 20.900000 145 114 89 0
3.300000 36.740000 20.900000 147 114 90 0
3.520000 36.740000 20.240000 146 113 89 0
3.740000 36.740000 20.240000 145 114 89 0
3.960000 36.740000 20.900000 144 113 88 0
4.180000 36.740000 20.240000 145 114 89 0
4.400000 36.740000 20.240000 146 115 90 0
4.620000 36.740000 20.900000 145 114 89 0
4.840000 36.740000 20.900000 145 114 89 0
5.060000 36.740000 20.790000 146 113 89 0
5.280000 36.740000 20.900000 145 112 88 0
5.500000 36.740000 20.240000 144 113 88 0
5.720000 36.740000 20.240000 144 113 88 0
5.940000 36.740000 20.900000 144 113 88 0
6.160000 36.740000 20.900000 144 113 88 0
6.380000 36.740000 20.900000 144 111 87 0
6.600000 36.740000 20.900000 144 111 87 0
6.820000 36.740000 20.900000 143 110 86 0
7.040000 36.740000 20.790000 142 109 85 0
7.260000 36.740000 20.790000 142 109 85 0
7.480000 36.740000 20.240000 142 109 85 0
7.700000 36.740000 20.240000 140 107 83 0
7.920000 36.740000 20.240000 140 107 83 0
8.140000 36.740000 20.350000 140 107 85 0
8.360000 36.740000 20.350000 139 106 84 0
8.580000 36.740000 20.350000 138 105 83 0
8.800000 36.740000 20.350000 137 104 82 0
9.020000 36.740000 20.240000 137 104 82 0
9.240000 36.740000 20.240000 136 103 81 0
9.460000 36.740000 20.350000 137 104 82 0
9.680000 36.740000 20.240000 135 102 80 0
9.900000 36.740000 20.900000 137 101 80 0
10.120000 36.740000 20.900000 136 100 79 0
10.340000 36.740000 20.900000 136 100 79 0
10.560000 36.740000 20.240000 135 99 78 0
10.780000 36.740000 20.240000 146 94 68 0
11.000000 36.740000 20.240000 142 90 64 0
11.220000 36.740000 20.350000 141 86 61 0
11.440000 36.740000 20.350000 141 86 61 0
11.660000 36.740000 20.240000 142 85 61 0
11.880000 36.740000 20.240000 143 86 62 0
12.100000 36.740000 21.010000 145 86 63 0
12.320000 36.740000 20.900000 146 87 64 0
12.540000 36.740000 21.010000 145 88 64 0
12.760000 36.740000 21.010000 147 90 66 0
12.980000 36.740000 21.010000 151 92 69 0
13.200000 36.740000 15.510000 151 92 69 0
13.420000 36.740000 5.170000 152 93 70 0
17.600000 36.740000 0.550000 149 77 50 0
17.820000 36.740000 1.870000 150 75 49 0
18.040000 36.740000 0.990000 149 74 48 0
18.480000 36.740000 1.870000 147 70 45 0
18.700000 36.740000 5.830000 146 68 41 0
18.920000 36.740000 6.380000 146 68 41 0
19.140000 36.740000 3.740000 146 65 39 0
19.360000 36.740000 3.740000 147 66 40 0
19.580000 36.740000 5.060000 146 66 38 0
19.800000 36.740000 2.310000 145 65 37 0
20.020000 36.740000 2.310000 146 64 38 0
20.240000 36.740000 7.810000 145 63 37 0
20.460000 36.740000 10.450000 144 62 36 0
20.680000 36.740000 12.650000 143 61 35 0
20.900000 36.740000 17.600000 142 60 34 0
21.120000 36.740000 20.460000 144 62 36 0
21.340000 36.740000 19.800000 143 61 35 0
21.560000 36.740000 16.280000 142 60 34 0
21.780000 36.740000 8.140000 141 59 33 0
22.000000 36.740000 6.820000 140 58 32 0
22.220000 36.740000 13.530000 141 59 33 0
22.440000 36.740000 19.580000 140 58 32 0
22.660000 36.740000 19.580000 138 56 30 0
22.880000 36.740000 16.720000 139 57 31 0
23.100000 36.740000 14.630000 139 57 31 0
23.320000 36.740000 13.200000 139 57 31 0
23.540000 36.740000 14.630000 138 56 30 0
23.760000 36.740000 11.880000 139 57 31 0
23.980000 36.740000 5.060000 138 56 29 0
24.200000 36.740000 5.060000 138 56 29 0
24.420000 36.740000 10.560000 138 56 30 0
24.640000 36.740000 13.970000 137 55 29 0
24.860000 36.740000 16.830000 138 56 30 0
25.080000 36.740000 17.710000 138 56 30 0
25.300000 36.740000 17.710000 139 57 31 0
25.520000 36.740000 14.190000 139 57 31 0
25.740000 36.740000 5.060000 139 57 31 0
25.960000 36.740000 2.200000 140 58 32 0
26.180000 36.740000 7.700000 140 58 32 0
26.400000 36.740000 9.020000 141 59 33 0
26.620000 36.740000 10.450000 140 58 32 0
26.840000 36.740000 12.540000 141 59 33 0
27.060000 36.740000 12.540000 142 60 34 0
27.280000 36.740000 16.720000 141 59 33 0
27.500000 36.740000 15.950000 141 60 34 0
27.720000 36.740000 6.270000 142 61 35 0
27.940000 36.740000 5.170000 142 60 34 0
28.160000 36.740000 10.010000 142 60 34 0
28.380000 36.740000 12.650000 141 60 34 0
28.600000 36.740000 9.130000 140 59 33 0
28.820000 36.740000 5.060000 139 58 32 0
29.040000 36.740000 7.810000 139 58 32 0
29.260000 36.740000 7.150000 139 58 32 0
29.480000 36.740000 1.760000 139 58 32 0
29.700000 36.740000 0.330000 140 59 35 0
29.920000 36.740000 5.060000 140 59 35 0
30.140000 36.740000 9.900000 141 60 34 0
30.360000 36.740000 12.650000 141 60 34 0
30.580000 36.740000 12.650000 141 60 34 0
30.800000 36.740000 13.970000 142 61 35 0
31.020000 36.740000 13.970000 140 62 37 0
31.240000 36.740000 8.470000 143 65 40 0
31.460000 36.740000 4.950000 142 64 39 0
31.680000 36.740000 7.700000 141 63 38 0
31.900000 36.740000 7.810000 141 63 36 0
32.120000 36.740000 3.080000 141 63 36 0
32.340000 36.740000 0.330000 141 63 36 0
32.560000 36.740000 0.330000 141 63 36 0
32.780000 36.740000 0.880000 140 62 37 0
33.000000 36.740000 0.770000 140 62 37 0
33.220000 36.740000 0.770000 142 64 39 0
33.440000 36.740000 0.880000 143 65 40 0
33.660000 36.740000 2.200000 143 68 40 0
33.880000 36.740000 4.950000 145 70 42 0
34.100000 36.740000 8.470000 141 75 46 0
34.320000 36.740000 13.200000 144 78 49 0
34.540000 36.740000 14.520000 146 82 52 0
34.760000 36.740000 13.200000 147 83 53 0
34.980000 36.740000 11.770000 147 85 55 0
35.200000 36.740000 10.450000 147 85 55 0
35.420000 36.740000 8.360000 149 85 53 0
35.640000 36.740000 8.360000 150 86 54 0
35.860000 36.740000 7.810000 149 87 57 0
36.080000 36.740000 7.150000 148 86 56 0
36.300000 36.740000 7.810000 149 85 53 0
36.520000 36.740000 7.700000 148 84 52 0
36.740000 36.740000 7.700000 148 83 50 0
36.960000 36.740000 8.360000 148 83 50 0
37.180000 36.740000 8.360000 148 84 52 0
0.000000 36.960000 20.900000 150 122 96 0
0.220000 36.960000 20.900000 151 120 95 0
0.440000 36.960000 20.900000 149 118 93 0
0.660000 36.960000 20.900000 148 117 92 0
0.880000 36.960000 20.900000 147 116 91 0
1.100000 36.960000 20.900000 147 116 91 0
1.320000 36.960000 20.900000 146 115 90 0
1.540000 36.960000 20.900000 146 115 90 0
1.760000 36.960000 20.900000 146 115 90 0
1.980000 36.960000 20.900000 146 113 89 0
2.200000 36.960000 20.900000 146 113 89 0
2.420000 36.960000 20.900000 144 113 88 0
2.640000 36.960000 20.900000 145 114 89 0
2.860000 36.960000 20.900000 145 114 89 0
3.080000 36.960000 20.900000 146 115 90 0
3.300000 36.960000 20.900000 147 114 90 0
3.520000 36.960000 20.240000 147 114 90 0
3.740000 36.960000 20.240000 145 112 88 0
3.960000 36.960000 20.240000 147 114 90 0
4.180000 36.960000 20.240000 147 114 90 0
4.400000 36.960000 20.240000 146 113 89 0
4.620000 36.960000 20.900000 145 114 89 0
4.840000 36.960000 20.900000 145 114 89 0
5.060000 36.960000 20.900000 146 113 89 0
5.280000 36.960000 20.900000 145 112 88 0
5.500000 36.960000 20.240000 145 112 88 0
5.720000 36.960000 20.240000 147 114 90 0
5.940000 36.960000 20.240000 146 113 89 0
6.160000 36.960000 20.240000 145 112 88 0
6.380000 36.960000 20.240000 142 111 86 0
6.600000 36.960000 20.240000 142 111 86 0
6.820000 36.960000 20.240000 143 110 86 0
7.040000 36.960000 20.900000 143 110 86 0
7.260000 36.960000 20.900000 142 109 85 0
7.480000 36.960000 20.350000 141 108 84 0
7.700000 36.960000 20.350000 141 108 84 0
7.920000 36.960000 20.350000 140 107 83 0
8.140000 36.960000 20.350000 140 107 85 0
8.360000 36.960000 20.240000 139 106 84 0
8.580000 36.960000 20.240000 139 106 84 0
8.800000 36.960000 20.240000 138 105 83 0
9.020000 36.960000 20.350000 137 104 82 0
9.240000 36.960000 20.350000 137 104 82 0
9.460000 36.960000 20.350000 136 103 81 0
9.680000 36.960000 20.350000 136 103 81 0
9.900000 36.960000 20.240000 135 102 80 0
10.120000 36.960000 20.900000 134 101 79 0
