ply
format ascii 1.0
element vertex 1127
property float x
property float y
property float z
property uchar red
property uchar green
property uchar blue
property uchar alpha
end_header
32.340000 16.720000 19.030000 223 188 151 0
32.560000 16.720000 19.800000 214 179 142 0
32.780000 16.720000 19.800000 217 162 127 0
33.000000 16.720000 19.800000 204 149 114 0
33.220000 16.720000 19.910000 211 131 101 0
33.440000 16.720000 19.910000 199 119 89 0
33.660000 16.720000 20.020000 201 117 88 0
33.880000 16.720000 20.020000 201 117 88 0
34.100000 16.720000 20.020000 199 115 86 0
34.320000 16.720000 20.460000 198 114 85 0
34.540000 16.720000 20.900000 198 114 85 0
34.760000 16.720000 21.450000 199 115 86 0
34.980000 16.720000 21.450000 195 118 87 0
35.200000 16.720000 21.450000 199 122 91 0
35.420000 16.720000 21.450000 191 137 104 0
35.640000 16.720000 21.450000 200 146 113 0
35.860000 16.720000 18.700000 198 159 123 0
36.080000 16.720000 10.450000 206 167 131 0
36.300000 16.720000 2.860000 204 171 135 0
36.520000 16.720000 0.110000 207 174 138 0
36.740000 16.720000 0.110000 206 180 142 0
36.960000 16.720000 0.110000 207 181 143 0
37.180000 16.720000 0.110000 207 183 144 0
0.000000 16.940000 1.540000 153 72 48 0
0.220000 16.940000 1.540000 151 72 50 0
0.440000 16.940000 1.540000 150 71 49 0
0.660000 16.940000 0.220000 150 71 49 0
0.880000 16.940000 0.220000 150 71 49 0
1.100000 16.940000 0.220000 151 72 50 0
1.320000 16.940000 0.880000 149 70 48 0
1.540000 16.940000 0.880000 152 71 49 0
1.760000 16.940000 2.310000 151 70 48 0
1.980000 16.940000 0.880000 151 70 48 0
2.200000 16.940000 4.290000 151 70 48 0
2.420000 16.940000 9.130000 148 67 45 0
2.640000 16.940000 6.380000 150 69 47 0
2.860000 16.940000 2.310000 150 69 45 0
3.080000 16.940000 2.200000 150 69 45 0
3.300000 16.940000 2.860000 150 69 47 0
3.520000 16.940000 2.310000 149 68 46 0
3.740000 16.940000 1.650000 151 68 47 0
3.960000 16.940000 1.650000 150 67 46 0
4.180000 16.940000 3.630000 150 69 47 0
4.400000 16.940000 7.150000 150 69 47 0
4.620000 16.940000 7.810000 151 68 47 0
4.840000 16.940000 5.060000 151 68 47 0
5.060000 16.940000 4.400000 150 69 47 0
5.280000 16.940000 5.830000 150 69 47 0
5.500000 16.940000 3.080000 152 69 48 0
5.720000 16.940000 0.990000 152 69 48 0
5.940000 16.940000 0.990000 155 74 50 0
6.160000 16.940000 1.650000 155 74 50 0
6.380000 16.940000 5.060000 156 75 53 0
6.600000 16.940000 7.150000 158 77 55 0
6.820000 16.940000 4.290000 158 77 55 0
7.040000 16.940000 2.310000 158 77 55 0
7.260000 16.940000 5.170000 159 76 55 0
7.480000 16.940000 5.830000 157 74 53 0
7.700000 16.940000 4.400000 157 74 53 0
7.920000 16.940000 2.420000 155 72 51 0
8.140000 16.940000 2.420000 154 73 51 0
8.360000 16.940000 3.740000 153 72 50 0
8.580000 16.940000 4.400000 151 70 48 0
8.800000 16.940000 5.060000 151 70 48 0
9.020000 16.940000 7.150000 151 68 47 0
9.240000 16.940000 8.580000 151 68 47 0
9.460000 16.940000 8.580000 151 68 47 0
9.680000 16.940000 9.240000 151 68 47 0
9.900000 16.940000 9.350000 151 68 47 0
10.120000 16.940000 9.350000 152 69 48 0
10.340000 16.940000 10.010000 153 71 52 0
10.560000 16.940000 11.330000 156 74 55 0
10.780000 16.940000 11.330000 157 82 58 0
11.000000 16.940000 10.670000 161 86 62 0
11.220000 16.940000 10.010000 162 96 69 0
11.440000 16.940000 10.010000 169 103 76 0
11.660000 16.940000 9.900000 166 115 81 0
11.880000 16.940000 9.240000 171 120 86 0
12.100000 16.940000 9.900000 166 125 90 0
12.320000 16.940000 10.560000 167 126 91 0
12.540000 16.940000 9.900000 164 129 94 0
12.760000 16.940000 9.900000 165 130 95 0
12.980000 16.940000 9.900000 165 132 96 0
13.200000 16.940000 9.900000 166 133 97 0
13.420000 16.940000 9.900000 165 138 104 0
13.640000 16.940000 9.240000 168 141 107 0
13.860000 16.940000 9.240000 164 148 118 0
14.080000 16.940000 9.240000 168 152 122 0
14.300000 16.940000 9.240000 169 157 130 0
14.520000 16.940000 9.240000 173 161 134 0
14.740000 16.940000 9.240000 175 163 134 0
14.960000 16.940000 9.350000 176 164 135 0
15.180000 16.940000 8.580000 183 164 129 0
15.400000 16.940000 8.580000 183 164 129 0
15.620000 16.940000 8.580000 184 164 126 0
15.840000 16.940000 8.580000 182 162 124 0
16.060000 16.940000 8.580000 182 162 124 0
16.280000 16.940000 8.580000 182 162 124 0
16.500000 16.940000 7.810000 182 162 120 0
16.720000 16.940000 7.810000 183 163 121 0
16.940000 16.940000 7.810000 184 164 122 0
17.160000 16.940000 7.810000 185 165 123 0
17.380000 16.940000 7.810000 187 169 124 0
17.600000 16.940000 7.810000 190 172 127 0
17.820000 16.940000 7.810000 190 174 133 0
18.040000 16.940000 7.810000 193 177 136 0
18.260000 16.940000 7.810000 197 183 139 0
18.480000 16.940000 7.810000 200 186 142 0
18.700000 16.940000 7.810000 202 189 142 0
18.920000 16.940000 7.810000 204 191 144 0
19.140000 16.940000 7.920000 206 193 146 0
19.360000 16.940000 7.920000 206 193 146 0
19.580000 16.940000 7.920000 207 194 147 0
19.800000 16.940000 8.580000 206 193 146 0
20.020000 16.940000 8.690000 207 194 147 0
20.240000 16.940000 8.690000 207 194 147 0
20.460000 16.940000 8.690000 206 191 145 0
20.680000 16.940000 8.800000 206 191 145 0
20.900000 16.940000 8.800000 205 190 142 0
21.120000 16.940000 9.570000 206 191 143 0
21.340000 16.940000 10.120000 206 193 146 0
21.560000 16.940000 10.560000 207 194 147 0
21.780000 16.940000 11.220000 207 194 147 0
22.000000 16.940000 11.110000 208 195 148 0
22.220000 16.940000 11.220000 209 195 151 0
22.440000 16.940000 11.220000 210 196 152 0
22.660000 16.940000 11.220000 211 198 151 0
22.880000 16.940000 11.220000 211 198 151 0
23.100000 16.940000 11.330000 211 197 153 0
23.320000 16.940000 11.990000 212 198 154 0
23.540000 16.940000 12.100000 213 199 155 0
23.760000 16.940000 12.100000 213 199 155 0
23.980000 16.940000 12.100000 213 199 155 0
24.200000 16.940000 12.100000 212 198 154 0
24.420000 16.940000 12.210000 212 198 154 0
24.640000 16.940000 12.210000 212 198 154 0
24.860000 16.940000 12.980000 213 198 154 0
25.080000 16.940000 12.980000 213 198 154 0
25.300000 16.940000 13.090000 213 198 154 0
25.520000 16.940000 12.980000 212 197 153 0
25.740000 16.940000 14.080000 213 193 151 0
25.960000 16.940000 14.630000 208 188 146 0
26.180000 16.940000 15.290000 209 175 135 0
26.400000 16.940000 15.950000 204 170 130 0
26.620000 16.940000 16.060000 208 158 120 0
26.840000 16.940000 15.620000 202 152 114 0
27.060000 16.940000 15.730000 198 154 114 0
27.280000 16.940000 15.730000 201 157 117 0
27.500000 16.940000 15.730000 201 162 124 0
27.720000 16.940000 15.840000 204 165 127 0
27.940000 16.940000 16.500000 202 174 132 0
28.160000 16.940000 16.500000 205 177 135 0
28.380000 16.940000 16.500000 205 179 139 0
28.600000 16.940000 16.500000 207 181 141 0
28.820000 16.940000 17.050000 207 184 145 0
29.040000 16.940000 17.380000 209 186 147 0
29.260000 16.940000 18.040000 209 189 151 0
29.480000 16.940000 18.040000 210 190 152 0
29.700000 16.940000 18.040000 212 193 155 0
29.920000 16.940000 18.040000 212 193 155 0
30.140000 16.940000 18.150000 214 195 157 0
30.360000 16.940000 18.810000 215 196 158 0
30.580000 16.940000 18.810000 213 197 159 0
30.800000 16.940000 18.920000 213 197 159 0
31.020000 16.940000 18.920000 214 198 160 0
31.240000 16.940000 18.920000 214 198 160 0
31.460000 16.940000 19.030000 213 197 159 0
31.680000 16.940000 19.030000 213 197 159 0
31.900000 16.940000 19.030000 214 195 157 0
32.120000 16.940000 19.030000 214 195 157 0
32.340000 16.940000 19.030000 221 186 149 0
32.560000 16.940000 19.800000 208 173 136 0
32.780000 16.940000 19.800000 213 158 123 0
33.000000 16.940000 19.800000 203 148 113 0
33.220000 16.940000 19.910000 208 128 98 0
33.440000 16.940000 19.910000 199 119 89 0
33.660000 16.940000 19.910000 200 116 87 0
33.880000 16.940000 19.910000 199 115 86 0
34.100000 16.940000 20.460000 199 115 86 0
34.320000 16.940000 21.010000 198 114 85 0
34.540000 16.940000 21.450000 197 113 84 0
34.760000 16.940000 21.450000 199 115 86 0
34.980000 16.940000 21.450000 195 118 87 0
35.200000 16.940000 21.450000 199 122 91 0
35.420000 16.940000 21.450000 192 138 105 0
35.640000 16.940000 20.130000 200 146 113 0
35.860000 16.940000 14.630000 197 158 122 0
36.080000 16.940000 6.270000 204 165 129 0
36.300000 16.940000 1.430000 204 171 135 0
36.520000 16.940000 0.110000 208 175 139 0
36.740000 16.940000 0.110000 205 179 141 0
36.960000 16.940000 0.110000 207 181 143 0
37.180000 16.940000 0.110000 208 184 145 0
0.000000 17.160000 3.520000 152 71 47 0
0.220000 17.160000 2.200000 150 71 49 0
0.440000 17.160000 0.880000 150 71 49 0
0.660000 17.160000 0.220000 150 72 47 0
1.100000 17.160000 0.220000 152 71 45 0
1.320000 17.160000 0.110000 151 70 44 0
1.540000 17.160000 0.110000 150 69 47 0
1.760000 17.160000 0.220000 150 69 47 0
1.980000 17.160000 0.880000 150 69 47 0
2.200000 17.160000 2.310000 150 69 47 0
2.420000 17.160000 3.630000 149 68 44 0
2.640000 17.160000 2.970000 150 69 45 0
2.860000 17.160000 2.310000 150 69 43 0
3.080000 17.160000 0.880000 149 68 42 0
3.300000 17.160000 0.110000 150 67 46 0
3.520000 17.160000 0.880000 149 66 45 0
3.740000 17.160000 0.990000 149 68 46 0
3.960000 17.160000 1.650000 150 69 47 0
4.180000 17.160000 2.310000 148 67 43 0
4.400000 17.160000 4.400000 150 69 45 0
4.620000 17.160000 4.400000 151 68 45 0
4.840000 17.160000 3.740000 150 67 44 0
5.060000 17.160000 4.400000 150 67 44 0
5.280000 17.160000 6.380000 150 67 44 0
5.500000 17.160000 5.060000 149 68 46 0
5.720000 17.160000 1.650000 152 71 49 0
5.940000 17.160000 0.990000 152 69 46 0
6.160000 17.160000 2.310000 153 70 47 0
6.380000 17.160000 5.060000 154 71 48 0
6.600000 17.160000 7.150000 154 71 48 0
6.820000 17.160000 5.720000 154 71 50 0
7.040000 17.160000 3.080000 155 72 51 0
7.260000 17.160000 3.080000 154 71 50 0
7.480000 17.160000 5.170000 153 70 49 0
7.700000 17.160000 5.830000 153 70 47 0
7.920000 17.160000 4.510000 152 69 46 0
8.140000 17.160000 4.400000 152 69 48 0
8.360000 17.160000 5.720000 152 69 48 0
8.580000 17.160000 6.490000 152 69 48 0
8.800000 17.160000 7.150000 151 68 47 0
9.020000 17.160000 8.580000 150 67 46 0
9.240000 17.160000 9.240000 151 68 47 0
9.460000 17.160000 8.580000 150 67 44 0
9.680000 17.160000 9.240000 151 68 45 0
9.900000 17.160000 10.010000 152 69 50 0
10.120000 17.160000 10.670000 154 71 52 0
10.340000 17.160000 10.670000 153 76 53 0
10.560000 17.160000 10.670000 157 80 57 0
10.780000 17.160000 8.580000 156 90 61 0
11.000000 17.160000 7.260000 164 98 69 0
11.220000 17.160000 9.240000 167 105 75 0
11.440000 17.160000 10.670000 172 110 80 0
11.660000 17.160000 10.670000 167 116 84 0
11.880000 17.160000 10.670000 172 121 89 0
12.100000 17.160000 10.670000 167 122 88 0
12.320000 17.160000 9.900000 169 124 90 0
12.540000 17.160000 9.900000 163 128 93 0
12.760000 17.160000 9.790000 164 129 94 0
12.980000 17.160000 9.900000 163 130 94 0
13.200000 17.160000 9.900000 165 132 96 0
13.420000 17.160000 9.900000 163 138 103 0
13.640000 17.160000 9.240000 166 141 106 0
13.860000 17.160000 9.240000 164 147 116 0
14.080000 17.160000 9.240000 168 151 120 0
14.300000 17.160000 9.240000 168 157 125 0
14.520000 17.160000 8.580000 171 160 128 0
14.740000 17.160000 8.580000 173 159 127 0
14.960000 17.160000 8.580000 175 161 129 0
15.180000 17.160000 8.580000 181 161 121 0
15.400000 17.160000 8.580000 181 161 121 0
15.620000 17.160000 8.580000 179 158 126 0
15.840000 17.160000 8.580000 179 158 126 0
16.060000 17.160000 8.580000 177 158 120 0
16.280000 17.160000 7.810000 179 160 122 0
16.500000 17.160000 7.810000 177 161 123 0
16.720000 17.160000 7.810000 179 163 125 0
16.940000 17.160000 7.810000 184 164 122 0
17.160000 17.160000 7.810000 186 166 124 0
17.380000 17.160000 7.810000 186 168 123 0
17.600000 17.160000 7.810000 191 173 128 0
17.820000 17.160000 7.810000 190 175 127 0
18.040000 17.160000 7.810000 195 180 132 0
18.260000 17.160000 7.810000 198 185 138 0
18.480000 17.160000 7.810000 201 188 141 0
18.700000 17.160000 7.810000 203 188 140 0
18.920000 17.160000 7.920000 204 189 141 0
19.140000 17.160000 7.920000 205 192 145 0
19.360000 17.160000 7.920000 206 193 146 0
19.580000 17.160000 8.580000 206 193 144 0
19.800000 17.160000 8.580000 205 192 143 0
20.020000 17.160000 8.690000 206 191 143 0
20.240000 17.160000 8.690000 205 190 142 0
20.460000 17.160000 8.800000 206 191 143 0
20.680000 17.160000 8.800000 206 191 143 0
20.900000 17.160000 8.910000 206 191 145 0
21.120000 17.160000 9.460000 206 191 145 0
21.340000 17.160000 10.670000 206 193 146 0
21.560000 17.160000 11.110000 207 194 147 0
21.780000 17.160000 11.110000 208 195 148 0
22.000000 17.160000 11.110000 209 196 149 0
22.220000 17.160000 11.220000 210 197 150 0
22.440000 17.160000 11.220000 211 198 151 0
22.660000 17.160000 11.220000 212 197 153 0
22.880000 17.160000 11.330000 212 197 153 0
23.100000 17.160000 11.330000 212 198 154 0
23.320000 17.160000 11.990000 212 198 154 0
23.540000 17.160000 12.100000 213 200 153 0
23.760000 17.160000 12.100000 213 200 153 0
23.980000 17.160000 12.100000 212 199 152 0
24.200000 17.160000 12.100000 212 199 152 0
24.420000 17.160000 12.210000 213 198 154 0
24.640000 17.160000 12.210000 213 198 154 0
24.860000 17.160000 12.980000 212 197 151 0
25.080000 17.160000 13.090000 212 197 151 0
25.300000 17.160000 12.980000 212 197 151 0
25.520000 17.160000 13.530000 211 196 150 0
25.740000 17.160000 14.630000 215 190 147 0
25.960000 17.160000 15.290000 208 183 140 0
26.180000 17.160000 15.290000 213 167 128 0
26.400000 17.160000 15.950000 207 161 122 0
26.620000 17.160000 16.060000 210 149 115 0
26.840000 17.160000 15.620000 205 144 110 0
27.060000 17.160000 15.730000 195 149 110 0
27.280000 17.160000 15.730000 199 153 114 0
27.500000 17.160000 15.840000 203 160 123 0
27.720000 17.160000 15.840000 206 163 126 0
27.940000 17.160000 16.500000 204 170 130 0
28.160000 17.160000 16.500000 208 174 134 0
28.380000 17.160000 16.500000 207 179 137 0
28.600000 17.160000 17.050000 208 180 138 0
28.820000 17.160000 17.490000 208 186 142 0
29.040000 17.160000 18.040000 209 187 143 0
29.260000 17.160000 18.040000 208 188 146 0
29.480000 17.160000 18.040000 210 190 148 0
29.700000 17.160000 18.040000 210 192 149 0
29.920000 17.160000 18.150000 212 194 151 0
30.140000 17.160000 18.810000 213 195 154 0
30.360000 17.160000 18.810000 214 196 155 0
30.580000 17.160000 18.920000 214 196 155 0
30.800000 17.160000 18.920000 214 196 155 0
31.020000 17.160000 18.920000 215 197 156 0
31.240000 17.160000 18.920000 215 197 156 0
31.460000 17.160000 19.030000 215 197 156 0
31.680000 17.160000 19.030000 215 197 156 0
31.900000 17.160000 19.030000 214 194 154 0
32.120000 17.160000 19.030000 214 194 154 0
32.340000 17.160000 19.800000 220 180 142 0
32.560000 17.160000 19.800000 210 170 132 0
32.780000 17.160000 19.800000 216 150 119 0
33.000000 17.160000 19.910000 206 140 109 0
33.220000 17.160000 19.910000 205 125 95 0
33.440000 17.160000 20.020000 198 118 88 0
33.660000 17.160000 19.910000 199 115 86 0
33.880000 17.160000 20.350000 198 114 85 0
34.100000 17.160000 20.900000 198 114 85 0
34.320000 17.160000 21.450000 197 113 84 0
34.540000 17.160000 21.450000 198 112 84 0
34.760000 17.160000 21.450000 199 113 85 0
34.980000 17.160000 21.450000 195 117 89 0
35.200000 17.160000 21.450000 199 121 93 0
35.420000 17.160000 21.450000 193 136 102 0
35.640000 17.160000 17.380000 199 142 108 0
35.860000 17.160000 7.700000 196 152 118 0
36.080000 17.160000 1.430000 205 161 127 0
36.300000 17.160000 0.110000 201 170 134 0
36.520000 17.160000 0.110000 205 174 138 0
36.740000 17.160000 0.110000 207 178 139 0
36.960000 17.160000 0.110000 210 181 142 0
37.180000 17.160000 0.110000 208 184 145 0
0.000000 17.380000 5.610000 151 70 46 0
0.220000 17.380000 2.860000 150 71 49 0
0.440000 17.380000 0.110000 150 71 49 0
0.660000 17.380000 0.220000 150 72 47 0
0.880000 17.380000 0.220000 150 72 47 0
1.100000 17.380000 0.220000 151 70 44 0
1.320000 17.380000 0.220000 151 70 44 0
1.540000 17.380000 0.880000 150 69 47 0
1.760000 17.380000 0.880000 151 70 48 0
1.980000 17.380000 0.880000 150 69 47 0
2.200000 17.380000 1.540000 150 69 47 0
2.420000 17.380000 0.880000 149 68 44 0
2.640000 17.380000 1.540000 149 68 44 0
2.860000 17.380000 1.540000 150 69 43 0
3.080000 17.380000 0.880000 149 68 42 0
3.300000 17.380000 0.770000 150 67 46 0
3.520000 17.380000 0.110000 149 66 45 0
3.740000 17.380000 0.220000 149 68 46 0
3.960000 17.380000 0.220000 150 69 47 0
4.180000 17.380000 1.650000 150 69 45 0
4.400000 17.380000 1.540000 149 68 44 0
4.620000 17.380000 2.310000 150 67 44 0
4.840000 17.380000 2.310000 150 67 44 0
5.060000 17.380000 3.630000 150 67 44 0
5.280000 17.380000 7.700000 150 67 44 0
5.500000 17.380000 9.900000 149 68 46 0
5.720000 17.380000 5.830000 151 70 48 0
5.940000 17.380000 2.310000 152 69 46 0
6.160000 17.380000 1.650000 151 68 45 0
6.380000 17.380000 3.080000 151 68 45 0
6.600000 17.380000 5.170000 151 68 45 0
6.820000 17.380000 7.920000 152 69 48 0
7.040000 17.380000 6.490000 151 68 47 0
7.260000 17.380000 4.400000 152 69 48 0
7.480000 17.380000 5.830000 151 68 47 0
7.700000 17.380000 7.260000 152 69 46 0
7.920000 17.380000 7.150000 152 69 46 0
8.140000 17.380000 7.150000 152 69 48 0
8.360000 17.380000 6.490000 152 69 48 0
8.580000 17.380000 7.150000 151 68 47 0
8.800000 17.380000 8.580000 151 68 47 0
9.020000 17.380000 9.900000 150 67 46 0
9.240000 17.380000 9.900000 150 67 46 0
9.460000 17.380000 9.900000 151 68 45 0
9.680000 17.380000 9.900000 151 68 45 0
9.900000 17.380000 10.670000 154 71 52 0
10.120000 17.380000 10.670000 158 75 56 0
10.340000 17.380000 9.900000 158 81 58 0
10.560000 17.380000 7.920000 163 86 63 0
10.780000 17.380000 7.260000 164 98 69 0
11.000000 17.380000 7.920000 171 105 76 0
11.220000 17.380000 10.010000 173 111 81 0
11.440000 17.380000 11.330000 177 115 85 0
11.660000 17.380000 11.990000 170 119 87 0
11.880000 17.380000 11.330000 171 120 88 0
12.100000 17.380000 9.900000 167 122 88 0
12.320000 17.380000 9.900000 169 124 90 0
12.540000 17.380000 9.900000 162 127 92 0
12.760000 17.380000 9.130000 162 127 92 0
12.980000 17.380000 9.240000 163 130 94 0
13.200000 17.380000 9.900000 165 132 96 0
13.420000 17.380000 9.240000 163 138 103 0
13.640000 17.380000 9.240000 166 141 106 0
13.860000 17.380000 9.240000 164 147 116 0
14.080000 17.380000 8.580000 167 150 119 0
14.300000 17.380000 8.580000 167 156 124 0
14.520000 17.380000 8.580000 170 159 127 0
14.740000 17.380000 8.580000 173 159 127 0
14.960000 17.380000 8.580000 174 160 128 0
15.180000 17.380000 8.580000 179 159 119 0
15.400000 17.380000 8.580000 179 159 119 0
15.620000 17.380000 8.580000 178 157 125 0
15.840000 17.380000 8.580000 177 156 124 0
16.060000 17.380000 8.580000 176 157 119 0
16.280000 17.380000 7.810000 176 157 119 0
16.500000 17.380000 7.810000 175 159 121 0
16.720000 17.380000 7.810000 177 161 123 0
16.940000 17.380000 7.810000 183 163 121 0
17.160000 17.380000 7.810000 185 165 123 0
17.380000 17.380000 7.810000 187 169 124 0
17.600000 17.380000 7.810000 190 172 127 0
17.820000 17.380000 7.810000 193 178 130 0
18.040000 17.380000 7.810000 196 181 133 0
18.260000 17.380000 7.810000 197 184 137 0
18.480000 17.380000 7.810000 200 187 140 0
18.700000 17.380000 7.810000 203 188 140 0
18.920000 17.380000 7.920000 204 189 141 0
19.140000 17.380000 7.920000 204 191 144 0
19.360000 17.380000 7.920000 205 192 145 0
19.580000 17.380000 8.580000 206 193 144 0
19.800000 17.380000 8.690000 204 191 142 0
20.020000 17.380000 8.690000 205 190 142 0
20.240000 17.380000 8.690000 205 190 142 0
20.460000 17.380000 8.800000 206 191 143 0
20.680000 17.380000 8.910000 205 190 142 0
20.900000 17.380000 9.570000 205 190 144 0
21.120000 17.380000 10.120000 206 191 145 0
21.340000 17.380000 10.560000 206 193 146 0
21.560000 17.380000 11.110000 208 195 148 0
21.780000 17.380000 11.110000 209 196 149 0
22.000000 17.380000 11.220000 209 196 149 0
22.220000 17.380000 11.220000 210 197 150 0
22.440000 17.380000 11.220000 211 198 151 0
22.660000 17.380000 11.220000 212 197 153 0
22.880000 17.380000 11.330000 212 197 153 0
23.100000 17.380000 11.990000 212 198 154 0
23.320000 17.380000 12.100000 212 198 154 0
23.540000 17.380000 12.100000 212 199 152 0
23.760000 17.380000 12.100000 213 200 153 0
23.980000 17.380000 12.100000 213 200 153 0
24.200000 17.380000 12.210000 212 199 152 0
24.420000 17.380000 12.210000 214 199 155 0
24.640000 17.380000 12.320000 212 197 153 0
24.860000 17.380000 12.980000 211 196 150 0
25.080000 17.380000 13.090000 212 197 151 0
25.300000 17.380000 12.980000 211 196 150 0
25.520000 17.380000 14.080000 210 195 149 0
25.740000 17.380000 14.630000 214 189 146 0
25.960000 17.380000 15.290000 207 182 139 0
26.180000 17.380000 15.290000 213 167 128 0
26.400000 17.380000 15.950000 204 158 119 0
26.620000 17.380000 16.170000 209 148 114 0
26.840000 17.380000 15.730000 201 140 106 0
27.060000 17.380000 15.840000 194 148 109 0
27.280000 17.380000 15.840000 200 154 115 0
27.500000 17.380000 15.840000 202 159 122 0
27.720000 17.380000 16.500000 205 162 125 0
27.940000 17.380000 16.500000 201 167 127 0
28.160000 17.380000 16.500000 206 172 132 0
28.380000 17.380000 17.050000 205 177 135 0
28.600000 17.380000 17.490000 207 179 137 0
28.820000 17.380000 18.040000 205 183 139 0
29.040000 17.380000 18.040000 208 186 142 0
29.260000 17.380000 18.040000 208 188 146 0
29.480000 17.380000 18.040000 209 189 147 0
29.700000 17.380000 18.040000 209 191 148 0
29.920000 17.380000 18.150000 211 193 150 0
30.140000 17.380000 18.810000 212 194 153 0
30.360000 17.380000 18.810000 213 195 154 0
30.580000 17.380000 18.920000 214 196 155 0
30.800000 17.380000 18.920000 215 197 156 0
31.020000 17.380000 18.920000 214 196 155 0
31.240000 17.380000 19.030000 215 197 156 0
31.460000 17.380000 19.030000 215 197 156 0
31.680000 17.380000 19.030000 215 197 156 0
31.900000 17.380000 19.030000 214 194 154 0
32.120000 17.380000 19.030000 211 191 151 0
32.340000 17.380000 19.800000 216 176 138 0
32.560000 17.380000 19.800000 207 167 129 0
32.780000 17.380000 19.800000 210 144 113 0
33.000000 17.380000 19.910000 202 136 105 0
33.220000 17.380000 19.910000 201 121 91 0
33.440000 17.380000 20.020000 197 117 87 0
33.660000 17.380000 19.910000 199 115 86 0
33.880000 17.380000 20.900000 199 115 86 0
34.100000 17.380000 21.450000 197 113 84 0
34.320000 17.380000 21.450000 198 114 85 0
34.540000 17.380000 21.450000 198 112 84 0
34.760000 17.380000 21.450000 198 112 84 0
34.980000 17.380000 21.450000 194 116 88 0
35.200000 17.380000 21.450000 198 120 92 0
35.420000 17.380000 20.130000 190 133 99 0
35.640000 17.380000 13.200000 198 141 107 0
35.860000 17.380000 4.180000 196 152 118 0
36.080000 17.380000 0.110000 203 159 125 0
36.300000 17.380000 0.110000 200 169 133 0
36.520000 17.380000 0.110000 203 172 136 0
36.740000 17.380000 0.110000 206 177 138 0
36.960000 17.380000 0.110000 209 180 141 0
37.180000 17.380000 0.110000 208 184 145 0
0.000000 17.600000 2.860000 149 71 46 0
0.220000 17.600000 1.540000 150 69 45 0
0.440000 17.600000 0.110000 150 69 45 0
0.660000 17.600000 0.880000 150 69 47 0
0.880000 17.600000 0.220000 151 70 48 0
1.100000 17.600000 0.220000 150 69 45 0
1.320000 17.600000 0.880000 151 70 46 0
1.540000 17.600000 0.880000 149 68 42 0
1.760000 17.600000 0.880000 150 69 43 0
1.980000 17.600000 0.880000 150 69 47 0
2.200000 17.600000 0.880000 150 69 47 0
2.420000 17.600000 0.880000 149 68 46 0
2.640000 17.600000 0.880000 149 68 46 0
2.860000 17.600000 0.880000 149 68 44 0
3.080000 17.600000 1.540000 150 69 45 0
3.300000 17.600000 1.540000 150 69 45 0
3.520000 17.600000 0.770000 149 68 44 0
3.740000 17.600000 0.220000 150 69 47 0
3.960000 17.600000 0.220000 150 69 47 0
4.180000 17.600000 0.880000 150 69 47 0
4.400000 17.600000 0.880000 150 69 47 0
4.620000 17.600000 1.650000 150 68 42 0
4.840000 17.600000 1.650000 149 67 41 0
5.060000 17.600000 2.310000 150 67 44 0
5.280000 17.600000 5.610000 149 66 43 0
5.500000 17.600000 9.790000 149 66 45 0
5.720000 17.600000 7.810000 151 68 47 0
5.940000 17.600000 3.080000 150 67 46 0
6.160000 17.600000 2.420000 150 67 46 0
6.380000 17.600000 2.420000 150 67 44 0
6.600000 17.600000 2.420000 150 67 44 0
6.820000 17.600000 5.830000 149 66 43 0
7.040000 17.600000 7.810000 149 66 43 0
7.260000 17.600000 7.810000 151 68 47 0
7.480000 17.600000 7.810000 150 67 46 0
7.700000 17.600000 8.580000 151 68 47 0
7.920000 17.600000 7.810000 151 68 47 0
8.140000 17.600000 7.150000 152 69 46 0
8.360000 17.600000 6.490000 151 68 45 0
8.580000 17.600000 7.150000 151 68 45 0
8.800000 17.600000 8.580000 150 67 44 0
9.020000 17.600000 9.240000 149 66 45 0
9.240000 17.600000 9.240000 149 66 45 0
9.460000 17.600000 9.900000 150 67 46 0
9.680000 17.600000 10.560000 153 70 49 0
9.900000 17.600000 11.220000 154 77 54 0
10.120000 17.600000 11.220000 159 82 59 0
10.340000 17.600000 9.240000 162 92 61 0
10.560000 17.600000 7.810000 171 101 70 0
10.780000 17.600000 9.240000 168 112 74 0
11.000000 17.600000 11.330000 172 116 78 0
11.220000 17.600000 12.100000 177 116 82 0
11.440000 17.600000 12.760000 180 119 85 0
11.660000 17.600000 12.650000 176 121 88 0
11.880000 17.600000 11.990000 175 120 87 0
12.100000 17.600000 10.670000 167 120 87 0
12.320000 17.600000 9.900000 169 122 89 0
12.540000 17.600000 9.900000 165 126 88 0
12.760000 17.600000 9.240000 165 126 88 0
12.980000 17.600000 9.240000 165 129 92 0
13.200000 17.600000 9.240000 167 131 94 0
13.420000 17.600000 9.240000 164 138 102 0
13.640000 17.600000 8.470000 166 140 104 0
13.860000 17.600000 8.470000 166 145 111 0
14.080000 17.600000 8.580000 170 149 115 0
14.300000 17.600000 7.810000 171 154 119 0
14.520000 17.600000 7.920000 172 155 120 0
14.740000 17.600000 8.580000 173 156 121 0
14.960000 17.600000 8.580000 172 155 120 0
15.180000 17.600000 8.580000 175 156 119 0
15.400000 17.600000 8.580000 173 154 117 0
15.620000 17.600000 8.580000 175 154 118 0
15.840000 17.600000 8.580000 174 153 117 0
16.060000 17.600000 8.580000 175 155 113 0
16.280000 17.600000 7.810000 176 156 114 0
16.500000 17.600000 7.810000 179 157 115 0
16.720000 17.600000 7.810000 181 159 117 0
16.940000 17.600000 7.810000 182 162 120 0
17.160000 17.600000 7.810000 185 165 123 0
17.380000 17.600000 7.810000 186 173 124 0
17.600000 17.600000 7.810000 189 176 127 0
17.820000 17.600000 7.810000 192 179 130 0
18.040000 17.600000 7.810000 196 183 134 0
18.260000 17.600000 7.810000 198 185 136 0
18.480000 17.600000 7.810000 201 188 139 0
18.700000 17.600000 7.810000 202 189 140 0
18.920000 17.600000 7.920000 203 190 141 0
19.140000 17.600000 7.920000 204 191 142 0
19.360000 17.600000 8.580000 205 192 143 0
19.580000 17.600000 8.690000 205 190 142 0
19.800000 17.600000 8.690000 205 190 142 0
20.020000 17.600000 8.690000 203 190 141 0
20.240000 17.600000 8.800000 204 191 142 0
20.460000 17.600000 8.800000 204 191 142 0
20.680000 17.600000 8.910000 204 191 142 0
20.900000 17.600000 9.460000 205 192 145 0
21.120000 17.600000 10.670000 206 193 146 0
21.340000 17.600000 11.110000 208 193 145 0
21.560000 17.600000 11.110000 208 193 145 0
21.780000 17.600000 11.110000 208 195 146 0
22.000000 17.600000 11.220000 210 197 148 0
22.220000 17.600000 11.220000 210 197 150 0
22.440000 17.600000 11.220000 210 197 150 0
22.660000 17.600000 11.220000 212 197 151 0
22.880000 17.600000 11.330000 212 197 151 0
23.100000 17.600000 11.990000 213 198 152 0
23.320000 17.600000 12.100000 214 199 153 0
23.540000 17.600000 12.100000 212 199 152 0
23.760000 17.600000 12.100000 213 200 153 0
23.980000 17.600000 12.100000 212 199 152 0
24.200000 17.600000 12.210000 212 199 152 0
24.420000 17.600000 12.210000 213 198 152 0
24.640000 17.600000 12.320000 212 197 151 0
24.860000 17.600000 12.980000 211 196 150 0
25.080000 17.600000 12.980000 211 196 150 0
25.300000 17.600000 13.530000 210 195 149 0
25.520000 17.600000 14.630000 210 195 149 0
25.740000 17.600000 15.290000 211 193 148 0
25.960000 17.600000 15.290000 204 186 141 0
26.180000 17.600000 15.290000 210 170 130 0
26.400000 17.600000 15.400000 203 163 123 0
26.620000 17.600000 15.620000 208 144 112 0
26.840000 17.600000 15.730000 200 136 104 0
27.060000 17.600000 15.840000 201 142 105 0
27.280000 17.600000 15.840000 205 146 109 0
27.500000 17.600000 16.500000 199 155 121 0
27.720000 17.600000 16.500000 202 158 124 0
27.940000 17.600000 16.390000 203 167 126 0
28.160000 17.600000 17.050000 206 170 129 0
28.380000 17.600000 17.490000 204 176 134 0
28.600000 17.600000 18.040000 206 178 136 0
28.820000 17.600000 18.040000 207 182 139 0
29.040000 17.600000 18.040000 209 184 141 0
29.260000 17.600000 18.040000 208 186 142 0
29.480000 17.600000 18.040000 210 188 144 0
29.700000 17.600000 18.150000 210 190 148 0
29.920000 17.600000 18.150000 212 192 150 0
30.140000 17.600000 18.810000 212 194 153 0
30.360000 17.600000 18.920000 212 194 153 0
30.580000 17.600000 18.920000 215 195 155 0
30.800000 17.600000 18.920000 215 195 155 0
31.020000 17.600000 18.920000 214 196 155 0
31.240000 17.600000 19.030000 214 196 155 0
31.460000 17.600000 19.030000 214 196 155 0
31.680000 17.600000 19.030000 214 196 155 0
31.900000 17.600000 19.030000 217 191 151 0
32.120000 17.600000 19.140000 212 186 146 0
32.340000 17.600000 19.800000 219 170 133 0
32.560000 17.600000 19.800000 208 159 122 0
32.780000 17.600000 19.910000 213 139 109 0
33.000000 17.600000 19.910000 202 128 98 0
33.220000 17.600000 19.910000 203 119 90 0
33.440000 17.600000 19.910000 199 115 86 0
33.660000 17.600000 20.460000 199 111 84 0
33.880000 17.600000 20.900000 199 111 84 0
34.100000 17.600000 21.450000 198 112 82 0
34.320000 17.600000 21.450000 198 112 82 0
34.540000 17.600000 21.450000 198 112 82 0
34.760000 17.600000 21.450000 199 113 83 0
34.980000 17.600000 21.450000 199 115 86 0
35.200000 17.600000 21.450000 201 117 88 0
35.420000 17.600000 17.380000 193 127 96 0
35.640000 17.600000 7.700000 202 136 105 0
35.860000 17.600000 1.430000 198 147 113 0
36.080000 17.600000 0.110000 205 154 120 0
36.300000 17.600000 0.110000 202 166 129 0
36.520000 17.600000 0.110000 206 170 133 0
36.740000 17.600000 0.110000 206 177 140 0
36.960000 17.600000 0.110000 208 179 142 0
37.180000 17.600000 0.220000 208 183 147 0
0.000000 17.820000 0.220000 149 71 46 0
0.220000 17.820000 0.220000 150 69 45 0
0.440000 17.820000 0.220000 149 68 44 0
0.660000 17.820000 0.880000 148 67 45 0
0.880000 17.820000 0.220000 149 68 46 0
1.100000 17.820000 0.220000 150 69 45 0
1.320000 17.820000 0.880000 149 68 44 0
1.540000 17.820000 1.540000 150 69 43 0
1.760000 17.820000 0.880000 149 68 42 0
1.980000 17.820000 0.220000 150 69 47 0
2.200000 17.820000 0.220000 149 68 46 0
2.420000 17.820000 0.220000 149 68 46 0
2.640000 17.820000 0.220000 149 68 46 0
2.860000 17.820000 0.880000 149 68 44 0
3.080000 17.820000 1.540000 149 68 44 0
3.300000 17.820000 2.200000 150 69 45 0
3.520000 17.820000 1.540000 150 69 45 0
3.740000 17.820000 1.650000 150 69 47 0
3.960000 17.820000 2.970000 150 69 47 0
4.180000 17.820000 2.970000 149 68 46 0
4.400000 17.820000 2.200000 148 67 45 0
4.620000 17.820000 1.540000 150 68 42 0
4.840000 17.820000 1.540000 149 67 41 0
5.060000 17.820000 2.310000 149 66 43 0
5.280000 17.820000 3.630000 149 66 43 0
5.500000 17.820000 5.720000 149 66 45 0
5.720000 17.820000 5.060000 149 66 45 0
5.940000 17.820000 2.970000 150 67 46 0
6.160000 17.820000 3.080000 150 67 46 0
6.380000 17.820000 2.420000 150 67 44 0
6.600000 17.820000 2.310000 149 66 43 0
6.820000 17.820000 4.400000 149 66 43 0
7.040000 17.820000 6.380000 149 66 43 0
7.260000 17.820000 7.150000 149 66 45 0
7.480000 17.820000 7.150000 149 66 45 0
7.700000 17.820000 7.810000 149 66 45 0
7.920000 17.820000 8.580000 150 67 46 0
8.140000 17.820000 7.810000 150 67 44 0
8.360000 17.820000 7.150000 151 68 45 0
8.580000 17.820000 7.150000 149 66 43 0
8.800000 17.820000 7.810000 150 67 44 0
9.020000 17.820000 8.470000 150 67 46 0
9.240000 17.820000 9.240000 150 67 46 0
9.460000 17.820000 9.900000 154 71 50 0
9.680000 17.820000 9.900000 157 74 53 0
9.900000 17.820000 11.220000 159 82 59 0
10.120000 17.820000 11.990000 168 91 68 0
10.340000 17.820000 11.990000 172 102 71 0
10.560000 17.820000 11.220000 179 109 78 0
10.780000 17.820000 11.990000 177 121 83 0
11.000000 17.820000 12.650000 179 123 85 0
11.220000 17.820000 12.650000 183 122 88 0
11.440000 17.820000 12.650000 184 123 89 0
11.660000 17.820000 12.650000 177 122 89 0
11.880000 17.820000 11.990000 174 119 86 0
12.100000 17.820000 11.330000 168 121 88 0
12.320000 17.820000 10.560000 168 121 88 0
12.540000 17.820000 9.900000 163 124 86 0
12.760000 17.820000 9.240000 165 126 88 0
12.980000 17.820000 9.240000 164 128 91 0
13.200000 17.820000 9.240000 167 131 94 0
13.420000 17.820000 8.470000 162 136 100 0
13.640000 17.820000 8.470000 165 139 103 0
13.860000 17.820000 7.810000 163 142 108 0
14.080000 17.820000 7.810000 169 148 114 0
14.300000 17.820000 7.810000 168 151 116 0
14.520000 17.820000 7.920000 168 151 116 0
14.740000 17.820000 7.920000 169 152 117 0
14.960000 17.820000 7.920000 170 153 118 0
15.180000 17.820000 8.580000 172 153 116 0
15.400000 17.820000 8.580000 171 152 115 0
15.620000 17.820000 8.580000 173 152 116 0
15.840000 17.820000 8.580000 172 151 115 0
16.060000 17.820000 7.810000 174 154 112 0
16.280000 17.820000 7.810000 174 154 112 0
16.500000 17.820000 7.810000 178 156 114 0
16.720000 17.820000 7.810000 181 159 117 0
16.940000 17.820000 7.810000 182 162 120 0
17.160000 17.820000 7.810000 185 165 123 0
17.380000 17.820000 7.810000 185 172 123 0
17.600000 17.820000 7.810000 190 177 128 0
17.820000 17.820000 7.810000 194 181 132 0
18.040000 17.820000 7.810000 196 183 134 0
18.260000 17.820000 7.810000 199 186 137 0
18.480000 17.820000 7.810000 202 189 140 0
18.700000 17.820000 7.920000 202 189 140 0
18.920000 17.820000 7.920000 202 189 140 0
19.140000 17.820000 8.580000 203 190 141 0
19.360000 17.820000 8.580000 204 191 142 0
19.580000 17.820000 8.690000 205 190 142 0
19.800000 17.820000 8.690000 205 190 142 0
20.020000 17.820000 8.800000 204 191 142 0
20.240000 17.820000 8.800000 204 191 142 0
20.460000 17.820000 8.910000 204 191 142 0
20.680000 17.820000 9.570000 205 192 143 0
20.900000 17.820000 9.460000 205 192 145 0
21.120000 17.820000 10.560000 206 193 146 0
21.340000 17.820000 11.110000 208 193 145 0
21.560000 17.820000 11.110000 209 194 146 0
21.780000 17.820000 11.220000 209 196 147 0
22.000000 17.820000 11.220000 210 197 148 0
22.220000 17.820000 11.220000 210 197 150 0
22.440000 17.820000 11.220000 210 197 150 0
22.660000 17.820000 11.330000 211 196 150 0
22.880000 17.820000 11.330000 212 197 151 0
23.100000 17.820000 12.100000 212 197 151 0
23.320000 17.820000 12.100000 213 198 152 0
23.540000 17.820000 12.100000 213 200 153 0
23.760000 17.820000 12.100000 212 199 152 0
23.980000 17.820000 12.210000 213 200 153 0
24.200000 17.820000 12.210000 212 199 152 0
24.420000 17.820000 12.210000 212 197 151 0
24.640000 17.820000 12.980000 212 197 151 0
24.860000 17.820000 13.090000 211 196 150 0
25.080000 17.820000 12.980000 210 195 149 0
25.300000 17.820000 14.080000 210 195 149 0
25.520000 17.820000 14.630000 210 195 149 0
25.740000 17.820000 15.290000 212 194 149 0
25.960000 17.820000 15.290000 208 190 145 0
26.180000 17.820000 15.400000 212 172 132 0
26.400000 17.820000 15.510000 206 166 126 0
26.620000 17.820000 15.730000 212 148 116 0
26.840000 17.820000 15.730000 200 136 104 0
27.060000 17.820000 15.840000 200 141 104 0
27.280000 17.820000 16.500000 204 145 108 0
27.500000 17.820000 16.500000 198 154 120 0
27.720000 17.820000 17.050000 202 158 124 0
27.940000 17.820000 17.490000 201 165 124 0
28.160000 17.820000 17.380000 205 169 128 0
28.380000 17.820000 18.040000 203 175 133 0
28.600000 17.820000 18.040000 205 177 135 0
28.820000 17.820000 18.040000 206 181 138 0
29.040000 17.820000 18.040000 208 183 140 0
29.260000 17.820000 18.040000 208 186 142 0
29.480000 17.820000 18.040000 210 188 144 0
29.700000 17.820000 18.150000 209 189 147 0
29.920000 17.820000 18.150000 211 191 149 0
30.140000 17.820000 18.810000 212 194 153 0
30.360000 17.820000 18.920000 212 194 153 0
30.580000 17.820000 18.920000 214 194 154 0
30.800000 17.820000 18.920000 214 194 154 0
31.020000 17.820000 19.030000 214 196 155 0
31.240000 17.820000 19.030000 214 196 155 0
31.460000 17.820000 19.030000 213 195 154 0
31.680000 17.820000 19.030000 213 195 154 0
31.900000 17.820000 19.030000 215 189 149 0
32.120000 17.820000 19.140000 208 182 142 0
32.340000 17.820000 19.800000 217 168 131 0
32.560000 17.820000 19.800000 205 156 119 0
32.780000 17.820000 19.910000 212 138 108 0
33.000000 17.820000 19.910000 201 127 97 0
33.220000 17.820000 19.910000 202 118 89 0
33.440000 17.820000 21.010000 200 116 87 0
33.660000 17.820000 20.900000 200 112 85 0
33.880000 17.820000 21.450000 199 111 84 0
34.100000 17.820000 21.450000 198 112 82 0
34.320000 17.820000 21.450000 198 112 82 0
34.540000 17.820000 21.450000 199 113 83 0
34.760000 17.820000 21.450000 198 112 82 0
34.980000 17.820000 20.130000 198 114 85 0
35.200000 17.820000 17.380000 200 116 87 0
35.420000 17.820000 11.770000 191 125 94 0
35.640000 17.820000 4.180000 198 132 101 0
35.860000 17.820000 0.110000 196 145 111 0
36.080000 17.820000 0.110000 203 152 118 0
36.300000 17.820000 0.110000 199 163 126 0
36.520000 17.820000 0.110000 206 170 133 0
36.740000 17.820000 0.110000 204 175 138 0
36.960000 17.820000 0.220000 208 179 142 0
37.180000 17.820000 0.220000 207 182 146 0
0.000000 18.040000 0.880000 149 68 42 0
0.220000 18.040000 0.220000 148 70 45 0
0.440000 18.040000 0.220000 146 68 43 0
0.660000 18.040000 1.540000 149 68 44 0
0.880000 18.040000 2.200000 148 67 43 0
1.100000 18.040000 0.880000 149 68 44 0
1.320000 18.040000 0.880000 149 68 44 0
1.540000 18.040000 1.540000 149 68 44 0
1.760000 18.040000 1.540000 148 67 43 0
1.980000 18.040000 0.220000 148 67 43 0
2.200000 18.040000 0.220000 149 68 44 0
2.420000 18.040000 0.880000 149 68 44 0
2.640000 18.040000 1.540000 148 67 43 0
2.860000 18.040000 2.970000 149 68 44 0
3.080000 18.040000 2.970000 150 69 45 0
3.300000 18.040000 2.970000 150 69 45 0
3.520000 18.040000 2.970000 150 69 45 0
3.740000 18.040000 5.060000 151 70 48 0
3.960000 18.040000 6.380000 150 69 47 0
4.180000 18.040000 4.290000 151 68 47 0
4.400000 18.040000 2.970000 150 67 46 0
4.620000 18.040000 3.630000 149 66 43 0
4.840000 18.040000 5.060000 148 65 42 0
5.060000 18.040000 5.060000 149 66 43 0
5.280000 18.040000 3.630000 150 67 44 0
5.500000 18.040000 4.400000 149 66 45 0
5.720000 18.040000 4.400000 149 66 45 0
5.940000 18.040000 4.400000 149 66 43 0
6.160000 18.040000 3.740000 149 66 43 0
6.380000 18.040000 2.310000 150 67 44 0
6.600000 18.040000 3.630000 149 66 43 0
6.820000 18.040000 5.720000 150 67 44 0
7.040000 18.040000 5.720000 149 66 43 0
7.260000 18.040000 5.720000 149 66 45 0
7.480000 18.040000 5.720000 150 67 46 0
7.700000 18.040000 7.150000 149 66 45 0
7.920000 18.040000 7.810000 149 66 45 0
8.140000 18.040000 7.810000 150 67 46 0
8.360000 18.040000 7.920000 150 67 46 0
8.580000 18.040000 7.150000 150 67 46 0
8.800000 18.040000 7.150000 149 66 45 0
9.020000 18.040000 8.470000 149 68 44 0
9.240000 18.040000 9.240000 151 70 46 0
9.460000 18.040000 9.240000 151 76 50 0
9.680000 18.040000 9.240000 159 84 58 0
9.900000 18.040000 10.560000 165 100 65 0
10.120000 18.040000 11.990000 174 109 74 0
10.340000 18.040000 13.310000 178 121 75 0
10.560000 18.040000 13.310000 188 131 85 0
10.780000 18.040000 12.650000 193 136 90 0
11.000000 18.040000 12.650000 190 133 87 0
11.220000 18.040000 11.990000 187 128 91 0
11.440000 18.040000 11.990000 186 127 90 0
11.660000 18.040000 11.880000 175 126 91 0
11.880000 18.040000 11.880000 171 122 87 0
12.100000 18.040000 11.220000 168 123 89 0
12.320000 18.040000 10.560000 167 122 88 0
12.540000 18.040000 10.560000 167 122 88 0
12.760000 18.040000 9.900000 168 123 89 0
12.980000 18.040000 9.240000 163 128 93 0
13.200000 18.040000 9.240000 166 131 96 0
13.420000 18.040000 8.470000 164 133 100 0
13.640000 18.040000 8.470000 167 136 103 0
13.860000 18.040000 7.810000 164 144 106 0
14.080000 18.040000 7.810000 167 147 109 0
14.300000 18.040000 7.150000 172 147 112 0
14.520000 18.040000 7.920000 172 147 112 0
14.740000 18.040000 7.920000 169 149 111 0
14.960000 18.040000 7.920000 169 149 111 0
15.180000 18.040000 7.920000 172 147 112 0
15.400000 18.040000 7.920000 174 149 114 0
15.620000 18.040000 7.920000 173 150 111 0
15.840000 18.040000 7.810000 173 150 111 0
16.060000 18.040000 7.810000 175 151 108 0
16.280000 18.040000 7.810000 177 153 110 0
16.500000 18.040000 7.810000 178 156 112 0
16.720000 18.040000 7.810000 181 159 115 0
16.940000 18.040000 7.810000 180 162 121 0
17.160000 18.040000 7.810000 185 167 126 0
17.380000 18.040000 7.810000 188 173 129 0
17.600000 18.040000 7.810000 191 176 132 0
17.820000 18.040000 7.810000 194 181 134 0
18.040000 18.040000 7.810000 198 185 138 0
18.260000 18.040000 7.810000 200 187 140 0
18.480000 18.040000 7.920000 202 189 142 0
18.700000 18.040000 7.920000 203 190 141 0
18.920000 18.040000 7.920000 203 190 141 0
19.140000 18.040000 8.580000 204 190 140 0
19.360000 18.040000 8.690000 203 189 139 0
19.580000 18.040000 8.690000 205 190 142 0
19.800000 18.040000 8.800000 204 189 141 0
20.020000 18.040000 8.800000 204 191 142 0
20.240000 18.040000 8.910000 204 191 142 0
20.460000 18.040000 8.910000 206 191 143 0
20.680000 18.040000 9.570000 206 191 143 0
20.900000 18.040000 10.120000 208 193 145 0
21.120000 18.040000 10.560000 208 193 145 0
21.340000 18.040000 11.110000 209 196 149 0
21.560000 18.040000 11.110000 208 195 148 0
21.780000 18.040000 11.220000 209 196 149 0
22.000000 18.040000 11.220000 210 197 150 0
22.220000 18.040000 11.220000 211 196 150 0
22.440000 18.040000 11.220000 211 196 150 0
22.660000 18.040000 11.330000 212 197 149 0
22.880000 18.040000 11.330000 212 197 149 0
23.100000 18.040000 12.100000 211 198 151 0
23.320000 18.040000 12.100000 212 199 152 0
23.540000 18.040000 12.100000 212 198 154 0
23.760000 18.040000 12.100000 212 198 154 0
23.980000 18.040000 12.210000 213 198 152 0
24.200000 18.040000 12.210000 213 198 152 0
24.420000 18.040000 12.320000 212 197 149 0
24.640000 18.040000 12.980000 212 197 149 0
24.860000 18.040000 13.090000 213 195 150 0
25.080000 18.040000 13.640000 212 194 149 0
25.300000 18.040000 13.970000 210 195 151 0
25.520000 18.040000 15.290000 210 195 151 0
25.740000 18.040000 15.290000 216 194 152 0
25.960000 18.040000 15.290000 210 188 146 0
26.180000 18.040000 15.400000 213 168 132 0
26.400000 18.040000 15.510000 206 161 125 0
26.620000 18.040000 15.620000 213 152 119 0
26.840000 18.040000 15.730000 200 139 106 0
27.060000 18.040000 15.840000 199 137 109 0
27.280000 18.040000 16.500000 201 139 111 0
27.500000 18.040000 16.390000 199 155 113 0
27.720000 18.040000 17.490000 202 158 116 0
27.940000 18.040000 18.040000 201 162 124 0
28.160000 18.040000 18.040000 206 167 129 0
28.380000 18.040000 18.040000 205 175 134 0
28.600000 18.040000 18.040000 206 176 135 0
28.820000 18.040000 18.040000 207 179 137 0
29.040000 18.040000 18.040000 210 182 140 0
29.260000 18.040000 18.040000 207 185 143 0
29.480000 18.040000 18.150000 209 187 145 0
29.700000 18.040000 18.150000 211 189 147 0
29.920000 18.040000 18.810000 213 191 149 0
30.140000 18.040000 18.920000 214 192 150 0
30.360000 18.040000 18.920000 215 193 151 0
30.580000 18.040000 18.920000 212 194 153 0
30.800000 18.040000 18.920000 212 194 153 0
31.020000 18.040000 19.030000 213 195 154 0
31.240000 18.040000 19.030000 213 195 154 0
31.460000 18.040000 19.030000 213 193 151 0
31.680000 18.040000 19.030000 213 193 151 0
31.900000 18.040000 19.140000 218 185 145 0
32.120000 18.040000 19.800000 211 178 138 0
32.340000 18.040000 19.800000 216 159 125 0
32.560000 18.040000 19.910000 207 150 116 0
32.780000 18.040000 19.910000 213 131 102 0
33.000000 18.040000 19.910000 202 120 91 0
33.220000 18.040000 20.460000 200 116 87 0
33.440000 18.040000 20.900000 198 114 85 0
33.660000 18.040000 21.450000 199 113 83 0
33.880000 18.040000 21.450000 197 111 81 0
34.100000 18.040000 21.450000 198 112 82 0
34.320000 18.040000 21.450000 197 111 81 0
34.540000 18.040000 21.450000 198 112 84 0
34.760000 18.040000 20.130000 198 112 84 0
34.980000 18.040000 14.520000 198 114 85 0
35.200000 18.040000 7.700000 200 116 87 0
35.420000 18.040000 4.180000 197 123 91 0
35.640000 18.040000 1.430000 203 129 97 0
35.860000 18.040000 0.110000 200 140 107 0
36.080000 18.040000 0.110000 207 147 114 0
36.300000 18.040000 0.110000 202 158 124 0
36.520000 18.040000 0.110000 209 165 131 0
36.740000 18.040000 0.110000 206 173 137 0
36.960000 18.040000 0.220000 209 176 140 0
37.180000 18.040000 0.220000 207 181 145 0
0.000000 18.260000 1.540000 149 68 42 0
0.220000 18.260000 0.880000 147 69 44 0
0.440000 18.260000 0.220000 146 68 43 0
0.660000 18.260000 2.310000 149 68 44 0
0.880000 18.260000 4.950000 149 68 44 0
1.100000 18.260000 2.860000 149 68 44 0
1.320000 18.260000 1.540000 149 68 44 0
1.540000 18.260000 2.200000 149 68 44 0
1.760000 18.260000 1.540000 148 67 43 0
1.980000 18.260000 0.880000 148 67 43 0
2.200000 18.260000 1.540000 149 68 44 0
2.420000 18.260000 1.540000 149 68 44 0
2.640000 18.260000 3.630000 149 68 44 0
2.860000 18.260000 5.060000 150 69 45 0
3.080000 18.260000 2.970000 150 69 45 0
3.300000 18.260000 2.310000 151 70 46 0
3.520000 18.260000 3.630000 150 69 45 0
3.740000 18.260000 5.720000 150 69 47 0
3.960000 18.260000 5.720000 149 68 46 0
4.180000 18.260000 5.060000 150 67 46 0
4.400000 18.260000 5.060000 149 66 45 0
4.620000 18.260000 5.720000 150 67 44 0
4.840000 18.260000 7.040000 149 66 43 0
5.060000 18.260000 4.950000 148 65 42 0
5.280000 18.260000 2.970000 149 66 43 0
5.500000 18.260000 2.970000 148 65 44 0
5.720000 18.260000 4.400000 148 65 44 0
5.940000 18.260000 4.400000 149 66 43 0
6.160000 18.260000 5.060000 149 66 43 0
6.380000 18.260000 3.630000 150 67 44 0
6.600000 18.260000 4.400000 150 67 44 0
6.820000 18.260000 6.490000 149 66 43 0
7.040000 18.260000 5.720000 150 67 44 0
7.260000 18.260000 6.380000 148 65 44 0
7.480000 18.260000 7.040000 148 65 44 0
7.700000 18.260000 8.470000 149 66 45 0
7.920000 18.260000 8.470000 149 66 45 0
8.140000 18.260000 8.470000 149 66 45 0
8.360000 18.260000 7.810000 150 67 46 0
8.580000 18.260000 7.810000 150 67 46 0
8.800000 18.260000 7.150000 151 68 47 0
9.020000 18.260000 8.580000 151 70 46 0
9.240000 18.260000 7.920000 154 73 49 0
9.460000 18.260000 7.150000 158 83 57 0
9.680000 18.260000 9.240000 169 94 68 0
9.900000 18.260000 11.330000 173 108 73 0
10.120000 18.260000 12.650000 185 120 85 0
10.340000 18.260000 13.310000 191 134 88 0
10.560000 18.260000 13.310000 198 141 95 0
10.780000 18.260000 12.650000 201 144 98 0
11.000000 18.260000 12.650000 200 143 97 0
11.220000 18.260000 11.990000 194 135 98 0
11.440000 18.260000 11.990000 189 130 93 0
11.660000 18.260000 11.880000 176 127 92 0
11.880000 18.260000 11.220000 172 123 88 0
12.100000 18.260000 11.220000 168 123 89 0
12.320000 18.260000 10.560000 168 123 89 0
12.540000 18.260000 10.560000 168 123 89 0
12.760000 18.260000 9.900000 168 123 89 0
12.980000 18.260000 9.900000 163 128 93 0
13.200000 18.260000 9.240000 164 129 94 0
13.420000 18.260000 9.130000 164 133 100 0
13.640000 18.260000 8.470000 167 136 103 0
13.860000 18.260000 7.810000 162 142 104 0
14.080000 18.260000 7.810000 164 144 106 0
14.300000 18.260000 7.810000 168 143 108 0
14.520000 18.260000 7.810000 168 143 108 0
14.740000 18.260000 7.810000 167 147 109 0
14.960000 18.260000 7.810000 167 147 109 0
15.180000 18.260000 7.810000 171 146 111 0
15.400000 18.260000 7.920000 172 147 112 0
15.620000 18.260000 7.810000 170 147 108 0
15.840000 18.260000 7.810000 173 150 111 0
16.060000 18.260000 7.810000 174 150 107 0
16.280000 18.260000 7.810000 177 153 110 0
16.500000 18.260000 7.810000 178 156 112 0
16.720000 18.260000 7.810000 182 160 116 0
16.940000 18.260000 7.810000 182 164 123 0
17.160000 18.260000 7.810000 186 168 127 0
17.380000 18.260000 7.810000 187 172 128 0
17.600000 18.260000 7.810000 192 177 133 0
17.820000 18.260000 7.810000 196 183 136 0
18.040000 18.260000 7.810000 198 185 138 0
18.260000 18.260000 7.810000 200 187 140 0
18.480000 18.260000 7.920000 202 189 142 0
