ply
format ascii 1.0
element vertex 1141
property float x
property float y
property float z
property uchar red
property uchar green
property uchar blue
property uchar alpha
end_header
35.860000 13.860000 36.300000 140 118 74 0
36.080000 13.860000 34.760000 143 121 77 0
36.300000 13.860000 33.440000 145 123 79 0
36.520000 13.860000 36.080000 147 125 81 0
36.740000 13.860000 37.620000 145 125 83 0
36.960000 13.860000 36.520000 145 125 83 0
37.180000 13.860000 35.420000 146 127 82 0
0.000000 14.080000 39.160000 151 116 91 0
0.220000 14.080000 39.160000 151 116 89 0
0.440000 14.080000 38.940000 151 116 89 0
0.660000 14.080000 40.260000 150 115 88 0
0.880000 14.080000 40.260000 151 116 89 0
1.100000 14.080000 39.160000 151 116 89 0
1.320000 14.080000 39.380000 150 115 88 0
1.540000 14.080000 39.160000 149 114 89 0
1.760000 14.080000 38.940000 149 114 89 0
1.980000 14.080000 38.940000 150 115 90 0
2.200000 14.080000 38.940000 148 113 88 0
2.420000 14.080000 39.160000 148 113 86 0
2.640000 14.080000 39.160000 149 114 87 0
2.860000 14.080000 39.160000 148 113 88 0
3.080000 14.080000 39.160000 148 113 88 0
3.300000 14.080000 39.160000 147 112 87 0
3.520000 14.080000 39.160000 147 112 87 0
3.740000 14.080000 38.060000 147 112 87 0
3.960000 14.080000 39.160000 147 112 87 0
4.180000 14.080000 40.260000 146 111 86 0
4.400000 14.080000 40.260000 146 111 86 0
4.620000 14.080000 40.040000 145 110 85 0
4.840000 14.080000 40.260000 145 110 85 0
5.060000 14.080000 40.260000 145 110 85 0
5.280000 14.080000 38.940000 145 110 85 0
5.500000 14.080000 38.940000 144 109 84 0
5.720000 14.080000 40.260000 144 109 84 0
5.940000 14.080000 38.940000 145 108 84 0
6.160000 14.080000 39.160000 144 107 83 0
6.380000 14.080000 38.060000 143 108 83 0
6.600000 14.080000 39.160000 143 108 83 0
6.820000 14.080000 38.940000 153 100 77 0
7.040000 14.080000 40.260000 149 96 73 0
7.260000 14.080000 40.260000 148 92 66 0
7.480000 14.080000 40.260000 145 89 63 0
7.700000 14.080000 40.260000 148 87 63 0
7.920000 14.080000 40.260000 147 86 62 0
8.140000 14.080000 40.260000 149 88 64 0
8.360000 14.080000 40.260000 150 89 65 0
8.580000 14.080000 40.260000 151 90 66 0
8.800000 14.080000 40.260000 153 92 68 0
9.020000 14.080000 40.260000 153 92 66 0
9.240000 14.080000 40.260000 156 95 69 0
9.460000 14.080000 40.260000 158 97 73 0
9.680000 14.080000 40.260000 159 98 74 0
9.900000 14.080000 40.260000 160 95 72 0
10.120000 14.080000 40.260000 159 94 71 0
10.340000 14.080000 40.260000 160 93 69 0
10.560000 14.080000 41.580000 159 92 68 0
10.780000 14.080000 41.580000 159 94 67 0
11.000000 14.080000 41.580000 158 93 66 0
11.220000 14.080000 41.580000 158 92 65 0
11.440000 14.080000 41.580000 158 92 65 0
11.660000 14.080000 41.800000 157 90 66 0
11.880000 14.080000 41.800000 157 90 66 0
12.100000 14.080000 41.800000 156 89 65 0
12.320000 14.080000 41.800000 155 88 64 0
12.540000 14.080000 41.800000 155 89 62 0
12.760000 14.080000 41.800000 154 88 61 0
12.980000 14.080000 41.800000 157 85 58 0
13.200000 14.080000 41.800000 154 82 55 0
13.420000 14.080000 41.800000 155 79 51 0
13.640000 14.080000 40.480000 154 78 50 0
13.860000 14.080000 40.480000 153 75 50 0
14.080000 14.080000 40.480000 150 72 47 0
14.300000 14.080000 40.480000 151 73 46 0
14.520000 14.080000 41.800000 150 72 45 0
14.740000 14.080000 40.480000 148 70 43 0
14.960000 14.080000 40.480000 148 70 43 0
15.180000 14.080000 40.480000 147 69 42 0
15.400000 14.080000 40.480000 147 69 42 0
15.620000 14.080000 40.480000 148 67 41 0
15.840000 14.080000 40.480000 148 67 41 0
16.060000 14.080000 40.480000 146 68 41 0
16.280000 14.080000 40.480000 146 68 41 0
16.500000 14.080000 40.480000 146 68 41 0
16.720000 14.080000 40.480000 144 66 39 0
16.940000 14.080000 40.480000 147 66 40 0
17.160000 14.080000 40.480000 147 66 40 0
17.380000 14.080000 40.480000 148 67 41 0
17.600000 14.080000 40.480000 149 68 42 0
17.820000 14.080000 40.480000 146 68 43 0
18.040000 14.080000 40.480000 145 67 42 0
18.260000 14.080000 40.480000 146 68 41 0
18.480000 14.080000 40.260000 144 66 39 0
18.700000 14.080000 40.260000 146 65 39 0
18.920000 14.080000 40.480000 145 64 38 0
19.140000 14.080000 40.480000 145 63 37 0
19.360000 14.080000 40.480000 143 61 35 0
19.580000 14.080000 40.480000 141 59 33 0
19.800000 14.080000 41.800000 142 60 34 0
20.020000 14.080000 40.480000 142 60 34 0
20.240000 14.080000 40.480000 142 60 34 0
20.460000 14.080000 40.480000 141 59 33 0
20.680000 14.080000 40.480000 140 58 32 0
20.900000 14.080000 40.480000 142 57 34 0
21.120000 14.080000 40.480000 141 56 33 0
21.340000 14.080000 40.480000 138 55 32 0
21.560000 14.080000 40.480000 137 54 31 0
21.780000 14.080000 40.260000 137 55 29 0
22.000000 14.080000 41.800000 137 55 29 0
22.220000 14.080000 40.480000 137 55 29 0
22.440000 14.080000 41.580000 138 56 30 0
22.660000 14.080000 40.260000 137 54 31 0
22.880000 14.080000 40.260000 138 55 32 0
23.100000 14.080000 40.260000 139 56 33 0
23.320000 14.080000 41.580000 138 55 32 0
23.540000 14.080000 41.800000 137 55 29 0
23.760000 14.080000 41.800000 138 56 30 0
23.980000 14.080000 40.260000 139 57 31 0
24.200000 14.080000 40.260000 139 57 31 0
24.420000 14.080000 41.580000 140 55 32 0
24.640000 14.080000 41.580000 140 55 32 0
24.860000 14.080000 40.260000 139 56 33 0
25.080000 14.080000 37.620000 138 55 32 0
25.300000 14.080000 34.760000 136 53 30 0
25.520000 14.080000 37.620000 137 54 31 0
25.740000 14.080000 39.160000 137 55 29 0
25.960000 14.080000 39.160000 136 54 28 0
26.180000 14.080000 39.380000 139 54 31 0
26.400000 14.080000 39.380000 138 53 30 0
26.620000 14.080000 40.480000 138 55 32 0
26.840000 14.080000 40.480000 138 55 32 0
27.060000 14.080000 38.940000 139 56 33 0
27.280000 14.080000 40.260000 139 56 33 0
27.500000 14.080000 38.940000 139 57 31 0
27.720000 14.080000 27.720000 140 58 32 0
27.940000 14.080000 23.540000 142 57 32 0
28.160000 14.080000 30.580000 142 57 32 0
28.380000 14.080000 25.300000 141 58 35 0
28.600000 14.080000 10.120000 140 57 34 0
28.820000 14.080000 12.760000 140 59 35 0
29.040000 14.080000 23.540000 142 61 37 0
29.260000 14.080000 27.720000 141 65 36 0
29.480000 14.080000 34.760000 145 69 40 0
29.700000 14.080000 38.720000 140 73 41 0
29.920000 14.080000 38.720000 143 76 44 0
30.140000 14.080000 37.400000 144 79 46 0
30.360000 14.080000 34.760000 146 81 48 0
30.580000 14.080000 33.440000 146 82 50 0
30.800000 14.080000 32.120000 148 84 52 0
31.020000 14.080000 32.120000 149 85 53 0
31.240000 14.080000 31.020000 149 85 53 0
31.460000 14.080000 29.920000 149 85 53 0
31.680000 14.080000 28.380000 149 85 53 0
31.900000 14.080000 27.940000 149 83 52 0
32.120000 14.080000 25.300000 148 82 51 0
32.340000 14.080000 18.700000 146 81 48 0
32.560000 14.080000 12.980000 145 80 47 0
32.780000 14.080000 7.480000 144 79 46 0
33.000000 14.080000 5.940000 143 78 45 0
33.220000 14.080000 5.720000 145 79 48 0
33.440000 14.080000 5.720000 146 80 49 0
33.660000 14.080000 5.720000 146 81 48 0
33.880000 14.080000 5.720000 146 81 48 0
34.100000 14.080000 5.500000 145 80 47 0
34.320000 14.080000 5.720000 145 80 47 0
34.540000 14.080000 5.720000 145 80 47 0
34.760000 14.080000 6.160000 147 82 49 0
34.980000 14.080000 5.060000 140 91 56 0
35.200000 14.080000 4.620000 145 96 61 0
35.420000 14.080000 11.440000 137 107 66 0
35.640000 14.080000 29.480000 142 112 71 0
35.860000 14.080000 37.620000 140 118 74 0
36.080000 14.080000 34.760000 142 120 76 0
36.300000 14.080000 34.980000 144 122 78 0
36.520000 14.080000 36.300000 145 123 79 0
36.740000 14.080000 39.160000 145 125 83 0
36.960000 14.080000 32.560000 145 125 83 0
37.180000 14.080000 24.420000 145 126 81 0
0.000000 14.300000 38.940000 151 116 91 0
0.220000 14.300000 40.260000 151 116 89 0
0.440000 14.300000 40.260000 151 116 89 0
0.660000 14.300000 40.260000 152 117 90 0
0.880000 14.300000 40.260000 151 116 89 0
1.100000 14.300000 38.940000 150 115 88 0
1.320000 14.300000 39.160000 150 115 88 0
1.540000 14.300000 38.940000 150 115 90 0
1.760000 14.300000 38.720000 149 114 89 0
1.980000 14.300000 38.940000 149 114 89 0
2.200000 14.300000 38.940000 148 113 88 0
2.420000 14.300000 40.260000 149 114 87 0
2.640000 14.300000 40.260000 149 114 87 0
2.860000 14.300000 38.940000 148 113 88 0
3.080000 14.300000 39.160000 147 112 87 0
3.300000 14.300000 39.160000 149 114 87 0
3.520000 14.300000 38.060000 147 112 85 0
3.740000 14.300000 39.380000 148 113 88 0
3.960000 14.300000 39.160000 147 112 87 0
4.180000 14.300000 38.940000 147 112 87 0
4.400000 14.300000 40.260000 146 111 86 0
4.620000 14.300000 40.260000 146 111 86 0
4.840000 14.300000 40.260000 146 111 86 0
5.060000 14.300000 40.260000 145 110 85 0
5.280000 14.300000 40.260000 144 109 84 0
5.500000 14.300000 40.480000 144 109 84 0
5.720000 14.300000 39.160000 144 109 84 0
5.940000 14.300000 39.380000 144 109 84 0
6.160000 14.300000 38.060000 143 108 83 0
6.380000 14.300000 38.060000 144 107 83 0
6.600000 14.300000 39.160000 143 106 82 0
6.820000 14.300000 39.160000 153 98 75 0
7.040000 14.300000 38.940000 148 93 70 0
7.260000 14.300000 40.260000 148 90 65 0
7.480000 14.300000 40.260000 147 89 64 0
7.700000 14.300000 40.260000 148 86 60 0
7.920000 14.300000 40.260000 149 87 61 0
8.140000 14.300000 40.260000 149 88 62 0
8.360000 14.300000 40.260000 150 89 63 0
8.580000 14.300000 40.260000 152 91 67 0
8.800000 14.300000 40.260000 153 92 68 0
9.020000 14.300000 40.260000 155 94 68 0
9.240000 14.300000 40.260000 157 96 70 0
9.460000 14.300000 40.260000 162 97 72 0
9.680000 14.300000 40.260000 161 96 71 0
9.900000 14.300000 40.260000 162 96 69 0
10.120000 14.300000 40.260000 160 94 67 0
10.340000 14.300000 40.260000 158 93 68 0
10.560000 14.300000 40.260000 158 93 68 0
10.780000 14.300000 41.580000 159 94 69 0
11.000000 14.300000 41.580000 158 93 68 0
11.220000 14.300000 41.580000 157 92 65 0
11.440000 14.300000 41.580000 156 91 64 0
11.660000 14.300000 41.800000 158 90 62 0
11.880000 14.300000 41.800000 159 91 63 0
12.100000 14.300000 41.800000 160 90 62 0
12.320000 14.300000 41.800000 159 89 61 0
12.540000 14.300000 41.800000 156 88 60 0
12.760000 14.300000 41.800000 155 87 59 0
12.980000 14.300000 41.800000 156 84 57 0
13.200000 14.300000 41.800000 155 83 56 0
13.420000 14.300000 41.800000 153 78 50 0
13.640000 14.300000 41.800000 153 78 50 0
13.860000 14.300000 41.800000 151 75 46 0
14.080000 14.300000 41.800000 149 73 44 0
14.300000 14.300000 40.480000 150 72 45 0
14.520000 14.300000 40.480000 149 71 44 0
14.740000 14.300000 40.480000 148 70 42 0
14.960000 14.300000 40.480000 147 69 41 0
15.180000 14.300000 40.480000 146 68 41 0
15.400000 14.300000 40.480000 146 68 41 0
15.620000 14.300000 40.480000 146 68 41 0
15.840000 14.300000 40.480000 146 68 41 0
16.060000 14.300000 40.480000 147 66 40 0
16.280000 14.300000 40.480000 147 66 40 0
16.500000 14.300000 40.480000 146 66 38 0
16.720000 14.300000 40.480000 147 67 39 0
16.940000 14.300000 40.480000 147 66 40 0
17.160000 14.300000 40.480000 146 65 39 0
17.380000 14.300000 40.480000 146 68 41 0
17.600000 14.300000 40.480000 145 67 40 0
17.820000 14.300000 40.480000 148 67 41 0
18.040000 14.300000 40.480000 148 67 41 0
18.260000 14.300000 40.480000 146 65 39 0
18.480000 14.300000 40.260000 148 67 41 0
18.700000 14.300000 40.260000 146 65 41 0
18.920000 14.300000 40.480000 145 64 40 0
19.140000 14.300000 40.480000 144 62 36 0
19.360000 14.300000 40.480000 142 60 34 0
19.580000 14.300000 40.480000 140 57 34 0
19.800000 14.300000 40.480000 141 58 35 0
20.020000 14.300000 40.480000 140 59 33 0
20.240000 14.300000 40.480000 139 58 32 0
20.460000 14.300000 40.480000 139 56 33 0
20.680000 14.300000 40.480000 140 57 34 0
20.900000 14.300000 40.480000 138 56 30 0
21.120000 14.300000 40.480000 138 56 30 0
21.340000 14.300000 40.480000 137 54 31 0
21.560000 14.300000 40.480000 137 54 31 0
21.780000 14.300000 40.480000 137 55 29 0
22.000000 14.300000 40.480000 137 55 29 0
22.220000 14.300000 40.480000 138 55 32 0
22.440000 14.300000 40.260000 138 55 32 0
22.660000 14.300000 40.260000 138 55 32 0
22.880000 14.300000 40.260000 139 56 33 0
23.100000 14.300000 40.260000 138 55 32 0
23.320000 14.300000 41.580000 138 55 32 0
23.540000 14.300000 41.800000 138 55 32 0
23.760000 14.300000 41.800000 139 56 33 0
23.980000 14.300000 40.260000 139 56 33 0
24.200000 14.300000 40.260000 140 57 34 0
24.420000 14.300000 40.260000 138 55 32 0
24.640000 14.300000 41.580000 138 55 32 0
24.860000 14.300000 41.800000 136 53 30 0
25.080000 14.300000 36.080000 137 54 31 0
25.300000 14.300000 30.580000 138 53 30 0
25.520000 14.300000 34.760000 138 53 30 0
25.740000 14.300000 40.480000 136 53 30 0
25.960000 14.300000 39.160000 137 54 31 0
26.180000 14.300000 36.520000 136 53 30 0
26.400000 14.300000 33.660000 139 56 33 0
26.620000 14.300000 37.620000 139 56 33 0
26.840000 14.300000 40.480000 139 56 33 0
27.060000 14.300000 39.160000 139 56 33 0
27.280000 14.300000 37.620000 139 56 33 0
27.500000 14.300000 33.440000 139 56 33 0
27.720000 14.300000 26.400000 139 56 33 0
27.940000 14.300000 20.900000 140 58 32 0
28.160000 14.300000 20.900000 141 59 33 0
28.380000 14.300000 15.620000 141 60 34 0
28.600000 14.300000 14.300000 142 61 35 0
28.820000 14.300000 27.940000 140 62 37 0
29.040000 14.300000 36.080000 142 64 39 0
29.260000 14.300000 34.760000 137 70 38 0
29.480000 14.300000 36.080000 140 73 41 0
29.700000 14.300000 37.400000 141 76 43 0
29.920000 14.300000 36.080000 144 79 46 0
30.140000 14.300000 34.760000 144 80 47 0
30.360000 14.300000 33.220000 146 82 49 0
30.580000 14.300000 30.580000 148 83 50 0
30.800000 14.300000 30.800000 149 84 51 0
31.020000 14.300000 29.480000 148 84 52 0
31.240000 14.300000 29.920000 149 85 53 0
31.460000 14.300000 28.380000 151 86 53 0
31.680000 14.300000 29.480000 150 85 52 0
31.900000 14.300000 27.940000 148 84 51 0
32.120000 14.300000 23.760000 145 81 48 0
32.340000 14.300000 17.160000 145 80 47 0
32.560000 14.300000 11.660000 144 79 46 0
32.780000 14.300000 8.800000 144 79 44 0
33.000000 14.300000 5.940000 144 79 44 0
33.220000 14.300000 5.720000 144 81 45 0
33.440000 14.300000 5.940000 145 82 46 0
33.660000 14.300000 6.160000 146 82 49 0
33.880000 14.300000 5.940000 146 82 49 0
34.100000 14.300000 5.720000 146 81 48 0
34.320000 14.300000 7.040000 145 80 47 0
34.540000 14.300000 5.720000 142 81 47 0
34.760000 14.300000 6.160000 144 83 49 0
34.980000 14.300000 4.840000 140 91 54 0
35.200000 14.300000 4.620000 146 97 60 0
35.420000 14.300000 12.760000 139 106 66 0
35.640000 14.300000 29.480000 144 111 71 0
35.860000 14.300000 37.620000 141 117 74 0
36.080000 14.300000 36.300000 143 119 76 0
36.300000 14.300000 34.980000 143 121 77 0
36.520000 14.300000 36.300000 144 122 78 0
36.740000 14.300000 36.300000 145 123 79 0
36.960000 14.300000 24.200000 145 123 79 0
37.180000 14.300000 14.520000 145 126 81 0
0.000000 14.520000 38.940000 151 116 91 0
0.220000 14.520000 38.940000 153 118 91 0
0.440000 14.520000 38.940000 152 117 90 0
0.660000 14.520000 38.940000 152 117 90 0
0.880000 14.520000 38.940000 152 117 90 0
1.100000 14.520000 38.940000 152 117 90 0
1.320000 14.520000 38.940000 151 116 89 0
1.540000 14.520000 40.260000 151 116 91 0
1.760000 14.520000 40.260000 150 115 90 0
1.980000 14.520000 38.940000 149 114 89 0
2.200000 14.520000 38.940000 149 114 89 0
2.420000 14.520000 38.940000 149 114 87 0
2.640000 14.520000 38.940000 148 113 86 0
2.860000 14.520000 38.940000 148 113 88 0
3.080000 14.520000 38.940000 148 113 88 0
3.300000 14.520000 39.160000 148 113 86 0
3.520000 14.520000 39.160000 148 113 86 0
3.740000 14.520000 39.160000 148 113 88 0
3.960000 14.520000 38.940000 147 112 87 0
4.180000 14.520000 39.160000 147 112 87 0
4.400000 14.520000 38.940000 146 111 86 0
4.620000 14.520000 38.940000 146 111 86 0
4.840000 14.520000 38.940000 146 111 86 0
5.060000 14.520000 38.940000 146 111 86 0
5.280000 14.520000 39.160000 145 110 85 0
5.500000 14.520000 40.480000 145 110 85 0
5.720000 14.520000 39.160000 144 109 84 0
5.940000 14.520000 38.060000 144 109 84 0
6.160000 14.520000 39.380000 143 108 83 0
6.380000 14.520000 39.160000 144 107 83 0
6.600000 14.520000 39.160000 142 105 81 0
6.820000 14.520000 38.940000 151 96 73 0
7.040000 14.520000 38.940000 148 93 70 0
7.260000 14.520000 38.940000 147 89 64 0
7.480000 14.520000 38.940000 147 89 64 0
7.700000 14.520000 40.260000 149 87 61 0
7.920000 14.520000 40.260000 149 87 61 0
8.140000 14.520000 40.260000 149 88 62 0
8.360000 14.520000 40.260000 151 90 64 0
8.580000 14.520000 40.260000 153 92 68 0
8.800000 14.520000 40.260000 155 94 70 0
9.020000 14.520000 40.260000 156 95 69 0
9.240000 14.520000 40.260000 158 97 71 0
9.460000 14.520000 40.260000 161 96 71 0
9.680000 14.520000 40.260000 162 97 72 0
9.900000 14.520000 40.260000 161 95 68 0
10.120000 14.520000 40.260000 160 94 67 0
10.340000 14.520000 40.260000 158 93 68 0
10.560000 14.520000 40.260000 158 93 68 0
10.780000 14.520000 40.260000 158 93 68 0
11.000000 14.520000 41.580000 158 93 68 0
11.220000 14.520000 41.580000 158 93 66 0
11.440000 14.520000 41.580000 157 92 65 0
11.660000 14.520000 41.800000 158 90 62 0
11.880000 14.520000 41.800000 158 90 62 0
12.100000 14.520000 41.800000 160 90 62 0
12.320000 14.520000 41.800000 159 89 61 0
12.540000 14.520000 41.800000 155 87 59 0
12.760000 14.520000 41.800000 155 87 59 0
12.980000 14.520000 41.800000 156 84 57 0
13.200000 14.520000 41.800000 154 82 55 0
13.420000 14.520000 41.800000 155 80 52 0
13.640000 14.520000 41.800000 153 78 50 0
13.860000 14.520000 41.800000 152 76 47 0
14.080000 14.520000 41.800000 149 73 44 0
14.300000 14.520000 41.800000 150 72 45 0
14.520000 14.520000 40.480000 148 70 43 0
14.740000 14.520000 40.480000 148 70 42 0
14.960000 14.520000 40.480000 147 69 41 0
15.180000 14.520000 40.480000 146 68 41 0
15.400000 14.520000 40.480000 147 69 42 0
15.620000 14.520000 40.480000 146 68 41 0
15.840000 14.520000 40.480000 146 68 41 0
16.060000 14.520000 40.480000 148 67 41 0
16.280000 14.520000 40.480000 147 66 40 0
16.500000 14.520000 40.480000 146 66 38 0
16.720000 14.520000 40.480000 148 68 40 0
16.940000 14.520000 40.480000 146 65 39 0
17.160000 14.520000 40.480000 146 65 39 0
17.380000 14.520000 40.480000 145 67 40 0
17.600000 14.520000 40.480000 146 68 41 0
17.820000 14.520000 40.480000 148 67 41 0
18.040000 14.520000 40.480000 147 66 40 0
18.260000 14.520000 40.480000 146 65 39 0
18.480000 14.520000 40.260000 146 65 39 0
18.700000 14.520000 40.260000 147 66 42 0
18.920000 14.520000 40.480000 145 64 40 0
19.140000 14.520000 40.480000 144 62 36 0
19.360000 14.520000 40.480000 142 60 34 0
19.580000 14.520000 40.480000 140 57 34 0
19.800000 14.520000 40.480000 140 57 34 0
20.020000 14.520000 40.480000 139 58 32 0
20.240000 14.520000 40.480000 140 59 33 0
20.460000 14.520000 40.480000 140 57 34 0
20.680000 14.520000 41.800000 139 56 33 0
20.900000 14.520000 41.800000 139 57 31 0
21.120000 14.520000 41.800000 138 56 30 0
21.340000 14.520000 41.800000 137 54 31 0
21.560000 14.520000 40.480000 137 54 31 0
21.780000 14.520000 40.480000 137 55 29 0
22.000000 14.520000 40.480000 138 56 30 0
22.220000 14.520000 40.480000 138 55 32 0
22.440000 14.520000 40.260000 139 56 33 0
22.660000 14.520000 40.260000 139 56 33 0
22.880000 14.520000 40.260000 138 55 32 0
23.100000 14.520000 40.260000 138 55 32 0
23.320000 14.520000 40.260000 137 54 31 0
23.540000 14.520000 40.260000 138 55 32 0
23.760000 14.520000 41.800000 139 56 33 0
23.980000 14.520000 40.260000 140 57 34 0
24.200000 14.520000 40.260000 139 56 33 0
24.420000 14.520000 40.260000 138 55 32 0
24.640000 14.520000 41.580000 138 55 32 0
24.860000 14.520000 41.800000 138 55 32 0
25.080000 14.520000 38.940000 137 54 31 0
25.300000 14.520000 36.080000 139 54 31 0
25.520000 14.520000 38.940000 138 53 30 0
25.740000 14.520000 40.480000 136 53 30 0
25.960000 14.520000 39.160000 137 54 31 0
26.180000 14.520000 34.980000 138 55 32 0
26.400000 14.520000 29.260000 139 56 33 0
26.620000 14.520000 34.760000 139 56 33 0
26.840000 14.520000 39.160000 140 57 34 0
27.060000 14.520000 40.480000 140 57 34 0
27.280000 14.520000 33.440000 140 57 34 0
27.500000 14.520000 18.260000 140 57 34 0
27.720000 14.520000 15.400000 139 56 33 0
27.940000 14.520000 22.440000 141 59 33 0
28.160000 14.520000 19.800000 140 58 32 0
28.380000 14.520000 16.940000 140 59 33 0
28.600000 14.520000 27.940000 141 60 34 0
28.820000 14.520000 37.620000 142 64 39 0
29.040000 14.520000 38.720000 144 66 41 0
29.260000 14.520000 37.620000 138 71 39 0
29.480000 14.520000 34.980000 141 74 42 0
29.700000 14.520000 33.440000 143 78 45 0
29.920000 14.520000 33.220000 145 80 47 0
30.140000 14.520000 31.900000 146 82 49 0
30.360000 14.520000 30.580000 146 82 49 0
30.580000 14.520000 29.260000 148 83 50 0
30.800000 14.520000 29.480000 148 83 50 0
31.020000 14.520000 28.600000 148 84 52 0
31.240000 14.520000 28.600000 149 85 53 0
31.460000 14.520000 29.700000 150 85 52 0
31.680000 14.520000 29.480000 149 84 51 0
31.900000 14.520000 26.620000 148 84 51 0
32.120000 14.520000 22.660000 145 81 48 0
32.340000 14.520000 15.620000 145 80 47 0
32.560000 14.520000 12.760000 144 79 46 0
32.780000 14.520000 10.120000 144 79 44 0
33.000000 14.520000 7.260000 144 79 44 0
33.220000 14.520000 7.260000 146 83 47 0
33.440000 14.520000 5.940000 146 83 47 0
33.660000 14.520000 4.840000 147 83 50 0
33.880000 14.520000 4.840000 146 82 49 0
34.100000 14.520000 5.940000 146 81 48 0
34.320000 14.520000 7.040000 145 80 47 0
34.540000 14.520000 5.720000 142 81 47 0
34.760000 14.520000 6.160000 145 84 50 0
34.980000 14.520000 6.160000 141 92 55 0
35.200000 14.520000 5.940000 144 95 58 0
35.420000 14.520000 14.080000 141 108 68 0
35.640000 14.520000 30.580000 143 110 70 0
35.860000 14.520000 38.940000 140 116 73 0
36.080000 14.520000 37.840000 143 119 76 0
36.300000 14.520000 35.200000 143 121 77 0
36.520000 14.520000 36.520000 144 122 78 0
36.740000 14.520000 33.440000 145 123 79 0
36.960000 14.520000 22.440000 144 122 78 0
37.180000 14.520000 15.620000 142 123 78 0
0.000000 14.740000 39.160000 154 119 92 0
0.220000 14.740000 39.160000 154 118 91 0
0.440000 14.740000 38.940000 153 117 90 0
0.660000 14.740000 38.940000 153 117 90 0
0.880000 14.740000 38.940000 153 117 90 0
1.100000 14.740000 39.160000 150 115 88 0
1.320000 14.740000 38.940000 151 116 89 0
1.540000 14.740000 40.260000 152 117 90 0
1.760000 14.740000 40.260000 151 116 89 0
1.980000 14.740000 38.940000 151 115 88 0
2.200000 14.740000 39.160000 151 115 88 0
2.420000 14.740000 38.940000 150 115 88 0
2.640000 14.740000 38.940000 149 114 87 0
2.860000 14.740000 38.940000 148 113 86 0
3.080000 14.740000 38.940000 147 112 85 0
3.300000 14.740000 38.940000 147 112 85 0
3.520000 14.740000 38.940000 147 112 85 0
3.740000 14.740000 38.940000 149 112 88 0
3.960000 14.740000 38.940000 149 112 88 0
4.180000 14.740000 38.940000 147 112 87 0
4.400000 14.740000 38.940000 146 111 86 0
4.620000 14.740000 39.160000 147 111 84 0
4.840000 14.740000 39.160000 147 111 84 0
5.060000 14.740000 39.160000 146 111 86 0
5.280000 14.740000 39.160000 145 110 85 0
5.500000 14.740000 39.160000 146 109 85 0
5.720000 14.740000 40.480000 146 109 85 0
5.940000 14.740000 39.160000 145 110 85 0
6.160000 14.740000 39.380000 144 109 84 0
6.380000 14.740000 39.160000 148 105 81 0
6.600000 14.740000 38.940000 145 102 78 0
6.820000 14.740000 38.940000 152 94 69 0
7.040000 14.740000 38.940000 149 91 66 0
7.260000 14.740000 38.940000 148 87 61 0
7.480000 14.740000 38.940000 149 88 62 0
7.700000 14.740000 38.940000 148 87 61 0
7.920000 14.740000 40.260000 148 87 61 0
8.140000 14.740000 40.260000 151 90 66 0
8.360000 14.740000 40.260000 152 91 67 0
8.580000 14.740000 40.260000 156 94 68 0
8.800000 14.740000 40.260000 158 96 70 0
9.020000 14.740000 40.260000 159 96 73 0
9.240000 14.740000 40.260000 160 97 74 0
9.460000 14.740000 40.260000 162 97 72 0
9.680000 14.740000 40.260000 161 96 71 0
9.900000 14.740000 40.260000 158 96 70 0
10.120000 14.740000 40.260000 157 95 69 0
10.340000 14.740000 40.260000 159 93 66 0
10.560000 14.740000 40.260000 161 95 68 0
10.780000 14.740000 40.260000 160 95 68 0
11.000000 14.740000 41.580000 159 94 67 0
11.220000 14.740000 41.580000 159 93 66 0
11.440000 14.740000 41.580000 159 93 66 0
11.660000 14.740000 41.800000 157 91 62 0
11.880000 14.740000 41.800000 156 90 61 0
12.100000 14.740000 41.800000 158 90 62 0
12.320000 14.740000 41.800000 157 89 61 0
12.540000 14.740000 41.800000 158 88 58 0
12.760000 14.740000 41.800000 158 88 58 0
12.980000 14.740000 41.800000 155 85 55 0
13.200000 14.740000 41.800000 153 83 53 0
13.420000 14.740000 41.800000 156 81 53 0
13.640000 14.740000 41.800000 154 79 51 0
13.860000 14.740000 41.800000 153 75 47 0
14.080000 14.740000 41.800000 151 73 45 0
14.300000 14.740000 41.800000 151 71 43 0
14.520000 14.740000 40.480000 151 71 43 0
14.740000 14.740000 40.480000 150 70 42 0
14.960000 14.740000 40.480000 149 69 41 0
15.180000 14.740000 40.480000 145 67 40 0
15.400000 14.740000 40.480000 146 68 41 0
15.620000 14.740000 40.480000 149 68 42 0
15.840000 14.740000 40.480000 148 67 41 0
16.060000 14.740000 40.480000 148 68 40 0
16.280000 14.740000 40.480000 147 67 39 0
16.500000 14.740000 40.480000 146 66 38 0
16.720000 14.740000 40.480000 147 67 39 0
16.940000 14.740000 40.480000 147 66 40 0
17.160000 14.740000 40.480000 147 66 40 0
17.380000 14.740000 40.480000 147 66 40 0
17.600000 14.740000 40.480000 148 67 41 0
17.820000 14.740000 40.480000 148 67 41 0
18.040000 14.740000 40.480000 147 66 40 0
18.260000 14.740000 40.480000 147 66 40 0
18.480000 14.740000 40.260000 148 67 41 0
18.700000 14.740000 40.260000 147 66 40 0
18.920000 14.740000 40.480000 145 64 38 0
19.140000 14.740000 40.480000 145 63 37 0
19.360000 14.740000 40.480000 141 59 33 0
19.580000 14.740000 40.480000 140 57 34 0
19.800000 14.740000 40.480000 140 57 34 0
20.020000 14.740000 40.480000 141 59 33 0
20.240000 14.740000 40.480000 141 59 33 0
20.460000 14.740000 40.480000 140 57 34 0
20.680000 14.740000 41.800000 139 56 33 0
20.900000 14.740000 41.800000 140 55 32 0
21.120000 14.740000 41.800000 139 54 31 0
21.340000 14.740000 38.940000 138 53 30 0
21.560000 14.740000 36.080000 138 53 30 0
21.780000 14.740000 37.620000 137 54 31 0
22.000000 14.740000 40.480000 138 55 32 0
22.220000 14.740000 40.480000 138 56 30 0
22.440000 14.740000 40.260000 138 56 30 0
22.660000 14.740000 40.260000 141 56 33 0
22.880000 14.740000 40.480000 139 54 31 0
23.100000 14.740000 40.480000 139 54 31 0
23.320000 14.740000 40.260000 140 55 32 0
23.540000 14.740000 41.800000 139 56 33 0
23.760000 14.740000 41.800000 139 56 33 0
23.980000 14.740000 40.260000 139 56 33 0
24.200000 14.740000 40.260000 140 57 34 0
24.420000 14.740000 40.260000 140 55 32 0
24.640000 14.740000 40.260000 140 55 32 0
24.860000 14.740000 40.260000 138 55 32 0
25.080000 14.740000 40.260000 137 54 31 0
25.300000 14.740000 41.800000 138 55 32 0
25.520000 14.740000 41.580000 137 54 31 0
25.740000 14.740000 41.580000 137 55 29 0
25.960000 14.740000 40.260000 137 55 29 0
26.180000 14.740000 37.620000 139 56 33 0
26.400000 14.740000 34.760000 139 56 33 0
26.620000 14.740000 37.620000 140 58 32 0
26.840000 14.740000 38.940000 140 58 32 0
27.060000 14.740000 40.260000 140 57 34 0
27.280000 14.740000 30.580000 139 56 33 0
27.500000 14.740000 12.760000 139 57 31 0
27.720000 14.740000 14.300000 139 57 31 0
27.940000 14.740000 30.800000 139 58 32 0
28.160000 14.740000 33.440000 139 58 32 0
28.380000 14.740000 33.440000 142 61 35 0
28.600000 14.740000 38.940000 143 62 36 0
28.820000 14.740000 39.160000 139 67 38 0
29.040000 14.740000 36.300000 140 68 39 0
29.260000 14.740000 34.760000 139 74 41 0
29.480000 14.740000 33.440000 142 77 44 0
29.700000 14.740000 32.120000 143 79 46 0
29.920000 14.740000 30.580000 144 80 47 0
30.140000 14.740000 29.040000 146 83 47 0
30.360000 14.740000 29.040000 146 83 47 0
30.580000 14.740000 29.260000 148 83 50 0
30.800000 14.740000 29.260000 148 83 50 0
31.020000 14.740000 28.380000 148 84 51 0
31.240000 14.740000 28.600000 148 84 51 0
31.460000 14.740000 28.380000 149 85 52 0
31.680000 14.740000 28.160000 148 84 51 0
31.900000 14.740000 26.840000 147 82 47 0
32.120000 14.740000 21.340000 147 82 47 0
32.340000 14.740000 15.620000 145 80 45 0
32.560000 14.740000 12.760000 144 79 44 0
32.780000 14.740000 9.900000 143 78 45 0
33.000000 14.740000 7.480000 144 79 46 0
33.220000 14.740000 7.480000 146 83 47 0
33.440000 14.740000 5.720000 146 83 47 0
33.660000 14.740000 5.940000 147 84 48 0
33.880000 14.740000 4.840000 146 83 47 0
34.100000 14.740000 4.840000 145 80 45 0
34.320000 14.740000 5.940000 144 79 44 0
34.540000 14.740000 5.940000 145 81 48 0
34.760000 14.740000 6.160000 147 83 50 0
34.980000 14.740000 6.160000 141 90 56 0
35.200000 14.740000 5.940000 144 93 59 0
35.420000 14.740000 11.220000 137 109 67 0
35.640000 14.740000 26.400000 139 111 69 0
35.860000 14.740000 37.620000 139 115 72 0
36.080000 14.740000 37.840000 141 117 74 0
36.300000 14.740000 36.520000 142 120 76 0
36.520000 14.740000 36.300000 143 121 77 0
36.740000 14.740000 36.080000 143 121 75 0
36.960000 14.740000 33.440000 144 122 76 0
37.180000 14.740000 30.580000 144 120 77 0
0.000000 14.960000 39.160000 155 120 93 0
0.220000 14.960000 39.160000 156 120 93 0
0.440000 14.960000 38.940000 154 118 91 0
0.660000 14.960000 38.940000 154 118 91 0
0.880000 14.960000 38.940000 154 118 91 0
1.100000 14.960000 38.940000 154 119 92 0
1.320000 14.960000 38.940000 152 117 90 0
1.540000 14.960000 38.940000 153 118 91 0
1.760000 14.960000 38.940000 151 116 89 0
1.980000 14.960000 38.940000 153 117 90 0
2.200000 14.960000 39.160000 151 115 88 0
2.420000 14.960000 39.160000 150 115 88 0
2.640000 14.960000 39.160000 150 115 88 0
2.860000 14.960000 39.160000 150 115 88 0
3.080000 14.960000 39.160000 148 113 86 0
3.300000 14.960000 38.940000 149 114 87 0
3.520000 14.960000 38.940000 149 114 87 0
3.740000 14.960000 38.940000 151 114 90 0
3.960000 14.960000 38.940000 149 112 88 0
4.180000 14.960000 38.940000 147 112 87 0
4.400000 14.960000 38.940000 147 112 87 0
4.620000 14.960000 39.160000 148 112 85 0
4.840000 14.960000 39.160000 148 112 85 0
5.060000 14.960000 39.160000 146 111 86 0
5.280000 14.960000 39.160000 146 111 86 0
5.500000 14.960000 39.160000 147 110 86 0
5.720000 14.960000 40.480000 147 110 86 0
5.940000 14.960000 40.480000 145 110 85 0
6.160000 14.960000 39.160000 144 109 84 0
6.380000 14.960000 39.160000 148 105 81 0
6.600000 14.960000 38.940000 143 100 76 0
6.820000 14.960000 38.940000 150 92 67 0
7.040000 14.960000 38.940000 147 89 64 0
7.260000 14.960000 38.940000 148 87 61 0
7.480000 14.960000 38.940000 149 88 62 0
7.700000 14.960000 38.940000 149 88 62 0
7.920000 14.960000 38.940000 150 89 63 0
8.140000 14.960000 40.260000 152 91 67 0
8.360000 14.960000 40.260000 153 92 68 0
8.580000 14.960000 40.260000 157 95 69 0
8.800000 14.960000 40.260000 159 97 71 0
9.020000 14.960000 40.260000 160 97 74 0
9.240000 14.960000 40.260000 161 98 75 0
9.460000 14.960000 40.260000 162 97 72 0
9.680000 14.960000 40.260000 160 95 70 0
9.900000 14.960000 40.260000 157 95 69 0
10.120000 14.960000 40.260000 158 96 70 0
10.340000 14.960000 40.260000 160 94 67 0
10.560000 14.960000 40.260000 160 94 67 0
10.780000 14.960000 40.260000 159 94 67 0
11.000000 14.960000 41.580000 158 93 66 0
11.220000 14.960000 41.580000 158 92 65 0
11.440000 14.960000 41.580000 158 92 65 0
11.660000 14.960000 41.800000 157 91 62 0
11.880000 14.960000 41.800000 157 91 62 0
12.100000 14.960000 41.800000 157 89 61 0
12.320000 14.960000 41.800000 157 89 61 0
12.540000 14.960000 41.800000 159 89 59 0
12.760000 14.960000 41.800000 156 86 56 0
12.980000 14.960000 41.800000 156 86 56 0
13.200000 14.960000 41.800000 154 84 54 0
13.420000 14.960000 40.480000 154 79 51 0
13.640000 14.960000 40.480000 152 77 49 0
13.860000 14.960000 41.800000 153 75 47 0
14.080000 14.960000 41.800000 151 73 45 0
14.300000 14.960000 40.480000 152 72 44 0
14.520000 14.960000 40.480000 151 71 43 0
14.740000 14.960000 40.480000 150 70 42 0
14.960000 14.960000 40.480000 150 70 42 0
15.180000 14.960000 40.480000 147 69 42 0
15.400000 14.960000 40.480000 147 69 42 0
15.620000 14.960000 40.480000 148 67 41 0
15.840000 14.960000 40.480000 148 67 41 0
16.060000 14.960000 40.480000 148 68 40 0
16.280000 14.960000 40.480000 148 68 40 0
16.500000 14.960000 40.480000 147 67 39 0
16.720000 14.960000 40.480000 146 66 38 0
16.940000 14.960000 40.480000 146 65 39 0
17.160000 14.960000 40.480000 147 66 40 0
17.380000 14.960000 40.480000 148 67 41 0
17.600000 14.960000 40.480000 147 66 40 0
17.820000 14.960000 40.480000 147 66 40 0
18.040000 14.960000 40.480000 146 65 39 0
18.260000 14.960000 40.480000 147 66 40 0
18.480000 14.960000 40.480000 147 66 40 0
18.700000 14.960000 40.480000 148 67 41 0
18.920000 14.960000 40.480000 146 65 39 0
19.140000 14.960000 40.480000 144 62 36 0
19.360000 14.960000 40.480000 143 61 35 0
19.580000 14.960000 40.480000 141 58 35 0
19.800000 14.960000 40.480000 141 58 35 0
20.020000 14.960000 40.480000 140 58 32 0
20.240000 14.960000 40.480000 141 59 33 0
20.460000 14.960000 40.480000 140 57 34 0
20.680000 14.960000 41.800000 138 55 32 0
20.900000 14.960000 41.800000 139 54 31 0
21.120000 14.960000 40.480000 137 52 29 0
21.340000 14.960000 36.080000 137 52 29 0
21.560000 14.960000 30.580000 139 54 31 0
21.780000 14.960000 34.760000 137 54 31 0
22.000000 14.960000 40.480000 138 55 32 0
22.220000 14.960000 40.480000 139 57 31 0
22.440000 14.960000 38.940000 138 56 30 0
22.660000 14.960000 39.160000 140 55 32 0
22.880000 14.960000 40.480000 139 54 31 0
23.100000 14.960000 40.480000 139 54 31 0
23.320000 14.960000 40.480000 139 54 31 0
23.540000 14.960000 40.480000 138 55 32 0
23.760000 14.960000 40.480000 139 56 33 0
23.980000 14.960000 40.260000 140 57 34 0
24.200000 14.960000 40.260000 140 57 34 0
24.420000 14.960000 40.260000 141 56 33 0
24.640000 14.960000 40.260000 140 55 32 0
24.860000 14.960000 40.260000 138 55 32 0
25.080000 14.960000 40.260000 138 55 32 0
25.300000 14.960000 40.480000 138 55 32 0
25.520000 14.960000 40.260000 138 55 32 0
25.740000 14.960000 41.580000 137 55 29 0
25.960000 14.960000 40.260000 138 56 30 0
26.180000 14.960000 39.160000 138 55 32 0
26.400000 14.960000 39.160000 139 56 33 0
26.620000 14.960000 38.940000 140 58 32 0
26.840000 14.960000 38.940000 140 58 32 0
27.060000 14.960000 40.260000 140 57 34 0
27.280000 14.960000 31.900000 140 57 34 0
27.500000 14.960000 19.580000 140 58 32 0
27.720000 14.960000 21.120000 140 58 32 0
27.940000 14.960000 34.980000 140 59 33 0
28.160000 14.960000 40.480000 141 60 34 0
28.380000 14.960000 41.800000 142 61 35 0
28.600000 14.960000 40.480000 144 63 37 0
28.820000 14.960000 37.840000 141 69 40 0
29.040000 14.960000 35.200000 143 71 42 0
29.260000 14.960000 33.660000 141 76 43 0
29.480000 14.960000 32.340000 143 78 45 0
29.700000 14.960000 30.580000 144 80 47 0
29.920000 14.960000 29.040000 145 81 48 0
30.140000 14.960000 29.040000 145 82 46 0
30.360000 14.960000 27.720000 146 83 47 0
30.580000 14.960000 29.260000 148 83 50 0
30.800000 14.960000 29.260000 148 83 50 0
31.020000 14.960000 30.800000 147 83 50 0
31.240000 14.960000 29.480000 148 84 51 0
31.460000 14.960000 29.480000 148 84 51 0
31.680000 14.960000 28.160000 148 84 51 0
31.900000 14.960000 26.620000 148 83 48 0
32.120000 14.960000 22.440000 146 81 46 0
32.340000 14.960000 16.940000 145 80 45 0
32.560000 14.960000 12.760000 144 79 44 0
32.780000 14.960000 8.800000 144 79 46 0
33.000000 14.960000 7.700000 144 79 46 0
33.220000 14.960000 6.160000 145 82 46 0
33.440000 14.960000 5.940000 146 83 47 0
33.660000 14.960000 4.620000 146 83 47 0
33.880000 14.960000 4.840000 146 83 47 0
34.100000 14.960000 4.840000 145 80 45 0
34.320000 14.960000 4.840000 144 79 44 0
34.540000 14.960000 4.840000 144 80 47 0
34.760000 14.960000 6.160000 146 82 49 0
34.980000 14.960000 5.940000 141 90 56 0
35.200000 14.960000 5.940000 144 93 59 0
35.420000 14.960000 5.720000 135 107 65 0
35.640000 14.960000 16.720000 140 112 70 0
35.860000 14.960000 32.120000 139 115 72 0
36.080000 14.960000 37.840000 139 115 72 0
36.300000 14.960000 36.520000 140 118 74 0
36.520000 14.960000 37.620000 142 120 76 0
36.740000 14.960000 37.620000 142 120 74 0
36.960000 14.960000 33.440000 142 120 74 0
37.180000 14.960000 30.800000 144 120 77 0
0.000000 15.180000 39.160000 157 123 93 0
0.220000 15.180000 39.160000 157 121 92 0
0.440000 15.180000 38.940000 157 121 92 0
0.660000 15.180000 38.940000 155 119 92 0
0.880000 15.180000 38.940000 154 118 91 0
1.100000 15.180000 38.940000 154 118 91 0
1.320000 15.180000 38.940000 155 119 92 0
1.540000 15.180000 38.940000 154 120 90 0
1.760000 15.180000 38.940000 152 118 88 0
1.980000 15.180000 38.940000 152 117 90 0
2.200000 15.180000 39.160000 153 118 91 0
2.420000 15.180000 39.160000 152 116 89 0
2.640000 15.180000 39.160000 152 116 89 0
2.860000 15.180000 37.840000 152 116 89 0
3.080000 15.180000 37.840000 151 115 88 0
3.300000 15.180000 38.940000 150 114 87 0
3.520000 15.180000 38.940000 151 115 88 0
3.740000 15.180000 38.940000 150 115 88 0
3.960000 15.180000 38.940000 149 114 87 0
4.180000 15.180000 39.160000 148 113 86 0
4.400000 15.180000 39.160000 148 113 86 0
4.620000 15.180000 38.940000 149 113 86 0
4.840000 15.180000 39.160000 148 112 85 0
5.060000 15.180000 37.840000 146 111 84 0
5.280000 15.180000 38.940000 147 112 85 0
5.500000 15.180000 38.940000 147 112 85 0
5.720000 15.180000 38.940000 146 111 84 0
5.940000 15.180000 38.940000 146 111 84 0
6.160000 15.180000 38.940000 146 111 84 0
6.380000 15.180000 38.940000 156 101 75 0
6.600000 15.180000 38.940000 151 96 70 0
6.820000 15.180000 38.940000 148 90 63 0
7.040000 15.180000 38.940000 147 89 62 0
7.260000 15.180000 38.940000 149 87 61 0
7.480000 15.180000 38.940000 149 87 61 0
7.700000 15.180000 38.720000 151 89 63 0
7.920000 15.180000 38.940000 151 89 63 0
8.140000 15.180000 40.260000 152 91 65 0
8.360000 15.180000 40.260000 154 93 67 0
8.580000 15.180000 40.260000 157 96 72 0
8.800000 15.180000 40.260000 158 97 73 0
9.020000 15.180000 40.260000 160 97 74 0
9.240000 15.180000 40.260000 161 98 75 0
9.460000 15.180000 40.260000 161 96 71 0
9.680000 15.180000 40.260000 160 95 70 0
9.900000 15.180000 40.260000 158 96 70 0
10.120000 15.180000 40.260000 156 94 68 0
10.340000 15.180000 40.260000 158 93 66 0
10.560000 15.180000 40.260000 159 94 67 0
10.780000 15.180000 40.260000 159 94 69 0
11.000000 15.180000 40.260000 157 92 67 0
11.220000 15.180000 41.580000 158 91 67 0
11.440000 15.180000 41.580000 158 91 67 0
11.660000 15.180000 41.800000 157 91 62 0
11.880000 15.180000 41.800000 157 91 62 0
12.100000 15.180000 41.800000 157 89 61 0
12.320000 15.180000 41.800000 157 89 61 0
12.540000 15.180000 41.800000 160 88 59 0
12.760000 15.180000 41.800000 158 86 57 0
12.980000 15.180000 41.800000 158 83 55 0
13.200000 15.180000 41.800000 156 81 53 0
13.420000 15.180000 40.480000 156 80 51 0
13.640000 15.180000 40.480000 154 78 49 0
13.860000 15.180000 40.480000 153 75 48 0
14.080000 15.180000 40.480000 151 73 46 0
14.300000 15.180000 40.480000 151 73 45 0
14.520000 15.180000 40.480000 149 71 43 0
14.740000 15.180000 40.480000 148 70 42 0
14.960000 15.180000 40.480000 148 70 42 0
15.180000 15.180000 40.480000 147 69 41 0
15.400000 15.180000 40.480000 146 68 40 0
15.620000 15.180000 40.480000 146 68 41 0
15.840000 15.180000 40.480000 146 68 41 0
16.060000 15.180000 40.480000 149 68 42 0
16.280000 15.180000 40.480000 148 67 41 0
16.500000 15.180000 40.480000 146 65 39 0
16.720000 15.180000 40.480000 148 67 41 0
16.940000 15.180000 40.480000 146 66 38 0
17.160000 15.180000 40.480000 147 67 39 0
17.380000 15.180000 40.480000 148 67 41 0
17.600000 15.180000 40.480000 148 67 41 0
17.820000 15.180000 40.480000 147 66 40 0
18.040000 15.180000 40.480000 148 67 41 0
18.260000 15.180000 40.480000 148 67 41 0
18.480000 15.180000 40.480000 148 67 41 0
18.700000 15.180000 40.480000 148 68 40 0
18.920000 15.180000 40.480000 146 66 38 0
19.140000 15.180000 40.480000 145 63 37 0
19.360000 15.180000 40.480000 143 61 35 0
19.580000 15.180000 40.480000 142 59 36 0
19.800000 15.180000 40.480000 142 59 36 0
20.020000 15.180000 40.480000 141 59 33 0
20.240000 15.180000 40.480000 139 57 31 0
20.460000 15.180000 40.260000 138 56 30 0
20.680000 15.180000 40.260000 139 57 31 0
20.900000 15.180000 40.480000 136 53 30 0
21.120000 15.180000 40.480000 137 54 31 0
21.340000 15.180000 37.620000 138 55 32 0
21.560000 15.180000 36.080000 136 53 30 0
21.780000 15.180000 37.620000 138 55 32 0
22.000000 15.180000 40.480000 139 56 33 0
22.220000 15.180000 40.480000 139 56 33 0
22.440000 15.180000 39.160000 138 55 32 0
22.660000 15.180000 39.160000 137 54 31 0
22.880000 15.180000 40.480000 137 54 31 0
23.100000 15.180000 40.480000 138 55 32 0
23.320000 15.180000 40.480000 138 55 32 0
23.540000 15.180000 40.480000 138 56 30 0
23.760000 15.180000 40.480000 139 57 31 0
23.980000 15.180000 38.940000 140 57 34 0
24.200000 15.180000 38.940000 138 55 32 0
24.420000 15.180000 38.940000 137 54 31 0
24.640000 15.180000 38.940000 138 55 32 0
24.860000 15.180000 40.480000 138 56 30 0
25.080000 15.180000 40.480000 137 55 29 0
25.300000 15.180000 40.480000 138 56 30 0
25.520000 15.180000 40.480000 137 55 29 0
25.740000 15.180000 40.260000 138 55 32 0
25.960000 15.180000 40.480000 140 57 34 0
26.180000 15.180000 39.160000 139 56 33 0
26.400000 15.180000 39.160000 140 57 34 0
26.620000 15.180000 38.940000 140 58 32 0
26.840000 15.180000 37.840000 140 58 32 0
27.060000 15.180000 38.940000 141 59 33 0
27.280000 15.180000 37.400000 140 58 32 0
27.500000 15.180000 30.580000 140 58 32 0
27.720000 15.180000 27.940000 140 58 32 0
27.940000 15.180000 34.980000 139 58 32 0
28.160000 15.180000 40.700000 141 60 34 0
28.380000 15.180000 39.160000 140 66 36 0
28.600000 15.180000 37.840000 142 68 38 0
28.820000 15.180000 36.300000 140 73 41 0
29.040000 15.180000 33.660000 142 75 43 0
29.260000 15.180000 31.020000 142 76 45 0
29.480000 15.180000 30.800000 144 78 47 0
29.700000 15.180000 29.260000 145 79 48 0
29.920000 15.180000 27.940000 146 80 49 0
30.140000 15.180000 27.720000 146 81 48 0
30.360000 15.180000 27.720000 147 82 49 0
30.580000 15.180000 29.040000 148 83 50 0
30.800000 15.180000 30.580000 149 84 51 0
31.020000 15.180000 30.580000 148 84 52 0
31.240000 15.180000 30.580000 149 85 53 0
31.460000 15.180000 29.260000 148 84 52 0
31.680000 15.180000 27.940000 147 83 51 0
31.900000 15.180000 26.620000 148 83 50 0
32.120000 15.180000 23.760000 146 81 48 0
32.340000 15.180000 18.260000 145 78 46 0
32.560000 15.180000 12.760000 144 77 45 0
32.780000 15.180000 9.020000 144 77 43 0
33.000000 15.180000 6.380000 145 78 44 0
33.220000 15.180000 4.840000 146 79 47 0
33.440000 15.180000 3.520000 147 80 48 0
33.660000 15.180000 3.740000 146 81 48 0
33.880000 15.180000 5.060000 146 81 48 0
34.100000 15.180000 4.840000 146 79 47 0
34.320000 15.180000 4.840000 145 78 46 0
34.540000 15.180000 4.840000 144 80 48 0
34.760000 15.180000 6.160000 145 81 49 0
34.980000 15.180000 5.940000 140 89 55 0
35.200000 15.180000 5.940000 143 92 58 0
35.420000 15.180000 4.400000 134 104 65 0
35.640000 15.180000 8.580000 139 109 70 0
35.860000 15.180000 23.980000 138 113 70 0
36.080000 15.180000 35.200000 139 114 71 0
36.300000 15.180000 37.840000 139 115 72 0
36.520000 15.180000 36.080000 141 117 74 0
36.740000 15.180000 27.940000 142 117 74 0
36.960000 15.180000 15.620000 142 117 74 0
37.180000 15.180000 10.120000 143 118 75 0
0.000000 15.400000 37.840000 157 123 93 0
0.220000 15.400000 37.840000 158 122 93 0
0.440000 15.400000 39.160000 158 122 93 0
0.660000 15.400000 38.940000 157 121 94 0
0.880000 15.400000 38.940000 156 120 93 0
1.100000 15.400000 38.940000 156 120 93 0
1.320000 15.400000 37.840000 155 119 92 0
1.540000 15.400000 39.160000 154 120 90 0
1.760000 15.400000 38.940000 153 119 89 0
1.980000 15.400000 38.940000 152 117 90 0
2.200000 15.400000 38.940000 152 117 90 0
2.420000 15.400000 39.160000 153 117 90 0
2.640000 15.400000 38.940000 154 118 91 0
2.860000 15.400000 39.160000 153 117 90 0
3.080000 15.400000 37.840000 152 116 89 0
3.300000 15.400000 39.160000 152 116 89 0
3.520000 15.400000 39.160000 152 116 89 0
3.740000 15.400000 39.160000 150 115 88 0
3.960000 15.400000 39.160000 150 115 88 0
4.180000 15.400000 37.840000 150 115 88 0
4.400000 15.400000 37.840000 149 114 87 0
4.620000 15.400000 39.160000 150 114 87 0
4.840000 15.400000 39.160000 149 113 86 0
5.060000 15.400000 39.160000 147 112 85 0
5.280000 15.400000 38.940000 147 112 85 0
5.500000 15.400000 38.940000 148 113 86 0
5.720000 15.400000 38.940000 148 113 86 0
5.940000 15.400000 38.940000 147 112 85 0
6.160000 15.400000 38.940000 145 110 83 0
6.380000 15.400000 38.940000 156 101 75 0
6.600000 15.400000 38.940000 149 94 68 0
6.820000 15.400000 38.940000 147 89 62 0
7.040000 15.400000 38.940000 147 89 62 0
7.260000 15.400000 38.940000 148 86 60 0
7.480000 15.400000 38.940000 150 88 62 0
7.700000 15.400000 38.720000 150 88 62 0
7.920000 15.400000 38.940000 152 90 64 0
8.140000 15.400000 40.260000 151 90 64 0
8.360000 15.400000 40.260000 155 94 68 0
8.580000 15.400000 40.260000 158 97 73 0
8.800000 15.400000 40.260000 159 98 74 0
9.020000 15.400000 40.260000 161 98 75 0
9.240000 15.400000 40.260000 160 97 74 0
9.460000 15.400000 40.260000 161 96 71 0
9.680000 15.400000 40.260000 160 95 70 0
9.900000 15.400000 40.260000 157 95 69 0
10.120000 15.400000 40.260000 157 95 69 0
10.340000 15.400000 40.260000 159 94 67 0
10.560000 15.400000 40.260000 158 93 66 0
10.780000 15.400000 40.260000 157 92 67 0
11.000000 15.400000 40.260000 157 92 67 0
11.220000 15.400000 41.580000 159 92 68 0
11.440000 15.400000 41.580000 158 91 67 0
11.660000 15.400000 41.800000 158 92 63 0
11.880000 15.400000 41.800000 157 91 62 0
12.100000 15.400000 41.800000 157 89 61 0
12.320000 15.400000 41.800000 157 89 61 0
12.540000 15.400000 41.800000 158 86 57 0
12.760000 15.400000 41.800000 157 85 56 0
12.980000 15.400000 41.800000 157 82 54 0
13.200000 15.400000 41.800000 156 81 53 0
13.420000 15.400000 41.800000 156 80 51 0
13.640000 15.400000 40.480000 153 77 48 0
13.860000 15.400000 40.480000 153 75 48 0
14.080000 15.400000 40.480000 151 73 46 0
14.300000 15.400000 40.480000 151 73 45 0
14.520000 15.400000 40.480000 150 72 44 0
14.740000 15.400000 40.480000 148 70 42 0
14.960000 15.400000 40.480000 147 69 41 0
15.180000 15.400000 40.480000 146 68 40 0
15.400000 15.400000 40.480000 147 69 41 0
15.620000 15.400000 40.480000 146 68 41 0
15.840000 15.400000 40.480000 146 68 41 0
16.060000 15.400000 40.480000 147 66 40 0
16.280000 15.400000 40.480000 148 67 41 0
16.500000 15.400000 40.480000 147 66 40 0
16.720000 15.400000 40.480000 147 66 40 0
16.940000 15.400000 40.480000 147 67 39 0
17.160000 15.400000 40.480000 147 67 39 0
17.380000 15.400000 40.480000 148 67 41 0
17.600000 15.400000 39.160000 148 67 41 0
17.820000 15.400000 40.480000 149 68 42 0
18.040000 15.400000 40.480000 149 68 42 0
18.260000 15.400000 40.480000 148 67 41 0
18.480000 15.400000 40.480000 148 67 41 0
18.700000 15.400000 40.480000 147 67 39 0
18.920000 15.400000 40.480000 146 66 38 0
19.140000 15.400000 40.480000 144 62 36 0
19.360000 15.400000 39.160000 143 61 35 0
19.580000 15.400000 40.480000 142 59 36 0
19.800000 15.400000 40.480000 141 58 35 0
20.020000 15.400000 40.480000 140 58 32 0
20.240000 15.400000 40.480000 141 59 33 0
20.460000 15.400000 40.260000 140 58 32 0
20.680000 15.400000 40.480000 138 56 30 0
20.900000 15.400000 40.480000 138 55 32 0
21.120000 15.400000 40.480000 138 55 32 0
21.340000 15.400000 40.480000 137 54 31 0
21.560000 15.400000 40.260000 138 55 32 0
21.780000 15.400000 40.260000 139 56 33 0
22.000000 15.400000 40.480000 139 56 33 0
22.220000 15.400000 39.160000 139 56 33 0
22.440000 15.400000 39.160000 138 55 32 0
22.660000 15.400000 39.160000 136 53 30 0
22.880000 15.400000 39.160000 138 55 32 0
23.100000 15.400000 40.480000 137 54 31 0
23.320000 15.400000 39.160000 138 55 32 0
23.540000 15.400000 39.160000 139 57 31 0
23.760000 15.400000 39.160000 139 57 31 0
23.980000 15.400000 39.160000 137 54 31 0
24.200000 15.400000 39.160000 137 54 31 0
24.420000 15.400000 39.160000 137 54 31 0
24.640000 15.400000 39.160000 137 54 31 0
24.860000 15.400000 39.160000 138 56 30 0
