ply
format ascii 1.0
element vertex 1179
property float x
property float y
property float z
property uchar red
property uchar green
property uchar blue
property uchar alpha
end_header
21.340000 4.400000 0.440000 146 64 38 0
21.560000 4.400000 0.990000 147 65 39 0
21.780000 4.400000 2.310000 145 65 37 0
22.000000 4.400000 1.430000 145 65 37 0
22.220000 4.400000 2.200000 146 64 37 0
22.440000 4.400000 5.830000 143 61 34 0
22.660000 4.400000 4.510000 143 61 35 0
22.880000 4.400000 1.760000 144 62 36 0
23.100000 4.400000 5.940000 145 60 35 0
23.320000 4.400000 10.010000 146 61 36 0
23.540000 4.400000 6.490000 143 61 34 0
23.760000 4.400000 0.990000 143 61 34 0
24.860000 4.400000 2.200000 142 60 34 0
25.080000 4.400000 5.610000 142 60 34 0
25.300000 4.400000 5.610000 142 60 33 0
25.520000 4.400000 6.380000 142 60 33 0
25.740000 4.400000 4.950000 140 58 31 0
25.960000 4.400000 4.950000 140 58 31 0
26.180000 4.400000 7.920000 140 58 31 0
26.400000 4.400000 5.060000 141 59 32 0
26.620000 4.400000 2.860000 140 58 32 0
26.840000 4.400000 5.610000 140 58 32 0
27.060000 4.400000 11.330000 140 58 31 0
27.280000 4.400000 16.170000 140 58 31 0
27.500000 4.400000 14.080000 140 58 31 0
27.720000 4.400000 6.490000 140 58 31 0
27.940000 4.400000 3.630000 140 58 32 0
28.160000 4.400000 3.740000 140 58 32 0
28.380000 4.400000 3.630000 140 58 32 0
28.600000 4.400000 6.380000 141 59 33 0
28.820000 4.400000 7.700000 139 58 32 0
29.040000 4.400000 6.270000 139 58 32 0
29.260000 4.400000 2.860000 140 59 33 0
29.480000 4.400000 0.110000 140 59 33 0
29.700000 4.400000 0.110000 141 59 32 0
29.920000 4.400000 2.860000 140 58 31 0
30.140000 4.400000 4.950000 139 58 32 0
30.360000 4.400000 4.180000 141 60 34 0
30.580000 4.400000 2.860000 139 61 34 0
30.800000 4.400000 1.540000 141 63 36 0
31.020000 4.400000 1.540000 141 63 36 0
31.240000 4.400000 4.290000 141 63 36 0
31.460000 4.400000 3.630000 141 63 36 0
31.680000 4.400000 2.860000 141 63 36 0
31.900000 4.400000 2.970000 142 64 37 0
32.120000 4.400000 1.540000 141 63 36 0
32.340000 4.400000 0.220000 140 63 38 0
32.560000 4.400000 0.220000 142 65 40 0
32.780000 4.400000 0.220000 141 66 40 0
33.000000 4.400000 0.220000 143 68 42 0
33.220000 4.400000 0.330000 142 69 45 0
33.440000 4.400000 0.220000 144 71 47 0
33.660000 4.400000 0.220000 143 70 46 0
33.880000 4.400000 0.220000 143 70 46 0
34.100000 4.400000 0.220000 145 70 44 0
34.320000 4.400000 0.220000 146 71 45 0
34.540000 4.400000 0.220000 144 71 47 0
34.760000 4.400000 0.220000 145 72 48 0
34.980000 4.400000 0.990000 143 77 50 0
35.200000 4.400000 3.740000 145 79 52 0
35.420000 4.400000 7.150000 146 84 54 0
35.640000 4.400000 10.560000 147 85 55 0
35.860000 4.400000 7.150000 148 86 56 0
36.080000 4.400000 2.970000 150 88 58 0
36.300000 4.400000 3.630000 148 86 56 0
36.520000 4.400000 5.060000 147 85 55 0
36.740000 4.400000 4.400000 148 86 56 0
36.960000 4.400000 4.400000 148 86 56 0
37.180000 4.400000 5.060000 147 85 55 0
0.000000 4.620000 20.900000 160 135 110 0
0.220000 4.620000 20.900000 157 128 105 0
0.440000 4.620000 20.900000 155 126 103 0
0.660000 4.620000 20.900000 152 124 98 0
0.880000 4.620000 20.900000 150 122 96 0
1.100000 4.620000 20.900000 150 119 93 0
1.320000 4.620000 21.010000 149 118 92 0
1.540000 4.620000 21.010000 148 117 92 0
1.760000 4.620000 20.900000 146 115 90 0
1.980000 4.620000 21.010000 146 115 90 0
2.200000 4.620000 21.010000 145 114 89 0
2.420000 4.620000 21.010000 144 113 88 0
2.640000 4.620000 21.010000 144 113 88 0
2.860000 4.620000 21.010000 144 113 88 0
3.080000 4.620000 21.010000 143 112 87 0
3.300000 4.620000 21.010000 143 112 87 0
3.520000 4.620000 21.010000 143 112 87 0
3.740000 4.620000 21.010000 145 114 89 0
3.960000 4.620000 21.010000 145 114 89 0
4.180000 4.620000 21.010000 144 113 88 0
4.400000 4.620000 21.010000 144 113 88 0
4.620000 4.620000 21.010000 144 113 88 0
4.840000 4.620000 21.010000 143 112 87 0
5.060000 4.620000 20.350000 145 114 89 0
5.280000 4.620000 20.350000 144 113 88 0
5.500000 4.620000 20.350000 145 114 89 0
5.720000 4.620000 20.350000 145 114 89 0
5.940000 4.620000 20.350000 144 113 88 0
6.160000 4.620000 20.350000 142 111 86 0
6.380000 4.620000 21.010000 142 111 88 0
6.600000 4.620000 21.010000 141 110 87 0
6.820000 4.620000 20.350000 142 109 87 0
7.040000 4.620000 20.350000 142 109 87 0
7.260000 4.620000 21.010000 141 110 85 0
7.480000 4.620000 18.260000 141 110 85 0
7.700000 4.620000 15.400000 140 109 86 0
7.920000 4.620000 18.260000 140 109 86 0
8.140000 4.620000 21.010000 141 108 86 0
8.360000 4.620000 19.580000 139 106 84 0
8.580000 4.620000 16.830000 139 106 84 0
8.800000 4.620000 16.830000 139 106 84 0
9.020000 4.620000 14.080000 136 105 82 0
9.240000 4.620000 7.810000 137 106 83 0
9.460000 4.620000 9.240000 137 104 82 0
9.680000 4.620000 14.080000 137 104 82 0
9.900000 4.620000 11.330000 135 102 80 0
10.120000 4.620000 7.810000 135 102 80 0
10.340000 4.620000 9.130000 136 100 79 0
10.560000 4.620000 10.560000 136 100 79 0
10.780000 4.620000 14.080000 134 101 79 0
11.000000 4.620000 18.150000 132 99 77 0
11.220000 4.620000 18.150000 135 99 78 0
11.440000 4.620000 19.580000 134 98 77 0
11.660000 4.620000 19.580000 139 96 74 0
11.880000 4.620000 13.970000 138 95 73 0
12.100000 4.620000 10.560000 142 90 64 0
12.320000 4.620000 14.080000 139 87 61 0
12.540000 4.620000 19.690000 141 84 60 0
12.760000 4.620000 21.010000 141 84 60 0
12.980000 4.620000 21.010000 141 84 60 0
13.200000 4.620000 21.010000 142 85 61 0
13.420000 4.620000 21.010000 142 85 63 0
13.640000 4.620000 15.510000 144 87 65 0
13.860000 4.620000 4.510000 146 89 65 0
18.700000 4.620000 0.220000 152 81 56 0
18.920000 4.620000 0.220000 151 80 55 0
19.140000 4.620000 0.220000 150 79 54 0
19.360000 4.620000 0.110000 149 78 53 0
19.580000 4.620000 0.110000 148 76 49 0
19.800000 4.620000 0.220000 148 76 49 0
20.020000 4.620000 0.220000 150 73 48 0
20.240000 4.620000 0.220000 150 73 48 0
21.340000 4.620000 0.110000 146 64 37 0
21.560000 4.620000 2.310000 147 65 38 0
21.780000 4.620000 4.950000 146 64 37 0
22.000000 4.620000 2.860000 145 63 36 0
22.220000 4.620000 2.310000 145 63 36 0
22.440000 4.620000 8.690000 143 61 34 0
22.660000 4.620000 10.120000 144 62 35 0
22.880000 4.620000 5.940000 143 61 34 0
23.100000 4.620000 10.010000 145 60 34 0
23.320000 4.620000 15.620000 145 60 34 0
23.540000 4.620000 10.010000 142 60 33 0
23.760000 4.620000 2.310000 142 60 33 0
24.640000 4.620000 0.880000 142 60 33 0
24.860000 4.620000 4.950000 141 59 32 0
25.080000 4.620000 6.380000 141 59 32 0
25.300000 4.620000 3.630000 142 60 33 0
25.520000 4.620000 4.950000 141 59 32 0
25.740000 4.620000 6.380000 141 59 32 0
25.960000 4.620000 6.380000 140 58 31 0
26.180000 4.620000 7.150000 141 59 33 0
26.400000 4.620000 5.830000 141 59 33 0
26.620000 4.620000 6.380000 139 57 31 0
26.840000 4.620000 10.450000 139 57 31 0
27.060000 4.620000 12.650000 140 58 31 0
27.280000 4.620000 12.650000 139 57 30 0
27.500000 4.620000 12.650000 140 58 31 0
27.720000 4.620000 10.560000 140 58 31 0
27.940000 4.620000 9.130000 140 58 31 0
28.160000 4.620000 7.150000 139 57 30 0
28.380000 4.620000 3.630000 140 58 32 0
28.600000 4.620000 4.950000 140 58 32 0
28.820000 4.620000 9.130000 139 58 32 0
29.040000 4.620000 7.700000 139 58 32 0
29.260000 4.620000 2.200000 139 58 32 0
29.920000 4.620000 2.200000 141 60 34 0
30.140000 4.620000 6.270000 140 59 33 0
30.360000 4.620000 7.700000 140 59 33 0
30.580000 4.620000 7.040000 141 60 34 0
30.800000 4.620000 4.180000 142 61 35 0
31.020000 4.620000 6.270000 140 62 35 0
31.240000 4.620000 9.130000 141 63 36 0
31.460000 4.620000 4.290000 141 63 38 0
31.680000 4.620000 0.110000 141 63 38 0
31.900000 4.620000 0.220000 141 63 36 0
32.120000 4.620000 0.880000 141 63 36 0
32.340000 4.620000 0.880000 141 63 38 0
32.560000 4.620000 0.220000 142 64 39 0
32.780000 4.620000 0.220000 142 65 40 0
33.000000 4.620000 0.220000 144 67 42 0
33.220000 4.620000 0.330000 145 68 43 0
33.440000 4.620000 0.330000 145 68 43 0
33.660000 4.620000 0.220000 146 69 44 0
33.880000 4.620000 0.220000 145 68 43 0
34.100000 4.620000 0.880000 144 67 42 0
34.320000 4.620000 0.880000 144 67 42 0
34.540000 4.620000 2.310000 142 72 44 0
34.760000 4.620000 4.290000 143 73 45 0
34.980000 4.620000 7.810000 143 79 49 0
35.200000 4.620000 9.900000 146 82 52 0
35.420000 4.620000 8.470000 147 83 53 0
35.640000 4.620000 6.380000 150 86 56 0
35.860000 4.620000 4.290000 148 86 56 0
36.080000 4.620000 3.630000 148 86 56 0
36.300000 4.620000 5.060000 149 85 53 0
36.520000 4.620000 5.060000 149 85 53 0
36.740000 4.620000 5.060000 150 86 54 0
36.960000 4.620000 5.060000 149 85 53 0
37.180000 4.620000 5.720000 147 86 53 0
0.000000 4.840000 20.900000 158 133 108 0
0.220000 4.840000 20.900000 156 127 104 0
0.440000 4.840000 20.900000 154 125 102 0
0.660000 4.840000 20.900000 153 125 99 0
0.880000 4.840000 20.900000 151 123 97 0
1.100000 4.840000 20.900000 150 119 93 0
1.320000 4.840000 20.900000 149 118 92 0
1.540000 4.840000 20.900000 148 117 92 0
1.760000 4.840000 20.900000 147 116 91 0
1.980000 4.840000 20.900000 144 113 88 0
2.200000 4.840000 21.010000 146 115 90 0
2.420000 4.840000 21.010000 144 113 88 0
2.640000 4.840000 21.010000 143 112 87 0
2.860000 4.840000 21.010000 143 112 87 0
3.080000 4.840000 21.010000 143 112 87 0
3.300000 4.840000 21.010000 143 112 87 0
3.520000 4.840000 21.010000 143 112 87 0
3.740000 4.840000 21.010000 144 113 88 0
3.960000 4.840000 21.010000 144 113 88 0
4.180000 4.840000 21.010000 145 114 89 0
4.400000 4.840000 21.010000 146 115 90 0
4.620000 4.840000 21.010000 145 114 89 0
4.840000 4.840000 21.010000 144 113 88 0
5.060000 4.840000 20.350000 144 113 88 0
5.280000 4.840000 20.350000 144 113 88 0
5.500000 4.840000 20.240000 144 113 88 0
5.720000 4.840000 20.350000 145 114 89 0
5.940000 4.840000 20.350000 144 113 88 0
6.160000 4.840000 20.350000 143 112 87 0
6.380000 4.840000 21.010000 143 112 89 0
6.600000 4.840000 21.010000 142 111 88 0
6.820000 4.840000 20.350000 143 110 88 0
7.040000 4.840000 20.350000 142 109 87 0
7.260000 4.840000 20.900000 141 110 85 0
7.480000 4.840000 19.580000 141 110 85 0
7.700000 4.840000 18.260000 141 110 87 0
7.920000 4.840000 19.580000 140 109 86 0
8.140000 4.840000 20.900000 141 108 86 0
8.360000 4.840000 18.260000 139 106 84 0
8.580000 4.840000 15.510000 139 106 84 0
8.800000 4.840000 18.260000 138 105 83 0
9.020000 4.840000 15.510000 137 106 83 0
9.240000 4.840000 8.580000 136 105 82 0
9.460000 4.840000 9.240000 136 103 81 0
9.680000 4.840000 11.330000 136 103 81 0
9.900000 4.840000 12.760000 135 102 80 0
10.120000 4.840000 9.900000 135 102 80 0
10.340000 4.840000 9.900000 137 101 80 0
10.560000 4.840000 14.080000 136 100 79 0
10.780000 4.840000 16.830000 134 101 79 0
11.000000 4.840000 19.470000 133 100 78 0
11.220000 4.840000 19.470000 134 98 77 0
11.440000 4.840000 18.150000 134 98 77 0
11.660000 4.840000 19.580000 138 95 73 0
11.880000 4.840000 18.150000 136 93 71 0
12.100000 4.840000 15.510000 141 89 63 0
12.320000 4.840000 18.260000 139 87 61 0
12.540000 4.840000 20.350000 141 84 60 0
12.760000 4.840000 21.010000 142 85 61 0
12.980000 4.840000 21.010000 142 85 61 0
13.200000 4.840000 20.350000 143 86 62 0
13.420000 4.840000 21.010000 144 87 65 0
13.640000 4.840000 15.510000 146 89 67 0
13.860000 4.840000 4.510000 148 91 67 0
18.700000 4.840000 0.220000 152 81 56 0
18.920000 4.840000 0.110000 150 79 54 0
19.140000 4.840000 0.110000 150 79 54 0
19.360000 4.840000 0.110000 149 78 53 0
19.580000 4.840000 0.110000 149 77 50 0
19.800000 4.840000 0.110000 147 75 48 0
20.020000 4.840000 0.110000 149 72 47 0
20.240000 4.840000 0.110000 148 71 46 0
20.900000 4.840000 0.110000 147 67 39 0
21.120000 4.840000 0.110000 146 66 38 0
21.340000 4.840000 0.110000 146 64 37 0
21.560000 4.840000 0.880000 146 64 37 0
21.780000 4.840000 3.740000 145 63 36 0
22.000000 4.840000 5.060000 145 63 36 0
22.220000 4.840000 5.830000 143 61 34 0
22.440000 4.840000 11.440000 143 61 34 0
22.660000 4.840000 14.080000 142 60 33 0
22.880000 4.840000 8.580000 142 60 33 0
23.100000 4.840000 7.810000 144 59 33 0
23.320000 4.840000 10.560000 144 59 33 0
23.540000 4.840000 6.490000 141 59 32 0
23.760000 4.840000 2.200000 141 59 32 0
23.980000 4.840000 3.630000 141 59 32 0
24.200000 4.840000 3.630000 141 59 32 0
24.420000 4.840000 1.430000 142 60 33 0
24.640000 4.840000 2.750000 141 59 32 0
24.860000 4.840000 6.380000 141 59 32 0
25.080000 4.840000 5.060000 141 59 32 0
25.300000 4.840000 0.880000 141 59 32 0
25.520000 4.840000 0.880000 140 58 31 0
25.740000 4.840000 2.200000 141 59 32 0
25.960000 4.840000 2.200000 140 58 31 0
26.180000 4.840000 2.310000 140 58 32 0
26.400000 4.840000 2.420000 141 59 33 0
26.620000 4.840000 6.380000 139 57 31 0
26.840000 4.840000 14.630000 139 57 31 0
27.060000 4.840000 14.630000 139 57 30 0
27.280000 4.840000 9.130000 140 58 31 0
27.500000 4.840000 10.450000 139 57 30 0
27.720000 4.840000 10.450000 139 57 30 0
27.940000 4.840000 6.270000 140 58 31 0
28.160000 4.840000 4.950000 139 57 30 0
28.380000 4.840000 3.520000 140 58 32 0
28.600000 4.840000 4.180000 140 58 32 0
28.820000 4.840000 6.270000 139 58 32 0
29.040000 4.840000 4.950000 139 58 32 0
29.260000 4.840000 0.880000 139 58 32 0
29.480000 4.840000 0.880000 139 58 32 0
29.700000 4.840000 2.200000 140 59 33 0
29.920000 4.840000 3.520000 141 60 34 0
30.140000 4.840000 7.700000 142 61 35 0
30.360000 4.840000 9.130000 141 60 34 0
30.580000 4.840000 5.720000 141 60 34 0
30.800000 4.840000 4.180000 142 61 35 0
31.020000 4.840000 10.450000 140 62 35 0
31.240000 4.840000 13.200000 141 63 36 0
31.460000 4.840000 5.610000 141 63 38 0
31.680000 4.840000 0.770000 141 63 38 0
31.900000 4.840000 0.880000 142 64 37 0
32.120000 4.840000 1.430000 142 64 37 0
32.340000 4.840000 0.770000 142 64 39 0
32.560000 4.840000 0.220000 142 64 39 0
32.780000 4.840000 0.220000 142 65 40 0
33.000000 4.840000 0.880000 143 66 41 0
33.220000 4.840000 0.990000 144 67 42 0
33.440000 4.840000 0.220000 144 67 42 0
33.660000 4.840000 0.220000 145 68 43 0
33.880000 4.840000 0.880000 144 67 42 0
34.100000 4.840000 1.650000 143 66 41 0
34.320000 4.840000 1.540000 145 68 43 0
34.540000 4.840000 3.520000 142 72 44 0
34.760000 4.840000 9.130000 145 75 47 0
34.980000 4.840000 15.290000 145 81 51 0
35.200000 4.840000 16.060000 147 83 53 0
35.420000 4.840000 12.650000 148 84 54 0
35.640000 4.840000 7.810000 150 86 56 0
35.860000 4.840000 5.720000 149 87 57 0
36.080000 4.840000 5.720000 147 85 55 0
36.300000 4.840000 6.380000 149 85 53 0
36.520000 4.840000 5.720000 149 85 53 0
36.740000 4.840000 5.720000 149 85 53 0
36.960000 4.840000 5.720000 150 86 54 0
37.180000 4.840000 5.720000 147 86 53 0
0.000000 5.060000 20.900000 157 132 107 0
0.220000 5.060000 20.900000 157 129 103 0
0.440000 5.060000 20.900000 154 126 100 0
0.660000 5.060000 20.900000 153 125 99 0
0.880000 5.060000 20.900000 149 121 95 0
1.100000 5.060000 20.900000 147 119 93 0
1.320000 5.060000 20.900000 146 118 92 0
1.540000 5.060000 20.900000 147 116 91 0
1.760000 5.060000 20.900000 147 116 91 0
1.980000 5.060000 20.900000 146 115 90 0
2.200000 5.060000 20.900000 145 114 89 0
2.420000 5.060000 20.900000 145 114 89 0
2.640000 5.060000 21.010000 144 113 88 0
2.860000 5.060000 21.010000 144 113 88 0
3.080000 5.060000 21.010000 143 112 87 0
3.300000 5.060000 21.010000 143 112 87 0
3.520000 5.060000 21.010000 144 113 88 0
3.740000 5.060000 21.010000 144 113 88 0
3.960000 5.060000 21.010000 145 114 89 0
4.180000 5.060000 20.900000 144 113 88 0
4.400000 5.060000 21.010000 145 114 89 0
4.620000 5.060000 21.010000 146 115 90 0
4.840000 5.060000 21.010000 144 113 88 0
5.060000 5.060000 21.010000 145 114 89 0
5.280000 5.060000 21.010000 145 114 89 0
5.500000 5.060000 20.240000 146 113 89 0
5.720000 5.060000 20.240000 145 112 88 0
5.940000 5.060000 20.240000 144 113 88 0
6.160000 5.060000 21.010000 144 113 88 0
6.380000 5.060000 21.010000 143 112 87 0
6.600000 5.060000 21.010000 143 112 87 0
6.820000 5.060000 20.350000 143 112 87 0
7.040000 5.060000 20.900000 142 111 86 0
7.260000 5.060000 20.900000 143 110 86 0
7.480000 5.060000 20.900000 142 109 85 0
7.700000 5.060000 21.010000 141 110 87 0
7.920000 5.060000 20.240000 139 108 85 0
8.140000 5.060000 20.900000 139 108 85 0
8.360000 5.060000 19.580000 138 107 84 0
8.580000 5.060000 18.260000 139 106 84 0
8.800000 5.060000 18.920000 139 106 84 0
9.020000 5.060000 16.830000 138 105 83 0
9.240000 5.060000 11.220000 138 105 83 0
9.460000 5.060000 9.130000 137 104 82 0
9.680000 5.060000 7.920000 136 103 81 0
9.900000 5.060000 11.330000 135 102 80 0
10.120000 5.060000 15.510000 135 102 80 0
10.340000 5.060000 16.830000 136 100 79 0
10.560000 5.060000 15.400000 136 100 79 0
10.780000 5.060000 12.650000 135 99 78 0
11.000000 5.060000 16.720000 135 99 78 0
11.220000 5.060000 18.150000 136 99 76 0
11.440000 5.060000 13.970000 134 97 74 0
11.660000 5.060000 15.400000 146 91 68 0
11.880000 5.060000 16.830000 144 89 66 0
12.100000 5.060000 15.510000 145 87 62 0
12.320000 5.060000 18.260000 142 84 59 0
12.540000 5.060000 20.350000 143 84 61 0
12.760000 5.060000 21.010000 143 84 61 0
12.980000 5.060000 21.010000 144 85 62 0
13.200000 5.060000 20.350000 144 85 62 0
13.420000 5.060000 19.690000 147 88 65 0
13.640000 5.060000 12.760000 148 89 66 0
13.860000 5.060000 3.080000 150 89 65 0
18.700000 5.060000 0.220000 152 80 53 0
18.920000 5.060000 0.110000 151 79 52 0
19.140000 5.060000 0.110000 152 77 51 0
19.360000 5.060000 0.110000 152 77 51 0
19.580000 5.060000 0.110000 151 74 49 0
19.800000 5.060000 0.110000 150 73 48 0
20.020000 5.060000 0.110000 150 72 47 0
20.240000 5.060000 0.110000 149 71 46 0
20.460000 5.060000 0.110000 149 68 42 0
20.680000 5.060000 0.220000 148 67 41 0
21.120000 5.060000 1.540000 145 64 38 0
21.340000 5.060000 2.200000 144 63 37 0
21.560000 5.060000 0.990000 144 63 37 0
21.780000 5.060000 2.420000 144 62 36 0
22.000000 5.060000 7.810000 144 62 36 0
22.220000 5.060000 8.580000 143 61 35 0
22.440000 5.060000 10.010000 143 61 35 0
22.660000 5.060000 14.080000 143 61 35 0
22.880000 5.060000 10.560000 143 61 35 0
23.100000 5.060000 3.630000 142 60 34 0
23.320000 5.060000 2.310000 142 60 34 0
23.540000 5.060000 2.310000 141 59 33 0
23.760000 5.060000 5.610000 141 59 33 0
23.980000 5.060000 10.450000 141 59 33 0
24.200000 5.060000 11.880000 140 58 32 0
24.420000 5.060000 6.270000 140 58 32 0
24.640000 5.060000 2.860000 141 59 33 0
24.860000 5.060000 2.200000 141 59 33 0
25.080000 5.060000 2.310000 141 59 33 0
25.300000 5.060000 2.200000 141 59 33 0
25.520000 5.060000 1.430000 140 58 32 0
25.740000 5.060000 1.540000 141 59 33 0
25.960000 5.060000 2.310000 140 58 32 0
26.180000 5.060000 0.990000 139 57 31 0
26.620000 5.060000 3.630000 140 58 32 0
26.840000 5.060000 11.880000 140 58 32 0
27.060000 5.060000 11.880000 138 56 30 0
27.280000 5.060000 4.950000 139 57 31 0
27.500000 5.060000 5.610000 139 57 31 0
27.720000 5.060000 7.040000 139 57 31 0
27.940000 5.060000 2.860000 140 58 32 0
28.160000 5.060000 2.860000 139 57 31 0
28.380000 5.060000 5.610000 140 58 32 0
28.600000 5.060000 5.610000 141 59 33 0
28.820000 5.060000 6.930000 140 59 33 0
29.040000 5.060000 4.950000 139 58 32 0
29.260000 5.060000 0.880000 141 59 33 0
29.480000 5.060000 2.860000 141 59 33 0
29.700000 5.060000 4.950000 140 59 33 0
29.920000 5.060000 3.630000 141 60 34 0
30.140000 5.060000 3.630000 141 60 34 0
30.360000 5.060000 3.740000 141 60 34 0
30.580000 5.060000 0.990000 142 61 35 0
30.800000 5.060000 1.540000 141 60 34 0
31.020000 5.060000 7.040000 141 60 34 0
31.240000 5.060000 9.130000 143 62 36 0
31.460000 5.060000 4.290000 141 63 38 0
31.680000 5.060000 0.770000 141 63 38 0
31.900000 5.060000 0.770000 143 65 40 0
32.120000 5.060000 1.430000 143 65 40 0
32.340000 5.060000 0.770000 142 64 37 0
32.560000 5.060000 0.880000 143 65 38 0
32.780000 5.060000 0.220000 146 65 39 0
33.000000 5.060000 0.880000 145 64 38 0
33.220000 5.060000 0.770000 143 65 40 0
33.440000 5.060000 0.770000 143 65 40 0
33.660000 5.060000 0.770000 144 66 41 0
33.880000 5.060000 0.880000 144 66 41 0
34.100000 5.060000 0.880000 144 67 42 0
34.320000 5.060000 0.770000 146 69 44 0
34.540000 5.060000 2.860000 141 74 43 0
34.760000 5.060000 9.790000 143 76 45 0
34.980000 5.060000 17.380000 145 81 49 0
35.200000 5.060000 16.060000 147 83 51 0
35.420000 5.060000 8.470000 148 86 56 0
35.640000 5.060000 4.950000 148 86 56 0
35.860000 5.060000 6.380000 149 87 57 0
36.080000 5.060000 7.040000 148 86 56 0
36.300000 5.060000 7.040000 146 84 54 0
36.520000 5.060000 6.380000 147 85 55 0
36.740000 5.060000 6.380000 148 84 52 0
36.960000 5.060000 6.380000 149 85 53 0
37.180000 5.060000 5.720000 148 86 56 0
0.000000 5.280000 20.900000 155 130 105 0
0.220000 5.280000 20.900000 155 127 101 0
0.440000 5.280000 20.900000 153 125 99 0
0.660000 5.280000 20.900000 150 122 96 0
0.880000 5.280000 20.900000 148 120 94 0
1.100000 5.280000 20.900000 147 119 93 0
1.320000 5.280000 20.900000 145 117 91 0
1.540000 5.280000 20.900000 146 115 90 0
1.760000 5.280000 20.900000 146 115 90 0
1.980000 5.280000 20.900000 146 115 90 0
2.200000 5.280000 20.900000 145 114 89 0
2.420000 5.280000 20.900000 145 114 89 0
2.640000 5.280000 20.900000 144 113 88 0
2.860000 5.280000 20.900000 145 114 89 0
3.080000 5.280000 20.900000 144 113 88 0
3.300000 5.280000 21.010000 143 112 87 0
3.520000 5.280000 21.010000 143 112 87 0
3.740000 5.280000 21.010000 144 113 88 0
3.960000 5.280000 20.900000 144 113 88 0
4.180000 5.280000 20.900000 145 114 89 0
4.400000 5.280000 20.900000 146 115 90 0
4.620000 5.280000 20.900000 145 114 89 0
4.840000 5.280000 20.900000 145 114 89 0
5.060000 5.280000 21.010000 146 115 90 0
5.280000 5.280000 20.240000 145 114 89 0
5.500000 5.280000 20.350000 146 113 89 0
5.720000 5.280000 20.240000 145 112 88 0
5.940000 5.280000 20.900000 145 114 89 0
6.160000 5.280000 20.900000 144 113 88 0
6.380000 5.280000 20.350000 143 112 87 0
6.600000 5.280000 20.350000 143 112 87 0
6.820000 5.280000 20.240000 143 112 87 0
7.040000 5.280000 20.900000 142 111 86 0
7.260000 5.280000 20.900000 143 110 86 0
7.480000 5.280000 20.900000 143 110 86 0
7.700000 5.280000 20.900000 140 109 86 0
7.920000 5.280000 20.350000 140 109 86 0
8.140000 5.280000 20.240000 138 107 84 0
8.360000 5.280000 20.240000 138 107 84 0
8.580000 5.280000 21.010000 140 107 85 0
8.800000 5.280000 20.900000 138 105 83 0
9.020000 5.280000 19.470000 138 105 83 0
9.240000 5.280000 15.400000 138 105 83 0
9.460000 5.280000 10.560000 136 103 81 0
9.680000 5.280000 7.150000 137 104 82 0
9.900000 5.280000 11.330000 136 103 81 0
10.120000 5.280000 18.150000 135 102 80 0
10.340000 5.280000 19.470000 136 100 79 0
10.560000 5.280000 14.630000 135 99 78 0
10.780000 5.280000 11.880000 134 98 77 0
11.000000 5.280000 15.400000 135 99 78 0
11.220000 5.280000 16.830000 135 98 75 0
11.440000 5.280000 14.080000 135 98 75 0
11.660000 5.280000 14.080000 145 90 67 0
11.880000 5.280000 16.830000 143 88 65 0
12.100000 5.280000 18.260000 143 85 60 0
12.320000 5.280000 19.690000 143 85 60 0
12.540000 5.280000 21.010000 142 83 60 0
12.760000 5.280000 21.010000 143 84 61 0
12.980000 5.280000 21.010000 144 85 62 0
13.200000 5.280000 19.690000 146 87 64 0
13.420000 5.280000 14.190000 147 88 65 0
13.640000 5.280000 5.830000 149 90 67 0
13.860000 5.280000 1.100000 152 91 67 0
18.480000 5.280000 0.220000 152 80 53 0
18.700000 5.280000 0.110000 151 79 52 0
18.920000 5.280000 0.770000 150 78 51 0
19.140000 5.280000 0.770000 151 76 50 0
19.360000 5.280000 0.770000 150 75 49 0
19.580000 5.280000 0.770000 149 72 47 0
19.800000 5.280000 0.110000 148 71 46 0
20.020000 5.280000 0.110000 149 71 46 0
20.240000 5.280000 0.110000 148 70 45 0
20.460000 5.280000 0.110000 148 67 41 0
20.680000 5.280000 0.110000 147 66 40 0
20.900000 5.280000 0.220000 146 65 39 0
21.120000 5.280000 2.200000 145 64 38 0
21.340000 5.280000 6.270000 145 64 38 0
21.560000 5.280000 4.950000 143 62 36 0
21.780000 5.280000 2.200000 144 62 36 0
22.000000 5.280000 3.630000 144 62 36 0
22.220000 5.280000 3.630000 143 61 35 0
22.440000 5.280000 5.060000 142 60 34 0
22.660000 5.280000 9.240000 142 60 34 0
22.880000 5.280000 6.380000 142 60 34 0
23.100000 5.280000 0.880000 142 60 34 0
23.540000 5.280000 2.310000 141 59 33 0
23.760000 5.280000 6.380000 141 59 33 0
23.980000 5.280000 10.450000 140 58 32 0
24.200000 5.280000 15.950000 139 57 31 0
24.420000 5.280000 14.630000 139 57 31 0
24.640000 5.280000 6.380000 140 58 32 0
24.860000 5.280000 0.880000 141 59 33 0
25.080000 5.280000 4.290000 140 58 32 0
25.300000 5.280000 7.700000 141 59 33 0
25.520000 5.280000 4.180000 140 58 32 0
25.740000 5.280000 2.860000 139 57 31 0
25.960000 5.280000 6.380000 139 57 31 0
26.180000 5.280000 5.060000 139 57 31 0
26.400000 5.280000 2.200000 140 58 32 0
26.620000 5.280000 3.520000 140 58 32 0
26.840000 5.280000 4.950000 140 58 32 0
27.060000 5.280000 4.950000 139 57 31 0
27.280000 5.280000 4.950000 139 57 31 0
27.500000 5.280000 6.380000 138 56 30 0
27.720000 5.280000 7.700000 138 56 30 0
27.940000 5.280000 4.950000 140 58 32 0
28.160000 5.280000 2.860000 140 58 32 0
28.380000 5.280000 2.860000 140 58 32 0
28.600000 5.280000 2.860000 141 59 33 0
28.820000 5.280000 5.610000 140 59 33 0
29.040000 5.280000 6.380000 140 59 33 0
29.260000 5.280000 2.200000 141 59 33 0
29.480000 5.280000 1.540000 142 60 34 0
29.700000 5.280000 2.860000 141 60 34 0
29.920000 5.280000 1.540000 142 61 35 0
30.140000 5.280000 0.220000 141 60 34 0
30.360000 5.280000 0.880000 141 60 34 0
30.580000 5.280000 2.310000 141 60 34 0
30.800000 5.280000 1.540000 142 61 35 0
31.020000 5.280000 1.430000 142 61 35 0
31.240000 5.280000 2.860000 141 60 34 0
31.460000 5.280000 1.430000 141 63 38 0
31.680000 5.280000 0.110000 143 65 40 0
31.900000 5.280000 0.110000 143 65 40 0
32.120000 5.280000 0.880000 143 65 40 0
32.340000 5.280000 0.880000 143 65 38 0
32.560000 5.280000 0.770000 143 65 38 0
32.780000 5.280000 0.110000 145 64 38 0
33.000000 5.280000 0.220000 144 63 37 0
33.220000 5.280000 0.220000 143 65 40 0
33.440000 5.280000 0.770000 143 65 40 0
33.660000 5.280000 0.770000 142 64 39 0
33.880000 5.280000 1.430000 144 66 41 0
34.100000 5.280000 0.770000 144 67 42 0
34.320000 5.280000 1.430000 146 69 44 0
34.540000 5.280000 6.380000 142 75 44 0
34.760000 5.280000 13.310000 145 78 47 0
34.980000 5.280000 16.720000 145 81 49 0
35.200000 5.280000 11.880000 148 84 52 0
35.420000 5.280000 4.290000 147 85 55 0
35.640000 5.280000 2.970000 148 86 56 0
35.860000 5.280000 6.380000 148 86 56 0
36.080000 5.280000 7.700000 147 85 55 0
36.300000 5.280000 7.040000 145 83 53 0
36.520000 5.280000 6.380000 146 84 54 0
36.740000 5.280000 6.380000 148 84 52 0
36.960000 5.280000 6.380000 148 84 52 0
37.180000 5.280000 6.380000 148 86 56 0
0.000000 5.500000 20.900000 155 129 102 0
0.220000 5.500000 20.900000 154 125 102 0
0.440000 5.500000 20.900000 151 122 99 0
0.660000 5.500000 20.900000 150 122 96 0
0.880000 5.500000 20.900000 147 119 93 0
1.100000 5.500000 20.900000 148 117 92 0
1.320000 5.500000 20.900000 147 116 91 0
1.540000 5.500000 20.900000 146 115 90 0
1.760000 5.500000 20.900000 146 115 90 0
1.980000 5.500000 20.900000 146 115 90 0
2.200000 5.500000 20.900000 145 114 89 0
2.420000 5.500000 20.900000 145 114 89 0
2.640000 5.500000 20.900000 145 114 89 0
2.860000 5.500000 20.900000 144 113 88 0
3.080000 5.500000 20.900000 144 113 88 0
3.300000 5.500000 20.900000 143 112 87 0
3.520000 5.500000 20.900000 144 113 88 0
3.740000 5.500000 20.900000 145 114 89 0
3.960000 5.500000 20.900000 145 114 89 0
4.180000 5.500000 20.900000 144 113 88 0
4.400000 5.500000 20.900000 145 114 89 0
4.620000 5.500000 20.900000 146 115 90 0
4.840000 5.500000 20.900000 146 115 90 0
5.060000 5.500000 21.010000 146 115 90 0
5.280000 5.500000 20.350000 144 113 88 0
5.500000 5.500000 20.350000 144 113 88 0
5.720000 5.500000 20.240000 145 114 89 0
5.940000 5.500000 20.900000 144 113 88 0
6.160000 5.500000 20.240000 143 112 87 0
6.380000 5.500000 20.350000 143 112 87 0
6.600000 5.500000 20.350000 143 112 87 0
6.820000 5.500000 20.240000 142 111 86 0
7.040000 5.500000 20.900000 142 111 86 0
7.260000 5.500000 20.900000 141 110 85 0
7.480000 5.500000 20.900000 141 110 85 0
7.700000 5.500000 20.900000 141 108 86 0
7.920000 5.500000 20.350000 140 107 85 0
8.140000 5.500000 20.350000 139 108 85 0
8.360000 5.500000 20.350000 139 108 85 0
8.580000 5.500000 20.240000 139 106 84 0
8.800000 5.500000 20.900000 139 106 84 0
9.020000 5.500000 20.900000 137 106 83 0
9.240000 5.500000 19.580000 135 104 81 0
9.460000 5.500000 16.830000 137 104 82 0
9.680000 5.500000 15.510000 136 103 81 0
9.900000 5.500000 16.830000 136 103 81 0
10.120000 5.500000 19.470000 134 101 79 0
10.340000 5.500000 18.810000 134 101 79 0
10.560000 5.500000 13.200000 135 102 80 0
10.780000 5.500000 13.310000 135 99 78 0
11.000000 5.500000 15.400000 134 98 77 0
11.220000 5.500000 15.400000 141 94 71 0
11.440000 5.500000 16.830000 140 93 70 0
11.660000 5.500000 18.150000 145 88 64 0
11.880000 5.500000 19.580000 142 85 61 0
12.100000 5.500000 21.010000 142 85 61 0
12.320000 5.500000 21.010000 141 84 60 0
12.540000 5.500000 21.010000 142 85 61 0
12.760000 5.500000 21.010000 143 86 62 0
12.980000 5.500000 21.010000 145 88 64 0
13.200000 5.500000 16.940000 146 89 65 0
13.420000 5.500000 7.260000 148 89 66 0
13.640000 5.500000 0.990000 149 90 67 0
18.480000 5.500000 0.110000 151 78 54 0
18.700000 5.500000 0.660000 150 77 53 0
18.920000 5.500000 0.770000 149 76 52 0
19.140000 5.500000 0.770000 151 74 49 0
19.360000 5.500000 0.770000 150 73 48 0
19.580000 5.500000 0.770000 150 72 45 0
19.800000 5.500000 0.110000 149 71 44 0
20.020000 5.500000 0.110000 148 67 41 0
20.240000 5.500000 0.110000 148 67 41 0
20.460000 5.500000 0.110000 147 66 42 0
20.680000 5.500000 0.110000 147 66 42 0
20.900000 5.500000 0.110000 147 65 39 0
21.120000 5.500000 1.540000 145 63 37 0
21.340000 5.500000 5.610000 145 63 37 0
21.560000 5.500000 7.700000 143 61 35 0
21.780000 5.500000 4.950000 144 62 36 0
22.000000 5.500000 1.430000 144 62 36 0
22.220000 5.500000 0.110000 143 60 37 0
22.440000 5.500000 2.200000 142 59 36 0
22.660000 5.500000 5.060000 144 59 34 0
22.880000 5.500000 2.200000 142 57 32 0
23.100000 5.500000 1.540000 142 57 32 0
23.320000 5.500000 2.200000 142 57 32 0
23.540000 5.500000 2.200000 142 57 32 0
23.760000 5.500000 2.310000 141 56 31 0
23.980000 5.500000 5.060000 140 58 32 0
24.200000 5.500000 13.310000 139 57 31 0
24.420000 5.500000 18.150000 142 57 32 0
24.640000 5.500000 12.650000 143 58 33 0
24.860000 5.500000 5.060000 143 58 33 0
25.080000 5.500000 7.700000 142 57 32 0
25.300000 5.500000 13.200000 143 58 33 0
25.520000 5.500000 7.700000 142 57 32 0
25.740000 5.500000 2.860000 140 58 32 0
25.960000 5.500000 5.720000 139 57 31 0
26.180000 5.500000 6.380000 139 57 31 0
26.400000 5.500000 5.610000 138 56 30 0
26.620000 5.500000 6.380000 139 57 31 0
26.840000 5.500000 4.950000 140 58 32 0
27.060000 5.500000 3.520000 139 57 31 0
27.280000 5.500000 9.130000 139 57 31 0
27.500000 5.500000 13.200000 141 59 33 0
27.720000 5.500000 11.880000 141 59 33 0
27.940000 5.500000 7.700000 141 59 33 0
28.160000 5.500000 2.200000 141 59 33 0
28.380000 5.500000 0.220000 141 59 33 0
28.600000 5.500000 0.110000 141 59 33 0
28.820000 5.500000 1.430000 142 60 34 0
29.040000 5.500000 3.520000 142 60 34 0
29.260000 5.500000 3.630000 141 60 34 0
29.480000 5.500000 1.540000 141 60 34 0
29.700000 5.500000 0.110000 142 60 34 0
29.920000 5.500000 1.540000 143 61 35 0
30.140000 5.500000 4.290000 142 60 34 0
30.360000 5.500000 7.810000 142 60 34 0
30.580000 5.500000 9.130000 141 60 34 0
30.800000 5.500000 3.630000 141 60 34 0
31.240000 5.500000 0.110000 140 62 37 0
31.460000 5.500000 0.110000 140 62 37 0
31.680000 5.500000 0.110000 143 65 40 0
31.900000 5.500000 0.220000 146 65 41 0
32.120000 5.500000 0.220000 145 64 40 0
32.340000 5.500000 0.880000 143 65 40 0
32.560000 5.500000 0.770000 143 65 40 0
32.780000 5.500000 0.880000 142 64 37 0
33.000000 5.500000 0.220000 142 64 37 0
33.220000 5.500000 0.220000 142 64 37 0
33.440000 5.500000 0.220000 142 64 37 0
33.660000 5.500000 0.880000 143 65 38 0
33.880000 5.500000 1.430000 143 65 38 0
34.100000 5.500000 0.770000 143 68 40 0
34.320000 5.500000 4.290000 146 71 43 0
34.540000 5.500000 12.540000 142 78 46 0
34.760000 5.500000 18.040000 144 80 48 0
34.980000 5.500000 16.060000 146 82 50 0
35.200000 5.500000 9.790000 147 83 51 0
35.420000 5.500000 4.290000 148 86 56 0
35.640000 5.500000 4.950000 148 86 56 0
35.860000 5.500000 7.040000 147 85 55 0
36.080000 5.500000 7.700000 146 84 54 0
36.300000 5.500000 7.040000 145 83 53 0
36.520000 5.500000 7.040000 145 83 53 0
36.740000 5.500000 7.040000 148 84 54 0
36.960000 5.500000 7.040000 148 84 54 0
37.180000 5.500000 7.040000 147 85 55 0
0.000000 5.720000 20.900000 156 130 103 0
0.220000 5.720000 20.900000 154 125 102 0
0.440000 5.720000 20.900000 152 123 100 0
0.660000 5.720000 20.900000 149 121 95 0
0.880000 5.720000 20.900000 146 118 92 0
1.100000 5.720000 20.900000 148 117 92 0
1.320000 5.720000 20.900000 146 115 90 0
1.540000 5.720000 20.900000 146 115 90 0
1.760000 5.720000 20.900000 147 116 91 0
1.980000 5.720000 20.900000 146 115 90 0
2.200000 5.720000 20.900000 146 115 90 0
2.420000 5.720000 20.900000 145 114 89 0
2.640000 5.720000 20.240000 145 114 89 0
2.860000 5.720000 20.900000 144 113 88 0
3.080000 5.720000 20.900000 144 113 88 0
3.300000 5.720000 20.900000 144 113 88 0
3.520000 5.720000 20.900000 144 113 88 0
3.740000 5.720000 20.900000 144 113 88 0
3.960000 5.720000 20.900000 144 113 88 0
4.180000 5.720000 20.900000 144 113 88 0
4.400000 5.720000 20.900000 146 115 90 0
4.620000 5.720000 20.900000 144 113 88 0
4.840000 5.720000 20.900000 146 115 90 0
5.060000 5.720000 21.010000 145 114 89 0
5.280000 5.720000 20.240000 145 114 89 0
5.500000 5.720000 20.240000 144 113 88 0
5.720000 5.720000 20.900000 144 113 88 0
5.940000 5.720000 20.900000 144 113 88 0
6.160000 5.720000 20.240000 143 112 87 0
6.380000 5.720000 20.240000 143 112 87 0
6.600000 5.720000 20.240000 143 112 87 0
6.820000 5.720000 20.900000 142 111 86 0
7.040000 5.720000 20.900000 142 111 86 0
7.260000 5.720000 20.900000 142 111 86 0
7.480000 5.720000 20.900000 141 110 85 0
7.700000 5.720000 20.900000 141 108 86 0
7.920000 5.720000 20.900000 141 108 86 0
8.140000 5.720000 20.240000 139 108 85 0
8.360000 5.720000 20.240000 139 108 85 0
8.580000 5.720000 20.240000 139 106 84 0
8.800000 5.720000 20.240000 138 105 83 0
9.020000 5.720000 20.900000 138 107 84 0
9.240000 5.720000 20.900000 136 105 82 0
9.460000 5.720000 21.010000 138 105 83 0
9.680000 5.720000 20.350000 137 104 82 0
9.900000 5.720000 20.350000 136 103 81 0
10.120000 5.720000 20.900000 135 102 80 0
10.340000 5.720000 19.470000 134 101 79 0
10.560000 5.720000 15.400000 133 100 78 0
10.780000 5.720000 13.970000 135 99 78 0
11.000000 5.720000 16.830000 134 98 77 0
11.220000 5.720000 18.260000 141 94 71 0
11.440000 5.720000 19.580000 139 92 69 0
11.660000 5.720000 20.900000 143 86 62 0
11.880000 5.720000 20.900000 141 84 60 0
12.100000 5.720000 20.900000 142 85 61 0
12.320000 5.720000 21.010000 142 85 61 0
12.540000 5.720000 21.010000 142 85 61 0
12.760000 5.720000 21.010000 144 87 63 0
12.980000 5.720000 21.010000 145 88 64 0
13.200000 5.720000 15.510000 146 89 65 0
13.420000 5.720000 4.510000 149 90 67 0
18.480000 5.720000 0.110000 148 75 51 0
18.700000 5.720000 0.660000 148 75 51 0
18.920000 5.720000 0.660000 149 76 52 0
19.140000 5.720000 0.770000 149 72 47 0
19.360000 5.720000 0.770000 148 71 46 0
19.580000 5.720000 0.110000 147 69 42 0
19.800000 5.720000 0.110000 147 69 42 0
20.020000 5.720000 0.110000 148 67 41 0
20.240000 5.720000 0.110000 146 65 39 0
20.460000 5.720000 0.110000 147 66 42 0
20.680000 5.720000 0.110000 145 64 40 0
20.900000 5.720000 0.110000 145 63 37 0
21.340000 5.720000 2.200000 144 62 36 0
21.560000 5.720000 8.580000 144 62 36 0
21.780000 5.720000 10.560000 143 61 35 0
22.000000 5.720000 4.180000 142 60 34 0
22.220000 5.720000 0.110000 141 58 35 0
22.440000 5.720000 2.200000 142 59 36 0
22.660000 5.720000 5.060000 143 58 33 0
22.880000 5.720000 2.200000 142 57 32 0
23.100000 5.720000 4.180000 142 57 32 0
23.320000 5.720000 7.700000 142 57 32 0
23.540000 5.720000 4.950000 142 57 32 0
23.760000 5.720000 2.200000 140 55 30 0
23.980000 5.720000 2.310000 140 58 32 0
24.200000 5.720000 6.380000 139 57 31 0
24.420000 5.720000 14.080000 142 57 32 0
24.640000 5.720000 15.400000 142 57 32 0
24.860000 5.720000 11.880000 142 57 32 0
25.080000 5.720000 13.970000 141 56 31 0
25.300000 5.720000 18.040000 141 56 31 0
25.520000 5.720000 13.200000 141 56 31 0
25.740000 5.720000 4.180000 139 57 31 0
25.960000 5.720000 1.430000 139 57 31 0
26.180000 5.720000 2.860000 139 57 31 0
26.400000 5.720000 2.860000 139 57 31 0
26.620000 5.720000 4.950000 139 57 31 0
26.840000 5.720000 7.700000 140 58 32 0
27.060000 5.720000 7.700000 139 57 31 0
27.280000 5.720000 10.450000 141 59 33 0
27.500000 5.720000 13.200000 140 58 32 0
27.720000 5.720000 10.450000 141 59 33 0
27.940000 5.720000 4.950000 140 58 32 0
28.160000 5.720000 1.540000 141 59 33 0
28.600000 5.720000 0.220000 142 60 34 0
28.820000 5.720000 1.430000 142 60 34 0
29.040000 5.720000 4.950000 141 59 33 0
29.260000 5.720000 6.380000 141 60 34 0
29.480000 5.720000 2.200000 140 59 33 0
29.700000 5.720000 1.430000 142 60 34 0
29.920000 5.720000 5.610000 142 60 34 0
30.140000 5.720000 10.450000 142 60 34 0
30.360000 5.720000 15.400000 141 59 33 0
30.580000 5.720000 15.400000 140 59 33 0
30.800000 5.720000 9.130000 141 60 34 0
31.020000 5.720000 4.180000 140 62 37 0
31.240000 5.720000 2.970000 142 64 39 0
31.460000 5.720000 2.970000 143 65 40 0
31.680000 5.720000 1.540000 144 66 41 0
31.900000 5.720000 0.110000 145 64 40 0
32.120000 5.720000 0.220000 145 64 40 0
32.340000 5.720000 0.880000 143 65 40 0
32.560000 5.720000 0.770000 142 64 39 0
32.780000 5.720000 1.430000 142 64 37 0
33.000000 5.720000 1.540000 141 63 36 0
33.220000 5.720000 0.880000 141 63 36 0
33.440000 5.720000 1.650000 142 64 37 0
33.660000 5.720000 1.540000 143 65 38 0
33.880000 5.720000 1.540000 144 66 39 0
34.100000 5.720000 1.540000 143 68 40 0
34.320000 5.720000 7.700000 146 71 43 0
34.540000 5.720000 15.950000 143 79 47 0
34.760000 5.720000 18.700000 145 81 49 0
34.980000 5.720000 16.720000 146 82 50 0
35.200000 5.720000 11.880000 147 83 51 0
35.420000 5.720000 7.700000 147 85 55 0
35.640000 5.720000 7.700000 148 86 56 0
35.860000 5.720000 7.700000 147 85 55 0
36.080000 5.720000 7.700000 146 84 54 0
36.300000 5.720000 6.930000 145 83 53 0
36.520000 5.720000 6.930000 147 85 55 0
36.740000 5.720000 7.040000 148 84 54 0
36.960000 5.720000 7.040000 148 84 54 0
37.180000 5.720000 7.040000 146 84 54 0
0.000000 5.940000 20.900000 155 126 103 0
0.220000 5.940000 20.900000 155 124 101 0
0.440000 5.940000 20.900000 152 121 98 0
0.660000 5.940000 20.900000 150 119 94 0
0.880000 5.940000 20.900000 149 118 93 0
1.100000 5.940000 20.900000 146 115 90 0
1.320000 5.940000 20.900000 147 116 91 0
1.540000 5.940000 20.900000 146 115 90 0
1.760000 5.940000 20.900000 146 115 90 0
1.980000 5.940000 20.900000 145 114 91 0
2.200000 5.940000 20.900000 145 114 91 0
2.420000 5.940000 20.900000 146 115 90 0
2.640000 5.940000 20.240000 144 113 88 0
2.860000 5.940000 20.900000 144 113 88 0
3.080000 5.940000 20.900000 144 113 88 0
3.300000 5.940000 20.900000 143 112 87 0
3.520000 5.940000 20.900000 144 113 88 0
3.740000 5.940000 20.900000 144 113 88 0
3.960000 5.940000 20.240000 145 114 89 0
4.180000 5.940000 20.240000 146 115 90 0
4.400000 5.940000 20.240000 146 115 90 0
4.620000 5.940000 20.900000 147 114 90 0
4.840000 5.940000 20.900000 146 113 89 0
5.060000 5.940000 20.900000 147 114 90 0
5.280000 5.940000 20.240000 146 113 89 0
5.500000 5.940000 20.240000 147 114 90 0
5.720000 5.940000 20.900000 146 113 89 0
5.940000 5.940000 20.900000 143 112 87 0
6.160000 5.940000 20.900000 143 112 87 0
6.380000 5.940000 20.900000 144 111 87 0
6.600000 5.940000 20.900000 143 110 86 0
6.820000 5.940000 20.240000 144 111 87 0
7.040000 5.940000 20.900000 142 109 85 0
7.260000 5.940000 20.790000 142 109 87 0
7.480000 5.940000 20.900000 142 109 87 0
7.700000 5.940000 20.900000 140 109 86 0
7.920000 5.940000 20.900000 140 109 86 0
8.140000 5.940000 20.900000 141 108 86 0
8.360000 5.940000 20.240000 139 106 84 0
8.580000 5.940000 20.240000 137 104 82 0
8.800000 5.940000 20.240000 138 105 83 0
9.020000 5.940000 20.900000 137 104 82 0
9.240000 5.940000 19.470000 137 104 82 0
9.460000 5.940000 18.150000 137 104 82 0
9.680000 5.940000 18.920000 137 104 82 0
9.900000 5.940000 20.350000 135 102 80 0
10.120000 5.940000 21.010000 135 102 80 0
10.340000 5.940000 20.900000 136 100 79 0
10.560000 5.940000 19.580000 135 99 78 0
10.780000 5.940000 18.150000 135 98 77 0
11.000000 5.940000 19.580000 135 98 77 0
11.220000 5.940000 21.010000 142 91 67 0
11.440000 5.940000 20.350000 140 89 65 0
11.660000 5.940000 20.900000 143 86 62 0
11.880000 5.940000 20.900000 141 84 60 0
12.100000 5.940000 20.900000 142 85 63 0
12.320000 5.940000 21.010000 142 85 63 0
12.540000 5.940000 21.010000 143 86 62 0
12.760000 5.940000 21.010000 144 87 63 0
12.980000 5.940000 19.580000 147 88 65 0
13.200000 5.940000 14.080000 148 89 66 0
13.420000 5.940000 5.830000 152 91 67 0
13.640000 5.940000 0.990000 154 93 69 0
18.480000 5.940000 0.110000 151 74 49 0
18.700000 5.940000 0.660000 151 73 48 0
18.920000 5.940000 0.770000 150 72 47 0
19.140000 5.940000 0.770000 149 71 46 0
19.360000 5.940000 0.110000 148 70 45 0
19.580000 5.940000 0.110000 148 67 43 0
19.800000 5.940000 0.110000 147 66 42 0
20.020000 5.940000 0.110000 146 65 39 0
20.240000 5.940000 0.110000 146 65 39 0
20.460000 5.940000 0.110000 145 64 38 0
20.680000 5.940000 0.110000 144 63 37 0
20.900000 5.940000 1.430000 145 63 37 0
21.120000 5.940000 4.290000 145 63 37 0
21.340000 5.940000 7.810000 144 62 36 0
21.560000 5.940000 14.080000 143 61 35 0
21.780000 5.940000 14.080000 143 61 35 0
22.000000 5.940000 4.950000 141 59 33 0
22.220000 5.940000 1.430000 142 60 34 0
22.440000 5.940000 3.630000 142 60 34 0
22.660000 5.940000 3.740000 140 58 32 0
22.880000 5.940000 0.880000 140 58 32 0
23.100000 5.940000 3.520000 139 56 33 0
23.320000 5.940000 9.130000 139 56 33 0
23.540000 5.940000 9.020000 141 56 31 0
23.760000 5.940000 6.270000 142 57 32 0
23.980000 5.940000 2.200000 138 56 30 0
24.200000 5.940000 0.880000 139 57 31 0
24.420000 5.940000 6.380000 139 57 31 0
24.640000 5.940000 13.310000 139 57 31 0
24.860000 5.940000 15.400000 138 56 30 0
25.080000 5.940000 15.510000 138 56 30 0
25.300000 5.940000 16.720000 139 57 31 0
25.520000 5.940000 14.520000 138 56 30 0
25.740000 5.940000 6.270000 139 57 31 0
25.960000 5.940000 2.860000 138 56 30 0
26.180000 5.940000 1.430000 138 56 30 0
26.620000 5.940000 1.540000 138 56 30 0
26.840000 5.940000 6.380000 139 57 31 0
27.060000 5.940000 11.880000 140 58 32 0
27.280000 5.940000 11.880000 140 58 32 0
27.500000 5.940000 9.130000 139 58 32 0
27.720000 5.940000 6.380000 140 59 33 0
27.940000 5.940000 3.520000 141 59 33 0
28.160000 5.940000 1.430000 142 60 34 0
28.380000 5.940000 0.770000 142 60 34 0
28.600000 5.940000 2.200000 141 59 33 0
28.820000 5.940000 4.290000 140 59 33 0
29.040000 5.940000 7.700000 140 59 33 0
29.260000 5.940000 7.700000 140 59 33 0
29.480000 5.940000 4.180000 140 59 33 0
29.700000 5.940000 4.950000 140 59 35 0
29.920000 5.940000 7.700000 141 60 36 0
30.140000 5.940000 10.450000 141 60 34 0
30.360000 5.940000 16.720000 140 59 33 0
30.580000 5.940000 19.470000 141 60 34 0
30.800000 5.940000 15.950000 142 61 35 0
31.020000 5.940000 9.130000 141 63 38 0
31.240000 5.940000 6.380000 142 64 39 0
31.460000 5.940000 7.810000 143 65 40 0
31.680000 5.940000 4.290000 143 65 40 0
31.900000 5.940000 0.110000 145 67 42 0
32.120000 5.940000 1.430000 143 65 40 0
32.340000 5.940000 3.520000 142 64 37 0
32.560000 5.940000 2.090000 141 63 36 0
32.780000 5.940000 1.430000 142 64 39 0
33.000000 5.940000 1.430000 140 62 37 0
33.220000 5.940000 2.200000 143 62 38 0
33.440000 5.940000 2.200000 143 62 38 0
33.660000 5.940000 1.540000 143 65 38 0
33.880000 5.940000 2.200000 145 67 40 0
34.100000 5.940000 6.380000 139 72 41 0
34.320000 5.940000 13.860000 141 74 43 0
34.540000 5.940000 18.040000 143 79 47 0
34.760000 5.940000 18.040000 146 82 50 0
34.980000 5.940000 16.720000 145 83 53 0
35.200000 5.940000 13.970000 147 85 55 0
35.420000 5.940000 10.450000 149 85 55 0
35.640000 5.940000 8.360000 149 85 55 0
35.860000 5.940000 7.700000 149 85 55 0
36.080000 5.940000 7.700000 149 85 55 0
36.300000 5.940000 7.700000 147 83 51 0
36.520000 5.940000 6.930000 147 83 51 0
36.740000 5.940000 7.040000 146 82 50 0
36.960000 5.940000 6.930000 148 84 52 0
37.180000 5.940000 7.700000 148 84 54 0
0.000000 6.160000 20.900000 153 124 101 0
0.220000 6.160000 20.900000 153 122 99 0
0.440000 6.160000 20.900000 151 120 97 0
0.660000 6.160000 20.900000 149 118 93 0
0.880000 6.160000 20.900000 149 118 93 0
1.100000 6.160000 20.900000 148 117 92 0
1.320000 6.160000 20.900000 147 116 91 0
1.540000 6.160000 20.900000 147 116 91 0
1.760000 6.160000 20.900000 146 115 90 0
1.980000 6.160000 20.900000 146 115 92 0
2.200000 6.160000 20.900000 145 114 91 0
2.420000 6.160000 20.900000 146 115 90 0
2.640000 6.160000 20.240000 146 115 90 0
2.860000 6.160000 20.900000 145 114 89 0
3.080000 6.160000 20.900000 145 114 89 0
3.300000 6.160000 20.900000 145 114 89 0
3.520000 6.160000 20.900000 145 114 89 0
3.740000 6.160000 20.900000 144 113 88 0
3.960000 6.160000 20.240000 145 114 89 0
4.180000 6.160000 20.240000 146 115 90 0
4.400000 6.160000 20.240000 145 114 89 0
4.620000 6.160000 20.240000 146 113 89 0
4.840000 6.160000 20.900000 146 113 89 0
5.060000 6.160000 20.240000 145 112 88 0
5.280000 6.160000 20.240000 146 113 89 0
5.500000 6.160000 20.240000 146 113 89 0
5.720000 6.160000 20.240000 145 112 88 0
5.940000 6.160000 20.240000 144 113 88 0
6.160000 6.160000 20.900000 143 112 87 0
6.380000 6.160000 20.900000 143 110 86 0
6.600000 6.160000 20.240000 143 110 86 0
6.820000 6.160000 20.240000 143 110 86 0
7.040000 6.160000 20.240000 143 110 86 0
7.260000 6.160000 20.790000 142 109 87 0
7.480000 6.160000 20.900000 142 109 87 0
7.700000 6.160000 20.240000 140 109 86 0
7.920000 6.160000 20.350000 139 108 85 0
8.140000 6.160000 20.350000 140 107 85 0
8.360000 6.160000 20.240000 139 106 84 0
8.580000 6.160000 20.240000 138 105 83 0
8.800000 6.160000 20.900000 137 104 82 0
9.020000 6.160000 20.790000 137 104 82 0
9.240000 6.160000 18.040000 136 103 81 0
9.460000 6.160000 15.400000 136 103 81 0
9.680000 6.160000 17.490000 136 103 81 0
9.900000 6.160000 20.240000 135 102 80 0
10.120000 6.160000 21.010000 135 102 80 0
10.340000 6.160000 20.900000 136 100 79 0
10.560000 6.160000 20.900000 135 99 78 0
10.780000 6.160000 20.900000 136 99 78 0
11.000000 6.160000 20.900000 133 96 75 0
11.220000 6.160000 20.900000 142 91 67 0
11.440000 6.160000 20.350000 139 88 64 0
11.660000 6.160000 21.010000 142 85 61 0
11.880000 6.160000 20.900000 142 85 61 0
12.100000 6.160000 20.900000 142 85 63 0
12.320000 6.160000 20.900000 143 86 64 0
12.540000 6.160000 21.010000 144 87 63 0
12.760000 6.160000 21.010000 145 88 64 0
12.980000 6.160000 18.260000 147 88 65 0
13.200000 6.160000 12.760000 150 91 68 0
13.420000 6.160000 7.260000 153 92 68 0
13.640000 6.160000 2.420000 154 93 69 0
18.480000 6.160000 0.220000 149 72 47 0
18.700000 6.160000 1.430000 149 71 46 0
18.920000 6.160000 2.750000 147 69 44 0
19.140000 6.160000 1.430000 146 68 43 0
19.360000 6.160000 1.430000 147 69 44 0
19.580000 6.160000 2.860000 147 66 42 0
19.800000 6.160000 1.540000 146 65 41 0
20.020000 6.160000 0.220000 145 64 38 0
20.240000 6.160000 0.110000 144 63 37 0
20.460000 6.160000 0.880000 145 64 38 0
20.680000 6.160000 3.630000 144 63 37 0
20.900000 6.160000 7.810000 144 62 36 0
21.120000 6.160000 12.650000 143 61 35 0
21.340000 6.160000 16.830000 143 61 35 0
21.560000 6.160000 19.580000 142 60 34 0
21.780000 6.160000 15.510000 141 59 33 0
22.000000 6.160000 5.060000 141 59 33 0
22.220000 6.160000 3.630000 141 59 33 0
22.440000 6.160000 9.240000 140 58 32 0
22.660000 6.160000 7.260000 140 58 32 0
22.880000 6.160000 3.740000 140 58 32 0
23.100000 6.160000 3.630000 139 56 33 0
