ply
format ascii 1.0
element vertex 1130
property float x
property float y
property float z
property uchar red
property uchar green
property uchar blue
property uchar alpha
end_header
33.440000 31.020000 3.960000 210 123 109 0
33.660000 31.020000 3.960000 213 128 118 0
33.880000 31.020000 5.060000 214 129 119 0
34.100000 31.020000 7.260000 215 125 112 0
34.320000 31.020000 7.040000 209 119 106 0
34.540000 31.020000 8.360000 208 114 97 0
34.760000 31.020000 8.360000 204 110 93 0
34.980000 31.020000 8.580000 206 104 87 0
35.200000 31.020000 8.580000 204 102 85 0
35.420000 31.020000 8.800000 206 99 84 0
35.640000 31.020000 8.800000 203 96 81 0
35.860000 31.020000 8.800000 204 96 81 0
36.080000 31.020000 8.800000 204 96 81 0
36.300000 31.020000 10.340000 204 94 78 0
36.520000 31.020000 10.340000 203 93 77 0
36.740000 31.020000 10.340000 202 94 77 0
36.960000 31.020000 10.340000 203 95 78 0
37.180000 31.020000 10.560000 203 93 79 0
0.440000 31.240000 0.220000 199 196 140 0
0.660000 31.240000 0.220000 202 200 144 0
0.880000 31.240000 0.220000 203 201 145 0
1.100000 31.240000 0.220000 204 202 148 0
1.320000 31.240000 0.220000 205 203 149 0
1.540000 31.240000 0.220000 205 203 147 0
1.760000 31.240000 0.220000 206 204 148 0
1.980000 31.240000 0.220000 204 202 146 0
2.200000 31.240000 0.220000 202 200 144 0
2.420000 31.240000 0.220000 201 199 143 0
2.640000 31.240000 0.220000 200 198 142 0
2.860000 31.240000 0.220000 201 198 142 0
3.080000 31.240000 1.760000 201 198 142 0
3.300000 31.240000 1.760000 202 199 141 0
3.520000 31.240000 1.760000 202 199 141 0
3.740000 31.240000 1.980000 201 199 143 0
3.960000 31.240000 1.980000 202 200 144 0
4.180000 31.240000 1.980000 203 201 145 0
4.400000 31.240000 1.980000 204 202 146 0
4.620000 31.240000 1.980000 205 203 149 0
4.840000 31.240000 1.980000 205 203 149 0
5.060000 31.240000 2.200000 206 204 150 0
5.280000 31.240000 2.200000 206 204 150 0
5.500000 31.240000 2.200000 206 204 150 0
5.720000 31.240000 2.420000 208 206 152 0
5.940000 31.240000 2.420000 208 206 152 0
6.160000 31.240000 2.420000 210 208 154 0
6.380000 31.240000 3.960000 209 207 153 0
6.600000 31.240000 3.960000 209 207 153 0
6.820000 31.240000 3.960000 209 206 150 0
7.040000 31.240000 3.960000 207 204 148 0
7.260000 31.240000 4.180000 207 203 150 0
7.480000 31.240000 3.740000 207 203 150 0
7.700000 31.240000 5.940000 205 199 142 0
7.920000 31.240000 7.040000 204 198 141 0
8.140000 31.240000 7.040000 205 198 139 0
8.360000 31.240000 7.040000 204 197 138 0
8.580000 31.240000 7.040000 204 197 140 0
8.800000 31.240000 7.040000 205 198 141 0
9.020000 31.240000 7.260000 203 198 138 0
9.240000 31.240000 7.260000 204 199 139 0
9.460000 31.240000 7.260000 205 198 141 0
9.680000 31.240000 7.260000 207 200 143 0
9.900000 31.240000 8.580000 206 200 143 0
10.120000 31.240000 8.800000 206 200 143 0
10.340000 31.240000 8.800000 208 200 146 0
10.560000 31.240000 8.800000 208 200 146 0
10.780000 31.240000 8.800000 208 202 149 0
11.000000 31.240000 8.800000 208 202 149 0
11.220000 31.240000 8.800000 208 202 147 0
11.440000 31.240000 9.020000 209 203 148 0
11.660000 31.240000 9.020000 209 203 148 0
11.880000 31.240000 9.020000 209 203 148 0
12.100000 31.240000 9.020000 210 204 151 0
12.320000 31.240000 9.020000 210 204 151 0
12.540000 31.240000 9.020000 208 205 155 0
12.760000 31.240000 9.240000 209 206 156 0
12.980000 31.240000 9.240000 211 209 163 0
13.200000 31.240000 9.240000 211 209 163 0
13.420000 31.240000 9.240000 212 209 161 0
13.640000 31.240000 10.780000 211 208 160 0
13.860000 31.240000 10.780000 215 208 157 0
14.080000 31.240000 10.780000 213 206 155 0
14.300000 31.240000 10.780000 221 187 144 0
14.520000 31.240000 10.780000 206 172 129 0
14.740000 31.240000 10.780000 218 144 114 0
14.960000 31.240000 11.000000 202 128 98 0
15.180000 31.240000 16.500000 210 101 81 0
15.400000 31.240000 28.820000 197 88 68 0
15.620000 31.240000 34.320000 195 86 66 0
15.840000 31.240000 34.320000 195 86 66 0
16.060000 31.240000 34.320000 197 85 66 0
16.280000 31.240000 34.320000 196 84 65 0
16.500000 31.240000 34.320000 197 88 68 0
16.720000 31.240000 34.100000 199 90 70 0
16.940000 31.240000 34.100000 199 92 71 0
17.160000 31.240000 34.100000 200 93 72 0
17.380000 31.240000 34.100000 200 91 71 0
17.600000 31.240000 34.100000 201 92 72 0
17.820000 31.240000 35.640000 200 91 71 0
18.040000 31.240000 36.740000 199 90 70 0
18.260000 31.240000 37.620000 198 89 69 0
18.480000 31.240000 38.720000 197 88 68 0
18.700000 31.240000 38.720000 195 86 66 0
18.920000 31.240000 38.940000 195 86 66 0
19.140000 31.240000 38.940000 196 87 67 0
19.360000 31.240000 38.940000 196 87 67 0
19.580000 31.240000 38.940000 196 87 67 0
19.800000 31.240000 38.940000 197 88 68 0
20.020000 31.240000 39.160000 197 88 68 0
20.240000 31.240000 39.160000 198 89 69 0
20.460000 31.240000 39.160000 198 90 72 0
20.680000 31.240000 39.160000 198 90 72 0
20.900000 31.240000 39.160000 199 92 71 0
21.120000 31.240000 39.160000 199 92 71 0
21.340000 31.240000 39.380000 199 91 73 0
21.560000 31.240000 39.380000 198 90 72 0
21.780000 31.240000 39.380000 199 91 73 0
22.000000 31.240000 39.380000 198 90 72 0
22.220000 31.240000 39.380000 198 90 72 0
22.440000 31.240000 39.380000 198 90 72 0
22.660000 31.240000 39.600000 199 91 73 0
22.880000 31.240000 39.600000 200 92 74 0
23.100000 31.240000 39.600000 200 94 76 0
23.320000 31.240000 39.600000 200 94 76 0
23.540000 31.240000 41.140000 201 95 76 0
23.760000 31.240000 41.140000 201 95 76 0
23.980000 31.240000 41.140000 200 94 76 0
24.200000 31.240000 41.140000 200 94 76 0
24.420000 31.240000 30.140000 202 96 78 0
24.640000 31.240000 8.140000 202 96 78 0
25.740000 31.240000 0.440000 204 100 84 0
25.960000 31.240000 1.540000 203 99 83 0
26.180000 31.240000 1.540000 204 102 85 0
26.400000 31.240000 1.760000 203 101 84 0
26.620000 31.240000 1.760000 202 103 85 0
26.840000 31.240000 1.760000 204 105 87 0
27.060000 31.240000 1.760000 204 108 91 0
27.280000 31.240000 1.540000 206 110 93 0
27.500000 31.240000 1.540000 205 112 99 0
27.720000 31.240000 1.540000 208 115 102 0
27.940000 31.240000 1.540000 206 116 102 0
28.160000 31.240000 1.540000 208 118 104 0
28.380000 31.240000 1.540000 208 119 106 0
28.600000 31.240000 1.540000 209 120 107 0
28.820000 31.240000 1.540000 197 127 114 0
29.040000 31.240000 1.760000 209 139 126 0
29.260000 31.240000 1.760000 196 158 130 0
29.480000 31.240000 1.760000 221 183 155 0
29.700000 31.240000 1.760000 222 211 186 0
29.920000 31.240000 1.760000 240 229 204 0
30.140000 31.240000 1.980000 237 238 235 0
30.360000 31.240000 3.300000 240 241 238 0
30.580000 31.240000 3.300000 247 239 215 0
30.800000 31.240000 1.980000 233 225 201 0
31.020000 31.240000 1.980000 253 187 170 0
31.240000 31.240000 1.980000 212 146 129 0
31.460000 31.240000 2.200000 213 126 112 0
31.680000 31.240000 2.200000 210 123 109 0
31.900000 31.240000 2.200000 209 121 106 0
32.120000 31.240000 3.740000 207 119 104 0
32.340000 31.240000 3.740000 208 116 100 0
32.560000 31.240000 3.740000 207 115 99 0
32.780000 31.240000 3.740000 207 117 101 0
33.000000 31.240000 3.960000 208 118 102 0
33.220000 31.240000 3.960000 208 121 107 0
33.440000 31.240000 3.960000 210 123 109 0
33.660000 31.240000 3.740000 210 125 115 0
33.880000 31.240000 5.940000 211 126 116 0
34.100000 31.240000 7.040000 213 123 110 0
34.320000 31.240000 7.040000 210 120 107 0
34.540000 31.240000 8.360000 208 114 97 0
34.760000 31.240000 8.360000 206 112 95 0
34.980000 31.240000 8.580000 208 106 89 0
35.200000 31.240000 8.580000 205 103 86 0
35.420000 31.240000 8.800000 206 99 84 0
35.640000 31.240000 8.800000 205 98 83 0
35.860000 31.240000 8.800000 205 97 82 0
36.080000 31.240000 8.800000 204 96 81 0
36.300000 31.240000 10.340000 204 94 78 0
36.520000 31.240000 10.340000 204 94 78 0
36.740000 31.240000 10.340000 203 95 78 0
36.960000 31.240000 10.340000 203 95 78 0
37.180000 31.240000 10.560000 203 93 79 0
0.440000 31.460000 0.220000 199 198 139 0
0.660000 31.460000 0.220000 202 200 144 0
0.880000 31.460000 0.220000 204 202 146 0
1.100000 31.460000 0.220000 205 203 147 0
1.320000 31.460000 0.220000 206 204 148 0
1.540000 31.460000 0.220000 206 204 148 0
1.760000 31.460000 0.220000 206 204 148 0
1.980000 31.460000 0.220000 205 203 147 0
2.200000 31.460000 0.220000 203 201 145 0
2.420000 31.460000 0.220000 202 199 141 0
2.640000 31.460000 0.220000 202 199 141 0
2.860000 31.460000 0.220000 201 198 140 0
3.080000 31.460000 1.760000 201 198 140 0
3.300000 31.460000 1.760000 201 198 140 0
3.520000 31.460000 1.760000 202 199 141 0
3.740000 31.460000 1.980000 202 199 141 0
3.960000 31.460000 1.980000 203 200 142 0
4.180000 31.460000 1.980000 204 201 145 0
4.400000 31.460000 1.980000 205 202 146 0
4.620000 31.460000 1.980000 205 203 147 0
4.840000 31.460000 2.200000 205 203 147 0
5.060000 31.460000 2.200000 206 203 145 0
5.280000 31.460000 2.200000 207 204 146 0
5.500000 31.460000 2.200000 207 204 148 0
5.720000 31.460000 2.420000 208 205 149 0
5.940000 31.460000 2.420000 209 206 148 0
6.160000 31.460000 2.420000 210 207 149 0
6.380000 31.460000 3.960000 210 207 149 0
6.600000 31.460000 3.960000 208 205 147 0
6.820000 31.460000 3.960000 208 203 143 0
7.040000 31.460000 3.960000 208 203 143 0
7.260000 31.460000 4.180000 209 204 144 0
7.480000 31.460000 3.740000 205 200 140 0
7.700000 31.460000 5.940000 204 198 141 0
7.920000 31.460000 7.040000 203 197 140 0
8.140000 31.460000 7.040000 204 197 138 0
8.360000 31.460000 7.040000 204 197 138 0
8.580000 31.460000 7.040000 205 198 139 0
8.800000 31.460000 7.040000 205 198 139 0
9.020000 31.460000 7.260000 204 197 138 0
9.240000 31.460000 7.260000 205 198 139 0
9.460000 31.460000 7.260000 204 199 139 0
9.680000 31.460000 7.260000 205 200 140 0
9.900000 31.460000 8.580000 207 200 141 0
10.120000 31.460000 8.800000 207 200 141 0
10.340000 31.460000 8.800000 207 200 141 0
10.560000 31.460000 8.800000 208 201 142 0
10.780000 31.460000 8.800000 208 201 142 0
11.000000 31.460000 8.800000 208 201 142 0
11.220000 31.460000 8.800000 208 203 143 0
11.440000 31.460000 9.020000 209 204 144 0
11.660000 31.460000 9.020000 208 202 145 0
11.880000 31.460000 9.020000 210 204 147 0
12.100000 31.460000 9.020000 210 204 147 0
12.320000 31.460000 9.020000 210 204 147 0
12.540000 31.460000 9.020000 211 205 150 0
12.760000 31.460000 9.240000 211 205 150 0
12.980000 31.460000 9.240000 211 208 158 0
13.200000 31.460000 9.240000 212 209 159 0
13.420000 31.460000 9.240000 212 209 161 0
13.640000 31.460000 10.780000 212 209 161 0
13.860000 31.460000 10.780000 215 208 151 0
14.080000 31.460000 10.780000 214 207 150 0
14.300000 31.460000 10.780000 223 184 140 0
14.520000 31.460000 10.780000 210 171 127 0
14.740000 31.460000 10.780000 216 142 108 0
14.960000 31.460000 11.000000 202 128 94 0
15.180000 31.460000 16.500000 208 99 79 0
15.400000 31.460000 28.820000 197 88 68 0
15.620000 31.460000 34.320000 196 85 63 0
15.840000 31.460000 34.320000 196 85 63 0
16.060000 31.460000 34.320000 195 86 64 0
16.280000 31.460000 34.320000 195 86 64 0
16.500000 31.460000 34.100000 197 88 68 0
16.720000 31.460000 34.100000 198 89 69 0
16.940000 31.460000 34.100000 200 91 71 0
17.160000 31.460000 34.100000 201 92 72 0
17.380000 31.460000 34.100000 201 92 72 0
17.600000 31.460000 34.100000 201 92 72 0
17.820000 31.460000 35.420000 200 91 71 0
18.040000 31.460000 37.840000 199 90 70 0
18.260000 31.460000 38.720000 199 90 70 0
18.480000 31.460000 38.720000 197 88 68 0
18.700000 31.460000 38.720000 196 87 67 0
18.920000 31.460000 38.940000 196 87 67 0
19.140000 31.460000 38.940000 196 87 67 0
19.360000 31.460000 38.940000 197 88 68 0
19.580000 31.460000 38.940000 197 88 68 0
19.800000 31.460000 38.940000 198 89 69 0
20.020000 31.460000 39.160000 198 89 71 0
20.240000 31.460000 39.160000 198 89 71 0
20.460000 31.460000 39.160000 198 89 69 0
20.680000 31.460000 39.160000 199 90 70 0
20.900000 31.460000 39.160000 199 90 70 0
21.120000 31.460000 39.160000 199 90 70 0
21.340000 31.460000 39.380000 199 90 70 0
21.560000 31.460000 39.380000 200 91 71 0
21.780000 31.460000 39.380000 198 90 72 0
22.000000 31.460000 39.380000 198 90 72 0
22.220000 31.460000 39.380000 198 90 72 0
22.440000 31.460000 39.380000 198 90 72 0
22.660000 31.460000 39.600000 199 91 73 0
22.880000 31.460000 39.600000 201 93 75 0
23.100000 31.460000 40.920000 200 94 75 0
23.320000 31.460000 40.920000 201 95 76 0
23.540000 31.460000 40.920000 200 94 76 0
23.760000 31.460000 41.140000 200 94 76 0
23.980000 31.460000 41.140000 201 95 76 0
24.200000 31.460000 38.500000 201 95 76 0
24.420000 31.460000 24.640000 202 96 77 0
24.640000 31.460000 5.280000 202 96 77 0
25.740000 31.460000 0.220000 202 100 81 0
25.960000 31.460000 1.540000 202 100 81 0
26.180000 31.460000 1.760000 203 101 82 0
26.400000 31.460000 1.760000 203 101 82 0
26.620000 31.460000 1.760000 200 106 89 0
26.840000 31.460000 1.760000 203 109 92 0
27.060000 31.460000 1.760000 203 111 93 0
27.280000 31.460000 1.760000 205 113 95 0
27.500000 31.460000 1.540000 207 113 96 0
27.720000 31.460000 1.540000 207 113 96 0
27.940000 31.460000 1.540000 206 114 98 0
28.160000 31.460000 1.540000 208 116 100 0
28.380000 31.460000 1.540000 209 120 107 0
28.600000 31.460000 1.540000 208 119 106 0
28.820000 31.460000 1.540000 202 128 112 0
29.040000 31.460000 1.760000 212 138 122 0
29.260000 31.460000 1.760000 203 170 134 0
29.480000 31.460000 1.760000 217 184 148 0
29.700000 31.460000 1.760000 215 209 190 0
29.920000 31.460000 1.760000 236 230 211 0
30.140000 31.460000 3.300000 239 240 237 0
30.360000 31.460000 3.300000 240 241 238 0
30.580000 31.460000 1.980000 248 236 217 0
30.800000 31.460000 1.980000 234 222 203 0
31.020000 31.460000 1.980000 251 183 169 0
31.240000 31.460000 1.980000 214 146 132 0
31.460000 31.460000 2.200000 213 127 111 0
31.680000 31.460000 2.200000 210 124 108 0
31.900000 31.460000 2.200000 209 119 105 0
32.120000 31.460000 3.740000 207 117 103 0
32.340000 31.460000 3.740000 209 115 98 0
32.560000 31.460000 3.740000 208 114 97 0
32.780000 31.460000 3.740000 209 115 100 0
33.000000 31.460000 3.960000 211 117 102 0
33.220000 31.460000 3.960000 208 120 105 0
33.440000 31.460000 3.960000 211 123 108 0
33.660000 31.460000 5.060000 209 125 110 0
33.880000 31.460000 5.940000 210 126 111 0
34.100000 31.460000 7.040000 212 128 112 0
34.320000 31.460000 7.040000 209 125 109 0
34.540000 31.460000 8.360000 209 115 100 0
34.760000 31.460000 8.360000 206 112 97 0
34.980000 31.460000 8.580000 210 108 91 0
35.200000 31.460000 8.580000 206 104 87 0
35.420000 31.460000 8.800000 207 101 83 0
35.640000 31.460000 8.800000 205 99 81 0
35.860000 31.460000 8.800000 205 97 80 0
36.080000 31.460000 8.800000 203 95 78 0
36.300000 31.460000 10.340000 204 96 79 0
36.520000 31.460000 10.340000 203 95 78 0
36.740000 31.460000 10.340000 204 94 78 0
36.960000 31.460000 10.340000 203 93 77 0
37.180000 31.460000 10.340000 202 94 77 0
0.440000 31.680000 0.220000 199 198 139 0
0.660000 31.680000 0.220000 202 200 144 0
0.880000 31.680000 0.220000 205 203 147 0
1.100000 31.680000 0.220000 206 204 148 0
1.320000 31.680000 0.220000 207 205 149 0
1.540000 31.680000 0.220000 207 205 149 0
1.760000 31.680000 0.220000 205 203 147 0
1.980000 31.680000 0.220000 205 203 147 0
2.200000 31.680000 0.220000 203 201 145 0
2.420000 31.680000 0.220000 203 200 142 0
2.640000 31.680000 0.220000 202 199 141 0
2.860000 31.680000 1.760000 201 198 140 0
3.080000 31.680000 1.760000 201 198 140 0
3.300000 31.680000 1.760000 201 198 140 0
3.520000 31.680000 1.980000 202 199 141 0
3.740000 31.680000 1.980000 202 199 141 0
3.960000 31.680000 1.980000 202 199 141 0
4.180000 31.680000 1.980000 203 200 144 0
4.400000 31.680000 1.980000 204 201 145 0
4.620000 31.680000 1.980000 204 202 146 0
4.840000 31.680000 2.200000 204 202 146 0
5.060000 31.680000 2.200000 205 202 144 0
5.280000 31.680000 2.200000 206 203 145 0
5.500000 31.680000 2.200000 205 202 146 0
5.720000 31.680000 2.420000 206 203 147 0
5.940000 31.680000 2.420000 205 202 144 0
6.160000 31.680000 2.420000 207 204 146 0
6.380000 31.680000 2.640000 207 204 146 0
6.600000 31.680000 3.960000 205 202 144 0
6.820000 31.680000 3.960000 207 202 142 0
7.040000 31.680000 3.960000 207 202 142 0
7.260000 31.680000 3.960000 205 200 140 0
7.480000 31.680000 5.060000 204 199 139 0
7.700000 31.680000 5.720000 202 196 139 0
7.920000 31.680000 7.040000 202 196 139 0
8.140000 31.680000 7.040000 204 197 138 0
8.360000 31.680000 7.040000 204 197 138 0
8.580000 31.680000 7.040000 204 197 138 0
8.800000 31.680000 7.040000 204 197 138 0
9.020000 31.680000 7.260000 204 197 138 0
9.240000 31.680000 7.260000 205 198 139 0
9.460000 31.680000 7.260000 204 199 139 0
9.680000 31.680000 7.260000 205 200 140 0
9.900000 31.680000 8.580000 206 199 140 0
10.120000 31.680000 8.800000 207 200 141 0
10.340000 31.680000 8.800000 208 201 142 0
10.560000 31.680000 8.800000 207 200 141 0
10.780000 31.680000 8.800000 208 201 142 0
11.000000 31.680000 8.800000 208 201 142 0
11.220000 31.680000 8.800000 208 203 143 0
11.440000 31.680000 9.020000 208 203 143 0
11.660000 31.680000 9.020000 208 202 145 0
11.880000 31.680000 9.020000 208 202 145 0
12.100000 31.680000 9.020000 209 203 146 0
12.320000 31.680000 9.020000 209 203 146 0
12.540000 31.680000 9.020000 211 205 150 0
12.760000 31.680000 9.240000 211 205 150 0
12.980000 31.680000 9.240000 209 206 156 0
13.200000 31.680000 9.240000 211 208 158 0
13.420000 31.680000 9.240000 211 208 160 0
13.640000 31.680000 9.460000 212 209 161 0
13.860000 31.680000 10.780000 214 207 150 0
14.080000 31.680000 10.780000 209 202 145 0
14.300000 31.680000 10.780000 220 181 137 0
14.520000 31.680000 10.780000 206 167 123 0
14.740000 31.680000 10.780000 216 142 108 0
14.960000 31.680000 9.460000 201 127 93 0
15.180000 31.680000 16.500000 208 99 79 0
15.400000 31.680000 28.820000 197 88 68 0
15.620000 31.680000 34.320000 197 86 64 0
15.840000 31.680000 34.320000 197 86 64 0
16.060000 31.680000 34.100000 194 85 63 0
16.280000 31.680000 34.100000 195 86 64 0
16.500000 31.680000 34.100000 197 88 68 0
16.720000 31.680000 34.100000 198 89 69 0
16.940000 31.680000 34.100000 199 90 70 0
17.160000 31.680000 34.100000 199 90 70 0
17.380000 31.680000 34.100000 200 91 71 0
17.600000 31.680000 35.640000 201 92 72 0
17.820000 31.680000 35.420000 201 92 72 0
18.040000 31.680000 37.840000 199 90 70 0
18.260000 31.680000 38.940000 199 90 70 0
18.480000 31.680000 38.720000 198 89 69 0
18.700000 31.680000 38.940000 196 87 67 0
18.920000 31.680000 38.940000 196 87 67 0
19.140000 31.680000 38.940000 196 87 67 0
19.360000 31.680000 38.940000 196 87 67 0
19.580000 31.680000 38.940000 197 88 68 0
19.800000 31.680000 38.940000 197 88 68 0
20.020000 31.680000 39.160000 197 88 70 0
20.240000 31.680000 39.160000 198 89 71 0
20.460000 31.680000 39.160000 198 89 69 0
20.680000 31.680000 39.160000 199 90 70 0
20.900000 31.680000 39.160000 200 91 71 0
21.120000 31.680000 39.160000 200 91 71 0
21.340000 31.680000 39.380000 200 91 71 0
21.560000 31.680000 39.380000 199 90 70 0
21.780000 31.680000 39.380000 198 90 72 0
22.000000 31.680000 39.380000 198 90 72 0
22.220000 31.680000 39.380000 198 90 72 0
22.440000 31.680000 39.380000 198 90 72 0
22.660000 31.680000 39.600000 199 91 73 0
22.880000 31.680000 40.920000 200 92 74 0
23.100000 31.680000 40.920000 199 93 74 0
23.320000 31.680000 40.920000 201 95 76 0
23.540000 31.680000 40.920000 200 94 76 0
23.760000 31.680000 41.140000 201 95 77 0
23.980000 31.680000 41.140000 200 94 75 0
24.200000 31.680000 35.640000 201 95 76 0
24.420000 31.680000 19.140000 202 96 77 0
24.640000 31.680000 2.640000 202 96 77 0
25.740000 31.680000 0.220000 202 100 81 0
25.960000 31.680000 1.540000 202 100 81 0
26.180000 31.680000 1.760000 204 102 83 0
26.400000 31.680000 1.760000 204 102 83 0
26.620000 31.680000 1.760000 203 109 92 0
26.840000 31.680000 1.760000 205 111 94 0
27.060000 31.680000 1.760000 205 113 95 0
27.280000 31.680000 1.760000 206 114 96 0
27.500000 31.680000 1.540000 206 112 95 0
27.720000 31.680000 1.540000 206 112 95 0
27.940000 31.680000 1.540000 205 113 97 0
28.160000 31.680000 1.540000 206 114 98 0
28.380000 31.680000 1.540000 205 116 103 0
28.600000 31.680000 1.540000 208 119 106 0
28.820000 31.680000 1.540000 203 129 113 0
29.040000 31.680000 1.760000 210 136 120 0
29.260000 31.680000 1.760000 209 176 140 0
29.480000 31.680000 1.760000 233 200 164 0
29.700000 31.680000 1.760000 227 221 202 0
29.920000 31.680000 1.760000 240 234 215 0
30.140000 31.680000 3.300000 239 240 237 0
30.360000 31.680000 3.300000 240 241 238 0
30.580000 31.680000 1.980000 250 238 219 0
30.800000 31.680000 1.980000 237 225 206 0
31.020000 31.680000 1.980000 243 175 161 0
31.240000 31.680000 1.980000 215 147 133 0
31.460000 31.680000 2.200000 216 130 114 0
31.680000 31.680000 2.200000 210 124 108 0
31.900000 31.680000 2.200000 209 119 105 0
32.120000 31.680000 3.740000 207 117 103 0
32.340000 31.680000 3.740000 209 115 98 0
32.560000 31.680000 3.740000 208 114 97 0
32.780000 31.680000 3.740000 208 114 99 0
33.000000 31.680000 3.960000 208 114 99 0
33.220000 31.680000 3.960000 208 120 105 0
33.440000 31.680000 3.960000 209 121 106 0
33.660000 31.680000 5.060000 209 125 110 0
33.880000 31.680000 5.940000 211 127 112 0
34.100000 31.680000 7.040000 213 129 113 0
34.320000 31.680000 7.040000 211 127 111 0
34.540000 31.680000 8.360000 213 119 104 0
34.760000 31.680000 8.360000 207 113 98 0
34.980000 31.680000 8.580000 210 108 91 0
35.200000 31.680000 8.580000 206 104 87 0
35.420000 31.680000 8.800000 207 101 83 0
35.640000 31.680000 8.800000 204 98 80 0
35.860000 31.680000 8.800000 205 97 80 0
36.080000 31.680000 8.800000 205 97 80 0
36.300000 31.680000 8.800000 203 95 78 0
36.520000 31.680000 10.340000 203 95 78 0
36.740000 31.680000 10.340000 204 94 78 0
36.960000 31.680000 10.340000 203 93 77 0
37.180000 31.680000 10.560000 201 93 76 0
0.660000 31.900000 0.220000 204 201 143 0
0.880000 31.900000 0.220000 205 202 144 0
1.100000 31.900000 0.220000 206 204 148 0
1.320000 31.900000 0.220000 206 204 148 0
1.540000 31.900000 0.220000 207 205 149 0
1.760000 31.900000 0.220000 205 203 147 0
1.980000 31.900000 0.220000 205 202 146 0
2.200000 31.900000 0.220000 204 201 145 0
2.420000 31.900000 0.220000 203 200 142 0
2.640000 31.900000 0.220000 202 199 141 0
2.860000 31.900000 1.760000 202 199 141 0
3.080000 31.900000 1.760000 200 197 139 0
3.300000 31.900000 1.760000 201 198 138 0
3.520000 31.900000 1.980000 201 198 138 0
3.740000 31.900000 1.980000 201 198 140 0
3.960000 31.900000 1.980000 202 199 141 0
4.180000 31.900000 1.980000 203 200 142 0
4.400000 31.900000 1.980000 204 201 143 0
4.620000 31.900000 2.200000 204 201 143 0
4.840000 31.900000 2.200000 205 202 144 0
5.060000 31.900000 2.200000 204 201 143 0
5.280000 31.900000 2.200000 205 202 144 0
5.500000 31.900000 2.420000 205 202 144 0
5.720000 31.900000 2.420000 204 201 143 0
5.940000 31.900000 2.420000 206 200 143 0
6.160000 31.900000 2.420000 206 200 143 0
6.380000 31.900000 2.640000 206 199 140 0
6.600000 31.900000 3.960000 206 199 140 0
6.820000 31.900000 3.960000 205 198 139 0
7.040000 31.900000 3.960000 205 198 139 0
7.260000 31.900000 3.740000 204 197 138 0
7.480000 31.900000 5.940000 203 196 137 0
7.700000 31.900000 7.040000 203 196 137 0
7.920000 31.900000 7.040000 203 196 137 0
8.140000 31.900000 7.040000 203 196 137 0
8.360000 31.900000 7.040000 204 197 138 0
8.580000 31.900000 7.040000 203 196 137 0
8.800000 31.900000 7.040000 204 197 138 0
9.020000 31.900000 7.260000 204 197 138 0
9.240000 31.900000 7.260000 205 198 139 0
9.460000 31.900000 7.260000 205 198 138 0
9.680000 31.900000 7.260000 205 198 138 0
9.900000 31.900000 8.580000 206 199 140 0
10.120000 31.900000 8.800000 206 199 140 0
10.340000 31.900000 8.800000 206 199 140 0
10.560000 31.900000 8.800000 207 200 141 0
10.780000 31.900000 8.800000 207 200 141 0
11.000000 31.900000 8.800000 207 200 141 0
11.220000 31.900000 8.800000 208 201 142 0
11.440000 31.900000 9.020000 208 201 142 0
11.660000 31.900000 9.020000 208 201 144 0
11.880000 31.900000 9.020000 209 202 145 0
12.100000 31.900000 9.020000 209 202 145 0
12.320000 31.900000 9.020000 210 203 146 0
12.540000 31.900000 9.020000 210 204 147 0
12.760000 31.900000 9.240000 210 204 147 0
12.980000 31.900000 9.240000 211 205 148 0
13.200000 31.900000 9.240000 211 205 148 0
13.420000 31.900000 9.240000 213 207 152 0
13.640000 31.900000 9.460000 214 208 153 0
13.860000 31.900000 10.780000 214 204 146 0
14.080000 31.900000 10.780000 209 199 141 0
14.300000 31.900000 10.780000 217 179 135 0
14.520000 31.900000 10.780000 204 166 122 0
14.740000 31.900000 10.780000 217 140 107 0
14.960000 31.900000 9.460000 201 124 91 0
15.180000 31.900000 14.960000 207 98 76 0
15.400000 31.900000 27.280000 197 88 66 0
15.620000 31.900000 35.640000 197 85 66 0
15.840000 31.900000 35.640000 197 85 66 0
16.060000 31.900000 34.100000 195 86 64 0
16.280000 31.900000 34.100000 197 88 66 0
16.500000 31.900000 34.100000 197 88 68 0
16.720000 31.900000 34.100000 199 90 70 0
16.940000 31.900000 34.100000 199 90 70 0
17.160000 31.900000 34.100000 200 91 71 0
17.380000 31.900000 35.420000 201 92 72 0
17.600000 31.900000 35.420000 200 91 71 0
17.820000 31.900000 35.420000 200 91 71 0
18.040000 31.900000 36.740000 200 91 71 0
18.260000 31.900000 37.620000 199 90 70 0
18.480000 31.900000 38.940000 197 88 68 0
18.700000 31.900000 38.940000 196 87 65 0
18.920000 31.900000 38.940000 195 86 64 0
19.140000 31.900000 38.940000 196 87 67 0
19.360000 31.900000 38.940000 197 88 68 0
19.580000 31.900000 38.940000 196 87 67 0
19.800000 31.900000 38.940000 198 89 69 0
20.020000 31.900000 39.160000 197 88 68 0
20.240000 31.900000 39.160000 197 88 68 0
20.460000 31.900000 39.160000 198 89 69 0
20.680000 31.900000 39.160000 199 90 70 0
20.900000 31.900000 39.160000 200 91 73 0
21.120000 31.900000 39.160000 199 90 72 0
21.340000 31.900000 39.380000 199 91 73 0
21.560000 31.900000 39.380000 199 91 73 0
21.780000 31.900000 39.380000 199 90 70 0
22.000000 31.900000 39.380000 198 89 69 0
22.220000 31.900000 39.380000 198 91 70 0
22.440000 31.900000 39.380000 198 91 70 0
22.660000 31.900000 39.600000 198 90 72 0
22.880000 31.900000 40.920000 200 92 74 0
23.100000 31.900000 40.920000 200 94 76 0
23.320000 31.900000 40.920000 202 96 78 0
23.540000 31.900000 40.920000 201 95 76 0
23.760000 31.900000 41.140000 201 95 76 0
23.980000 31.900000 41.140000 201 95 76 0
24.200000 31.900000 35.640000 201 95 76 0
24.420000 31.900000 19.140000 201 95 76 0
24.640000 31.900000 2.640000 202 96 77 0
25.740000 31.900000 0.220000 203 99 81 0
25.960000 31.900000 1.540000 204 100 82 0
26.180000 31.900000 0.440000 200 104 87 0
26.400000 31.900000 1.760000 201 105 88 0
26.620000 31.900000 1.760000 201 111 95 0
26.840000 31.900000 1.760000 203 113 97 0
27.060000 31.900000 1.760000 204 114 98 0
27.280000 31.900000 1.760000 205 115 99 0
27.500000 31.900000 1.540000 206 112 95 0
27.720000 31.900000 1.540000 206 112 95 0
27.940000 31.900000 1.540000 205 111 96 0
28.160000 31.900000 1.540000 206 112 97 0
28.380000 31.900000 1.540000 203 113 97 0
28.600000 31.900000 1.540000 206 116 100 0
28.820000 31.900000 1.540000 203 126 113 0
29.040000 31.900000 1.760000 214 137 124 0
29.260000 31.900000 1.760000 212 181 158 0
29.480000 31.900000 1.760000 234 203 180 0
29.700000 31.900000 1.760000 225 226 216 0
29.920000 31.900000 1.760000 239 240 230 0
30.140000 31.900000 3.300000 241 241 238 0
30.360000 31.900000 3.300000 241 241 238 0
30.580000 31.900000 1.980000 255 227 222 0
30.800000 31.900000 1.980000 243 205 200 0
31.020000 31.900000 1.980000 232 164 148 0
31.240000 31.900000 1.980000 217 149 133 0
31.460000 31.900000 2.200000 209 141 123 0
31.680000 31.900000 2.200000 204 136 118 0
31.900000 31.900000 2.200000 204 133 112 0
32.120000 31.900000 2.200000 201 130 109 0
32.340000 31.900000 3.740000 204 118 100 0
32.560000 31.900000 3.740000 204 118 100 0
32.780000 31.900000 3.740000 205 117 102 0
33.000000 31.900000 3.960000 207 119 104 0
33.220000 31.900000 3.960000 209 121 106 0
33.440000 31.900000 3.960000 210 122 107 0
33.660000 31.900000 5.060000 209 127 108 0
33.880000 31.900000 5.940000 210 128 109 0
34.100000 31.900000 7.040000 211 122 103 0
34.320000 31.900000 7.040000 209 120 101 0
34.540000 31.900000 8.360000 216 118 100 0
34.760000 31.900000 8.580000 210 112 94 0
34.980000 31.900000 8.580000 210 106 88 0
35.200000 31.900000 8.580000 206 102 84 0
35.420000 31.900000 8.800000 207 99 82 0
35.640000 31.900000 8.800000 206 98 81 0
35.860000 31.900000 8.800000 205 97 82 0
36.080000 31.900000 8.800000 205 97 82 0
36.300000 31.900000 8.800000 204 96 79 0
36.520000 31.900000 10.340000 204 96 79 0
36.740000 31.900000 10.340000 203 95 78 0
36.960000 31.900000 10.340000 203 95 78 0
37.180000 31.900000 10.560000 204 94 78 0
0.880000 32.120000 0.220000 206 203 145 0
1.100000 32.120000 0.220000 205 203 147 0
1.320000 32.120000 0.220000 207 205 149 0
1.540000 32.120000 0.220000 206 204 148 0
1.760000 32.120000 0.220000 206 204 148 0
1.980000 32.120000 0.220000 206 203 147 0
2.200000 32.120000 0.220000 205 202 146 0
2.420000 32.120000 0.220000 204 201 143 0
2.640000 32.120000 0.220000 202 199 141 0
2.860000 32.120000 1.760000 201 198 140 0
3.080000 32.120000 1.760000 201 198 140 0
3.300000 32.120000 1.760000 201 198 138 0
3.520000 32.120000 1.980000 201 198 138 0
3.740000 32.120000 1.980000 201 198 140 0
3.960000 32.120000 1.980000 202 199 141 0
4.180000 32.120000 1.980000 203 200 142 0
4.400000 32.120000 1.980000 204 201 143 0
4.620000 32.120000 2.200000 205 202 144 0
4.840000 32.120000 2.200000 204 201 143 0
5.060000 32.120000 2.200000 204 201 143 0
5.280000 32.120000 2.200000 204 201 143 0
5.500000 32.120000 2.420000 203 200 142 0
5.720000 32.120000 2.420000 203 200 142 0
5.940000 32.120000 2.420000 205 199 142 0
6.160000 32.120000 2.420000 204 198 141 0
6.380000 32.120000 2.640000 205 198 139 0
6.600000 32.120000 2.640000 204 197 138 0
6.820000 32.120000 3.960000 203 196 137 0
7.040000 32.120000 3.960000 203 196 137 0
7.260000 32.120000 3.740000 202 195 136 0
7.480000 32.120000 5.940000 202 195 136 0
7.700000 32.120000 7.040000 203 196 137 0
7.920000 32.120000 7.040000 203 196 137 0
8.140000 32.120000 7.040000 203 196 137 0
8.360000 32.120000 7.040000 204 197 138 0
8.580000 32.120000 7.040000 203 196 137 0
8.800000 32.120000 7.040000 204 197 138 0
9.020000 32.120000 7.260000 204 197 138 0
9.240000 32.120000 7.260000 205 198 139 0
9.460000 32.120000 7.260000 205 198 138 0
9.680000 32.120000 7.260000 205 198 138 0
9.900000 32.120000 8.580000 205 198 139 0
10.120000 32.120000 8.800000 206 199 140 0
10.340000 32.120000 8.800000 206 199 140 0
10.560000 32.120000 8.800000 206 199 140 0
10.780000 32.120000 8.800000 206 199 140 0
11.000000 32.120000 8.800000 206 199 140 0
11.220000 32.120000 8.800000 207 200 141 0
11.440000 32.120000 9.020000 207 200 141 0
11.660000 32.120000 9.020000 208 201 144 0
11.880000 32.120000 9.020000 208 201 144 0
12.100000 32.120000 9.020000 208 201 144 0
12.320000 32.120000 9.020000 209 202 145 0
12.540000 32.120000 9.240000 209 203 146 0
12.760000 32.120000 9.240000 209 203 146 0
12.980000 32.120000 9.240000 210 204 147 0
13.200000 32.120000 9.240000 211 205 148 0
13.420000 32.120000 9.240000 211 205 150 0
13.640000 32.120000 9.460000 211 205 150 0
13.860000 32.120000 9.460000 212 202 144 0
14.080000 32.120000 9.460000 207 197 139 0
14.300000 32.120000 10.780000 217 179 135 0
14.520000 32.120000 10.780000 205 167 123 0
14.740000 32.120000 9.460000 216 139 106 0
14.960000 32.120000 8.140000 202 125 92 0
15.180000 32.120000 13.640000 207 98 76 0
15.400000 32.120000 27.280000 197 88 66 0
15.620000 32.120000 35.640000 197 85 66 0
15.840000 32.120000 35.640000 197 85 66 0
16.060000 32.120000 35.640000 196 87 65 0
16.280000 32.120000 34.100000 196 87 65 0
16.500000 32.120000 34.100000 199 90 70 0
16.720000 32.120000 34.100000 199 90 70 0
16.940000 32.120000 34.100000 199 90 70 0
17.160000 32.120000 34.100000 200 91 71 0
17.380000 32.120000 35.420000 200 91 71 0
17.600000 32.120000 36.520000 200 91 71 0
17.820000 32.120000 36.520000 200 91 71 0
18.040000 32.120000 36.520000 200 91 71 0
18.260000 32.120000 37.620000 199 90 70 0
18.480000 32.120000 38.940000 197 88 68 0
18.700000 32.120000 38.940000 196 87 65 0
18.920000 32.120000 38.940000 196 87 65 0
19.140000 32.120000 38.940000 196 87 67 0
19.360000 32.120000 38.940000 196 87 67 0
19.580000 32.120000 38.940000 197 88 68 0
19.800000 32.120000 39.160000 197 88 68 0
20.020000 32.120000 39.160000 198 89 69 0
20.240000 32.120000 39.160000 199 90 70 0
20.460000 32.120000 39.160000 199 90 70 0
20.680000 32.120000 39.160000 199 90 70 0
20.900000 32.120000 39.160000 199 90 72 0
21.120000 32.120000 39.160000 199 90 72 0
21.340000 32.120000 39.380000 198 90 72 0
21.560000 32.120000 39.380000 199 91 73 0
21.780000 32.120000 39.380000 199 90 70 0
22.000000 32.120000 39.380000 199 90 70 0
22.220000 32.120000 39.380000 198 91 70 0
22.440000 32.120000 39.380000 198 91 70 0
22.660000 32.120000 39.600000 198 90 72 0
22.880000 32.120000 39.600000 199 91 73 0
23.100000 32.120000 40.920000 200 94 76 0
23.320000 32.120000 40.920000 201 95 77 0
23.540000 32.120000 40.920000 202 96 77 0
23.760000 32.120000 41.140000 202 96 77 0
23.980000 32.120000 41.140000 201 95 76 0
24.200000 32.120000 32.780000 201 95 76 0
24.420000 32.120000 13.640000 201 95 76 0
25.740000 32.120000 0.220000 202 98 80 0
25.960000 32.120000 1.540000 202 98 80 0
26.180000 32.120000 0.440000 201 105 88 0
26.400000 32.120000 0.440000 204 108 91 0
26.620000 32.120000 1.760000 203 113 97 0
26.840000 32.120000 1.760000 205 115 99 0
27.060000 32.120000 1.760000 205 115 99 0
27.280000 32.120000 1.760000 206 116 100 0
27.500000 32.120000 1.540000 206 112 95 0
27.720000 32.120000 1.540000 205 111 94 0
27.940000 32.120000 1.540000 205 111 96 0
28.160000 32.120000 1.540000 205 111 96 0
28.380000 32.120000 1.540000 202 112 96 0
28.600000 32.120000 1.540000 205 115 99 0
28.820000 32.120000 1.540000 205 128 115 0
29.040000 32.120000 1.760000 219 142 129 0
29.260000 32.120000 1.760000 215 184 161 0
29.480000 32.120000 1.760000 237 206 183 0
29.700000 32.120000 1.760000 231 232 222 0
29.920000 32.120000 3.080000 240 241 231 0
30.140000 32.120000 3.300000 241 241 238 0
30.360000 32.120000 3.300000 240 240 237 0
30.580000 32.120000 1.980000 255 218 213 0
30.800000 32.120000 1.980000 234 196 191 0
31.020000 32.120000 1.980000 232 164 148 0
31.240000 32.120000 1.980000 218 150 134 0
31.460000 32.120000 2.200000 214 146 128 0
31.680000 32.120000 2.200000 216 148 130 0
31.900000 32.120000 2.200000 224 153 132 0
32.120000 32.120000 2.200000 219 148 127 0
32.340000 32.120000 2.420000 220 134 116 0
32.560000 32.120000 3.740000 210 124 106 0
32.780000 32.120000 3.740000 209 121 106 0
33.000000 32.120000 3.960000 210 122 107 0
33.220000 32.120000 3.960000 208 120 105 0
33.440000 32.120000 3.960000 210 122 107 0
33.660000 32.120000 3.740000 210 128 109 0
33.880000 32.120000 5.940000 215 133 114 0
34.100000 32.120000 7.040000 212 123 104 0
34.320000 32.120000 7.040000 209 120 101 0
34.540000 32.120000 8.360000 213 115 97 0
34.760000 32.120000 8.580000 208 110 92 0
34.980000 32.120000 8.580000 208 104 86 0
35.200000 32.120000 8.580000 206 102 84 0
35.420000 32.120000 8.800000 207 99 82 0
35.640000 32.120000 8.800000 205 97 80 0
35.860000 32.120000 8.800000 204 96 81 0
36.080000 32.120000 8.800000 204 96 81 0
36.300000 32.120000 8.800000 204 96 79 0
36.520000 32.120000 10.340000 204 96 79 0
36.740000 32.120000 10.340000 204 96 79 0
36.960000 32.120000 10.340000 203 95 78 0
37.180000 32.120000 10.560000 203 93 77 0
0.880000 32.340000 0.220000 207 204 146 0
1.100000 32.340000 0.220000 208 205 149 0
1.320000 32.340000 0.220000 207 204 148 0
1.540000 32.340000 0.220000 208 205 149 0
1.760000 32.340000 0.220000 207 204 148 0
1.980000 32.340000 0.220000 207 204 148 0
2.200000 32.340000 0.220000 206 203 147 0
2.420000 32.340000 0.220000 204 201 143 0
2.640000 32.340000 1.760000 202 199 141 0
2.860000 32.340000 1.760000 202 199 139 0
3.080000 32.340000 1.760000 201 198 138 0
3.300000 32.340000 1.980000 203 197 140 0
3.520000 32.340000 1.980000 203 197 140 0
3.740000 32.340000 1.980000 201 198 140 0
3.960000 32.340000 1.980000 202 199 141 0
4.180000 32.340000 1.980000 202 199 141 0
4.400000 32.340000 2.200000 203 200 142 0
4.620000 32.340000 2.200000 204 201 143 0
4.840000 32.340000 2.200000 204 201 143 0
5.060000 32.340000 2.200000 206 200 143 0
5.280000 32.340000 2.200000 205 199 142 0
5.500000 32.340000 2.420000 203 200 142 0
5.720000 32.340000 2.420000 202 199 141 0
5.940000 32.340000 2.420000 205 198 139 0
6.160000 32.340000 2.640000 204 197 138 0
6.380000 32.340000 2.640000 202 195 136 0
6.600000 32.340000 2.640000 202 195 136 0
6.820000 32.340000 3.960000 201 194 135 0
7.040000 32.340000 4.180000 201 194 135 0
7.260000 32.340000 3.740000 200 193 134 0
7.480000 32.340000 5.940000 201 194 135 0
7.700000 32.340000 7.040000 203 196 137 0
7.920000 32.340000 7.040000 203 196 137 0
8.140000 32.340000 7.040000 204 197 138 0
8.360000 32.340000 7.040000 204 197 138 0
8.580000 32.340000 7.040000 204 197 140 0
8.800000 32.340000 7.040000 204 197 140 0
9.020000 32.340000 7.260000 204 197 138 0
9.240000 32.340000 7.260000 204 197 138 0
9.460000 32.340000 7.260000 205 198 139 0
9.680000 32.340000 7.260000 205 198 139 0
9.900000 32.340000 8.580000 204 197 138 0
10.120000 32.340000 8.800000 205 198 139 0
10.340000 32.340000 8.800000 205 198 139 0
10.560000 32.340000 8.800000 205 198 139 0
10.780000 32.340000 8.800000 205 198 139 0
11.000000 32.340000 8.800000 205 198 139 0
11.220000 32.340000 8.800000 206 199 140 0
11.440000 32.340000 9.020000 206 199 140 0
11.660000 32.340000 9.020000 206 199 140 0
11.880000 32.340000 9.020000 207 200 141 0
12.100000 32.340000 9.020000 208 201 144 0
12.320000 32.340000 9.020000 209 202 145 0
12.540000 32.340000 9.240000 209 202 145 0
12.760000 32.340000 9.240000 210 203 146 0
12.980000 32.340000 9.240000 210 203 146 0
13.200000 32.340000 9.240000 211 204 147 0
13.420000 32.340000 9.460000 210 204 147 0
13.640000 32.340000 9.460000 209 203 146 0
13.860000 32.340000 9.460000 212 202 146 0
14.080000 32.340000 9.460000 209 199 143 0
14.300000 32.340000 9.460000 220 181 133 0
14.520000 32.340000 9.460000 206 167 119 0
14.740000 32.340000 9.460000 217 140 107 0
14.960000 32.340000 9.460000 202 125 92 0
15.180000 32.340000 16.280000 208 99 79 0
15.400000 32.340000 29.920000 196 87 67 0
15.620000 32.340000 35.640000 197 85 66 0
15.840000 32.340000 35.640000 197 85 66 0
16.060000 32.340000 35.420000 197 85 66 0
16.280000 32.340000 34.100000 200 88 69 0
16.500000 32.340000 34.100000 199 90 70 0
16.720000 32.340000 34.100000 199 90 70 0
16.940000 32.340000 34.100000 200 91 71 0
17.160000 32.340000 34.100000 199 90 70 0
17.380000 32.340000 35.640000 199 90 70 0
17.600000 32.340000 35.420000 198 89 69 0
17.820000 32.340000 37.840000 199 90 70 0
18.040000 32.340000 37.620000 199 90 70 0
18.260000 32.340000 37.400000 198 89 69 0
18.480000 32.340000 38.720000 196 87 67 0
18.700000 32.340000 38.940000 196 87 67 0
18.920000 32.340000 38.940000 194 85 65 0
19.140000 32.340000 38.940000 195 86 66 0
19.360000 32.340000 38.940000 196 87 67 0
19.580000 32.340000 38.940000 196 87 67 0
19.800000 32.340000 39.160000 197 88 68 0
20.020000 32.340000 39.160000 198 89 69 0
20.240000 32.340000 39.160000 198 89 69 0
20.460000 32.340000 39.160000 198 89 69 0
20.680000 32.340000 39.160000 198 89 69 0
20.900000 32.340000 39.160000 199 90 72 0
21.120000 32.340000 39.160000 199 90 72 0
21.340000 32.340000 39.380000 199 90 72 0
21.560000 32.340000 39.380000 199 90 72 0
21.780000 32.340000 39.380000 199 90 72 0
22.000000 32.340000 39.380000 199 90 72 0
22.220000 32.340000 39.380000 198 90 72 0
22.440000 32.340000 39.380000 199 91 73 0
22.660000 32.340000 39.600000 199 91 73 0
22.880000 32.340000 40.920000 199 91 73 0
23.100000 32.340000 40.920000 200 92 74 0
23.320000 32.340000 40.920000 201 93 75 0
23.540000 32.340000 40.920000 201 95 77 0
23.760000 32.340000 41.140000 202 96 78 0
23.980000 32.340000 41.140000 201 95 76 0
24.200000 32.340000 32.780000 201 95 76 0
24.420000 32.340000 13.640000 201 95 77 0
25.520000 32.340000 0.440000 202 98 80 0
25.740000 32.340000 1.540000 201 102 82 0
25.960000 32.340000 1.540000 201 102 82 0
26.180000 32.340000 0.440000 202 106 89 0
26.400000 32.340000 0.440000 205 109 92 0
26.620000 32.340000 1.760000 204 111 98 0
26.840000 32.340000 1.760000 205 112 99 0
27.060000 32.340000 1.760000 208 114 99 0
27.280000 32.340000 1.760000 207 113 98 0
27.500000 32.340000 1.540000 205 111 94 0
27.720000 32.340000 1.540000 205 111 94 0
27.940000 32.340000 1.540000 204 112 94 0
28.160000 32.340000 1.540000 204 112 94 0
28.380000 32.340000 1.540000 203 113 99 0
28.600000 32.340000 1.540000 207 117 103 0
28.820000 32.340000 1.540000 199 133 114 0
29.040000 32.340000 1.760000 211 145 126 0
29.260000 32.340000 1.760000 210 204 177 0
29.480000 32.340000 1.760000 240 234 207 0
29.700000 32.340000 1.760000 241 239 221 0
29.920000 32.340000 3.080000 243 241 223 0
30.140000 32.340000 3.300000 251 237 219 0
30.360000 32.340000 1.980000 251 237 219 0
30.580000 32.340000 1.980000 255 220 197 0
30.800000 32.340000 1.980000 237 196 173 0
31.020000 32.340000 1.980000 231 164 151 0
31.240000 32.340000 1.980000 217 150 137 0
31.460000 32.340000 2.200000 213 154 133 0
31.680000 32.340000 2.200000 216 157 136 0
31.900000 32.340000 2.200000 218 160 133 0
32.120000 32.340000 2.200000 216 158 131 0
32.340000 32.340000 2.200000 219 137 120 0
32.560000 32.340000 2.420000 208 126 109 0
32.780000 32.340000 3.740000 211 123 108 0
33.000000 32.340000 3.960000 210 122 107 0
33.220000 32.340000 3.960000 208 124 108 0
33.440000 32.340000 3.960000 210 126 110 0
33.660000 32.340000 3.960000 210 123 109 0
33.880000 32.340000 5.060000 212 125 111 0
34.100000 32.340000 7.260000 216 124 108 0
34.320000 32.340000 7.040000 210 118 102 0
34.540000 32.340000 8.360000 213 113 98 0
34.760000 32.340000 8.580000 207 107 92 0
34.980000 32.340000 8.580000 207 105 88 0
35.200000 32.340000 8.580000 206 104 87 0
35.420000 32.340000 8.800000 206 99 84 0
35.640000 32.340000 8.800000 205 98 83 0
35.860000 32.340000 8.800000 205 97 82 0
36.080000 32.340000 8.800000 205 97 82 0
36.300000 32.340000 8.800000 204 96 81 0
36.520000 32.340000 10.340000 204 96 81 0
36.740000 32.340000 10.340000 205 97 80 0
36.960000 32.340000 10.340000 203 95 78 0
37.180000 32.340000 10.560000 203 95 80 0
0.880000 32.560000 0.220000 208 205 147 0
1.100000 32.560000 0.220000 208 205 149 0
1.320000 32.560000 0.220000 208 205 149 0
1.540000 32.560000 0.220000 208 205 149 0
1.760000 32.560000 0.220000 208 205 149 0
1.980000 32.560000 0.220000 208 205 149 0
2.200000 32.560000 0.220000 206 203 147 0
2.420000 32.560000 1.760000 205 202 144 0
2.640000 32.560000 1.760000 202 199 141 0
2.860000 32.560000 1.760000 202 199 139 0
3.080000 32.560000 1.760000 201 198 138 0
3.300000 32.560000 1.980000 204 198 141 0
3.520000 32.560000 1.980000 203 197 140 0
3.740000 32.560000 1.980000 202 199 141 0
3.960000 32.560000 1.980000 202 199 141 0
4.180000 32.560000 1.980000 202 199 141 0
4.400000 32.560000 2.200000 203 200 142 0
4.620000 32.560000 2.200000 204 201 143 0
4.840000 32.560000 2.200000 203 200 142 0
5.060000 32.560000 2.200000 205 199 142 0
5.280000 32.560000 2.420000 204 198 141 0
5.500000 32.560000 2.420000 202 199 141 0
5.720000 32.560000 2.420000 201 198 140 0
5.940000 32.560000 2.420000 203 196 137 0
6.160000 32.560000 2.640000 201 194 135 0
6.380000 32.560000 2.640000 200 193 134 0
6.600000 32.560000 2.640000 200 193 134 0
6.820000 32.560000 2.640000 199 192 133 0
7.040000 32.560000 4.180000 201 194 135 0
7.260000 32.560000 3.740000 200 193 134 0
7.480000 32.560000 5.940000 200 193 134 0
7.700000 32.560000 7.040000 201 194 135 0
7.920000 32.560000 7.040000 202 195 136 0
8.140000 32.560000 7.040000 203 196 137 0
8.360000 32.560000 7.040000 204 197 138 0
8.580000 32.560000 7.040000 204 197 140 0
8.800000 32.560000 7.040000 204 197 140 0
9.020000 32.560000 7.260000 204 197 138 0
9.240000 32.560000 7.260000 205 198 139 0
9.460000 32.560000 7.260000 204 197 138 0
9.680000 32.560000 7.260000 204 197 138 0
9.900000 32.560000 8.580000 204 197 138 0
10.120000 32.560000 8.800000 205 198 139 0
10.340000 32.560000 8.800000 204 197 138 0
10.560000 32.560000 8.800000 204 197 138 0
10.780000 32.560000 8.800000 205 198 139 0
11.000000 32.560000 8.800000 205 198 139 0
11.220000 32.560000 9.020000 205 198 139 0
11.440000 32.560000 9.020000 205 198 139 0
11.660000 32.560000 9.020000 206 199 140 0
11.880000 32.560000 9.020000 206 199 140 0
12.100000 32.560000 9.020000 208 201 144 0
12.320000 32.560000 9.020000 208 201 144 0
12.540000 32.560000 9.240000 209 202 145 0
12.760000 32.560000 9.240000 209 202 145 0
12.980000 32.560000 9.240000 211 204 147 0
13.200000 32.560000 9.240000 210 203 146 0
13.420000 32.560000 9.460000 209 203 146 0
13.640000 32.560000 9.460000 209 203 146 0
13.860000 32.560000 9.460000 213 203 147 0
14.080000 32.560000 9.460000 211 201 145 0
14.300000 32.560000 9.460000 218 179 131 0
14.520000 32.560000 9.460000 207 168 120 0
14.740000 32.560000 7.920000 218 141 108 0
14.960000 32.560000 13.420000 203 126 93 0
15.180000 32.560000 25.740000 209 100 80 0
15.400000 32.560000 34.100000 195 86 66 0
15.620000 32.560000 35.640000 197 85 66 0
15.840000 32.560000 35.420000 197 85 66 0
16.060000 32.560000 35.420000 197 85 66 0
16.280000 32.560000 34.100000 199 87 68 0
16.500000 32.560000 34.100000 198 89 69 0
16.720000 32.560000 34.100000 199 90 70 0
16.940000 32.560000 34.100000 199 90 70 0
17.160000 32.560000 34.100000 199 90 70 0
17.380000 32.560000 35.640000 199 90 70 0
17.600000 32.560000 35.640000 198 89 69 0
17.820000 32.560000 36.740000 197 88 68 0
18.040000 32.560000 37.840000 198 89 69 0
18.260000 32.560000 38.940000 196 87 67 0
18.480000 32.560000 38.720000 196 87 67 0
18.700000 32.560000 38.940000 195 86 66 0
18.920000 32.560000 38.940000 195 86 66 0
19.140000 32.560000 38.940000 195 86 66 0
19.360000 32.560000 38.940000 195 86 66 0
19.580000 32.560000 38.940000 196 87 67 0
19.800000 32.560000 39.160000 197 88 68 0
20.020000 32.560000 39.160000 197 88 68 0
20.240000 32.560000 39.160000 197 88 68 0
20.460000 32.560000 39.160000 199 90 70 0
20.680000 32.560000 39.160000 199 90 70 0
20.900000 32.560000 39.160000 199 90 72 0
21.120000 32.560000 39.160000 199 90 72 0
21.340000 32.560000 39.380000 199 90 72 0
21.560000 32.560000 39.380000 199 90 72 0
21.780000 32.560000 39.380000 199 90 72 0
22.000000 32.560000 39.380000 199 90 72 0
22.220000 32.560000 39.380000 199 91 73 0
22.440000 32.560000 39.380000 199 91 73 0
22.660000 32.560000 40.920000 199 91 73 0
22.880000 32.560000 40.920000 200 92 74 0
23.100000 32.560000 40.920000 200 92 74 0
23.320000 32.560000 40.920000 201 93 75 0
23.540000 32.560000 40.920000 201 95 77 0
23.760000 32.560000 41.140000 200 94 76 0
23.980000 32.560000 41.140000 201 95 76 0
24.200000 32.560000 35.640000 202 96 77 0
24.420000 32.560000 19.140000 201 95 77 0
24.640000 32.560000 2.640000 201 95 77 0
25.520000 32.560000 0.440000 202 98 80 0
25.740000 32.560000 0.220000 201 102 82 0
25.960000 32.560000 1.760000 202 103 83 0
26.180000 32.560000 0.440000 202 106 89 0
26.400000 32.560000 0.440000 204 108 91 0
26.620000 32.560000 1.760000 202 109 96 0
26.840000 32.560000 1.760000 205 112 99 0
27.060000 32.560000 1.760000 207 113 98 0
27.280000 32.560000 1.760000 206 112 97 0
27.500000 32.560000 1.540000 204 110 93 0
27.720000 32.560000 1.540000 205 111 94 0
27.940000 32.560000 1.540000 205 113 95 0
28.160000 32.560000 1.540000 206 114 96 0
28.380000 32.560000 1.540000 205 115 101 0
28.600000 32.560000 1.540000 209 119 105 0
28.820000 32.560000 1.540000 202 136 117 0
29.040000 32.560000 1.760000 221 155 136 0
29.260000 32.560000 1.760000 215 209 182 0
29.480000 32.560000 1.760000 242 236 209 0
29.700000 32.560000 1.760000 239 237 219 0
29.920000 32.560000 1.760000 241 239 221 0
30.140000 32.560000 1.760000 246 232 214 0
30.360000 32.560000 1.980000 239 225 207 0
30.580000 32.560000 1.980000 252 211 188 0
30.800000 32.560000 1.980000 235 194 171 0
