ply
format ascii 1.0
element vertex 1115
property float x
property float y
property float z
property uchar red
property uchar green
property uchar blue
property uchar alpha
end_header
33.880000 23.980000 18.260000 237 194 173 0
34.100000 23.980000 18.260000 236 193 172 0
34.320000 23.980000 19.030000 234 193 170 0
34.540000 23.980000 19.030000 234 193 170 0
34.760000 23.980000 19.030000 232 191 169 0
34.980000 23.980000 19.140000 232 191 169 0
35.200000 23.980000 19.140000 233 192 170 0
35.420000 23.980000 19.140000 232 191 169 0
35.640000 23.980000 19.250000 230 187 166 0
35.860000 23.980000 19.250000 225 182 161 0
36.080000 23.980000 19.250000 222 180 163 0
36.300000 23.980000 19.250000 221 179 162 0
36.520000 23.980000 19.250000 220 180 165 0
36.740000 23.980000 19.250000 220 180 165 0
36.960000 23.980000 19.250000 219 179 166 0
37.180000 23.980000 18.590000 219 179 166 0
0.000000 24.200000 7.920000 138 121 90 0
0.220000 24.200000 7.920000 139 122 91 0
0.440000 24.200000 7.920000 138 120 91 0
0.660000 24.200000 7.920000 137 119 90 0
0.880000 24.200000 7.260000 137 120 89 0
1.100000 24.200000 7.260000 137 120 89 0
1.320000 24.200000 7.260000 137 120 89 0
1.540000 24.200000 7.920000 135 118 87 0
1.760000 24.200000 8.580000 136 119 88 0
1.980000 24.200000 7.920000 136 119 88 0
2.200000 24.200000 7.920000 137 119 90 0
2.420000 24.200000 7.920000 136 118 89 0
2.640000 24.200000 7.920000 136 119 88 0
2.860000 24.200000 8.030000 135 118 87 0
3.080000 24.200000 8.690000 135 118 87 0
3.300000 24.200000 9.350000 135 118 87 0
3.520000 24.200000 9.350000 134 117 86 0
3.740000 24.200000 9.350000 134 117 86 0
3.960000 24.200000 9.350000 137 117 88 0
4.180000 24.200000 9.350000 137 117 88 0
4.400000 24.200000 9.350000 134 116 87 0
4.620000 24.200000 9.350000 133 115 86 0
4.840000 24.200000 9.350000 137 117 88 0
5.060000 24.200000 9.350000 135 115 86 0
5.280000 24.200000 9.350000 135 115 86 0
5.500000 24.200000 9.350000 134 114 85 0
5.720000 24.200000 9.350000 135 115 86 0
5.940000 24.200000 9.350000 134 114 85 0
6.160000 24.200000 9.350000 135 115 86 0
6.380000 24.200000 9.350000 135 115 86 0
6.600000 24.200000 9.350000 135 115 86 0
6.820000 24.200000 9.350000 135 115 86 0
7.040000 24.200000 9.350000 136 116 87 0
7.260000 24.200000 9.350000 135 115 86 0
7.480000 24.200000 9.350000 136 116 87 0
7.700000 24.200000 9.350000 136 116 87 0
7.920000 24.200000 9.350000 136 116 87 0
8.140000 24.200000 9.350000 136 116 87 0
8.360000 24.200000 8.690000 137 115 87 0
8.580000 24.200000 9.350000 137 115 87 0
8.800000 24.200000 9.350000 136 116 87 0
9.020000 24.200000 9.350000 136 116 87 0
9.240000 24.200000 9.350000 136 116 87 0
9.460000 24.200000 8.690000 135 115 86 0
9.680000 24.200000 8.690000 136 116 87 0
9.900000 24.200000 8.580000 136 116 87 0
10.120000 24.200000 8.580000 137 115 87 0
10.340000 24.200000 8.580000 138 116 88 0
10.560000 24.200000 8.580000 140 118 90 0
10.780000 24.200000 8.580000 140 118 90 0
11.000000 24.200000 7.920000 144 118 90 0
11.220000 24.200000 7.920000 148 122 94 0
11.440000 24.200000 7.920000 168 129 93 0
11.660000 24.200000 7.920000 183 144 108 0
11.880000 24.200000 8.030000 196 161 128 0
12.100000 24.200000 8.690000 209 174 141 0
12.320000 24.200000 8.690000 214 179 146 0
12.540000 24.200000 8.800000 212 177 144 0
12.760000 24.200000 8.800000 210 170 139 0
12.980000 24.200000 8.800000 204 164 133 0
13.200000 24.200000 8.800000 199 159 128 0
13.420000 24.200000 8.800000 200 160 129 0
13.640000 24.200000 8.800000 198 162 131 0
13.860000 24.200000 8.910000 201 165 134 0
14.080000 24.200000 8.910000 200 168 142 0
14.300000 24.200000 8.910000 202 170 144 0
14.520000 24.200000 8.910000 205 169 140 0
14.740000 24.200000 8.910000 205 169 140 0
14.960000 24.200000 9.460000 203 172 147 0
15.180000 24.200000 10.560000 202 171 146 0
15.400000 24.200000 11.110000 204 174 145 0
15.620000 24.200000 11.110000 205 175 146 0
15.840000 24.200000 11.110000 208 172 143 0
16.060000 24.200000 11.110000 206 170 141 0
16.280000 24.200000 11.220000 207 167 136 0
16.500000 24.200000 11.220000 207 167 136 0
16.720000 24.200000 11.220000 204 167 136 0
16.940000 24.200000 11.220000 205 168 137 0
17.160000 24.200000 11.330000 204 173 147 0
17.380000 24.200000 11.330000 207 176 150 0
17.600000 24.200000 11.990000 208 179 156 0
17.820000 24.200000 11.990000 210 181 158 0
18.040000 24.200000 12.100000 208 185 164 0
18.260000 24.200000 12.100000 208 185 164 0
18.480000 24.200000 12.100000 208 183 160 0
18.700000 24.200000 12.100000 209 184 161 0
18.920000 24.200000 12.100000 210 185 162 0
19.140000 24.200000 12.210000 210 185 162 0
19.360000 24.200000 12.210000 208 186 167 0
19.580000 24.200000 12.210000 209 187 168 0
19.800000 24.200000 12.210000 208 187 165 0
20.020000 24.200000 12.210000 206 185 163 0
20.240000 24.200000 12.320000 206 183 162 0
20.460000 24.200000 12.320000 200 177 156 0
20.680000 24.200000 12.320000 198 171 147 0
20.900000 24.200000 12.320000 191 164 140 0
21.120000 24.200000 12.430000 189 153 136 0
21.340000 24.200000 12.430000 183 147 130 0
21.560000 24.200000 12.980000 182 142 127 0
21.780000 24.200000 13.420000 176 136 121 0
22.000000 24.200000 13.860000 169 135 118 0
22.220000 24.200000 13.860000 164 130 113 0
22.440000 24.200000 13.860000 157 124 104 0
22.660000 24.200000 13.970000 149 116 96 0
22.880000 24.200000 13.970000 143 109 95 0
23.100000 24.200000 13.970000 138 104 90 0
23.320000 24.200000 13.970000 130 97 83 0
23.540000 24.200000 14.080000 129 96 82 0
23.760000 24.200000 14.080000 121 92 79 0
23.980000 24.200000 14.080000 119 90 77 0
24.200000 24.200000 13.310000 118 88 75 0
24.420000 24.200000 13.310000 119 89 76 0
24.640000 24.200000 13.310000 118 89 76 0
24.860000 24.200000 12.760000 119 90 77 0
25.080000 24.200000 12.320000 124 94 81 0
25.300000 24.200000 12.320000 126 96 83 0
25.520000 24.200000 11.660000 129 99 83 0
25.740000 24.200000 11.660000 133 103 87 0
25.960000 24.200000 12.320000 139 105 90 0
26.180000 24.200000 12.320000 143 109 94 0
26.400000 24.200000 12.320000 151 117 100 0
26.620000 24.200000 12.320000 160 126 109 0
26.840000 24.200000 12.320000 169 131 115 0
27.060000 24.200000 12.320000 173 135 119 0
27.280000 24.200000 13.090000 173 135 117 0
27.500000 24.200000 13.090000 174 136 118 0
27.720000 24.200000 13.090000 175 136 116 0
27.940000 24.200000 12.980000 177 138 118 0
28.160000 24.200000 13.530000 180 138 119 0
28.380000 24.200000 14.080000 183 141 122 0
28.600000 24.200000 13.970000 187 143 125 0
28.820000 24.200000 14.630000 192 148 130 0
29.040000 24.200000 14.520000 196 154 135 0
29.260000 24.200000 14.630000 200 158 139 0
29.480000 24.200000 14.630000 201 164 143 0
29.700000 24.200000 14.630000 204 167 146 0
29.920000 24.200000 15.400000 206 169 148 0
30.140000 24.200000 15.400000 214 177 156 0
30.360000 24.200000 15.400000 216 180 161 0
30.580000 24.200000 15.510000 220 184 165 0
30.800000 24.200000 15.510000 222 185 162 0
31.020000 24.200000 15.620000 226 189 166 0
31.240000 24.200000 15.620000 232 191 168 0
31.460000 24.200000 16.390000 235 194 171 0
31.680000 24.200000 16.500000 235 196 174 0
31.900000 24.200000 16.500000 237 198 176 0
32.120000 24.200000 17.050000 238 199 179 0
32.340000 24.200000 17.490000 237 198 178 0
32.560000 24.200000 18.040000 239 198 176 0
32.780000 24.200000 18.040000 236 195 173 0
33.000000 24.200000 18.150000 235 194 171 0
33.220000 24.200000 18.150000 234 193 170 0
33.440000 24.200000 18.150000 233 192 170 0
33.660000 24.200000 18.150000 233 192 170 0
33.880000 24.200000 18.260000 234 191 170 0
34.100000 24.200000 18.260000 232 189 168 0
34.320000 24.200000 19.030000 232 191 168 0
34.540000 24.200000 19.030000 231 190 167 0
34.760000 24.200000 19.030000 231 190 168 0
34.980000 24.200000 19.140000 231 190 168 0
35.200000 24.200000 19.140000 232 191 169 0
35.420000 24.200000 19.140000 233 192 170 0
35.640000 24.200000 19.250000 232 189 168 0
35.860000 24.200000 19.250000 228 185 164 0
36.080000 24.200000 19.250000 225 183 166 0
36.300000 24.200000 19.250000 222 180 163 0
36.520000 24.200000 19.250000 220 180 165 0
36.740000 24.200000 19.250000 220 180 165 0
36.960000 24.200000 18.590000 218 178 165 0
37.180000 24.200000 18.590000 216 176 163 0
0.000000 24.420000 7.920000 139 122 91 0
0.220000 24.420000 7.920000 138 121 90 0
0.440000 24.420000 7.920000 138 120 91 0
0.660000 24.420000 7.920000 137 119 90 0
0.880000 24.420000 7.920000 137 121 90 0
1.100000 24.420000 7.920000 137 121 90 0
1.320000 24.420000 7.920000 136 119 88 0
1.540000 24.420000 7.920000 136 119 88 0
1.760000 24.420000 8.580000 135 118 87 0
1.980000 24.420000 8.580000 136 119 88 0
2.200000 24.420000 8.580000 137 119 90 0
2.420000 24.420000 7.920000 136 118 89 0
2.640000 24.420000 7.920000 136 119 88 0
2.860000 24.420000 8.690000 134 117 86 0
3.080000 24.420000 8.690000 135 118 87 0
3.300000 24.420000 9.350000 135 118 87 0
3.520000 24.420000 9.350000 135 117 88 0
3.740000 24.420000 10.010000 135 117 88 0
3.960000 24.420000 10.010000 135 117 88 0
4.180000 24.420000 9.350000 134 116 87 0
4.400000 24.420000 9.350000 134 117 86 0
4.620000 24.420000 9.350000 134 117 86 0
4.840000 24.420000 9.350000 136 116 87 0
5.060000 24.420000 9.350000 136 116 87 0
5.280000 24.420000 9.350000 137 117 88 0
5.500000 24.420000 9.350000 135 115 86 0
5.720000 24.420000 9.350000 135 115 86 0
5.940000 24.420000 9.350000 135 115 86 0
6.160000 24.420000 9.460000 133 115 86 0
6.380000 24.420000 9.460000 133 115 86 0
6.600000 24.420000 9.460000 135 115 86 0
6.820000 24.420000 9.350000 136 116 87 0
7.040000 24.420000 9.350000 136 116 87 0
7.260000 24.420000 9.350000 135 115 86 0
7.480000 24.420000 9.350000 136 116 87 0
7.700000 24.420000 9.350000 135 115 86 0
7.920000 24.420000 9.350000 136 116 87 0
8.140000 24.420000 9.350000 136 116 87 0
8.360000 24.420000 8.690000 136 116 87 0
8.580000 24.420000 8.690000 136 116 87 0
8.800000 24.420000 9.350000 135 115 86 0
9.020000 24.420000 9.350000 136 116 87 0
9.240000 24.420000 9.350000 136 116 87 0
9.460000 24.420000 8.690000 136 116 87 0
9.680000 24.420000 8.690000 136 116 87 0
9.900000 24.420000 8.690000 136 116 87 0
10.120000 24.420000 8.580000 138 116 88 0
10.340000 24.420000 8.580000 138 116 88 0
10.560000 24.420000 8.580000 139 117 89 0
10.780000 24.420000 8.580000 140 118 90 0
11.000000 24.420000 8.580000 147 117 86 0
11.220000 24.420000 7.920000 151 121 90 0
11.440000 24.420000 7.920000 164 127 93 0
11.660000 24.420000 7.920000 180 143 109 0
11.880000 24.420000 8.030000 195 160 123 0
12.100000 24.420000 8.030000 207 172 135 0
12.320000 24.420000 8.690000 213 178 143 0
12.540000 24.420000 8.690000 211 176 141 0
12.760000 24.420000 8.800000 209 165 131 0
12.980000 24.420000 8.800000 202 158 124 0
13.200000 24.420000 8.800000 197 153 119 0
13.420000 24.420000 8.800000 197 153 119 0
13.640000 24.420000 8.800000 195 158 126 0
13.860000 24.420000 8.910000 199 162 130 0
14.080000 24.420000 8.910000 199 167 139 0
14.300000 24.420000 8.910000 203 171 143 0
14.520000 24.420000 8.910000 202 171 146 0
14.740000 24.420000 8.910000 203 172 147 0
14.960000 24.420000 9.460000 203 172 146 0
15.180000 24.420000 10.560000 205 174 148 0
15.400000 24.420000 11.110000 206 174 144 0
15.620000 24.420000 11.110000 205 173 143 0
15.840000 24.420000 11.110000 207 171 140 0
16.060000 24.420000 11.110000 204 168 137 0
16.280000 24.420000 11.220000 206 166 136 0
16.500000 24.420000 11.220000 205 165 135 0
16.720000 24.420000 11.220000 206 166 135 0
16.940000 24.420000 11.220000 206 166 135 0
17.160000 24.420000 11.330000 204 170 140 0
17.380000 24.420000 11.330000 208 174 144 0
17.600000 24.420000 11.990000 209 179 150 0
17.820000 24.420000 11.990000 211 181 152 0
18.040000 24.420000 12.100000 210 181 158 0
18.260000 24.420000 12.100000 209 180 157 0
18.480000 24.420000 12.100000 208 182 155 0
18.700000 24.420000 12.100000 208 182 155 0
18.920000 24.420000 12.210000 210 184 157 0
19.140000 24.420000 12.210000 210 184 157 0
19.360000 24.420000 12.210000 212 186 159 0
19.580000 24.420000 12.210000 211 185 158 0
19.800000 24.420000 12.210000 211 184 162 0
20.020000 24.420000 12.210000 210 183 161 0
20.240000 24.420000 12.320000 206 183 160 0
20.460000 24.420000 12.320000 207 184 161 0
20.680000 24.420000 12.320000 206 183 160 0
20.900000 24.420000 12.320000 203 180 157 0
21.120000 24.420000 12.430000 198 176 157 0
21.340000 24.420000 12.430000 194 172 153 0
21.560000 24.420000 12.980000 191 172 153 0
21.780000 24.420000 13.970000 189 170 151 0
22.000000 24.420000 13.860000 189 168 146 0
22.220000 24.420000 13.860000 186 165 143 0
22.440000 24.420000 13.860000 184 159 136 0
22.660000 24.420000 13.970000 175 150 127 0
22.880000 24.420000 13.970000 168 142 122 0
23.100000 24.420000 13.970000 162 136 116 0
23.320000 24.420000 14.080000 162 128 111 0
23.540000 24.420000 14.080000 155 121 104 0
23.760000 24.420000 14.080000 141 111 95 0
23.980000 24.420000 14.080000 125 95 79 0
24.200000 24.420000 14.080000 117 87 74 0
24.420000 24.420000 13.310000 116 86 73 0
24.640000 24.420000 13.970000 115 88 74 0
24.860000 24.420000 13.310000 115 88 74 0
25.080000 24.420000 12.870000 117 90 76 0
25.300000 24.420000 12.210000 118 91 77 0
25.520000 24.420000 12.320000 123 95 78 0
25.740000 24.420000 11.660000 126 98 81 0
25.960000 24.420000 12.320000 130 100 85 0
26.180000 24.420000 12.320000 137 107 92 0
26.400000 24.420000 12.320000 145 115 99 0
26.620000 24.420000 12.320000 153 123 107 0
26.840000 24.420000 12.320000 161 129 113 0
27.060000 24.420000 12.430000 166 134 118 0
27.280000 24.420000 13.090000 165 133 115 0
27.500000 24.420000 12.980000 166 134 116 0
27.720000 24.420000 13.530000 162 135 121 0
27.940000 24.420000 14.080000 164 137 123 0
28.160000 24.420000 13.970000 171 137 120 0
28.380000 24.420000 14.630000 173 139 122 0
28.600000 24.420000 14.520000 178 144 129 0
28.820000 24.420000 14.630000 182 148 133 0
29.040000 24.420000 14.630000 188 150 132 0
29.260000 24.420000 14.630000 196 158 140 0
29.480000 24.420000 14.630000 197 163 146 0
29.700000 24.420000 14.630000 201 167 150 0
29.920000 24.420000 15.400000 207 175 157 0
30.140000 24.420000 15.400000 209 177 159 0
30.360000 24.420000 15.510000 217 181 160 0
30.580000 24.420000 15.510000 219 183 162 0
30.800000 24.420000 15.510000 223 187 168 0
31.020000 24.420000 15.620000 226 190 171 0
31.240000 24.420000 15.730000 228 192 173 0
31.460000 24.420000 16.500000 231 195 176 0
31.680000 24.420000 16.500000 236 199 178 0
31.900000 24.420000 16.390000 236 199 178 0
32.120000 24.420000 17.490000 237 198 178 0
32.340000 24.420000 18.040000 236 197 177 0
32.560000 24.420000 18.040000 234 195 173 0
32.780000 24.420000 18.040000 233 194 172 0
33.000000 24.420000 18.150000 235 194 172 0
33.220000 24.420000 18.150000 232 191 169 0
33.440000 24.420000 18.150000 232 191 169 0
33.660000 24.420000 18.260000 231 190 168 0
33.880000 24.420000 18.260000 231 189 170 0
34.100000 24.420000 18.260000 230 188 169 0
34.320000 24.420000 19.030000 229 188 166 0
34.540000 24.420000 19.030000 229 188 166 0
34.760000 24.420000 19.140000 227 188 166 0
34.980000 24.420000 19.140000 228 189 167 0
35.200000 24.420000 19.140000 232 191 169 0
35.420000 24.420000 19.250000 232 191 169 0
35.640000 24.420000 19.250000 232 190 173 0
35.860000 24.420000 19.250000 226 184 167 0
36.080000 24.420000 19.250000 222 183 165 0
36.300000 24.420000 19.250000 220 181 163 0
36.520000 24.420000 18.590000 214 180 166 0
36.740000 24.420000 18.590000 213 179 165 0
36.960000 24.420000 18.480000 208 177 169 0
37.180000 24.420000 17.820000 205 174 166 0
0.000000 24.640000 7.920000 137 120 89 0
0.220000 24.640000 7.920000 137 120 89 0
0.440000 24.640000 7.920000 138 120 91 0
0.660000 24.640000 8.580000 138 120 91 0
0.880000 24.640000 8.580000 138 122 91 0
1.100000 24.640000 8.580000 137 121 90 0
1.320000 24.640000 7.920000 137 120 89 0
1.540000 24.640000 7.920000 136 119 88 0
1.760000 24.640000 8.580000 136 119 88 0
1.980000 24.640000 8.580000 136 119 88 0
2.200000 24.640000 8.580000 136 118 89 0
2.420000 24.640000 8.580000 136 118 89 0
2.640000 24.640000 7.920000 136 119 88 0
2.860000 24.640000 8.690000 135 118 87 0
3.080000 24.640000 8.690000 135 118 87 0
3.300000 24.640000 9.350000 135 118 87 0
3.520000 24.640000 9.350000 136 118 89 0
3.740000 24.640000 10.010000 135 117 88 0
3.960000 24.640000 10.010000 135 117 88 0
4.180000 24.640000 9.350000 135 117 88 0
4.400000 24.640000 9.350000 134 117 86 0
4.620000 24.640000 9.350000 135 118 87 0
4.840000 24.640000 9.350000 136 116 87 0
5.060000 24.640000 9.350000 135 115 86 0
5.280000 24.640000 9.350000 135 115 86 0
5.500000 24.640000 9.350000 135 115 86 0
5.720000 24.640000 9.350000 135 115 86 0
5.940000 24.640000 9.350000 135 115 86 0
6.160000 24.640000 9.460000 133 115 86 0
6.380000 24.640000 9.460000 133 115 86 0
6.600000 24.640000 9.460000 135 115 86 0
6.820000 24.640000 9.350000 135 115 86 0
7.040000 24.640000 9.350000 136 116 87 0
7.260000 24.640000 9.350000 135 115 86 0
7.480000 24.640000 9.350000 136 116 87 0
7.700000 24.640000 9.350000 136 116 87 0
7.920000 24.640000 9.350000 135 115 86 0
8.140000 24.640000 9.350000 136 116 87 0
8.360000 24.640000 9.350000 135 115 86 0
8.580000 24.640000 9.350000 135 115 86 0
8.800000 24.640000 9.350000 135 115 86 0
9.020000 24.640000 9.350000 136 116 87 0
9.240000 24.640000 9.350000 136 116 87 0
9.460000 24.640000 8.690000 136 116 87 0
9.680000 24.640000 8.690000 136 116 87 0
9.900000 24.640000 8.690000 136 116 87 0
10.120000 24.640000 8.580000 137 115 87 0
10.340000 24.640000 8.580000 139 117 89 0
10.560000 24.640000 8.580000 138 116 88 0
10.780000 24.640000 8.580000 139 117 89 0
11.000000 24.640000 8.580000 148 118 87 0
11.220000 24.640000 7.920000 152 122 91 0
11.440000 24.640000 7.920000 161 124 90 0
11.660000 24.640000 7.920000 177 140 106 0
11.880000 24.640000 8.030000 192 157 120 0
12.100000 24.640000 8.030000 206 171 134 0
12.320000 24.640000 8.690000 212 177 142 0
12.540000 24.640000 8.690000 211 176 141 0
12.760000 24.640000 8.800000 211 167 133 0
12.980000 24.640000 8.800000 200 156 122 0
13.200000 24.640000 8.800000 193 149 115 0
13.420000 24.640000 8.800000 188 144 110 0
13.640000 24.640000 8.800000 188 151 119 0
13.860000 24.640000 8.800000 199 162 130 0
14.080000 24.640000 8.910000 200 168 140 0
14.300000 24.640000 8.910000 203 171 143 0
14.520000 24.640000 8.910000 204 173 148 0
14.740000 24.640000 8.910000 205 174 149 0
14.960000 24.640000 9.460000 208 177 151 0
15.180000 24.640000 10.560000 205 174 148 0
15.400000 24.640000 11.110000 205 173 143 0
15.620000 24.640000 11.110000 204 172 142 0
15.840000 24.640000 11.110000 206 170 139 0
16.060000 24.640000 11.110000 206 170 139 0
16.280000 24.640000 11.220000 208 168 138 0
16.500000 24.640000 11.220000 205 165 135 0
16.720000 24.640000 11.220000 206 166 135 0
16.940000 24.640000 11.220000 207 167 136 0
17.160000 24.640000 11.330000 204 170 140 0
17.380000 24.640000 11.990000 207 173 143 0
17.600000 24.640000 11.990000 207 177 148 0
17.820000 24.640000 11.990000 210 180 151 0
18.040000 24.640000 12.100000 208 179 156 0
18.260000 24.640000 12.100000 208 179 156 0
18.480000 24.640000 12.100000 207 181 154 0
18.700000 24.640000 12.100000 207 181 154 0
18.920000 24.640000 12.210000 208 182 155 0
19.140000 24.640000 12.210000 208 182 155 0
19.360000 24.640000 12.210000 209 183 156 0
19.580000 24.640000 12.210000 208 182 155 0
19.800000 24.640000 12.210000 209 182 160 0
20.020000 24.640000 12.210000 209 182 160 0
20.240000 24.640000 12.320000 207 184 161 0
20.460000 24.640000 12.320000 210 187 164 0
20.680000 24.640000 12.320000 211 188 165 0
20.900000 24.640000 12.320000 212 189 166 0
21.120000 24.640000 12.430000 212 190 171 0
21.340000 24.640000 13.090000 214 192 173 0
21.560000 24.640000 13.530000 212 193 174 0
21.780000 24.640000 13.970000 212 193 174 0
22.000000 24.640000 14.520000 210 189 167 0
22.220000 24.640000 14.630000 208 187 165 0
22.440000 24.640000 14.630000 205 180 157 0
22.660000 24.640000 14.630000 200 175 152 0
22.880000 24.640000 14.630000 191 165 145 0
23.100000 24.640000 14.740000 185 159 139 0
23.320000 24.640000 14.740000 180 146 129 0
23.540000 24.640000 14.740000 165 131 114 0
23.760000 24.640000 14.080000 145 115 99 0
23.980000 24.640000 14.080000 132 102 86 0
24.200000 24.640000 14.080000 118 88 75 0
24.420000 24.640000 13.970000 116 86 73 0
24.640000 24.640000 13.970000 113 86 72 0
24.860000 24.640000 13.970000 113 86 72 0
25.080000 24.640000 13.310000 114 87 73 0
25.300000 24.640000 13.420000 115 88 74 0
25.520000 24.640000 12.870000 118 90 73 0
25.740000 24.640000 12.320000 121 93 76 0
25.960000 24.640000 12.320000 125 95 80 0
26.180000 24.640000 12.320000 132 102 87 0
26.400000 24.640000 12.430000 139 109 93 0
26.620000 24.640000 12.430000 145 115 99 0
26.840000 24.640000 12.320000 153 121 105 0
27.060000 24.640000 12.980000 155 123 107 0
27.280000 24.640000 13.530000 159 127 109 0
27.500000 24.640000 13.420000 160 128 110 0
27.720000 24.640000 13.970000 159 132 118 0
27.940000 24.640000 14.630000 159 132 118 0
28.160000 24.640000 14.630000 167 133 116 0
28.380000 24.640000 14.630000 168 134 117 0
28.600000 24.640000 14.630000 169 135 120 0
28.820000 24.640000 14.630000 174 140 125 0
29.040000 24.640000 14.630000 183 145 127 0
29.260000 24.640000 14.630000 192 154 136 0
29.480000 24.640000 14.740000 197 163 146 0
29.700000 24.640000 14.740000 205 171 154 0
29.920000 24.640000 15.400000 207 175 157 0
30.140000 24.640000 15.510000 211 179 161 0
30.360000 24.640000 15.510000 217 181 160 0
30.580000 24.640000 15.510000 220 184 163 0
30.800000 24.640000 15.620000 224 188 169 0
31.020000 24.640000 15.620000 227 191 172 0
31.240000 24.640000 16.390000 232 196 177 0
31.460000 24.640000 16.500000 234 198 179 0
31.680000 24.640000 16.500000 237 200 179 0
31.900000 24.640000 17.050000 238 201 180 0
32.120000 24.640000 17.490000 237 198 178 0
32.340000 24.640000 18.040000 236 197 177 0
32.560000 24.640000 18.040000 233 194 172 0
32.780000 24.640000 18.040000 231 192 170 0
33.000000 24.640000 18.150000 232 191 169 0
33.220000 24.640000 18.150000 232 191 169 0
33.440000 24.640000 18.150000 230 189 167 0
33.660000 24.640000 18.260000 230 189 167 0
33.880000 24.640000 18.260000 229 187 168 0
34.100000 24.640000 19.030000 230 188 169 0
34.320000 24.640000 19.030000 229 188 166 0
34.540000 24.640000 19.030000 229 188 166 0
34.760000 24.640000 19.140000 227 188 166 0
34.980000 24.640000 19.140000 228 189 167 0
35.200000 24.640000 19.140000 232 191 169 0
35.420000 24.640000 19.250000 230 189 167 0
35.640000 24.640000 19.250000 228 186 169 0
35.860000 24.640000 19.250000 226 184 167 0
36.080000 24.640000 19.250000 221 182 164 0
36.300000 24.640000 18.590000 219 180 162 0
36.520000 24.640000 18.590000 213 179 165 0
36.740000 24.640000 17.710000 213 179 165 0
36.960000 24.640000 17.600000 208 177 169 0
37.180000 24.640000 16.830000 210 179 171 0
0.000000 24.860000 7.920000 138 121 90 0
0.220000 24.860000 7.920000 137 120 89 0
0.440000 24.860000 7.920000 135 118 87 0
0.660000 24.860000 8.580000 138 121 90 0
0.880000 24.860000 8.580000 138 120 91 0
1.100000 24.860000 8.580000 138 120 91 0
1.320000 24.860000 8.580000 137 119 90 0
1.540000 24.860000 8.580000 137 119 90 0
1.760000 24.860000 8.580000 136 119 88 0
1.980000 24.860000 8.580000 136 119 88 0
2.200000 24.860000 8.580000 137 119 90 0
2.420000 24.860000 8.580000 137 119 90 0
2.640000 24.860000 8.580000 136 119 88 0
2.860000 24.860000 8.580000 136 119 88 0
3.080000 24.860000 8.690000 135 117 88 0
3.300000 24.860000 9.350000 135 117 88 0
3.520000 24.860000 10.010000 135 118 87 0
3.740000 24.860000 10.010000 135 118 87 0
3.960000 24.860000 10.010000 135 117 88 0
4.180000 24.860000 9.240000 134 116 87 0
4.400000 24.860000 9.350000 135 117 88 0
4.620000 24.860000 9.350000 134 116 87 0
4.840000 24.860000 9.350000 137 117 88 0
5.060000 24.860000 9.350000 136 116 87 0
5.280000 24.860000 9.350000 136 116 87 0
5.500000 24.860000 9.350000 135 115 86 0
5.720000 24.860000 9.350000 136 116 87 0
5.940000 24.860000 9.460000 135 115 86 0
6.160000 24.860000 9.460000 133 115 86 0
6.380000 24.860000 9.460000 133 115 86 0
6.600000 24.860000 9.350000 135 115 86 0
6.820000 24.860000 9.350000 135 115 86 0
7.040000 24.860000 9.350000 135 115 86 0
7.260000 24.860000 9.350000 135 115 86 0
7.480000 24.860000 9.350000 136 116 87 0
7.700000 24.860000 9.350000 135 115 86 0
7.920000 24.860000 9.350000 136 116 87 0
8.140000 24.860000 9.350000 135 115 86 0
8.360000 24.860000 9.350000 135 115 86 0
8.580000 24.860000 9.350000 135 115 86 0
8.800000 24.860000 9.350000 136 114 86 0
9.020000 24.860000 9.350000 136 114 86 0
9.240000 24.860000 9.350000 136 116 87 0
9.460000 24.860000 9.350000 136 116 87 0
9.680000 24.860000 9.350000 136 116 87 0
9.900000 24.860000 8.690000 136 116 87 0
10.120000 24.860000 8.580000 137 117 88 0
10.340000 24.860000 8.580000 138 118 89 0
10.560000 24.860000 8.580000 139 117 89 0
10.780000 24.860000 8.580000 140 118 90 0
11.000000 24.860000 8.580000 145 119 91 0
11.220000 24.860000 8.580000 148 122 94 0
11.440000 24.860000 7.920000 160 126 94 0
11.660000 24.860000 7.920000 174 140 108 0
11.880000 24.860000 8.030000 191 156 119 0
12.100000 24.860000 8.030000 205 170 133 0
12.320000 24.860000 8.690000 212 177 140 0
12.540000 24.860000 8.690000 210 175 138 0
12.760000 24.860000 8.800000 212 161 125 0
12.980000 24.860000 8.800000 202 151 115 0
13.200000 24.860000 8.800000 193 144 106 0
13.420000 24.860000 8.800000 189 140 102 0
13.640000 24.860000 8.800000 187 147 116 0
13.860000 24.860000 8.800000 197 157 126 0
14.080000 24.860000 8.910000 199 167 137 0
14.300000 24.860000 8.910000 204 172 142 0
14.520000 24.860000 8.910000 207 175 147 0
14.740000 24.860000 8.910000 208 176 148 0
14.960000 24.860000 9.460000 210 175 148 0
15.180000 24.860000 10.560000 208 173 146 0
15.400000 24.860000 11.110000 208 172 141 0
15.620000 24.860000 11.110000 209 173 142 0
15.840000 24.860000 11.110000 207 170 136 0
16.060000 24.860000 11.220000 206 169 135 0
16.280000 24.860000 11.220000 206 169 137 0
16.500000 24.860000 11.220000 205 168 136 0
16.720000 24.860000 11.220000 205 168 137 0
16.940000 24.860000 11.220000 206 169 138 0
17.160000 24.860000 11.330000 206 170 141 0
17.380000 24.860000 11.990000 208 172 143 0
17.600000 24.860000 11.990000 210 175 148 0
17.820000 24.860000 11.990000 211 176 149 0
18.040000 24.860000 12.100000 211 175 146 0
18.260000 24.860000 12.100000 210 174 145 0
18.480000 24.860000 12.100000 210 174 145 0
18.700000 24.860000 12.100000 212 176 147 0
18.920000 24.860000 12.210000 210 175 148 0
19.140000 24.860000 12.210000 212 177 150 0
19.360000 24.860000 12.210000 211 179 153 0
19.580000 24.860000 12.210000 211 179 153 0
19.800000 24.860000 12.210000 212 181 156 0
20.020000 24.860000 12.210000 212 181 156 0
20.240000 24.860000 12.320000 208 185 162 0
20.460000 24.860000 12.320000 213 190 167 0
20.680000 24.860000 12.320000 215 192 171 0
20.900000 24.860000 12.320000 216 193 172 0
21.120000 24.860000 12.430000 219 196 173 0
21.340000 24.860000 12.980000 219 196 173 0
21.560000 24.860000 13.420000 219 197 178 0
21.780000 24.860000 13.860000 221 199 180 0
22.000000 24.860000 14.520000 222 201 177 0
22.220000 24.860000 14.630000 223 202 178 0
22.440000 24.860000 14.630000 222 193 174 0
22.660000 24.860000 14.630000 212 183 164 0
22.880000 24.860000 14.630000 208 172 151 0
23.100000 24.860000 14.740000 194 158 137 0
23.320000 24.860000 14.740000 181 148 128 0
23.540000 24.860000 14.740000 165 132 112 0
23.760000 24.860000 14.080000 148 114 100 0
23.980000 24.860000 14.080000 133 99 85 0
24.200000 24.860000 14.080000 117 87 74 0
24.420000 24.860000 13.970000 114 84 71 0
24.640000 24.860000 13.970000 113 84 71 0
24.860000 24.860000 13.860000 113 84 71 0
25.080000 24.860000 13.970000 112 83 72 0
25.300000 24.860000 13.970000 113 84 73 0
25.520000 24.860000 13.420000 116 86 73 0
25.740000 24.860000 12.870000 115 85 72 0
25.960000 24.860000 12.320000 118 88 75 0
26.180000 24.860000 12.430000 122 92 79 0
26.400000 24.860000 12.320000 131 101 86 0
26.620000 24.860000 12.980000 134 104 89 0
26.840000 24.860000 12.870000 144 114 99 0
27.060000 24.860000 13.420000 145 115 100 0
27.280000 24.860000 13.970000 146 116 100 0
27.500000 24.860000 13.970000 148 118 102 0
27.720000 24.860000 14.630000 156 124 108 0
27.940000 24.860000 14.630000 158 126 110 0
28.160000 24.860000 14.630000 159 129 114 0
28.380000 24.860000 14.630000 160 130 115 0
28.600000 24.860000 14.630000 163 131 115 0
28.820000 24.860000 14.630000 165 133 117 0
29.040000 24.860000 14.740000 168 141 129 0
29.260000 24.860000 14.740000 178 151 139 0
29.480000 24.860000 14.740000 191 160 150 0
29.700000 24.860000 14.740000 197 166 156 0
29.920000 24.860000 15.510000 208 168 153 0
30.140000 24.860000 15.510000 211 171 156 0
30.360000 24.860000 15.510000 211 175 156 0
30.580000 24.860000 15.620000 215 179 160 0
30.800000 24.860000 15.620000 221 185 168 0
31.020000 24.860000 15.730000 226 190 173 0
31.240000 24.860000 16.390000 229 197 181 0
31.460000 24.860000 16.500000 232 200 184 0
31.680000 24.860000 16.500000 235 202 188 0
31.900000 24.860000 17.050000 235 202 188 0
32.120000 24.860000 17.490000 238 200 182 0
32.340000 24.860000 18.040000 236 198 180 0
32.560000 24.860000 18.040000 233 192 170 0
32.780000 24.860000 18.150000 232 191 169 0
33.000000 24.860000 18.150000 228 186 167 0
33.220000 24.860000 18.150000 229 187 168 0
33.440000 24.860000 18.920000 229 187 168 0
33.660000 24.860000 18.920000 230 188 169 0
33.880000 24.860000 18.920000 226 187 167 0
34.100000 24.860000 19.030000 226 187 167 0
34.320000 24.860000 19.030000 225 187 169 0
34.540000 24.860000 19.030000 224 186 168 0
34.760000 24.860000 19.140000 226 187 167 0
34.980000 24.860000 19.140000 228 189 169 0
35.200000 24.860000 19.140000 225 187 171 0
35.420000 24.860000 19.250000 224 186 170 0
35.640000 24.860000 19.250000 223 185 169 0
35.860000 24.860000 18.590000 220 182 166 0
36.080000 24.860000 18.590000 205 185 173 0
36.300000 24.860000 17.270000 205 185 173 0
36.520000 24.860000 16.390000 197 188 180 0
36.740000 24.860000 16.170000 200 191 183 0
36.960000 24.860000 16.060000 199 193 190 0
37.180000 24.860000 15.950000 201 195 192 0
0.000000 25.080000 10.010000 136 119 88 0
0.220000 25.080000 9.240000 136 119 88 0
0.440000 25.080000 8.580000 136 119 88 0
0.660000 25.080000 7.920000 136 119 88 0
0.880000 25.080000 7.920000 136 118 89 0
1.100000 25.080000 8.580000 137 119 90 0
1.320000 25.080000 9.240000 137 119 90 0
1.540000 25.080000 9.240000 137 119 90 0
1.760000 25.080000 9.240000 136 119 88 0
1.980000 25.080000 9.240000 136 119 88 0
2.200000 25.080000 9.240000 136 118 89 0
2.420000 25.080000 9.240000 136 118 89 0
2.640000 25.080000 8.580000 136 119 88 0
2.860000 25.080000 8.580000 135 118 87 0
3.080000 25.080000 9.350000 135 117 88 0
3.300000 25.080000 9.350000 135 117 88 0
3.520000 25.080000 10.010000 136 119 88 0
3.740000 25.080000 9.350000 135 118 87 0
3.960000 25.080000 9.350000 134 116 87 0
4.180000 25.080000 9.240000 135 117 88 0
4.400000 25.080000 9.240000 134 116 87 0
4.620000 25.080000 10.010000 135 117 88 0
4.840000 25.080000 10.010000 136 116 87 0
5.060000 25.080000 9.350000 135 115 86 0
5.280000 25.080000 9.350000 135 115 86 0
5.500000 25.080000 9.350000 135 115 86 0
5.720000 25.080000 9.350000 135 115 86 0
5.940000 25.080000 9.460000 135 115 86 0
6.160000 25.080000 9.460000 133 115 86 0
6.380000 25.080000 9.350000 133 115 86 0
6.600000 25.080000 10.010000 135 115 86 0
6.820000 25.080000 10.010000 135 115 86 0
7.040000 25.080000 10.010000 135 115 86 0
7.260000 25.080000 10.010000 135 115 86 0
7.480000 25.080000 9.350000 136 116 87 0
7.700000 25.080000 9.350000 134 114 85 0
7.920000 25.080000 10.120000 135 115 86 0
8.140000 25.080000 10.010000 135 115 86 0
8.360000 25.080000 9.350000 136 116 87 0
8.580000 25.080000 9.350000 136 116 87 0
8.800000 25.080000 9.350000 138 116 88 0
9.020000 25.080000 9.350000 136 114 86 0
9.240000 25.080000 9.350000 136 116 87 0
9.460000 25.080000 9.350000 136 116 87 0
9.680000 25.080000 9.350000 136 116 87 0
9.900000 25.080000 8.690000 136 116 87 0
10.120000 25.080000 8.580000 137 117 88 0
10.340000 25.080000 8.580000 136 116 87 0
10.560000 25.080000 8.580000 138 116 88 0
10.780000 25.080000 8.580000 140 118 90 0
11.000000 25.080000 8.580000 145 119 91 0
11.220000 25.080000 8.580000 147 121 93 0
11.440000 25.080000 7.920000 159 125 93 0
11.660000 25.080000 7.920000 169 135 103 0
11.880000 25.080000 8.030000 189 154 117 0
12.100000 25.080000 8.030000 203 168 131 0
12.320000 25.080000 8.690000 210 175 138 0
12.540000 25.080000 8.690000 208 173 136 0
12.760000 25.080000 8.800000 209 158 122 0
12.980000 25.080000 8.800000 196 145 109 0
13.200000 25.080000 8.800000 190 141 103 0
13.420000 25.080000 8.800000 189 140 102 0
13.640000 25.080000 8.800000 187 147 116 0
13.860000 25.080000 8.800000 196 156 125 0
14.080000 25.080000 8.910000 200 168 138 0
14.300000 25.080000 8.910000 206 174 144 0
14.520000 25.080000 8.910000 207 175 147 0
14.740000 25.080000 8.910000 208 176 148 0
14.960000 25.080000 9.460000 210 175 148 0
15.180000 25.080000 10.560000 208 173 146 0
15.400000 25.080000 11.110000 208 172 141 0
15.620000 25.080000 11.110000 206 170 139 0
15.840000 25.080000 11.110000 206 169 135 0
16.060000 25.080000 11.220000 205 168 134 0
16.280000 25.080000 11.220000 204 167 135 0
16.500000 25.080000 11.220000 204 167 135 0
16.720000 25.080000 11.220000 204 167 136 0
16.940000 25.080000 11.220000 205 168 137 0
17.160000 25.080000 11.330000 205 169 140 0
17.380000 25.080000 11.990000 206 170 141 0
17.600000 25.080000 11.990000 207 172 145 0
17.820000 25.080000 11.990000 207 172 145 0
18.040000 25.080000 12.100000 208 172 143 0
18.260000 25.080000 12.100000 207 171 142 0
18.480000 25.080000 12.100000 206 170 141 0
18.700000 25.080000 12.100000 207 171 142 0
18.920000 25.080000 12.210000 206 171 144 0
19.140000 25.080000 12.210000 209 174 147 0
19.360000 25.080000 12.210000 208 176 150 0
19.580000 25.080000 12.210000 210 178 152 0
19.800000 25.080000 12.210000 209 178 153 0
20.020000 25.080000 12.210000 211 180 155 0
20.240000 25.080000 12.320000 208 185 162 0
20.460000 25.080000 12.320000 214 191 168 0
20.680000 25.080000 12.320000 215 192 171 0
20.900000 25.080000 12.320000 218 195 174 0
21.120000 25.080000 12.430000 219 196 173 0
21.340000 25.080000 12.980000 220 197 174 0
21.560000 25.080000 13.970000 219 197 178 0
21.780000 25.080000 14.520000 221 199 180 0
22.000000 25.080000 14.520000 221 200 176 0
22.220000 25.080000 14.630000 215 194 170 0
22.440000 25.080000 14.630000 210 181 162 0
22.660000 25.080000 14.630000 197 168 149 0
22.880000 25.080000 14.630000 193 157 136 0
23.100000 25.080000 14.740000 183 147 126 0
23.320000 25.080000 14.740000 170 137 117 0
23.540000 25.080000 14.080000 157 124 104 0
23.760000 25.080000 14.080000 141 107 93 0
23.980000 25.080000 14.080000 127 93 79 0
24.200000 25.080000 13.970000 114 84 71 0
24.420000 25.080000 13.970000 114 84 71 0
24.640000 25.080000 13.860000 113 84 71 0
24.860000 25.080000 13.860000 112 83 70 0
25.080000 25.080000 13.970000 111 82 71 0
25.300000 25.080000 13.970000 112 83 72 0
25.520000 25.080000 13.970000 113 83 70 0
25.740000 25.080000 13.420000 114 84 71 0
25.960000 25.080000 12.980000 116 86 73 0
26.180000 25.080000 12.430000 118 88 75 0
26.400000 25.080000 12.980000 123 93 78 0
26.620000 25.080000 13.420000 128 98 83 0
26.840000 25.080000 13.310000 132 102 87 0
27.060000 25.080000 13.970000 133 103 88 0
27.280000 25.080000 13.860000 135 105 89 0
27.500000 25.080000 13.970000 143 113 97 0
27.720000 25.080000 13.970000 149 117 101 0
27.940000 25.080000 14.630000 151 119 103 0
28.160000 25.080000 14.740000 148 118 103 0
28.380000 25.080000 14.740000 149 119 104 0
28.600000 25.080000 14.740000 151 119 103 0
28.820000 25.080000 14.740000 155 123 107 0
29.040000 25.080000 14.740000 161 134 122 0
29.260000 25.080000 14.740000 172 145 133 0
29.480000 25.080000 14.740000 182 151 141 0
29.700000 25.080000 14.740000 190 159 149 0
29.920000 25.080000 15.510000 202 162 147 0
30.140000 25.080000 15.510000 204 164 149 0
30.360000 25.080000 15.510000 207 171 152 0
30.580000 25.080000 15.620000 215 179 160 0
30.800000 25.080000 15.620000 222 186 169 0
31.020000 25.080000 15.730000 229 193 176 0
31.240000 25.080000 16.500000 231 199 183 0
31.460000 25.080000 16.500000 234 202 186 0
31.680000 25.080000 16.390000 236 203 189 0
31.900000 25.080000 17.490000 235 202 188 0
32.120000 25.080000 18.040000 239 201 183 0
32.340000 25.080000 18.040000 233 195 177 0
32.560000 25.080000 18.040000 231 190 168 0
32.780000 25.080000 18.150000 224 183 161 0
33.000000 25.080000 18.810000 223 181 162 0
33.220000 25.080000 18.920000 223 181 162 0
33.440000 25.080000 18.920000 224 182 163 0
33.660000 25.080000 18.920000 225 183 164 0
33.880000 25.080000 19.030000 222 183 163 0
34.100000 25.080000 19.030000 223 184 164 0
34.320000 25.080000 19.030000 222 184 166 0
34.540000 25.080000 19.140000 223 185 167 0
34.760000 25.080000 19.140000 224 185 165 0
34.980000 25.080000 18.480000 223 184 164 0
35.200000 25.080000 18.480000 222 184 168 0
35.420000 25.080000 18.480000 221 183 167 0
35.640000 25.080000 17.820000 221 183 167 0
35.860000 25.080000 17.160000 221 183 167 0
36.080000 25.080000 16.500000 210 190 178 0
36.300000 25.080000 15.840000 210 190 178 0
36.520000 25.080000 14.960000 205 196 188 0
36.740000 25.080000 15.400000 207 198 190 0
36.960000 25.080000 15.290000 203 197 194 0
37.180000 25.080000 15.290000 208 202 199 0
0.000000 25.300000 11.330000 135 118 87 0
0.220000 25.300000 9.900000 135 118 87 0
0.440000 25.300000 8.580000 134 116 87 0
0.660000 25.300000 7.920000 135 117 88 0
0.880000 25.300000 8.580000 136 118 89 0
1.100000 25.300000 9.350000 137 119 90 0
1.320000 25.300000 9.350000 136 118 89 0
1.540000 25.300000 9.350000 136 118 89 0
1.760000 25.300000 9.240000 137 119 90 0
1.980000 25.300000 9.240000 136 118 89 0
2.200000 25.300000 9.240000 136 118 89 0
2.420000 25.300000 9.240000 136 118 89 0
2.640000 25.300000 9.240000 135 117 88 0
2.860000 25.300000 9.240000 134 116 87 0
3.080000 25.300000 9.240000 134 116 87 0
3.300000 25.300000 9.240000 134 116 87 0
3.520000 25.300000 9.240000 134 116 87 0
3.740000 25.300000 9.350000 134 116 87 0
3.960000 25.300000 9.350000 134 116 87 0
4.180000 25.300000 9.350000 135 117 88 0
4.400000 25.300000 10.010000 136 116 87 0
4.620000 25.300000 10.010000 135 115 86 0
4.840000 25.300000 10.120000 133 115 86 0
5.060000 25.300000 10.010000 133 115 86 0
5.280000 25.300000 10.010000 133 115 86 0
5.500000 25.300000 10.010000 133 115 86 0
5.720000 25.300000 9.350000 135 115 86 0
5.940000 25.300000 9.350000 135 115 86 0
6.160000 25.300000 10.010000 135 115 86 0
6.380000 25.300000 10.010000 134 114 85 0
6.600000 25.300000 10.010000 136 116 87 0
6.820000 25.300000 10.010000 136 116 87 0
7.040000 25.300000 10.010000 135 115 86 0
7.260000 25.300000 10.010000 134 114 85 0
7.480000 25.300000 10.120000 135 115 86 0
7.700000 25.300000 10.120000 135 115 86 0
7.920000 25.300000 10.120000 135 115 86 0
8.140000 25.300000 10.120000 135 115 86 0
8.360000 25.300000 10.120000 136 116 87 0
8.580000 25.300000 9.350000 136 116 87 0
8.800000 25.300000 9.350000 136 116 87 0
9.020000 25.300000 9.350000 135 115 86 0
9.240000 25.300000 9.350000 136 116 87 0
9.460000 25.300000 9.350000 135 115 86 0
9.680000 25.300000 9.350000 136 116 87 0
9.900000 25.300000 8.690000 136 116 87 0
10.120000 25.300000 8.580000 135 115 86 0
10.340000 25.300000 8.580000 136 116 87 0
10.560000 25.300000 8.580000 141 116 89 0
10.780000 25.300000 8.580000 142 117 90 0
11.000000 25.300000 8.580000 146 118 91 0
11.220000 25.300000 8.580000 148 120 93 0
11.440000 25.300000 7.920000 156 124 96 0
11.660000 25.300000 7.920000 166 134 106 0
11.880000 25.300000 8.030000 187 150 118 0
12.100000 25.300000 8.030000 202 165 133 0
12.320000 25.300000 8.690000 210 173 139 0
12.540000 25.300000 8.690000 207 170 136 0
12.760000 25.300000 8.690000 210 157 121 0
12.980000 25.300000 8.800000 197 144 108 0
13.200000 25.300000 8.800000 186 141 105 0
13.420000 25.300000 8.800000 188 143 107 0
13.640000 25.300000 8.800000 190 150 119 0
13.860000 25.300000 8.800000 196 156 125 0
14.080000 25.300000 8.910000 202 167 134 0
14.300000 25.300000 8.910000 208 173 140 0
14.520000 25.300000 8.910000 209 173 144 0
14.740000 25.300000 9.570000 210 174 145 0
14.960000 25.300000 10.120000 211 174 142 0
15.180000 25.300000 10.560000 209 172 140 0
15.400000 25.300000 11.110000 207 168 134 0
15.620000 25.300000 11.110000 205 166 132 0
15.840000 25.300000 11.110000 206 167 133 0
16.060000 25.300000 11.220000 206 167 133 0
16.280000 25.300000 11.220000 204 167 136 0
16.500000 25.300000 11.220000 205 168 137 0
16.720000 25.300000 11.220000 204 167 136 0
16.940000 25.300000 11.220000 204 167 136 0
17.160000 25.300000 11.330000 205 168 137 0
17.380000 25.300000 11.990000 207 170 139 0
17.600000 25.300000 11.990000 206 169 138 0
17.820000 25.300000 11.990000 208 171 140 0
18.040000 25.300000 12.100000 206 169 138 0
18.260000 25.300000 12.100000 206 169 138 0
18.480000 25.300000 12.100000 206 169 138 0
18.700000 25.300000 12.100000 207 170 139 0
18.920000 25.300000 12.210000 208 170 142 0
19.140000 25.300000 12.210000 208 170 142 0
19.360000 25.300000 12.210000 207 172 145 0
19.580000 25.300000 12.210000 209 174 147 0
19.800000 25.300000 12.210000 209 176 152 0
20.020000 25.300000 12.210000 212 179 155 0
20.240000 25.300000 12.320000 212 181 156 0
20.460000 25.300000 12.320000 218 187 162 0
20.680000 25.300000 12.320000 219 194 169 0
20.900000 25.300000 12.320000 219 194 169 0
21.120000 25.300000 12.430000 220 195 172 0
21.340000 25.300000 12.980000 221 196 173 0
21.560000 25.300000 13.970000 225 194 171 0
21.780000 25.300000 14.520000 224 193 170 0
22.000000 25.300000 14.520000 223 181 162 0
22.220000 25.300000 14.630000 211 169 150 0
22.440000 25.300000 14.630000 194 156 138 0
22.660000 25.300000 14.630000 183 145 127 0
22.880000 25.300000 13.970000 167 130 116 0
23.100000 25.300000 13.970000 156 119 105 0
23.320000 25.300000 13.970000 142 109 97 0
23.540000 25.300000 14.080000 133 100 88 0
23.760000 25.300000 14.080000 122 93 80 0
23.980000 25.300000 13.970000 116 87 74 0
24.200000 25.300000 13.970000 115 86 75 0
24.420000 25.300000 13.970000 113 84 73 0
24.640000 25.300000 13.860000 113 82 72 0
24.860000 25.300000 13.860000 113 82 72 0
25.080000 25.300000 13.860000 114 84 71 0
25.300000 25.300000 13.970000 114 84 71 0
25.520000 25.300000 13.420000 114 85 74 0
25.740000 25.300000 12.870000 115 86 75 0
25.960000 25.300000 12.320000 117 88 75 0
26.180000 25.300000 12.320000 118 89 76 0
26.400000 25.300000 12.870000 124 91 77 0
26.620000 25.300000 13.420000 127 94 80 0
26.840000 25.300000 13.420000 126 96 81 0
27.060000 25.300000 13.970000 129 99 84 0
27.280000 25.300000 13.860000 133 100 86 0
27.500000 25.300000 13.970000 137 104 90 0
27.720000 25.300000 13.970000 144 112 94 0
27.940000 25.300000 14.080000 144 112 94 0
28.160000 25.300000 14.740000 145 111 97 0
28.380000 25.300000 14.740000 145 111 97 0
28.600000 25.300000 14.740000 148 111 98 0
28.820000 25.300000 14.740000 151 114 101 0
29.040000 25.300000 14.740000 161 125 108 0
29.260000 25.300000 14.740000 174 138 121 0
29.480000 25.300000 14.740000 185 142 128 0
29.700000 25.300000 14.850000 195 152 138 0
29.920000 25.300000 15.510000 201 162 142 0
30.140000 25.300000 15.510000 205 166 146 0
30.360000 25.300000 15.620000 209 173 156 0
30.580000 25.300000 15.620000 216 180 163 0
30.800000 25.300000 15.620000 223 189 172 0
31.020000 25.300000 15.730000 227 193 176 0
31.240000 25.300000 16.390000 234 197 176 0
31.460000 25.300000 16.500000 237 200 179 0
31.680000 25.300000 17.050000 238 202 185 0
31.900000 25.300000 17.490000 238 202 185 0
32.120000 25.300000 18.040000 237 199 181 0
32.340000 25.300000 18.040000 235 197 179 0
32.560000 25.300000 18.150000 229 186 164 0
32.780000 25.300000 18.810000 224 181 159 0
33.000000 25.300000 18.810000 223 180 159 0
33.220000 25.300000 18.920000 221 178 157 0
33.440000 25.300000 19.580000 221 179 160 0
33.660000 25.300000 19.690000 221 179 160 0
33.880000 25.300000 19.690000 214 184 169 0
34.100000 25.300000 18.370000 216 186 171 0
34.320000 25.300000 17.710000 207 192 182 0
34.540000 25.300000 17.710000 208 193 183 0
34.760000 25.300000 17.710000 203 192 185 0
34.980000 25.300000 17.820000 205 194 187 0
35.200000 25.300000 17.160000 204 196 188 0
35.420000 25.300000 16.390000 204 196 188 0
35.640000 25.300000 15.730000 204 198 195 0
35.860000 25.300000 15.070000 204 198 195 0
36.080000 25.300000 14.410000 205 199 196 0
36.300000 25.300000 14.410000 208 202 199 0
36.520000 25.300000 14.740000 208 202 199 0
36.740000 25.300000 14.630000 210 204 201 0
36.960000 25.300000 14.630000 210 206 202 0
37.180000 25.300000 14.630000 209 205 201 0
0.000000 25.520000 10.560000 135 118 87 0
0.220000 25.520000 9.240000 135 118 87 0
0.440000 25.520000 7.920000 134 116 87 0
0.660000 25.520000 8.580000 135 117 88 0
0.880000 25.520000 9.240000 136 118 89 0
1.100000 25.520000 9.240000 136 118 89 0
1.320000 25.520000 9.350000 136 118 89 0
1.540000 25.520000 9.350000 136 118 89 0
1.760000 25.520000 9.350000 136 118 89 0
1.980000 25.520000 9.240000 136 118 89 0
2.200000 25.520000 9.240000 136 118 89 0
2.420000 25.520000 9.240000 136 118 89 0
2.640000 25.520000 9.240000 136 118 89 0
2.860000 25.520000 10.010000 135 117 88 0
3.080000 25.520000 10.010000 135 117 88 0
3.300000 25.520000 9.240000 134 116 87 0
3.520000 25.520000 9.240000 134 116 87 0
3.740000 25.520000 9.240000 135 117 88 0
3.960000 25.520000 10.010000 134 116 87 0
4.180000 25.520000 10.010000 134 116 87 0
4.400000 25.520000 10.010000 136 116 87 0
4.620000 25.520000 9.350000 135 115 86 0
4.840000 25.520000 10.010000 133 115 86 0
5.060000 25.520000 10.780000 133 115 86 0
5.280000 25.520000 10.780000 133 115 86 0
5.500000 25.520000 10.010000 133 115 86 0
5.720000 25.520000 10.010000 135 115 86 0
5.940000 25.520000 10.010000 135 115 86 0
6.160000 25.520000 10.010000 135 115 86 0
6.380000 25.520000 10.010000 135 115 86 0
6.600000 25.520000 10.010000 135 115 86 0
6.820000 25.520000 10.670000 134 114 85 0
7.040000 25.520000 10.670000 134 114 85 0
7.260000 25.520000 10.670000 134 114 85 0
7.480000 25.520000 10.010000 135 115 86 0
7.700000 25.520000 10.120000 134 114 85 0
7.920000 25.520000 10.120000 135 115 86 0
8.140000 25.520000 10.120000 135 115 86 0
8.360000 25.520000 10.120000 135 115 86 0
8.580000 25.520000 10.120000 135 115 86 0
8.800000 25.520000 9.350000 135 115 86 0
9.020000 25.520000 9.350000 135 115 86 0
9.240000 25.520000 9.350000 135 115 86 0
9.460000 25.520000 9.350000 135 115 86 0
9.680000 25.520000 9.350000 135 115 86 0
9.900000 25.520000 8.690000 135 115 86 0
10.120000 25.520000 8.690000 135 115 86 0
10.340000 25.520000 8.580000 137 117 88 0
10.560000 25.520000 8.580000 141 116 89 0
10.780000 25.520000 8.580000 142 117 90 0
11.000000 25.520000 8.580000 145 117 90 0
11.220000 25.520000 8.580000 148 120 93 0
11.440000 25.520000 7.920000 156 124 96 0
11.660000 25.520000 7.920000 165 133 105 0
11.880000 25.520000 8.030000 184 147 115 0
12.100000 25.520000 8.030000 200 163 131 0
12.320000 25.520000 8.030000 206 169 135 0
12.540000 25.520000 8.690000 204 167 133 0
12.760000 25.520000 8.690000 207 154 118 0
12.980000 25.520000 8.800000 196 143 107 0
13.200000 25.520000 8.800000 188 143 107 0
13.420000 25.520000 8.800000 192 147 111 0
13.640000 25.520000 8.800000 195 155 124 0
13.860000 25.520000 8.800000 201 161 130 0
14.080000 25.520000 8.910000 204 169 136 0
14.300000 25.520000 8.910000 207 172 139 0
14.520000 25.520000 8.910000 209 173 144 0
14.740000 25.520000 9.570000 208 172 143 0
14.960000 25.520000 10.670000 208 171 139 0
15.180000 25.520000 11.110000 206 169 137 0
15.400000 25.520000 11.110000 205 166 132 0
15.620000 25.520000 11.110000 205 166 132 0
15.840000 25.520000 11.110000 205 166 132 0
16.060000 25.520000 11.220000 205 166 132 0
16.280000 25.520000 11.220000 203 166 135 0
16.500000 25.520000 11.220000 203 166 135 0
16.720000 25.520000 11.220000 204 167 136 0
16.940000 25.520000 11.220000 205 168 137 0
17.160000 25.520000 11.990000 205 168 137 0
