ply
format ascii 1.0
element vertex 1152
property float x
property float y
property float z
property uchar red
property uchar green
property uchar blue
property uchar alpha
end_header
15.620000 7.480000 34.100000 196 87 67 0
15.840000 7.480000 35.420000 198 89 69 0
16.060000 7.480000 36.520000 199 90 72 0
16.280000 7.480000 36.520000 198 89 71 0
16.500000 7.480000 36.520000 197 88 70 0
16.720000 7.480000 36.520000 196 87 69 0
16.940000 7.480000 36.740000 194 85 65 0
17.160000 7.480000 36.520000 194 85 65 0
17.380000 7.480000 37.840000 195 86 66 0
17.600000 7.480000 37.620000 194 85 65 0
17.820000 7.480000 37.620000 195 86 66 0
18.040000 7.480000 38.720000 194 85 65 0
18.260000 7.480000 38.720000 195 86 68 0
18.480000 7.480000 38.720000 195 86 68 0
18.700000 7.480000 38.720000 196 87 69 0
18.920000 7.480000 38.940000 196 87 69 0
19.140000 7.480000 38.940000 196 87 67 0
19.360000 7.480000 38.940000 196 87 67 0
19.580000 7.480000 38.940000 198 89 71 0
19.800000 7.480000 38.940000 198 89 71 0
20.020000 7.480000 38.940000 199 90 72 0
20.240000 7.480000 38.940000 199 90 72 0
20.460000 7.480000 39.160000 199 91 74 0
20.680000 7.480000 39.160000 200 92 75 0
20.900000 7.480000 39.160000 201 93 76 0
21.120000 7.480000 40.480000 200 92 75 0
21.340000 7.480000 40.480000 200 94 76 0
21.560000 7.480000 40.700000 201 95 77 0
21.780000 7.480000 40.920000 202 98 84 0
22.000000 7.480000 39.600000 204 100 86 0
22.220000 7.480000 39.820000 205 101 85 0
22.440000 7.480000 39.820000 204 100 84 0
22.660000 7.480000 41.140000 204 100 86 0
22.880000 7.480000 41.140000 204 100 86 0
23.100000 7.480000 41.140000 202 99 85 0
23.320000 7.480000 30.140000 204 101 87 0
23.540000 7.480000 8.140000 202 108 93 0
25.520000 7.480000 0.440000 230 181 162 0
25.740000 7.480000 1.540000 231 175 158 0
25.960000 7.480000 1.540000 222 166 149 0
26.180000 7.480000 1.540000 220 155 144 0
26.400000 7.480000 1.540000 214 149 138 0
26.620000 7.480000 1.540000 215 146 134 0
26.840000 7.480000 2.860000 213 144 132 0
27.060000 7.480000 2.860000 215 142 128 0
27.280000 7.480000 2.860000 211 138 124 0
27.500000 7.480000 2.860000 211 134 119 0
27.720000 7.480000 2.860000 209 132 117 0
27.940000 7.480000 2.860000 209 129 117 0
28.160000 7.480000 2.860000 208 128 116 0
28.380000 7.480000 2.860000 210 127 114 0
28.600000 7.480000 3.080000 210 127 114 0
28.820000 7.480000 3.080000 207 129 114 0
29.040000 7.480000 3.080000 209 131 116 0
29.260000 7.480000 3.080000 208 131 118 0
29.480000 7.480000 3.080000 209 132 119 0
29.700000 7.480000 3.300000 212 132 120 0
29.920000 7.480000 3.300000 211 131 119 0
30.140000 7.480000 3.300000 211 131 119 0
30.360000 7.480000 3.300000 212 132 120 0
30.580000 7.480000 3.300000 208 134 120 0
30.800000 7.480000 3.300000 210 136 122 0
31.020000 7.480000 3.520000 203 144 131 0
31.240000 7.480000 3.520000 218 159 146 0
31.460000 7.480000 3.520000 210 202 187 0
31.680000 7.480000 3.740000 242 234 219 0
31.900000 7.480000 3.740000 247 233 225 0
32.120000 7.480000 3.740000 239 225 217 0
32.340000 7.480000 3.740000 243 199 195 0
32.560000 7.480000 3.740000 227 183 179 0
32.780000 7.480000 3.740000 229 162 151 0
33.000000 7.480000 3.960000 216 149 138 0
33.220000 7.480000 3.960000 218 135 122 0
33.440000 7.480000 5.280000 209 126 113 0
33.660000 7.480000 6.380000 214 121 108 0
33.880000 7.480000 7.260000 210 117 104 0
34.100000 7.480000 8.360000 209 116 103 0
34.320000 7.480000 8.360000 208 115 102 0
34.540000 7.480000 8.580000 210 113 99 0
34.760000 7.480000 8.580000 210 113 99 0
34.980000 7.480000 8.580000 210 112 98 0
35.200000 7.480000 8.580000 209 111 97 0
35.420000 7.480000 8.580000 208 108 93 0
35.640000 7.480000 8.580000 207 107 92 0
35.860000 7.480000 10.120000 207 107 92 0
36.080000 7.480000 10.120000 206 106 91 0
36.300000 7.480000 10.120000 209 105 91 0
36.520000 7.480000 10.340000 207 103 89 0
36.740000 7.480000 10.560000 205 102 88 0
36.960000 7.480000 10.560000 206 103 89 0
37.180000 7.480000 9.240000 207 103 89 0
0.440000 7.700000 1.760000 207 201 146 0
0.660000 7.700000 2.860000 207 201 146 0
0.880000 7.700000 2.860000 207 201 146 0
1.100000 7.700000 2.860000 208 202 149 0
1.320000 7.700000 2.860000 209 203 150 0
1.540000 7.700000 2.860000 212 206 153 0
1.760000 7.700000 2.860000 213 207 154 0
1.980000 7.700000 4.180000 212 208 155 0
2.200000 7.700000 4.180000 213 209 156 0
2.420000 7.700000 4.180000 214 210 158 0
2.640000 7.700000 4.180000 213 209 157 0
2.860000 7.700000 4.180000 213 209 156 0
3.080000 7.700000 3.080000 211 207 154 0
3.300000 7.700000 2.200000 210 204 149 0
3.520000 7.700000 2.200000 209 203 148 0
3.740000 7.700000 2.200000 209 201 147 0
3.960000 7.700000 2.200000 208 200 146 0
4.180000 7.700000 2.420000 208 198 142 0
4.400000 7.700000 2.420000 208 198 142 0
4.620000 7.700000 2.420000 205 198 141 0
4.840000 7.700000 2.420000 204 197 140 0
5.060000 7.700000 2.420000 206 196 140 0
5.280000 7.700000 2.420000 205 195 139 0
5.500000 7.700000 2.640000 206 196 138 0
5.720000 7.700000 2.640000 205 195 137 0
5.940000 7.700000 2.640000 206 195 137 0
6.160000 7.700000 2.640000 206 195 137 0
6.380000 7.700000 2.640000 207 197 139 0
6.600000 7.700000 3.740000 206 196 138 0
6.820000 7.700000 5.940000 207 197 139 0
7.040000 7.700000 7.040000 206 196 138 0
7.260000 7.700000 7.040000 207 197 139 0
7.480000 7.700000 7.040000 207 197 139 0
7.700000 7.700000 7.040000 206 196 138 0
7.920000 7.700000 7.040000 205 195 137 0
8.140000 7.700000 7.040000 204 194 136 0
8.360000 7.700000 7.260000 202 192 134 0
8.580000 7.700000 7.260000 202 191 133 0
8.800000 7.700000 7.260000 201 190 132 0
9.020000 7.700000 8.580000 201 190 131 0
9.240000 7.700000 8.580000 203 192 133 0
9.460000 7.700000 8.800000 203 192 134 0
9.680000 7.700000 8.800000 204 193 135 0
9.900000 7.700000 8.800000 205 195 137 0
10.120000 7.700000 8.800000 205 195 137 0
10.340000 7.700000 8.800000 207 197 141 0
10.560000 7.700000 8.800000 208 198 142 0
10.780000 7.700000 9.020000 207 200 143 0
11.000000 7.700000 9.020000 208 201 144 0
11.220000 7.700000 9.020000 209 201 147 0
11.440000 7.700000 9.020000 211 203 149 0
11.660000 7.700000 9.240000 213 203 147 0
11.880000 7.700000 9.240000 212 202 146 0
12.100000 7.700000 9.240000 211 199 144 0
12.320000 7.700000 9.240000 205 193 138 0
12.540000 7.700000 9.240000 219 169 129 0
12.760000 7.700000 9.240000 209 159 119 0
12.980000 7.700000 6.600000 219 131 106 0
13.200000 7.700000 13.420000 205 117 92 0
13.420000 7.700000 28.380000 203 94 74 0
13.640000 7.700000 35.420000 197 88 68 0
13.860000 7.700000 34.100000 197 85 68 0
14.080000 7.700000 34.100000 196 84 67 0
14.300000 7.700000 34.320000 194 85 65 0
14.520000 7.700000 34.320000 194 85 65 0
14.740000 7.700000 34.320000 196 84 67 0
14.960000 7.700000 34.320000 197 85 68 0
15.180000 7.700000 34.320000 196 87 67 0
15.400000 7.700000 34.320000 196 87 67 0
15.620000 7.700000 35.420000 197 88 70 0
15.840000 7.700000 35.200000 198 89 71 0
16.060000 7.700000 36.520000 198 89 71 0
16.280000 7.700000 36.520000 198 89 71 0
16.500000 7.700000 36.520000 198 89 71 0
16.720000 7.700000 36.520000 197 88 70 0
16.940000 7.700000 36.520000 195 86 66 0
17.160000 7.700000 36.520000 194 85 65 0
17.380000 7.700000 36.520000 194 85 67 0
17.600000 7.700000 36.520000 194 85 67 0
17.820000 7.700000 37.620000 195 86 68 0
18.040000 7.700000 38.720000 195 86 68 0
18.260000 7.700000 38.720000 195 86 68 0
18.480000 7.700000 38.720000 195 86 68 0
18.700000 7.700000 38.720000 195 86 68 0
18.920000 7.700000 38.940000 195 86 68 0
19.140000 7.700000 38.940000 196 87 69 0
19.360000 7.700000 38.940000 196 87 69 0
19.580000 7.700000 38.940000 198 89 71 0
19.800000 7.700000 38.940000 199 90 72 0
20.020000 7.700000 38.940000 198 89 71 0
20.240000 7.700000 38.940000 200 91 73 0
20.460000 7.700000 39.160000 200 92 75 0
20.680000 7.700000 39.160000 200 92 75 0
20.900000 7.700000 39.160000 200 94 76 0
21.120000 7.700000 40.480000 201 95 77 0
21.340000 7.700000 40.480000 202 95 80 0
21.560000 7.700000 40.700000 202 95 80 0
21.780000 7.700000 40.700000 199 100 82 0
22.000000 7.700000 39.600000 203 104 86 0
22.220000 7.700000 39.600000 204 105 87 0
22.440000 7.700000 39.600000 204 105 87 0
22.660000 7.700000 41.140000 205 103 86 0
22.880000 7.700000 41.140000 203 101 84 0
23.100000 7.700000 41.140000 203 101 84 0
23.320000 7.700000 33.000000 205 103 86 0
23.540000 7.700000 13.640000 198 112 96 0
25.520000 7.700000 0.440000 233 179 162 0
25.740000 7.700000 1.320000 227 169 153 0
25.960000 7.700000 1.540000 221 163 147 0
26.180000 7.700000 1.540000 216 158 142 0
26.400000 7.700000 1.540000 211 153 137 0
26.620000 7.700000 1.540000 207 153 138 0
26.840000 7.700000 1.540000 211 157 142 0
27.060000 7.700000 2.860000 209 151 135 0
27.280000 7.700000 2.860000 208 150 134 0
27.500000 7.700000 2.860000 216 149 135 0
27.720000 7.700000 2.860000 210 143 129 0
27.940000 7.700000 2.860000 213 134 122 0
28.160000 7.700000 2.860000 211 132 120 0
28.380000 7.700000 3.080000 211 132 120 0
28.600000 7.700000 3.080000 209 130 118 0
28.820000 7.700000 3.080000 208 129 117 0
29.040000 7.700000 3.080000 209 130 118 0
29.260000 7.700000 3.080000 208 130 121 0
29.480000 7.700000 3.080000 209 131 122 0
29.700000 7.700000 3.080000 210 131 121 0
29.920000 7.700000 3.300000 212 133 123 0
30.140000 7.700000 3.300000 212 132 120 0
30.360000 7.700000 4.620000 211 131 119 0
30.580000 7.700000 3.300000 209 132 121 0
30.800000 7.700000 3.300000 210 133 122 0
31.020000 7.700000 3.520000 197 147 145 0
31.240000 7.700000 3.520000 214 164 162 0
31.460000 7.700000 3.520000 211 205 202 0
31.680000 7.700000 3.740000 232 226 223 0
31.900000 7.700000 3.740000 241 232 224 0
32.120000 7.700000 3.740000 238 229 221 0
32.340000 7.700000 3.740000 249 204 196 0
32.560000 7.700000 3.740000 228 183 175 0
32.780000 7.700000 3.960000 228 153 143 0
33.000000 7.700000 3.960000 217 142 132 0
33.220000 7.700000 5.280000 214 131 122 0
33.440000 7.700000 6.380000 208 125 116 0
33.660000 7.700000 7.260000 211 121 108 0
33.880000 7.700000 8.360000 208 118 105 0
34.100000 7.700000 8.360000 210 116 103 0
34.320000 7.700000 8.360000 209 115 102 0
34.540000 7.700000 8.580000 210 113 99 0
34.760000 7.700000 8.580000 211 114 100 0
34.980000 7.700000 8.580000 210 112 98 0
35.200000 7.700000 8.580000 209 111 97 0
35.420000 7.700000 8.580000 210 107 93 0
35.640000 7.700000 8.800000 209 106 92 0
35.860000 7.700000 10.120000 208 105 91 0
36.080000 7.700000 10.120000 209 106 92 0
36.300000 7.700000 10.120000 209 105 91 0
36.520000 7.700000 10.340000 207 103 89 0
36.740000 7.700000 9.240000 207 103 89 0
36.960000 7.700000 9.240000 207 103 89 0
37.180000 7.700000 9.460000 207 103 89 0
0.440000 7.920000 1.760000 207 201 146 0
0.660000 7.920000 1.540000 207 201 146 0
0.880000 7.920000 1.540000 207 201 146 0
1.100000 7.920000 1.540000 208 202 149 0
1.320000 7.920000 1.540000 209 203 150 0
1.540000 7.920000 2.860000 210 204 151 0
1.760000 7.920000 2.860000 213 207 154 0
1.980000 7.920000 2.860000 211 207 154 0
2.200000 7.920000 2.860000 212 208 155 0
2.420000 7.920000 2.860000 213 209 157 0
2.640000 7.920000 4.180000 214 210 158 0
2.860000 7.920000 4.400000 214 210 157 0
3.080000 7.920000 3.080000 210 206 153 0
3.300000 7.920000 1.980000 211 205 150 0
3.520000 7.920000 2.200000 208 202 147 0
3.740000 7.920000 2.200000 209 201 147 0
3.960000 7.920000 2.200000 207 199 145 0
4.180000 7.920000 2.420000 208 198 142 0
4.400000 7.920000 2.420000 207 197 141 0
4.620000 7.920000 2.420000 205 198 141 0
4.840000 7.920000 2.420000 204 197 140 0
5.060000 7.920000 2.420000 206 196 140 0
5.280000 7.920000 2.420000 204 194 138 0
5.500000 7.920000 2.640000 205 195 137 0
5.720000 7.920000 2.640000 204 194 136 0
5.940000 7.920000 2.640000 204 193 135 0
6.160000 7.920000 2.640000 205 194 136 0
6.380000 7.920000 2.640000 205 195 137 0
6.600000 7.920000 3.960000 206 196 138 0
6.820000 7.920000 4.620000 206 196 138 0
7.040000 7.920000 5.720000 206 196 138 0
7.260000 7.920000 7.040000 207 197 139 0
7.480000 7.920000 7.040000 207 197 139 0
7.700000 7.920000 7.040000 207 197 139 0
7.920000 7.920000 7.040000 206 196 138 0
8.140000 7.920000 7.040000 207 197 139 0
8.360000 7.920000 7.040000 207 197 139 0
8.580000 7.920000 7.260000 204 193 135 0
8.800000 7.920000 8.580000 202 191 133 0
9.020000 7.920000 8.580000 202 191 132 0
9.240000 7.920000 8.580000 203 192 133 0
9.460000 7.920000 8.800000 203 192 134 0
9.680000 7.920000 8.800000 204 193 135 0
9.900000 7.920000 8.800000 205 195 137 0
10.120000 7.920000 8.800000 206 196 138 0
10.340000 7.920000 8.800000 207 197 141 0
10.560000 7.920000 8.800000 209 199 143 0
10.780000 7.920000 9.020000 208 201 144 0
11.000000 7.920000 9.020000 209 202 145 0
11.220000 7.920000 9.020000 210 202 148 0
11.440000 7.920000 9.020000 211 203 149 0
11.660000 7.920000 9.020000 213 203 147 0
11.880000 7.920000 9.240000 212 202 146 0
12.100000 7.920000 9.240000 210 198 143 0
12.320000 7.920000 9.240000 205 193 138 0
12.540000 7.920000 9.240000 219 169 129 0
12.760000 7.920000 9.240000 205 155 115 0
12.980000 7.920000 6.600000 217 129 104 0
13.200000 7.920000 11.880000 200 112 87 0
13.420000 7.920000 26.840000 200 91 71 0
13.640000 7.920000 33.880000 196 87 67 0
13.860000 7.920000 34.100000 197 85 68 0
14.080000 7.920000 34.100000 196 84 67 0
14.300000 7.920000 34.320000 195 86 66 0
14.520000 7.920000 34.320000 194 85 65 0
14.740000 7.920000 34.320000 197 85 68 0
14.960000 7.920000 34.320000 197 85 68 0
15.180000 7.920000 34.320000 196 87 67 0
15.400000 7.920000 34.320000 197 88 68 0
15.620000 7.920000 35.420000 197 88 70 0
15.840000 7.920000 35.200000 198 89 71 0
16.060000 7.920000 35.200000 197 88 70 0
16.280000 7.920000 36.520000 198 89 71 0
16.500000 7.920000 36.520000 197 88 70 0
16.720000 7.920000 36.520000 196 87 69 0
16.940000 7.920000 36.520000 195 86 66 0
17.160000 7.920000 36.520000 194 85 65 0
17.380000 7.920000 36.740000 193 84 66 0
17.600000 7.920000 36.740000 194 85 67 0
17.820000 7.920000 37.840000 195 86 68 0
18.040000 7.920000 38.720000 194 85 67 0
18.260000 7.920000 38.720000 194 85 67 0
18.480000 7.920000 38.720000 195 86 68 0
18.700000 7.920000 38.720000 195 86 68 0
18.920000 7.920000 38.940000 196 87 69 0
19.140000 7.920000 38.940000 195 86 68 0
19.360000 7.920000 38.940000 198 89 71 0
19.580000 7.920000 38.940000 198 89 71 0
19.800000 7.920000 38.940000 198 89 71 0
20.020000 7.920000 38.940000 199 90 72 0
20.240000 7.920000 38.940000 200 91 73 0
20.460000 7.920000 39.160000 200 92 75 0
20.680000 7.920000 39.160000 200 92 75 0
20.900000 7.920000 39.160000 200 94 76 0
21.120000 7.920000 40.700000 201 95 77 0
21.340000 7.920000 40.700000 201 94 79 0
21.560000 7.920000 40.700000 202 95 80 0
21.780000 7.920000 40.700000 202 103 85 0
22.000000 7.920000 40.920000 204 105 87 0
22.220000 7.920000 40.920000 205 106 88 0
22.440000 7.920000 40.920000 205 106 88 0
22.660000 7.920000 41.140000 205 103 86 0
22.880000 7.920000 41.140000 204 102 85 0
23.100000 7.920000 41.140000 203 101 84 0
23.320000 7.920000 35.640000 205 103 86 0
23.540000 7.920000 21.780000 200 114 98 0
23.760000 7.920000 8.140000 209 123 107 0
25.520000 7.920000 0.440000 233 179 162 0
25.740000 7.920000 1.540000 233 175 159 0
25.960000 7.920000 1.540000 225 167 151 0
26.180000 7.920000 1.540000 221 163 147 0
26.400000 7.920000 1.540000 220 162 146 0
26.620000 7.920000 1.540000 218 164 149 0
26.840000 7.920000 1.540000 220 166 151 0
27.060000 7.920000 2.860000 219 161 145 0
27.280000 7.920000 2.860000 221 163 147 0
27.500000 7.920000 2.860000 221 154 140 0
27.720000 7.920000 2.860000 215 148 134 0
27.940000 7.920000 2.860000 218 139 127 0
28.160000 7.920000 2.860000 213 134 122 0
28.380000 7.920000 3.080000 212 133 121 0
28.600000 7.920000 3.080000 212 133 121 0
28.820000 7.920000 3.080000 212 133 121 0
29.040000 7.920000 3.080000 212 133 121 0
29.260000 7.920000 3.080000 212 134 125 0
29.480000 7.920000 3.080000 212 134 125 0
29.700000 7.920000 3.080000 212 133 123 0
29.920000 7.920000 3.300000 212 133 123 0
30.140000 7.920000 3.300000 213 133 121 0
30.360000 7.920000 3.300000 212 132 120 0
30.580000 7.920000 3.300000 210 133 122 0
30.800000 7.920000 3.300000 213 136 125 0
31.020000 7.920000 3.520000 201 151 149 0
31.240000 7.920000 3.520000 223 173 171 0
31.460000 7.920000 3.520000 216 210 207 0
31.680000 7.920000 3.740000 230 224 221 0
31.900000 7.920000 3.740000 242 233 225 0
32.120000 7.920000 3.740000 235 226 218 0
32.340000 7.920000 3.740000 247 202 194 0
32.560000 7.920000 3.740000 228 183 175 0
32.780000 7.920000 5.280000 224 149 139 0
33.000000 7.920000 5.280000 214 139 129 0
33.220000 7.920000 5.280000 212 129 120 0
33.440000 7.920000 6.160000 209 126 117 0
33.660000 7.920000 7.040000 212 122 109 0
33.880000 7.920000 8.360000 209 119 106 0
34.100000 7.920000 8.360000 210 116 103 0
34.320000 7.920000 8.360000 210 116 103 0
34.540000 7.920000 8.580000 211 114 100 0
34.760000 7.920000 8.580000 211 114 100 0
34.980000 7.920000 8.580000 211 113 99 0
35.200000 7.920000 8.580000 209 111 97 0
35.420000 7.920000 8.580000 210 107 93 0
35.640000 7.920000 8.800000 209 106 92 0
35.860000 7.920000 10.120000 209 106 92 0
36.080000 7.920000 10.120000 208 105 91 0
36.300000 7.920000 10.120000 209 105 91 0
36.520000 7.920000 10.340000 207 103 89 0
36.740000 7.920000 10.340000 207 103 89 0
36.960000 7.920000 10.560000 206 102 88 0
37.180000 7.920000 10.560000 207 103 89 0
0.220000 8.140000 0.440000 206 200 147 0
0.440000 8.140000 1.540000 206 200 147 0
0.660000 8.140000 1.540000 207 201 146 0
0.880000 8.140000 1.540000 207 201 146 0
1.100000 8.140000 1.540000 207 201 148 0
1.320000 8.140000 1.540000 208 202 149 0
1.540000 8.140000 1.540000 209 203 148 0
1.760000 8.140000 2.860000 211 205 150 0
1.980000 8.140000 2.860000 213 207 154 0
2.200000 8.140000 2.860000 214 208 155 0
2.420000 8.140000 3.080000 216 210 157 0
2.640000 8.140000 3.080000 216 210 157 0
2.860000 8.140000 3.080000 213 207 154 0
3.080000 8.140000 3.300000 211 205 152 0
3.300000 8.140000 1.980000 210 202 148 0
3.520000 8.140000 2.200000 210 202 148 0
3.740000 8.140000 2.200000 209 201 147 0
3.960000 8.140000 2.200000 207 199 145 0
4.180000 8.140000 2.200000 208 198 142 0
4.400000 8.140000 2.420000 208 198 142 0
4.620000 8.140000 2.420000 207 197 141 0
4.840000 8.140000 2.420000 206 196 140 0
5.060000 8.140000 2.420000 206 196 140 0
5.280000 8.140000 2.420000 205 195 139 0
5.500000 8.140000 2.420000 204 194 136 0
5.720000 8.140000 2.640000 205 195 137 0
5.940000 8.140000 2.640000 203 193 135 0
6.160000 8.140000 2.640000 203 193 135 0
6.380000 8.140000 2.640000 204 194 138 0
6.600000 8.140000 3.960000 205 195 139 0
6.820000 8.140000 5.060000 205 195 139 0
7.040000 8.140000 5.720000 206 196 140 0
7.260000 8.140000 7.040000 207 197 141 0
7.480000 8.140000 7.040000 208 198 142 0
7.700000 8.140000 7.040000 208 198 142 0
7.920000 8.140000 7.040000 208 198 142 0
8.140000 8.140000 7.040000 208 198 142 0
8.360000 8.140000 7.040000 209 199 143 0
8.580000 8.140000 8.580000 207 197 141 0
8.800000 8.140000 8.580000 204 194 138 0
9.020000 8.140000 8.580000 205 194 136 0
9.240000 8.140000 8.580000 203 192 134 0
9.460000 8.140000 8.800000 203 193 135 0
9.680000 8.140000 8.800000 204 194 136 0
9.900000 8.140000 8.800000 206 196 138 0
10.120000 8.140000 8.800000 206 196 138 0
10.340000 8.140000 8.800000 207 197 141 0
10.560000 8.140000 8.800000 209 199 143 0
10.780000 8.140000 9.020000 210 200 144 0
11.000000 8.140000 9.020000 211 201 145 0
11.220000 8.140000 9.020000 212 202 146 0
11.440000 8.140000 9.020000 212 202 146 0
11.660000 8.140000 9.020000 213 203 147 0
11.880000 8.140000 9.240000 212 202 146 0
12.100000 8.140000 9.240000 210 198 143 0
12.320000 8.140000 9.240000 204 192 137 0
12.540000 8.140000 9.240000 220 166 125 0
12.760000 8.140000 9.240000 206 152 111 0
12.980000 8.140000 6.380000 214 124 95 0
13.200000 8.140000 10.560000 200 110 81 0
13.420000 8.140000 25.740000 201 89 72 0
13.640000 8.140000 34.100000 197 85 68 0
13.860000 8.140000 34.100000 195 86 66 0
14.080000 8.140000 34.100000 194 85 65 0
14.300000 8.140000 34.320000 197 85 66 0
14.520000 8.140000 34.320000 197 85 66 0
14.740000 8.140000 34.320000 195 86 66 0
14.960000 8.140000 34.320000 196 87 67 0
15.180000 8.140000 34.320000 195 86 68 0
15.400000 8.140000 34.100000 196 87 69 0
15.620000 8.140000 35.420000 196 87 67 0
15.840000 8.140000 35.200000 197 88 68 0
16.060000 8.140000 35.200000 200 88 71 0
16.280000 8.140000 35.200000 199 87 70 0
16.500000 8.140000 35.200000 196 87 69 0
16.720000 8.140000 35.420000 195 86 68 0
16.940000 8.140000 35.420000 196 84 67 0
17.160000 8.140000 35.420000 197 85 68 0
17.380000 8.140000 36.740000 194 85 65 0
17.600000 8.140000 35.640000 194 85 65 0
17.820000 8.140000 36.520000 194 85 67 0
18.040000 8.140000 38.940000 194 85 67 0
18.260000 8.140000 38.720000 194 85 67 0
18.480000 8.140000 38.720000 195 86 68 0
18.700000 8.140000 38.720000 195 86 68 0
18.920000 8.140000 38.940000 196 87 69 0
19.140000 8.140000 38.940000 197 88 70 0
19.360000 8.140000 38.940000 196 87 69 0
19.580000 8.140000 38.940000 198 89 71 0
19.800000 8.140000 38.940000 198 89 71 0
20.020000 8.140000 38.940000 199 89 73 0
20.240000 8.140000 39.160000 201 91 75 0
20.460000 8.140000 39.160000 200 92 75 0
20.680000 8.140000 39.160000 200 92 75 0
20.900000 8.140000 39.160000 200 94 76 0
21.120000 8.140000 40.480000 201 95 77 0
21.340000 8.140000 40.700000 200 96 80 0
21.560000 8.140000 40.700000 200 96 80 0
21.780000 8.140000 40.700000 202 104 86 0
22.000000 8.140000 40.700000 204 106 88 0
22.220000 8.140000 40.920000 206 107 89 0
22.440000 8.140000 40.920000 206 107 89 0
22.660000 8.140000 41.140000 206 102 86 0
22.880000 8.140000 41.140000 204 100 84 0
23.100000 8.140000 41.140000 198 100 82 0
23.320000 8.140000 35.640000 203 105 87 0
23.540000 8.140000 27.280000 197 118 98 0
23.760000 8.140000 21.780000 207 128 108 0
23.980000 8.140000 13.640000 204 145 124 0
24.200000 8.140000 8.140000 218 159 138 0
24.420000 8.140000 5.280000 213 162 138 0
25.740000 8.140000 0.440000 229 176 157 0
25.960000 8.140000 1.540000 224 171 152 0
26.180000 8.140000 1.540000 219 172 151 0
26.400000 8.140000 1.540000 220 173 152 0
26.620000 8.140000 1.540000 228 171 157 0
26.840000 8.140000 1.540000 226 169 155 0
27.060000 8.140000 2.860000 221 170 148 0
27.280000 8.140000 2.860000 220 169 147 0
27.500000 8.140000 2.860000 223 166 144 0
27.720000 8.140000 2.860000 215 158 136 0
27.940000 8.140000 2.860000 219 149 134 0
28.160000 8.140000 2.860000 215 145 130 0
28.380000 8.140000 3.080000 212 135 124 0
28.600000 8.140000 3.080000 213 136 125 0
28.820000 8.140000 3.080000 210 137 123 0
29.040000 8.140000 3.080000 211 138 124 0
29.260000 8.140000 3.080000 211 141 129 0
29.480000 8.140000 3.080000 212 142 130 0
29.700000 8.140000 3.080000 215 138 127 0
29.920000 8.140000 3.300000 214 137 126 0
30.140000 8.140000 3.300000 209 136 125 0
30.360000 8.140000 3.300000 210 137 126 0
30.580000 8.140000 3.300000 207 140 129 0
30.800000 8.140000 3.300000 211 144 133 0
31.020000 8.140000 3.520000 208 148 143 0
31.240000 8.140000 3.520000 220 160 155 0
31.460000 8.140000 3.520000 229 205 200 0
31.680000 8.140000 3.740000 246 222 217 0
31.900000 8.140000 3.740000 253 227 221 0
32.120000 8.140000 3.740000 241 215 209 0
32.340000 8.140000 3.740000 248 190 183 0
32.560000 8.140000 3.740000 227 169 162 0
32.780000 8.140000 5.280000 219 144 134 0
33.000000 8.140000 5.280000 211 136 126 0
33.220000 8.140000 5.280000 209 128 119 0
33.440000 8.140000 6.380000 207 126 117 0
33.660000 8.140000 7.260000 211 122 111 0
33.880000 8.140000 8.360000 208 119 108 0
34.100000 8.140000 8.360000 210 116 103 0
34.320000 8.140000 8.360000 209 115 102 0
34.540000 8.140000 8.580000 209 114 103 0
34.760000 8.140000 8.580000 207 112 101 0
34.980000 8.140000 8.580000 211 112 101 0
35.200000 8.140000 8.580000 208 109 98 0
35.420000 8.140000 8.580000 210 107 93 0
35.640000 8.140000 10.120000 209 106 92 0
35.860000 8.140000 10.120000 208 105 91 0
36.080000 8.140000 10.120000 207 104 90 0
36.300000 8.140000 10.120000 207 104 90 0
36.520000 8.140000 10.120000 207 104 90 0
36.740000 8.140000 10.340000 207 103 89 0
36.960000 8.140000 10.340000 206 102 88 0
37.180000 8.140000 10.120000 208 101 88 0
0.000000 8.360000 0.660000 206 200 147 0
0.220000 8.360000 0.440000 207 201 148 0
0.440000 8.360000 1.320000 206 200 147 0
0.660000 8.360000 1.540000 207 201 146 0
0.880000 8.360000 1.540000 207 201 146 0
1.100000 8.360000 1.540000 208 202 149 0
1.320000 8.360000 1.540000 208 202 149 0
1.540000 8.360000 1.540000 209 203 148 0
1.760000 8.360000 1.540000 210 204 149 0
1.980000 8.360000 1.540000 212 206 153 0
2.200000 8.360000 3.080000 214 208 155 0
2.420000 8.360000 3.080000 215 209 156 0
2.640000 8.360000 3.080000 214 208 155 0
2.860000 8.360000 3.080000 212 206 153 0
3.080000 8.360000 1.980000 210 204 151 0
3.300000 8.360000 1.980000 210 202 148 0
3.520000 8.360000 2.200000 209 201 147 0
3.740000 8.360000 2.200000 208 200 146 0
3.960000 8.360000 2.200000 207 199 145 0
4.180000 8.360000 2.200000 208 198 142 0
4.400000 8.360000 2.420000 207 197 141 0
4.620000 8.360000 2.420000 207 197 141 0
4.840000 8.360000 2.420000 206 196 140 0
5.060000 8.360000 2.420000 205 195 139 0
5.280000 8.360000 2.420000 205 195 139 0
5.500000 8.360000 2.420000 204 194 136 0
5.720000 8.360000 2.640000 204 194 136 0
5.940000 8.360000 2.640000 202 192 134 0
6.160000 8.360000 2.640000 203 193 135 0
6.380000 8.360000 2.640000 203 193 137 0
6.600000 8.360000 2.640000 204 194 138 0
6.820000 8.360000 3.740000 205 195 139 0
7.040000 8.360000 5.940000 206 196 140 0
7.260000 8.360000 7.040000 206 196 140 0
7.480000 8.360000 7.040000 208 198 142 0
7.700000 8.360000 7.040000 209 199 143 0
7.920000 8.360000 7.040000 210 200 144 0
8.140000 8.360000 7.040000 210 200 144 0
8.360000 8.360000 8.580000 210 200 144 0
8.580000 8.360000 8.580000 209 199 143 0
8.800000 8.360000 8.580000 208 198 142 0
9.020000 8.360000 8.580000 205 194 136 0
9.240000 8.360000 8.580000 205 194 136 0
9.460000 8.360000 8.800000 204 194 136 0
9.680000 8.360000 8.800000 204 194 136 0
9.900000 8.360000 8.800000 206 196 138 0
10.120000 8.360000 8.800000 206 196 138 0
10.340000 8.360000 8.800000 207 197 141 0
10.560000 8.360000 8.800000 209 199 143 0
10.780000 8.360000 9.020000 210 200 144 0
11.000000 8.360000 9.020000 211 201 145 0
11.220000 8.360000 9.020000 212 202 146 0
11.440000 8.360000 9.020000 213 203 147 0
11.660000 8.360000 9.020000 213 203 147 0
11.880000 8.360000 9.020000 212 202 146 0
12.100000 8.360000 9.240000 212 200 145 0
12.320000 8.360000 9.240000 203 191 136 0
12.540000 8.360000 9.240000 219 165 124 0
12.760000 8.360000 9.240000 206 152 111 0
12.980000 8.360000 9.240000 214 124 95 0
13.200000 8.360000 14.740000 199 109 80 0
13.420000 8.360000 27.060000 201 89 72 0
13.640000 8.360000 34.100000 197 85 68 0
13.860000 8.360000 34.100000 195 86 66 0
14.080000 8.360000 34.100000 195 86 66 0
14.300000 8.360000 34.100000 197 85 66 0
14.520000 8.360000 34.100000 197 85 66 0
14.740000 8.360000 34.320000 196 87 67 0
14.960000 8.360000 34.320000 196 87 67 0
15.180000 8.360000 34.320000 196 87 69 0
15.400000 8.360000 34.100000 197 88 70 0
15.620000 8.360000 34.100000 197 88 68 0
15.840000 8.360000 35.420000 197 88 68 0
16.060000 8.360000 35.420000 199 87 70 0
16.280000 8.360000 35.420000 198 86 69 0
16.500000 8.360000 35.420000 196 87 69 0
16.720000 8.360000 35.640000 194 85 67 0
16.940000 8.360000 34.320000 196 84 67 0
17.160000 8.360000 35.640000 196 84 67 0
17.380000 8.360000 35.640000 194 85 65 0
17.600000 8.360000 36.960000 195 86 66 0
17.820000 8.360000 37.840000 194 85 67 0
18.040000 8.360000 38.720000 194 85 67 0
18.260000 8.360000 38.720000 194 85 67 0
18.480000 8.360000 38.720000 195 86 68 0
18.700000 8.360000 38.720000 196 87 69 0
18.920000 8.360000 38.720000 196 87 69 0
19.140000 8.360000 38.720000 196 87 69 0
19.360000 8.360000 38.940000 197 88 70 0
19.580000 8.360000 38.940000 197 88 70 0
19.800000 8.360000 38.940000 199 90 72 0
20.020000 8.360000 38.940000 199 89 73 0
20.240000 8.360000 39.160000 201 91 75 0
20.460000 8.360000 39.160000 200 92 75 0
20.680000 8.360000 39.160000 200 92 75 0
20.900000 8.360000 39.160000 199 93 75 0
21.120000 8.360000 40.480000 201 95 77 0
21.340000 8.360000 40.700000 199 95 79 0
21.560000 8.360000 40.700000 202 98 82 0
21.780000 8.360000 39.380000 204 106 88 0
22.000000 8.360000 40.700000 206 108 90 0
22.220000 8.360000 40.920000 206 107 89 0
22.440000 8.360000 40.920000 206 107 89 0
22.660000 8.360000 40.920000 206 102 86 0
22.880000 8.360000 41.140000 203 99 83 0
23.100000 8.360000 41.140000 199 101 83 0
23.320000 8.360000 38.280000 205 107 89 0
23.540000 8.360000 35.640000 198 119 99 0
23.760000 8.360000 35.640000 211 132 112 0
23.980000 8.360000 32.780000 208 149 128 0
24.200000 8.360000 30.140000 219 160 139 0
24.420000 8.360000 24.640000 217 166 142 0
24.640000 8.360000 10.780000 227 176 152 0
25.960000 8.360000 1.760000 224 171 152 0
26.180000 8.360000 1.540000 223 176 155 0
26.400000 8.360000 1.540000 224 177 156 0
26.620000 8.360000 1.540000 231 174 160 0
26.840000 8.360000 2.860000 227 170 156 0
27.060000 8.360000 2.860000 226 175 153 0
27.280000 8.360000 2.860000 226 175 153 0
27.500000 8.360000 2.860000 224 167 145 0
27.720000 8.360000 2.860000 217 160 138 0
27.940000 8.360000 2.860000 219 149 134 0
28.160000 8.360000 2.860000 216 146 131 0
28.380000 8.360000 2.860000 214 137 126 0
28.600000 8.360000 3.080000 213 136 125 0
28.820000 8.360000 3.080000 212 139 125 0
29.040000 8.360000 3.080000 214 141 127 0
29.260000 8.360000 3.080000 213 143 131 0
29.480000 8.360000 3.080000 214 144 132 0
29.700000 8.360000 3.080000 219 142 131 0
29.920000 8.360000 3.300000 216 139 128 0
30.140000 8.360000 3.300000 214 141 130 0
30.360000 8.360000 3.300000 212 139 128 0
30.580000 8.360000 3.300000 213 146 135 0
30.800000 8.360000 3.300000 215 148 137 0
31.020000 8.360000 3.520000 210 150 145 0
31.240000 8.360000 3.520000 220 160 155 0
31.460000 8.360000 3.520000 217 193 188 0
31.680000 8.360000 3.740000 234 210 205 0
31.900000 8.360000 3.740000 242 216 210 0
32.120000 8.360000 3.740000 233 207 201 0
32.340000 8.360000 3.740000 240 182 175 0
32.560000 8.360000 3.740000 222 164 157 0
32.780000 8.360000 5.280000 217 142 132 0
33.000000 8.360000 5.280000 210 135 125 0
33.220000 8.360000 5.280000 211 130 121 0
33.440000 8.360000 5.280000 208 127 118 0
33.660000 8.360000 6.380000 211 122 111 0
33.880000 8.360000 7.260000 209 120 109 0
34.100000 8.360000 8.360000 211 117 104 0
34.320000 8.360000 8.360000 210 116 103 0
34.540000 8.360000 8.580000 208 113 102 0
34.760000 8.360000 8.580000 209 114 103 0
34.980000 8.360000 8.580000 211 112 101 0
35.200000 8.360000 8.580000 210 111 100 0
35.420000 8.360000 8.580000 212 109 95 0
35.640000 8.360000 10.120000 210 107 93 0
35.860000 8.360000 10.120000 209 106 92 0
36.080000 8.360000 10.120000 209 106 92 0
36.300000 8.360000 10.120000 208 105 91 0
36.520000 8.360000 10.120000 207 104 90 0
36.740000 8.360000 10.340000 208 104 90 0
36.960000 8.360000 10.340000 207 103 89 0
37.180000 8.360000 10.340000 208 101 88 0
0.220000 8.580000 0.440000 206 200 147 0
0.440000 8.580000 1.540000 206 200 147 0
0.660000 8.580000 1.540000 207 201 148 0
0.880000 8.580000 1.540000 207 201 148 0
1.100000 8.580000 1.540000 208 202 149 0
1.320000 8.580000 1.540000 209 203 150 0
1.540000 8.580000 1.540000 210 204 149 0
1.760000 8.580000 1.540000 211 205 150 0
1.980000 8.580000 1.540000 212 206 153 0
2.200000 8.580000 1.760000 212 206 153 0
2.420000 8.580000 1.760000 212 206 153 0
2.640000 8.580000 1.760000 212 206 153 0
2.860000 8.580000 1.760000 212 206 153 0
3.080000 8.580000 1.980000 211 205 152 0
3.300000 8.580000 1.980000 211 203 149 0
3.520000 8.580000 1.980000 210 202 148 0
3.740000 8.580000 2.200000 208 201 144 0
3.960000 8.580000 2.200000 208 201 144 0
4.180000 8.580000 2.200000 208 198 144 0
4.400000 8.580000 2.420000 207 197 143 0
4.620000 8.580000 2.420000 207 197 141 0
4.840000 8.580000 2.420000 206 196 140 0
5.060000 8.580000 2.420000 205 195 139 0
5.280000 8.580000 2.420000 204 194 138 0
5.500000 8.580000 2.420000 203 193 135 0
5.720000 8.580000 2.640000 203 193 135 0
5.940000 8.580000 2.640000 203 191 136 0
6.160000 8.580000 2.640000 203 191 136 0
6.380000 8.580000 2.640000 202 191 133 0
6.600000 8.580000 2.640000 203 192 134 0
6.820000 8.580000 3.960000 203 193 135 0
7.040000 8.580000 6.160000 204 194 136 0
7.260000 8.580000 7.040000 206 196 138 0
7.480000 8.580000 7.040000 209 199 141 0
7.700000 8.580000 7.040000 210 200 146 0
7.920000 8.580000 7.040000 212 202 148 0
8.140000 8.580000 7.040000 212 202 146 0
8.360000 8.580000 8.580000 211 201 145 0
8.580000 8.580000 8.580000 211 201 143 0
8.800000 8.580000 8.580000 210 200 142 0
9.020000 8.580000 8.580000 208 198 140 0
9.240000 8.580000 8.580000 206 196 138 0
9.460000 8.580000 8.580000 206 194 139 0
9.680000 8.580000 8.800000 205 193 138 0
9.900000 8.580000 8.800000 207 195 140 0
10.120000 8.580000 8.800000 207 195 140 0
10.340000 8.580000 8.800000 208 198 142 0
10.560000 8.580000 8.800000 209 199 143 0
10.780000 8.580000 9.020000 210 200 144 0
11.000000 8.580000 9.020000 211 201 145 0
11.220000 8.580000 9.020000 212 202 148 0
11.440000 8.580000 9.020000 213 203 149 0
11.660000 8.580000 9.020000 214 204 150 0
11.880000 8.580000 9.020000 212 202 148 0
12.100000 8.580000 9.020000 211 199 146 0
12.320000 8.580000 9.240000 202 190 137 0
12.540000 8.580000 9.240000 218 165 128 0
12.760000 8.580000 9.240000 204 151 114 0
12.980000 8.580000 13.200000 216 125 102 0
13.200000 8.580000 24.420000 199 108 85 0
13.420000 8.580000 32.560000 198 89 69 0
13.640000 8.580000 33.880000 195 86 66 0
13.860000 8.580000 34.100000 194 85 67 0
14.080000 8.580000 34.100000 195 86 68 0
14.300000 8.580000 34.100000 195 86 68 0
14.520000 8.580000 34.100000 196 87 69 0
14.740000 8.580000 34.100000 196 87 67 0
14.960000 8.580000 34.100000 196 87 67 0
15.180000 8.580000 34.100000 196 87 67 0
15.400000 8.580000 34.100000 197 88 68 0
15.620000 8.580000 34.100000 196 87 69 0
15.840000 8.580000 35.420000 197 88 70 0
16.060000 8.580000 35.420000 196 87 69 0
16.280000 8.580000 35.420000 196 87 69 0
16.500000 8.580000 35.640000 195 86 66 0
16.720000 8.580000 35.640000 195 86 66 0
16.940000 8.580000 34.320000 195 86 66 0
17.160000 8.580000 35.640000 195 86 66 0
17.380000 8.580000 35.640000 195 86 68 0
17.600000 8.580000 35.640000 194 85 67 0
17.820000 8.580000 36.520000 194 85 67 0
18.040000 8.580000 37.620000 194 85 67 0
18.260000 8.580000 38.720000 194 85 65 0
18.480000 8.580000 38.720000 194 85 65 0
18.700000 8.580000 38.720000 196 87 69 0
18.920000 8.580000 38.720000 196 87 69 0
19.140000 8.580000 38.720000 197 88 70 0
19.360000 8.580000 38.940000 198 89 71 0
19.580000 8.580000 38.940000 197 88 70 0
19.800000 8.580000 38.940000 199 90 72 0
20.020000 8.580000 38.940000 199 91 74 0
20.240000 8.580000 39.160000 200 92 75 0
20.460000 8.580000 39.160000 199 91 74 0
20.680000 8.580000 39.160000 200 92 75 0
20.900000 8.580000 39.160000 199 92 77 0
21.120000 8.580000 39.160000 201 94 79 0
21.340000 8.580000 39.160000 199 97 80 0
21.560000 8.580000 39.380000 201 99 82 0
21.780000 8.580000 39.380000 205 107 91 0
22.000000 8.580000 39.380000 206 108 92 0
22.220000 8.580000 40.700000 206 106 91 0
22.440000 8.580000 40.920000 205 105 90 0
22.660000 8.580000 40.920000 205 103 86 0
22.880000 8.580000 40.920000 202 100 83 0
23.100000 8.580000 41.140000 197 101 84 0
23.320000 8.580000 41.140000 203 107 90 0
23.540000 8.580000 41.140000 198 122 103 0
23.760000 8.580000 41.140000 209 133 114 0
23.980000 8.580000 41.140000 214 151 131 0
24.200000 8.580000 41.140000 220 157 137 0
24.420000 8.580000 38.500000 220 170 140 0
24.640000 8.580000 24.640000 230 180 150 0
24.860000 8.580000 5.500000 230 183 160 0
25.960000 8.580000 0.440000 223 171 153 0
26.180000 8.580000 1.540000 226 180 160 0
26.400000 8.580000 1.540000 231 185 165 0
26.620000 8.580000 1.540000 229 181 162 0
26.840000 8.580000 2.860000 227 179 160 0
27.060000 8.580000 1.540000 228 174 157 0
27.280000 8.580000 2.860000 225 171 154 0
27.500000 8.580000 2.860000 228 165 151 0
27.720000 8.580000 2.860000 219 156 142 0
27.940000 8.580000 2.860000 218 150 134 0
28.160000 8.580000 2.860000 213 145 129 0
28.380000 8.580000 2.860000 213 140 128 0
28.600000 8.580000 2.860000 212 139 127 0
28.820000 8.580000 3.080000 212 144 130 0
29.040000 8.580000 3.080000 213 145 131 0
29.260000 8.580000 3.080000 210 147 135 0
29.480000 8.580000 3.080000 211 148 136 0
29.700000 8.580000 3.080000 204 154 140 0
29.920000 8.580000 3.300000 209 159 145 0
30.140000 8.580000 3.300000 192 179 166 0
30.360000 8.580000 3.300000 198 185 172 0
30.580000 8.580000 3.300000 192 189 179 0
30.800000 8.580000 3.300000 189 186 176 0
31.020000 8.580000 3.520000 205 160 150 0
31.240000 8.580000 3.520000 214 169 159 0
31.460000 8.580000 3.520000 215 191 184 0
31.680000 8.580000 3.740000 230 206 199 0
31.900000 8.580000 3.740000 234 213 203 0
32.120000 8.580000 3.740000 229 208 198 0
32.340000 8.580000 3.740000 237 184 173 0
32.560000 8.580000 3.740000 216 163 152 0
32.780000 8.580000 3.740000 219 144 134 0
33.000000 8.580000 3.960000 211 136 126 0
33.220000 8.580000 3.960000 212 133 123 0
33.440000 8.580000 5.500000 209 130 120 0
33.660000 8.580000 5.060000 212 125 113 0
33.880000 8.580000 7.260000 209 122 110 0
34.100000 8.580000 8.360000 211 117 104 0
34.320000 8.580000 8.360000 208 114 101 0
34.540000 8.580000 8.580000 209 115 102 0
34.760000 8.580000 8.580000 209 115 102 0
34.980000 8.580000 8.580000 211 114 100 0
35.200000 8.580000 8.580000 210 113 99 0
35.420000 8.580000 8.580000 209 110 99 0
35.640000 8.580000 8.800000 208 109 98 0
35.860000 8.580000 10.120000 208 110 96 0
36.080000 8.580000 10.120000 207 109 95 0
36.300000 8.580000 10.120000 208 105 91 0
36.520000 8.580000 10.120000 208 105 91 0
36.740000 8.580000 10.340000 207 103 89 0
36.960000 8.580000 10.560000 207 103 89 0
37.180000 8.580000 10.560000 207 103 89 0
0.220000 8.800000 0.440000 207 201 148 0
0.440000 8.800000 1.540000 207 201 148 0
0.660000 8.800000 1.540000 207 201 148 0
0.880000 8.800000 1.540000 208 202 149 0
1.100000 8.800000 1.540000 208 202 149 0
1.320000 8.800000 1.540000 209 203 150 0
1.540000 8.800000 1.540000 210 204 149 0
1.760000 8.800000 1.540000 211 205 150 0
1.980000 8.800000 1.760000 211 205 152 0
2.200000 8.800000 1.760000 211 205 152 0
2.420000 8.800000 1.760000 213 207 154 0
2.640000 8.800000 1.760000 212 206 153 0
2.860000 8.800000 1.760000 212 206 153 0
3.080000 8.800000 1.980000 211 205 152 0
3.300000 8.800000 1.980000 212 204 150 0
3.520000 8.800000 1.980000 211 203 149 0
3.740000 8.800000 2.200000 210 203 146 0
3.960000 8.800000 2.200000 208 201 144 0
4.180000 8.800000 2.200000 209 199 145 0
4.400000 8.800000 2.200000 208 198 144 0
4.620000 8.800000 2.420000 207 197 141 0
4.840000 8.800000 2.420000 206 196 140 0
5.060000 8.800000 2.420000 204 194 138 0
5.280000 8.800000 2.420000 204 194 138 0
5.500000 8.800000 2.420000 203 193 135 0
5.720000 8.800000 2.640000 203 193 135 0
5.940000 8.800000 2.640000 203 191 136 0
6.160000 8.800000 2.640000 202 190 135 0
6.380000 8.800000 2.640000 203 192 134 0
6.600000 8.800000 2.640000 203 192 134 0
6.820000 8.800000 3.960000 203 193 135 0
7.040000 8.800000 5.060000 204 194 136 0
7.260000 8.800000 5.720000 205 195 137 0
7.480000 8.800000 7.040000 208 198 140 0
7.700000 8.800000 7.040000 212 202 148 0
7.920000 8.800000 7.040000 213 203 149 0
8.140000 8.800000 7.040000 213 203 147 0
8.360000 8.800000 8.360000 214 204 148 0
8.580000 8.800000 8.580000 212 202 144 0
8.800000 8.800000 8.580000 211 201 143 0
9.020000 8.800000 8.580000 209 199 141 0
9.240000 8.800000 8.580000 208 198 140 0
9.460000 8.800000 8.580000 207 195 140 0
9.680000 8.800000 8.800000 207 195 140 0
9.900000 8.800000 8.800000 206 194 139 0
10.120000 8.800000 8.800000 208 196 141 0
10.340000 8.800000 8.800000 208 198 142 0
10.560000 8.800000 8.800000 209 199 143 0
10.780000 8.800000 9.020000 211 201 145 0
11.000000 8.800000 9.020000 211 201 145 0
11.220000 8.800000 9.020000 212 202 148 0
11.440000 8.800000 9.020000 213 203 149 0
11.660000 8.800000 9.020000 214 204 150 0
11.880000 8.800000 9.020000 214 204 150 0
12.100000 8.800000 9.020000 211 199 146 0
12.320000 8.800000 9.020000 204 192 139 0
12.540000 8.800000 9.020000 218 165 128 0
12.760000 8.800000 7.700000 205 152 115 0
12.980000 8.800000 14.520000 213 122 99 0
13.200000 8.800000 29.700000 198 107 84 0
13.420000 8.800000 35.420000 199 90 70 0
13.640000 8.800000 33.880000 196 87 67 0
13.860000 8.800000 33.880000 195 86 68 0
14.080000 8.800000 34.100000 195 86 68 0
14.300000 8.800000 34.100000 195 86 68 0
14.520000 8.800000 34.100000 195 86 68 0
14.740000 8.800000 34.100000 197 88 68 0
14.960000 8.800000 34.100000 196 87 67 0
15.180000 8.800000 34.100000 197 88 68 0
15.400000 8.800000 34.100000 197 88 68 0
15.620000 8.800000 34.100000 196 87 69 0
15.840000 8.800000 34.100000 197 88 70 0
16.060000 8.800000 34.100000 197 88 70 0
16.280000 8.800000 34.100000 196 87 69 0
16.500000 8.800000 34.320000 194 85 65 0
16.720000 8.800000 34.320000 195 86 66 0
16.940000 8.800000 34.320000 195 86 66 0
17.160000 8.800000 34.320000 195 86 66 0
17.380000 8.800000 34.540000 194 85 67 0
17.600000 8.800000 35.860000 195 86 68 0
17.820000 8.800000 35.640000 195 86 68 0
18.040000 8.800000 36.740000 194 85 67 0
18.260000 8.800000 37.620000 195 86 66 0
18.480000 8.800000 38.720000 195 86 66 0
18.700000 8.800000 38.720000 196 87 69 0
18.920000 8.800000 38.720000 196 87 69 0
19.140000 8.800000 38.940000 197 88 70 0
19.360000 8.800000 38.940000 197 88 70 0
19.580000 8.800000 38.940000 197 88 70 0
19.800000 8.800000 38.940000 199 90 72 0
20.020000 8.800000 38.940000 200 92 75 0
20.240000 8.800000 39.160000 200 92 75 0
20.460000 8.800000 39.160000 200 92 75 0
20.680000 8.800000 39.160000 200 92 75 0
20.900000 8.800000 39.160000 200 93 78 0
21.120000 8.800000 39.160000 201 94 79 0
21.340000 8.800000 39.160000 200 98 81 0
21.560000 8.800000 39.380000 203 101 84 0
21.780000 8.800000 39.380000 205 107 91 0
22.000000 8.800000 39.380000 206 108 92 0
22.220000 8.800000 40.700000 207 107 92 0
22.440000 8.800000 40.920000 207 107 92 0
22.660000 8.800000 40.920000 203 101 84 0
22.880000 8.800000 40.920000 203 101 84 0
23.100000 8.800000 41.140000 199 103 86 0
23.320000 8.800000 41.140000 206 110 93 0
23.540000 8.800000 41.140000 202 126 107 0
23.760000 8.800000 41.140000 210 134 115 0
23.980000 8.800000 41.140000 214 151 131 0
24.200000 8.800000 41.140000 217 154 134 0
24.420000 8.800000 41.360000 218 168 138 0
24.640000 8.800000 30.360000 224 174 144 0
24.860000 8.800000 8.140000 228 181 158 0
25.960000 8.800000 0.440000 227 175 157 0
26.180000 8.800000 1.540000 228 182 162 0
26.400000 8.800000 1.540000 234 188 168 0
26.620000 8.800000 1.540000 235 187 168 0
26.840000 8.800000 1.540000 229 181 162 0
27.060000 8.800000 1.540000 233 179 162 0
27.280000 8.800000 2.860000 222 168 151 0
27.500000 8.800000 2.860000 217 154 140 0
27.720000 8.800000 2.860000 215 152 138 0
27.940000 8.800000 2.860000 218 150 134 0
28.160000 8.800000 2.860000 213 145 129 0
28.380000 8.800000 2.860000 213 140 128 0
28.600000 8.800000 2.860000 214 141 129 0
28.820000 8.800000 3.080000 214 146 132 0
29.040000 8.800000 3.080000 216 148 134 0
29.260000 8.800000 1.760000 216 153 141 0
29.480000 8.800000 1.760000 215 152 140 0
29.700000 8.800000 1.760000 209 159 145 0
29.920000 8.800000 1.760000 224 174 160 0
30.140000 8.800000 1.980000 217 204 191 0
30.360000 8.800000 1.980000 240 227 214 0
30.580000 8.800000 1.980000 243 240 230 0
30.800000 8.800000 1.980000 241 238 228 0
31.020000 8.800000 1.980000 248 203 193 0
31.240000 8.800000 3.520000 220 175 165 0
31.460000 8.800000 3.520000 214 190 183 0
31.680000 8.800000 3.740000 233 209 202 0
31.900000 8.800000 3.740000 239 218 208 0
32.120000 8.800000 3.740000 237 216 206 0
32.340000 8.800000 3.740000 246 193 182 0
32.560000 8.800000 3.740000 227 174 163 0
32.780000 8.800000 3.740000 224 149 139 0
33.000000 8.800000 3.960000 214 139 129 0
33.220000 8.800000 3.960000 212 133 123 0
33.440000 8.800000 3.960000 209 130 120 0
33.660000 8.800000 5.060000 212 125 113 0
33.880000 8.800000 7.260000 211 124 112 0
34.100000 8.800000 8.360000 212 118 105 0
34.320000 8.800000 8.360000 210 116 103 0
34.540000 8.800000 8.580000 209 115 102 0
34.760000 8.800000 8.580000 210 116 103 0
34.980000 8.800000 8.580000 210 113 99 0
35.200000 8.800000 8.580000 210 113 99 0
35.420000 8.800000 8.580000 210 111 100 0
35.640000 8.800000 8.800000 209 110 99 0
35.860000 8.800000 8.800000 208 110 96 0
36.080000 8.800000 10.120000 208 110 96 0
36.300000 8.800000 10.120000 209 106 92 0
36.520000 8.800000 10.340000 208 105 91 0
36.740000 8.800000 10.340000 208 104 90 0
36.960000 8.800000 10.340000 207 103 89 0
37.180000 8.800000 10.560000 207 103 89 0
0.220000 9.020000 0.440000 207 201 146 0
0.440000 9.020000 1.540000 208 202 147 0
0.880000 9.020000 0.220000 208 202 149 0
1.100000 9.020000 0.220000 210 204 149 0
1.320000 9.020000 0.220000 210 204 149 0
1.540000 9.020000 0.220000 210 204 149 0
1.760000 9.020000 0.220000 212 206 151 0
1.980000 9.020000 1.540000 212 206 151 0
2.200000 9.020000 1.760000 212 206 151 0
2.420000 9.020000 1.760000 212 206 153 0
2.640000 9.020000 1.760000 212 206 153 0
2.860000 9.020000 1.760000 212 206 151 0
3.080000 9.020000 1.980000 212 206 151 0
3.300000 9.020000 1.980000 212 206 151 0
3.520000 9.020000 1.980000 210 204 149 0
3.740000 9.020000 2.200000 210 203 146 0
3.960000 9.020000 2.200000 208 201 144 0
4.180000 9.020000 2.200000 208 201 144 0
4.400000 9.020000 2.200000 206 199 142 0
4.620000 9.020000 2.420000 208 198 140 0
4.840000 9.020000 2.420000 205 195 137 0
5.060000 9.020000 2.420000 204 194 136 0
5.280000 9.020000 2.420000 204 194 136 0
5.500000 9.020000 2.420000 204 193 135 0
5.720000 9.020000 2.420000 203 192 134 0
5.940000 9.020000 2.640000 203 192 134 0
6.160000 9.020000 2.640000 203 192 134 0
6.380000 9.020000 2.640000 203 192 134 0
6.600000 9.020000 2.640000 203 192 134 0
6.820000 9.020000 2.640000 203 193 135 0
7.040000 9.020000 3.740000 204 194 136 0
7.260000 9.020000 5.940000 205 195 137 0
7.480000 9.020000 7.040000 208 198 140 0
7.700000 9.020000 7.040000 211 201 143 0
7.920000 9.020000 7.040000 213 203 145 0
8.140000 9.020000 7.040000 214 204 146 0
8.360000 9.020000 7.040000 214 204 146 0
8.580000 9.020000 8.580000 215 205 147 0
8.800000 9.020000 8.580000 213 203 145 0
9.020000 9.020000 8.580000 211 201 143 0
9.240000 9.020000 8.580000 208 198 140 0
9.460000 9.020000 8.580000 209 198 140 0
9.680000 9.020000 8.800000 209 198 140 0
9.900000 9.020000 8.800000 208 198 140 0
10.120000 9.020000 8.800000 207 197 139 0
10.340000 9.020000 8.800000 209 199 141 0
10.560000 9.020000 8.800000 209 199 141 0
10.780000 9.020000 8.800000 211 201 145 0
11.000000 9.020000 9.020000 212 202 146 0
11.220000 9.020000 9.020000 211 203 149 0
11.440000 9.020000 9.020000 211 203 149 0
11.660000 9.020000 9.020000 214 204 150 0
11.880000 9.020000 9.020000 214 204 150 0
12.100000 9.020000 9.020000 217 203 149 0
12.320000 9.020000 9.020000 207 193 139 0
12.540000 9.020000 9.020000 218 167 131 0
12.760000 9.020000 7.700000 205 154 118 0
12.980000 9.020000 13.200000 213 125 100 0
13.200000 9.020000 28.380000 196 108 83 0
13.420000 9.020000 35.200000 199 90 70 0
13.640000 9.020000 33.880000 196 87 67 0
13.860000 9.020000 33.880000 195 86 66 0
14.080000 9.020000 34.100000 195 86 66 0
14.300000 9.020000 34.100000 195 86 66 0
14.520000 9.020000 34.100000 196 87 67 0
14.740000 9.020000 34.100000 197 88 70 0
14.960000 9.020000 34.100000 198 89 71 0
15.180000 9.020000 34.100000 197 88 70 0
15.400000 9.020000 34.100000 197 88 70 0
15.620000 9.020000 34.100000 197 88 68 0
15.840000 9.020000 34.100000 196 87 67 0
16.060000 9.020000 34.100000 196 87 67 0
16.280000 9.020000 34.100000 194 85 65 0
16.500000 9.020000 34.320000 196 84 67 0
16.720000 9.020000 34.320000 196 84 67 0
16.940000 9.020000 34.320000 194 85 65 0
17.160000 9.020000 34.320000 195 86 66 0
17.380000 9.020000 34.320000 195 86 66 0
17.600000 9.020000 35.860000 195 86 66 0
17.820000 9.020000 35.860000 195 86 68 0
18.040000 9.020000 36.960000 194 85 67 0
