ply
format ascii 1.0
element vertex 1107
property float x
property float y
property float z
property uchar red
property uchar green
property uchar blue
property uchar alpha
end_header
1.540000 25.740000 41.580000 208 210 204 0
1.760000 25.740000 41.580000 209 211 205 0
1.980000 25.740000 41.580000 208 210 204 0
2.200000 25.740000 34.760000 207 209 203 0
2.420000 25.740000 15.400000 207 209 203 0
2.640000 25.740000 3.080000 208 210 204 0
2.860000 25.740000 0.220000 207 208 205 0
3.080000 25.740000 0.220000 208 209 206 0
3.300000 25.740000 0.440000 208 210 204 0
3.520000 25.740000 0.440000 207 209 203 0
3.740000 25.740000 1.980000 208 209 206 0
3.960000 25.740000 1.980000 207 208 205 0
4.180000 25.740000 1.980000 206 208 202 0
4.400000 25.740000 1.980000 205 207 201 0
4.620000 25.740000 1.980000 205 205 200 0
4.840000 25.740000 1.980000 203 203 198 0
5.060000 25.740000 2.200000 202 204 198 0
5.280000 25.740000 2.200000 198 200 194 0
5.500000 25.740000 2.200000 198 194 188 0
5.720000 25.740000 2.200000 192 188 182 0
5.940000 25.740000 2.200000 189 177 172 0
6.160000 25.740000 0.880000 179 167 162 0
6.380000 25.740000 0.880000 173 156 144 0
6.600000 25.740000 0.880000 168 151 139 0
8.800000 25.740000 0.440000 157 128 115 0
9.020000 25.740000 8.360000 153 129 116 0
9.240000 25.740000 18.040000 152 128 115 0
9.460000 25.740000 23.540000 154 127 115 0
9.680000 25.740000 27.720000 153 126 114 0
9.900000 25.740000 27.720000 151 126 116 0
10.120000 25.740000 20.900000 149 124 114 0
10.340000 25.740000 14.080000 138 123 115 0
10.560000 25.740000 11.440000 134 119 111 0
10.780000 25.740000 14.080000 133 119 113 0
11.000000 25.740000 12.760000 133 119 113 0
11.220000 25.740000 11.440000 134 119 111 0
11.440000 25.740000 11.440000 134 119 111 0
11.660000 25.740000 11.440000 133 119 113 0
11.880000 25.740000 12.760000 134 120 114 0
12.100000 25.740000 12.760000 135 119 114 0
12.320000 25.740000 14.080000 135 119 114 0
12.540000 25.740000 14.300000 134 120 114 0
12.760000 25.740000 14.300000 134 120 114 0
12.980000 25.740000 14.300000 135 121 113 0
13.200000 25.740000 14.300000 134 120 112 0
13.420000 25.740000 15.620000 135 119 114 0
13.640000 25.740000 15.620000 134 118 113 0
13.860000 25.740000 15.620000 133 119 113 0
14.080000 25.740000 15.620000 135 121 115 0
14.300000 25.740000 15.620000 135 124 117 0
14.520000 25.740000 14.300000 136 125 118 0
14.740000 25.740000 15.620000 139 125 119 0
14.960000 25.740000 15.620000 141 127 121 0
15.180000 25.740000 15.620000 141 127 121 0
15.400000 25.740000 15.620000 141 127 121 0
15.620000 25.740000 15.620000 143 129 123 0
15.840000 25.740000 15.620000 143 129 123 0
16.060000 25.740000 15.620000 142 131 124 0
16.280000 25.740000 15.620000 142 131 124 0
16.500000 25.740000 15.620000 145 131 123 0
16.720000 25.740000 16.940000 145 131 123 0
16.940000 25.740000 16.940000 143 132 125 0
17.160000 25.740000 18.260000 144 133 126 0
17.380000 25.740000 18.260000 147 133 125 0
17.600000 25.740000 18.260000 147 133 125 0
17.820000 25.740000 19.580000 147 133 125 0
18.040000 25.740000 21.120000 147 133 125 0
18.260000 25.740000 22.440000 151 132 123 0
18.480000 25.740000 23.760000 149 130 121 0
18.700000 25.740000 23.760000 158 125 115 0
18.920000 25.740000 25.080000 157 124 114 0
19.140000 25.740000 26.620000 156 123 111 0
19.360000 25.740000 26.620000 155 122 110 0
19.580000 25.740000 26.620000 154 121 109 0
19.800000 25.740000 26.620000 154 121 109 0
20.020000 25.740000 26.620000 155 120 109 0
20.240000 25.740000 26.620000 154 119 108 0
20.460000 25.740000 26.620000 155 118 107 0
20.680000 25.740000 26.620000 155 118 107 0
20.900000 25.740000 26.620000 156 119 108 0
21.120000 25.740000 26.620000 155 118 107 0
21.340000 25.740000 26.620000 154 117 106 0
21.560000 25.740000 26.620000 154 117 106 0
21.780000 25.740000 26.620000 154 117 106 0
22.000000 25.740000 26.620000 153 116 105 0
22.220000 25.740000 25.080000 153 115 107 0
22.440000 25.740000 25.080000 154 116 108 0
22.660000 25.740000 25.080000 154 115 107 0
22.880000 25.740000 25.080000 154 115 107 0
23.100000 25.740000 23.760000 156 112 104 0
23.320000 25.740000 25.080000 155 111 103 0
23.540000 25.740000 23.760000 158 110 103 0
23.760000 25.740000 23.760000 157 109 102 0
23.980000 25.740000 22.440000 157 107 101 0
24.200000 25.740000 23.760000 156 106 100 0
24.420000 25.740000 23.760000 157 106 100 0
24.640000 25.740000 23.760000 156 105 99 0
24.860000 25.740000 23.760000 160 105 98 0
25.080000 25.740000 23.760000 158 103 96 0
25.300000 25.740000 23.760000 162 100 96 0
25.520000 25.740000 22.220000 161 99 95 0
25.740000 25.740000 22.220000 160 99 93 0
25.960000 25.740000 22.220000 161 100 94 0
26.180000 25.740000 22.220000 162 98 93 0
26.400000 25.740000 22.220000 162 98 93 0
26.620000 25.740000 22.220000 163 97 93 0
26.840000 25.740000 20.900000 162 96 92 0
27.060000 25.740000 20.900000 162 96 92 0
27.280000 25.740000 19.580000 161 95 91 0
27.500000 25.740000 19.580000 161 95 91 0
27.720000 25.740000 19.580000 161 95 91 0
27.940000 25.740000 19.580000 162 96 92 0
28.160000 25.740000 19.580000 163 97 93 0
28.380000 25.740000 19.580000 164 96 92 0
28.600000 25.740000 19.580000 164 96 92 0
28.820000 25.740000 18.260000 165 97 93 0
29.040000 25.740000 18.260000 165 97 93 0
29.260000 25.740000 18.260000 165 97 91 0
29.480000 25.740000 18.260000 166 98 92 0
29.700000 25.740000 18.260000 167 97 92 0
29.920000 25.740000 18.260000 167 97 92 0
30.140000 25.740000 18.260000 167 97 92 0
30.360000 25.740000 18.260000 169 99 94 0
30.580000 25.740000 16.720000 169 99 94 0
30.800000 25.740000 16.940000 169 99 94 0
31.020000 25.740000 16.720000 170 100 95 0
31.240000 25.740000 16.720000 170 100 95 0
31.460000 25.740000 16.720000 172 101 94 0
31.680000 25.740000 16.720000 172 101 94 0
31.900000 25.740000 16.720000 172 101 92 0
32.120000 25.740000 15.400000 173 102 93 0
32.340000 25.740000 15.400000 175 101 93 0
32.560000 25.740000 15.400000 176 102 94 0
32.780000 25.740000 15.400000 176 102 94 0
33.000000 25.740000 15.400000 177 103 95 0
33.220000 25.740000 15.400000 177 104 93 0
33.440000 25.740000 15.400000 178 105 94 0
33.660000 25.740000 15.400000 180 105 94 0
33.880000 25.740000 15.400000 181 106 95 0
34.100000 25.740000 15.400000 181 108 97 0
34.320000 25.740000 14.080000 182 109 98 0
34.540000 25.740000 14.080000 181 111 98 0
34.760000 25.740000 14.080000 185 115 102 0
34.980000 25.740000 14.080000 187 117 102 0
35.200000 25.740000 14.080000 190 120 105 0
35.420000 25.740000 14.080000 192 123 105 0
35.640000 25.740000 14.080000 194 125 107 0
35.860000 25.740000 14.080000 194 127 106 0
36.080000 25.740000 14.080000 194 127 106 0
36.300000 25.740000 14.080000 194 127 106 0
36.520000 25.740000 12.760000 194 127 106 0
36.740000 25.740000 12.760000 189 131 115 0
36.960000 25.740000 11.220000 199 141 125 0
37.180000 25.740000 11.440000 191 147 131 0
0.000000 25.960000 39.380000 207 208 205 0
0.220000 25.960000 40.480000 207 208 205 0
0.440000 25.960000 41.580000 207 208 205 0
0.660000 25.960000 41.580000 208 209 206 0
0.880000 25.960000 41.580000 208 209 206 0
1.100000 25.960000 41.580000 208 210 204 0
1.320000 25.960000 41.580000 207 209 203 0
1.540000 25.960000 41.580000 208 209 206 0
1.760000 25.960000 41.580000 208 209 206 0
1.980000 25.960000 41.580000 207 208 205 0
2.200000 25.960000 31.900000 207 208 205 0
2.420000 25.960000 9.900000 207 208 205 0
2.640000 25.960000 0.220000 208 209 206 0
2.860000 25.960000 0.220000 208 209 206 0
3.080000 25.960000 0.220000 207 208 205 0
3.300000 25.960000 0.440000 207 208 205 0
3.520000 25.960000 0.440000 206 207 204 0
3.740000 25.960000 0.440000 206 207 204 0
3.960000 25.960000 1.980000 206 207 204 0
4.180000 25.960000 1.980000 204 205 202 0
4.400000 25.960000 1.980000 204 205 202 0
4.620000 25.960000 1.980000 202 204 198 0
4.840000 25.960000 1.980000 200 202 196 0
5.060000 25.960000 2.200000 199 200 190 0
5.280000 25.960000 2.200000 195 196 186 0
5.500000 25.960000 2.200000 197 186 179 0
5.720000 25.960000 2.200000 191 180 173 0
5.940000 25.960000 0.880000 182 168 152 0
6.160000 25.960000 0.880000 173 159 143 0
6.380000 25.960000 0.880000 173 150 139 0
8.140000 25.960000 1.100000 155 130 120 0
8.360000 25.960000 3.960000 154 129 119 0
8.580000 25.960000 3.520000 157 128 117 0
8.800000 25.960000 7.260000 155 126 115 0
9.020000 25.960000 18.040000 155 126 115 0
9.240000 25.960000 30.580000 156 127 116 0
9.460000 25.960000 36.080000 152 125 113 0
9.680000 25.960000 36.080000 152 125 113 0
9.900000 25.960000 34.760000 148 125 115 0
10.120000 25.960000 27.940000 147 124 114 0
10.340000 25.960000 12.760000 140 122 115 0
10.560000 25.960000 9.900000 136 118 111 0
10.780000 25.960000 12.760000 134 119 111 0
11.000000 25.960000 14.080000 134 119 111 0
11.220000 25.960000 12.760000 132 118 110 0
11.440000 25.960000 12.760000 133 119 111 0
11.660000 25.960000 14.300000 133 119 111 0
11.880000 25.960000 14.300000 133 119 111 0
12.100000 25.960000 12.760000 136 118 111 0
12.320000 25.960000 14.300000 137 119 112 0
12.540000 25.960000 15.620000 133 119 111 0
12.760000 25.960000 15.620000 134 120 112 0
12.980000 25.960000 15.620000 134 120 112 0
13.200000 25.960000 15.620000 135 121 113 0
13.420000 25.960000 15.620000 135 120 112 0
13.640000 25.960000 15.620000 134 119 111 0
13.860000 25.960000 16.940000 135 120 112 0
14.080000 25.960000 15.620000 134 119 111 0
14.300000 25.960000 15.620000 136 122 116 0
14.520000 25.960000 14.300000 137 123 117 0
14.740000 25.960000 15.620000 136 125 118 0
14.960000 25.960000 15.620000 137 126 119 0
15.180000 25.960000 15.620000 139 128 119 0
15.400000 25.960000 15.620000 139 128 119 0
15.620000 25.960000 15.620000 143 128 120 0
15.840000 25.960000 15.620000 144 129 121 0
16.060000 25.960000 16.940000 144 130 122 0
16.280000 25.960000 16.940000 143 129 121 0
16.500000 25.960000 16.940000 142 131 124 0
16.720000 25.960000 16.940000 143 132 125 0
16.940000 25.960000 16.940000 145 131 123 0
17.160000 25.960000 18.260000 146 132 124 0
17.380000 25.960000 18.260000 145 131 125 0
17.600000 25.960000 19.580000 146 132 126 0
17.820000 25.960000 21.120000 147 132 124 0
18.040000 25.960000 22.440000 147 132 124 0
18.260000 25.960000 23.760000 155 128 116 0
18.480000 25.960000 23.760000 154 127 115 0
18.700000 25.960000 23.760000 156 126 113 0
18.920000 25.960000 25.300000 155 125 112 0
19.140000 25.960000 26.620000 155 122 112 0
19.360000 25.960000 26.620000 154 121 111 0
19.580000 25.960000 26.620000 154 121 111 0
19.800000 25.960000 26.620000 153 120 110 0
20.020000 25.960000 26.620000 153 120 108 0
20.240000 25.960000 26.620000 153 120 108 0
20.460000 25.960000 26.620000 154 119 108 0
20.680000 25.960000 26.620000 153 118 107 0
20.900000 25.960000 26.620000 152 117 108 0
21.120000 25.960000 26.620000 152 117 108 0
21.340000 25.960000 27.940000 153 116 105 0
21.560000 25.960000 26.620000 153 116 105 0
21.780000 25.960000 26.620000 151 116 105 0
22.000000 25.960000 26.400000 151 116 105 0
22.220000 25.960000 25.080000 153 116 105 0
22.440000 25.960000 25.080000 152 115 104 0
22.660000 25.960000 25.080000 152 113 105 0
22.880000 25.960000 25.080000 152 113 105 0
23.100000 25.960000 23.760000 154 110 102 0
23.320000 25.960000 23.760000 155 111 103 0
23.540000 25.960000 23.760000 158 108 104 0
23.760000 25.960000 23.760000 157 107 103 0
23.980000 25.960000 23.760000 160 106 99 0
24.200000 25.960000 23.760000 159 105 98 0
24.420000 25.960000 23.760000 159 103 99 0
24.640000 25.960000 23.760000 159 103 99 0
24.860000 25.960000 23.760000 161 103 97 0
25.080000 25.960000 23.760000 159 101 95 0
25.300000 25.960000 23.760000 160 100 95 0
25.520000 25.960000 22.220000 160 100 95 0
25.740000 25.960000 22.220000 161 99 95 0
25.960000 25.960000 22.220000 160 98 94 0
26.180000 25.960000 22.220000 162 98 93 0
26.400000 25.960000 22.220000 161 97 92 0
26.620000 25.960000 20.900000 162 96 92 0
26.840000 25.960000 20.900000 161 95 91 0
27.060000 25.960000 20.900000 160 94 90 0
27.280000 25.960000 20.900000 161 95 91 0
27.500000 25.960000 19.580000 161 95 91 0
27.720000 25.960000 19.580000 162 96 92 0
27.940000 25.960000 19.580000 161 95 91 0
28.160000 25.960000 19.580000 162 96 92 0
28.380000 25.960000 19.580000 164 96 92 0
28.600000 25.960000 19.580000 164 96 92 0
28.820000 25.960000 18.260000 164 96 92 0
29.040000 25.960000 18.260000 165 97 93 0
29.260000 25.960000 18.260000 164 96 90 0
29.480000 25.960000 18.260000 165 97 91 0
29.700000 25.960000 18.040000 166 98 92 0
29.920000 25.960000 18.040000 167 99 93 0
30.140000 25.960000 16.720000 167 97 92 0
30.360000 25.960000 16.720000 169 99 94 0
30.580000 25.960000 16.940000 168 98 93 0
30.800000 25.960000 16.720000 169 99 94 0
31.020000 25.960000 16.720000 170 99 92 0
31.240000 25.960000 16.720000 172 101 94 0
31.460000 25.960000 16.720000 172 101 94 0
31.680000 25.960000 15.400000 172 101 94 0
31.900000 25.960000 15.400000 172 101 94 0
32.120000 25.960000 15.400000 173 102 95 0
32.340000 25.960000 15.400000 175 101 93 0
32.560000 25.960000 15.400000 176 102 94 0
32.780000 25.960000 15.400000 175 104 95 0
33.000000 25.960000 15.400000 175 104 95 0
33.220000 25.960000 15.400000 177 104 93 0
33.440000 25.960000 15.400000 179 106 95 0
33.660000 25.960000 14.080000 179 106 95 0
33.880000 25.960000 14.080000 180 107 96 0
34.100000 25.960000 14.080000 181 108 97 0
34.320000 25.960000 14.080000 182 109 98 0
34.540000 25.960000 14.080000 182 112 99 0
34.760000 25.960000 14.080000 184 114 101 0
34.980000 25.960000 14.080000 186 118 100 0
35.200000 25.960000 14.080000 189 121 103 0
35.420000 25.960000 14.080000 192 123 105 0
35.640000 25.960000 14.080000 194 125 107 0
35.860000 25.960000 14.080000 194 126 110 0
36.080000 25.960000 14.080000 193 125 109 0
36.300000 25.960000 12.760000 189 127 109 0
36.520000 25.960000 12.760000 194 132 114 0
36.740000 25.960000 11.220000 192 139 126 0
36.960000 25.960000 11.220000 196 143 130 0
37.180000 25.960000 9.900000 193 148 137 0
0.000000 26.180000 40.700000 206 207 204 0
0.220000 26.180000 40.480000 206 207 204 0
0.440000 26.180000 41.580000 206 207 204 0
0.660000 26.180000 41.580000 206 207 204 0
0.880000 26.180000 41.580000 207 208 205 0
1.100000 26.180000 41.580000 207 209 203 0
1.320000 26.180000 41.580000 207 209 203 0
1.540000 26.180000 41.580000 208 209 206 0
1.760000 26.180000 41.580000 207 208 205 0
1.980000 26.180000 41.580000 207 208 205 0
2.200000 26.180000 34.760000 206 207 204 0
2.420000 26.180000 15.400000 207 208 205 0
2.640000 26.180000 3.080000 207 208 205 0
2.860000 26.180000 0.220000 207 208 205 0
3.080000 26.180000 0.220000 207 208 205 0
3.300000 26.180000 0.440000 206 207 204 0
3.520000 26.180000 0.440000 206 207 204 0
3.740000 26.180000 0.440000 205 206 203 0
3.960000 26.180000 1.980000 204 205 202 0
4.180000 26.180000 1.980000 204 205 202 0
4.400000 26.180000 1.980000 203 204 201 0
4.620000 26.180000 1.980000 201 203 197 0
4.840000 26.180000 1.980000 199 201 195 0
5.060000 26.180000 2.200000 198 199 189 0
5.280000 26.180000 2.200000 192 193 183 0
5.500000 26.180000 0.880000 190 179 172 0
5.720000 26.180000 0.880000 183 172 165 0
5.940000 26.180000 0.880000 176 162 146 0
6.160000 26.180000 0.880000 169 155 139 0
7.920000 26.180000 1.100000 157 130 118 0
8.140000 26.180000 9.460000 154 129 119 0
8.360000 26.180000 13.640000 153 128 118 0
8.580000 26.180000 17.380000 156 127 116 0
8.800000 26.180000 25.300000 154 125 114 0
9.020000 26.180000 33.220000 155 126 115 0
9.240000 26.180000 38.940000 154 125 114 0
9.460000 26.180000 40.260000 153 126 114 0
9.680000 26.180000 38.940000 151 124 112 0
9.900000 26.180000 37.620000 149 126 116 0
10.120000 26.180000 29.260000 145 122 112 0
10.340000 26.180000 15.620000 140 122 115 0
10.560000 26.180000 11.440000 135 117 110 0
10.780000 26.180000 14.080000 133 118 110 0
11.000000 26.180000 14.080000 133 118 110 0
11.220000 26.180000 14.300000 132 118 110 0
11.440000 26.180000 14.300000 132 118 110 0
11.660000 26.180000 15.620000 132 118 110 0
11.880000 26.180000 15.620000 133 119 111 0
12.100000 26.180000 14.300000 136 118 111 0
12.320000 26.180000 15.620000 136 118 111 0
12.540000 26.180000 16.940000 133 119 111 0
12.760000 26.180000 16.940000 134 120 112 0
12.980000 26.180000 16.940000 134 120 112 0
13.200000 26.180000 16.940000 133 119 111 0
13.420000 26.180000 16.940000 133 118 110 0
13.640000 26.180000 16.940000 134 119 111 0
13.860000 26.180000 16.940000 133 118 110 0
14.080000 26.180000 15.620000 134 119 111 0
14.300000 26.180000 15.620000 136 122 116 0
14.520000 26.180000 15.620000 137 123 117 0
14.740000 26.180000 15.620000 136 125 118 0
14.960000 26.180000 15.620000 136 125 118 0
15.180000 26.180000 15.620000 138 127 118 0
15.400000 26.180000 15.620000 137 126 117 0
15.620000 26.180000 15.620000 142 127 119 0
15.840000 26.180000 15.620000 143 128 120 0
16.060000 26.180000 16.940000 142 128 120 0
16.280000 26.180000 16.940000 142 128 120 0
16.500000 26.180000 18.260000 140 129 122 0
16.720000 26.180000 18.260000 142 131 124 0
16.940000 26.180000 18.260000 144 130 122 0
17.160000 26.180000 18.260000 145 131 123 0
17.380000 26.180000 19.580000 146 132 126 0
17.600000 26.180000 19.580000 146 132 126 0
17.820000 26.180000 21.120000 147 132 124 0
18.040000 26.180000 22.440000 147 132 124 0
18.260000 26.180000 23.760000 156 129 117 0
18.480000 26.180000 23.760000 155 128 116 0
18.700000 26.180000 25.300000 155 125 112 0
18.920000 26.180000 25.300000 154 124 111 0
19.140000 26.180000 26.620000 155 122 112 0
19.360000 26.180000 26.620000 154 121 111 0
19.580000 26.180000 26.620000 154 121 111 0
19.800000 26.180000 26.620000 152 119 109 0
20.020000 26.180000 26.620000 151 118 106 0
20.240000 26.180000 26.620000 152 119 107 0
20.460000 26.180000 26.620000 153 118 107 0
20.680000 26.180000 26.620000 153 118 107 0
20.900000 26.180000 26.620000 152 117 108 0
21.120000 26.180000 26.620000 152 117 108 0
21.340000 26.180000 26.620000 154 117 106 0
21.560000 26.180000 26.620000 153 116 105 0
21.780000 26.180000 26.620000 152 117 106 0
22.000000 26.180000 26.620000 151 116 105 0
22.220000 26.180000 26.400000 151 114 103 0
22.440000 26.180000 25.080000 151 114 103 0
22.660000 26.180000 23.760000 151 112 104 0
22.880000 26.180000 23.760000 152 113 105 0
23.100000 26.180000 23.760000 154 110 102 0
23.320000 26.180000 23.760000 153 109 101 0
23.540000 26.180000 23.760000 156 106 102 0
23.760000 26.180000 23.760000 156 106 102 0
23.980000 26.180000 23.760000 158 104 97 0
24.200000 26.180000 23.760000 159 105 98 0
24.420000 26.180000 23.760000 158 102 98 0
24.640000 26.180000 23.760000 158 102 98 0
24.860000 26.180000 23.760000 160 102 96 0
25.080000 26.180000 23.760000 160 102 96 0
25.300000 26.180000 23.760000 160 100 95 0
25.520000 26.180000 22.220000 159 99 94 0
25.740000 26.180000 22.220000 160 98 94 0
25.960000 26.180000 22.220000 160 98 94 0
26.180000 26.180000 22.220000 162 98 93 0
26.400000 26.180000 20.900000 161 97 92 0
26.620000 26.180000 20.900000 162 96 92 0
26.840000 26.180000 20.900000 161 95 91 0
27.060000 26.180000 20.900000 160 94 90 0
27.280000 26.180000 20.900000 159 93 89 0
27.500000 26.180000 19.580000 161 95 91 0
27.720000 26.180000 19.580000 161 95 91 0
27.940000 26.180000 19.580000 161 95 91 0
28.160000 26.180000 19.580000 161 95 91 0
28.380000 26.180000 19.580000 164 96 92 0
28.600000 26.180000 18.260000 164 96 92 0
28.820000 26.180000 18.260000 165 97 93 0
29.040000 26.180000 18.260000 164 96 92 0
29.260000 26.180000 18.260000 165 97 91 0
29.480000 26.180000 18.260000 165 97 91 0
29.700000 26.180000 18.260000 165 97 91 0
29.920000 26.180000 16.720000 166 98 92 0
30.140000 26.180000 16.720000 169 99 94 0
30.360000 26.180000 16.940000 168 98 93 0
30.580000 26.180000 16.940000 170 100 95 0
30.800000 26.180000 16.720000 169 99 94 0
31.020000 26.180000 16.720000 171 100 93 0
31.240000 26.180000 16.720000 173 102 95 0
31.460000 26.180000 15.400000 171 100 93 0
31.680000 26.180000 15.400000 172 101 94 0
31.900000 26.180000 15.400000 173 102 95 0
32.120000 26.180000 15.400000 174 103 96 0
32.340000 26.180000 15.400000 176 102 94 0
32.560000 26.180000 15.400000 176 102 94 0
32.780000 26.180000 15.400000 175 104 95 0
33.000000 26.180000 15.400000 175 104 95 0
33.220000 26.180000 15.400000 178 105 94 0
33.440000 26.180000 14.080000 179 106 95 0
33.660000 26.180000 14.080000 180 107 96 0
33.880000 26.180000 14.080000 180 107 96 0
34.100000 26.180000 14.080000 181 108 97 0
34.320000 26.180000 14.080000 182 109 98 0
34.540000 26.180000 14.080000 183 113 100 0
34.760000 26.180000 14.080000 185 115 102 0
34.980000 26.180000 14.080000 187 119 101 0
35.200000 26.180000 14.080000 188 120 102 0
35.420000 26.180000 14.080000 192 123 105 0
35.640000 26.180000 14.080000 194 125 107 0
35.860000 26.180000 14.080000 192 124 108 0
36.080000 26.180000 12.760000 192 124 108 0
36.300000 26.180000 12.540000 192 130 112 0
36.520000 26.180000 11.220000 197 135 117 0
36.740000 26.180000 11.220000 190 137 124 0
36.960000 26.180000 9.900000 197 144 131 0
37.180000 26.180000 9.900000 191 146 135 0
0.000000 26.400000 40.260000 205 205 200 0
0.220000 26.400000 40.260000 204 204 199 0
0.440000 26.400000 41.580000 204 204 199 0
0.660000 26.400000 41.580000 204 206 200 0
0.880000 26.400000 41.580000 205 207 201 0
1.100000 26.400000 41.580000 204 206 200 0
1.320000 26.400000 41.580000 205 207 201 0
1.540000 26.400000 41.580000 206 206 201 0
1.760000 26.400000 41.580000 206 206 201 0
1.980000 26.400000 41.580000 205 205 200 0
2.200000 26.400000 40.260000 205 205 200 0
2.420000 26.400000 26.400000 206 208 202 0
2.640000 26.400000 7.260000 205 207 201 0
2.860000 26.400000 0.220000 205 207 201 0
3.080000 26.400000 0.220000 205 207 201 0
3.300000 26.400000 0.440000 205 207 201 0
3.520000 26.400000 0.440000 205 207 201 0
3.740000 26.400000 0.440000 206 206 201 0
3.960000 26.400000 0.660000 205 205 200 0
4.180000 26.400000 0.660000 203 205 199 0
4.400000 26.400000 1.980000 202 204 198 0
4.620000 26.400000 1.980000 200 202 196 0
4.840000 26.400000 1.980000 197 199 193 0
5.060000 26.400000 2.200000 199 193 188 0
5.280000 26.400000 0.660000 192 186 181 0
5.500000 26.400000 0.880000 192 173 162 0
5.720000 26.400000 0.880000 182 163 152 0
5.940000 26.400000 0.880000 174 154 140 0
7.480000 26.400000 0.880000 158 129 116 0
7.700000 26.400000 6.600000 158 127 117 0
7.920000 26.400000 14.740000 158 127 117 0
8.140000 26.400000 21.780000 155 127 118 0
8.360000 26.400000 24.420000 154 126 117 0
8.580000 26.400000 31.020000 154 125 112 0
8.800000 26.400000 38.940000 154 125 112 0
9.020000 26.400000 40.260000 153 124 111 0
9.240000 26.400000 38.940000 153 124 111 0
9.460000 26.400000 38.940000 154 123 113 0
9.680000 26.400000 37.400000 154 123 113 0
9.900000 26.400000 34.760000 145 124 114 0
10.120000 26.400000 27.940000 142 121 111 0
10.340000 26.400000 19.580000 140 121 112 0
10.560000 26.400000 15.620000 136 117 108 0
10.780000 26.400000 15.620000 134 116 107 0
11.000000 26.400000 15.620000 135 117 108 0
11.220000 26.400000 16.940000 134 116 109 0
11.440000 26.400000 16.940000 134 116 109 0
11.660000 26.400000 16.940000 133 118 110 0
11.880000 26.400000 16.940000 133 118 110 0
12.100000 26.400000 16.940000 136 118 111 0
12.320000 26.400000 16.940000 136 118 111 0
12.540000 26.400000 18.480000 134 119 109 0
12.760000 26.400000 18.480000 135 120 110 0
12.980000 26.400000 18.260000 134 119 111 0
13.200000 26.400000 18.260000 134 119 111 0
13.420000 26.400000 18.260000 133 118 110 0
13.640000 26.400000 18.260000 133 118 110 0
13.860000 26.400000 16.940000 135 117 108 0
14.080000 26.400000 16.940000 137 119 110 0
14.300000 26.400000 15.620000 135 121 113 0
14.520000 26.400000 15.620000 136 122 114 0
14.740000 26.400000 16.940000 138 123 115 0
14.960000 26.400000 15.620000 139 124 116 0
15.180000 26.400000 15.620000 137 126 119 0
15.400000 26.400000 16.940000 137 126 119 0
15.620000 26.400000 16.940000 139 128 121 0
15.840000 26.400000 16.940000 140 129 122 0
16.060000 26.400000 16.940000 139 128 121 0
16.280000 26.400000 16.940000 139 128 121 0
16.500000 26.400000 18.260000 144 129 121 0
16.720000 26.400000 18.260000 144 129 121 0
16.940000 26.400000 18.260000 144 130 122 0
17.160000 26.400000 19.580000 144 130 122 0
17.380000 26.400000 19.800000 142 133 125 0
17.600000 26.400000 21.120000 142 133 125 0
17.820000 26.400000 21.120000 145 131 123 0
18.040000 26.400000 22.440000 144 130 122 0
18.260000 26.400000 22.440000 154 126 117 0
18.480000 26.400000 23.760000 154 126 117 0
18.700000 26.400000 25.300000 157 124 112 0
18.920000 26.400000 26.620000 155 122 110 0
19.140000 26.400000 26.620000 155 122 110 0
19.360000 26.400000 26.620000 154 121 109 0
19.580000 26.400000 26.620000 154 119 108 0
19.800000 26.400000 26.620000 153 118 107 0
20.020000 26.400000 26.620000 152 117 106 0
20.240000 26.400000 26.620000 152 117 106 0
20.460000 26.400000 26.620000 152 117 106 0
20.680000 26.400000 26.620000 152 117 106 0
20.900000 26.400000 26.620000 152 117 106 0
21.120000 26.400000 26.620000 152 117 106 0
21.340000 26.400000 26.620000 154 117 106 0
21.560000 26.400000 26.620000 154 117 106 0
21.780000 26.400000 26.620000 154 115 105 0
22.000000 26.400000 26.620000 153 114 104 0
22.220000 26.400000 26.400000 153 112 103 0
22.440000 26.400000 25.080000 152 111 102 0
22.660000 26.400000 25.080000 154 110 104 0
22.880000 26.400000 25.080000 154 110 104 0
23.100000 26.400000 25.080000 156 108 101 0
23.320000 26.400000 23.760000 155 107 100 0
23.540000 26.400000 23.760000 156 105 99 0
23.760000 26.400000 23.760000 156 105 99 0
23.980000 26.400000 23.760000 159 104 97 0
24.200000 26.400000 23.760000 158 103 96 0
24.420000 26.400000 23.760000 158 103 96 0
24.640000 26.400000 23.760000 158 103 96 0
24.860000 26.400000 23.760000 160 100 95 0
25.080000 26.400000 23.760000 159 99 94 0
25.300000 26.400000 23.760000 160 99 93 0
25.520000 26.400000 22.220000 159 98 92 0
25.740000 26.400000 22.220000 162 98 94 0
25.960000 26.400000 22.220000 162 98 94 0
26.180000 26.400000 22.220000 162 98 93 0
26.400000 26.400000 20.900000 161 97 92 0
26.620000 26.400000 20.900000 161 95 91 0
26.840000 26.400000 20.900000 161 95 91 0
27.060000 26.400000 20.900000 162 94 90 0
27.280000 26.400000 20.900000 162 94 90 0
27.500000 26.400000 19.580000 160 94 90 0
27.720000 26.400000 19.580000 161 95 91 0
27.940000 26.400000 19.580000 163 95 89 0
28.160000 26.400000 19.580000 163 95 89 0
28.380000 26.400000 19.580000 164 96 92 0
28.600000 26.400000 18.260000 164 96 92 0
28.820000 26.400000 18.260000 166 96 91 0
29.040000 26.400000 18.260000 164 94 89 0
29.260000 26.400000 18.260000 164 96 92 0
29.480000 26.400000 18.260000 165 97 93 0
29.700000 26.400000 16.720000 167 97 92 0
29.920000 26.400000 16.720000 167 97 92 0
30.140000 26.400000 16.720000 169 98 91 0
30.360000 26.400000 16.720000 169 98 91 0
30.580000 26.400000 16.940000 170 98 94 0
30.800000 26.400000 16.720000 171 99 95 0
31.020000 26.400000 16.720000 170 99 90 0
31.240000 26.400000 15.400000 172 101 92 0
31.460000 26.400000 15.400000 173 102 93 0
31.680000 26.400000 15.400000 173 102 93 0
31.900000 26.400000 15.400000 175 101 93 0
32.120000 26.400000 15.400000 176 102 94 0
32.340000 26.400000 15.400000 175 101 93 0
32.560000 26.400000 15.400000 177 103 95 0
32.780000 26.400000 14.080000 178 103 93 0
33.000000 26.400000 14.080000 179 104 94 0
33.220000 26.400000 14.080000 179 106 95 0
33.440000 26.400000 14.080000 180 107 96 0
33.660000 26.400000 14.080000 180 110 97 0
33.880000 26.400000 14.080000 179 109 96 0
34.100000 26.400000 14.080000 181 111 98 0
34.320000 26.400000 14.080000 182 112 99 0
34.540000 26.400000 14.080000 184 114 99 0
34.760000 26.400000 14.080000 185 115 100 0
34.980000 26.400000 14.080000 187 117 102 0
35.200000 26.400000 14.080000 189 119 104 0
35.420000 26.400000 14.080000 193 123 108 0
35.640000 26.400000 14.080000 193 123 108 0
35.860000 26.400000 12.540000 191 125 106 0
36.080000 26.400000 12.540000 192 126 107 0
36.300000 26.400000 11.220000 192 130 112 0
36.520000 26.400000 11.220000 195 133 115 0
36.740000 26.400000 11.220000 193 135 119 0
36.960000 26.400000 11.220000 196 138 122 0
37.180000 26.400000 9.900000 204 136 122 0
0.000000 26.620000 40.040000 203 203 198 0
0.220000 26.620000 40.040000 201 201 196 0
0.440000 26.620000 40.260000 201 201 196 0
0.660000 26.620000 40.260000 201 203 197 0
0.880000 26.620000 40.260000 202 204 198 0
1.100000 26.620000 41.580000 202 204 198 0
1.320000 26.620000 41.580000 202 204 198 0
1.540000 26.620000 41.580000 204 204 199 0
1.760000 26.620000 41.580000 204 204 199 0
1.980000 26.620000 41.580000 204 204 199 0
2.200000 26.620000 41.580000 204 204 199 0
2.420000 26.620000 34.760000 202 204 198 0
2.640000 26.620000 15.400000 204 206 200 0
2.860000 26.620000 3.080000 203 205 199 0
3.080000 26.620000 0.220000 204 206 200 0
3.300000 26.620000 0.440000 203 205 199 0
3.520000 26.620000 0.440000 203 205 199 0
3.740000 26.620000 0.440000 203 203 198 0
3.960000 26.620000 0.660000 203 203 198 0
4.180000 26.620000 0.660000 201 203 197 0
4.400000 26.620000 0.660000 199 201 195 0
4.620000 26.620000 0.660000 198 200 194 0
4.840000 26.620000 0.660000 195 197 191 0
5.060000 26.620000 0.660000 193 187 182 0
5.280000 26.620000 0.660000 186 180 175 0
5.500000 26.620000 0.880000 185 166 155 0
5.720000 26.620000 0.880000 174 155 144 0
7.040000 26.620000 0.880000 158 134 121 0
7.260000 26.620000 6.380000 159 130 117 0
7.480000 26.620000 14.740000 157 128 115 0
7.700000 26.620000 24.420000 157 126 116 0
7.920000 26.620000 32.560000 158 127 117 0
8.140000 26.620000 35.200000 154 126 117 0
8.360000 26.620000 34.980000 153 125 116 0
8.580000 26.620000 37.620000 154 125 112 0
8.800000 26.620000 40.260000 153 124 111 0
9.020000 26.620000 40.260000 152 123 110 0
9.240000 26.620000 38.940000 152 123 110 0
9.460000 26.620000 37.400000 153 122 112 0
9.680000 26.620000 36.080000 153 122 112 0
9.900000 26.620000 33.440000 145 124 114 0
10.120000 26.620000 26.620000 144 123 113 0
10.340000 26.620000 19.800000 139 120 111 0
10.560000 26.620000 16.940000 136 117 108 0
10.780000 26.620000 18.480000 134 116 107 0
11.000000 26.620000 18.260000 135 117 108 0
11.220000 26.620000 18.260000 133 115 108 0
11.440000 26.620000 19.800000 134 116 109 0
11.660000 26.620000 18.480000 132 117 109 0
11.880000 26.620000 18.480000 133 118 110 0
12.100000 26.620000 18.480000 134 116 109 0
12.320000 26.620000 18.480000 135 117 110 0
12.540000 26.620000 18.480000 134 119 109 0
12.760000 26.620000 18.480000 133 118 108 0
12.980000 26.620000 18.480000 133 118 110 0
13.200000 26.620000 18.480000 134 119 111 0
13.420000 26.620000 19.800000 133 118 110 0
13.640000 26.620000 19.800000 132 117 109 0
13.860000 26.620000 18.260000 135 117 108 0
14.080000 26.620000 16.940000 135 117 108 0
14.300000 26.620000 16.940000 135 121 113 0
14.520000 26.620000 16.940000 136 122 114 0
14.740000 26.620000 18.480000 138 123 115 0
14.960000 26.620000 16.940000 139 124 116 0
15.180000 26.620000 16.940000 136 125 118 0
15.400000 26.620000 18.480000 135 124 117 0
15.620000 26.620000 18.480000 137 126 119 0
15.840000 26.620000 18.480000 138 127 120 0
16.060000 26.620000 16.940000 139 128 121 0
16.280000 26.620000 18.260000 139 128 121 0
16.500000 26.620000 18.260000 143 128 120 0
16.720000 26.620000 19.800000 143 128 120 0
16.940000 26.620000 19.800000 143 129 121 0
17.160000 26.620000 21.120000 145 131 123 0
17.380000 26.620000 21.120000 142 133 125 0
17.600000 26.620000 22.440000 142 133 125 0
17.820000 26.620000 22.440000 144 130 122 0
18.040000 26.620000 22.440000 145 131 123 0
18.260000 26.620000 23.760000 154 126 117 0
18.480000 26.620000 25.300000 153 125 116 0
18.700000 26.620000 25.300000 156 123 111 0
18.920000 26.620000 26.620000 156 123 111 0
19.140000 26.620000 26.620000 154 121 109 0
19.360000 26.620000 26.620000 153 120 108 0
19.580000 26.620000 26.620000 154 119 108 0
19.800000 26.620000 26.620000 153 118 107 0
20.020000 26.620000 26.620000 153 118 107 0
20.240000 26.620000 26.620000 152 117 106 0
20.460000 26.620000 27.940000 152 117 106 0
20.680000 26.620000 27.940000 152 117 106 0
20.900000 26.620000 27.940000 152 117 106 0
21.120000 26.620000 26.400000 152 117 106 0
21.340000 26.620000 26.400000 153 116 105 0
21.560000 26.620000 26.620000 153 116 105 0
21.780000 26.620000 26.620000 153 114 104 0
22.000000 26.620000 26.400000 152 113 103 0
22.220000 26.620000 26.400000 153 112 103 0
22.440000 26.620000 25.080000 152 111 102 0
22.660000 26.620000 25.080000 153 109 103 0
22.880000 26.620000 25.080000 152 108 102 0
23.100000 26.620000 25.080000 155 107 100 0
23.320000 26.620000 23.760000 155 107 100 0
23.540000 26.620000 23.760000 156 105 99 0
23.760000 26.620000 25.080000 156 105 99 0
23.980000 26.620000 25.080000 158 103 96 0
24.200000 26.620000 25.080000 158 103 96 0
24.420000 26.620000 23.760000 157 102 95 0
24.640000 26.620000 23.760000 156 101 94 0
24.860000 26.620000 23.760000 160 100 95 0
25.080000 26.620000 23.760000 160 100 95 0
25.300000 26.620000 23.760000 159 98 92 0
25.520000 26.620000 22.220000 160 99 93 0
25.740000 26.620000 22.220000 161 97 93 0
25.960000 26.620000 22.220000 161 97 93 0
26.180000 26.620000 20.900000 161 97 92 0
26.400000 26.620000 20.900000 160 96 91 0
26.620000 26.620000 20.900000 161 95 91 0
26.840000 26.620000 20.900000 159 93 89 0
27.060000 26.620000 20.900000 162 94 90 0
27.280000 26.620000 20.900000 161 93 89 0
27.500000 26.620000 19.580000 160 94 90 0
27.720000 26.620000 19.580000 161 95 91 0
27.940000 26.620000 19.580000 163 95 89 0
28.160000 26.620000 19.580000 163 95 89 0
28.380000 26.620000 18.260000 163 95 91 0
28.600000 26.620000 18.260000 165 97 93 0
28.820000 26.620000 18.260000 164 94 89 0
29.040000 26.620000 18.260000 165 95 90 0
29.260000 26.620000 16.720000 164 96 92 0
29.480000 26.620000 16.720000 165 97 93 0
29.700000 26.620000 16.720000 167 97 92 0
29.920000 26.620000 16.720000 168 98 93 0
30.140000 26.620000 16.720000 169 98 91 0
30.360000 26.620000 16.720000 169 98 91 0
30.580000 26.620000 16.940000 170 98 94 0
30.800000 26.620000 15.400000 171 99 95 0
31.020000 26.620000 15.400000 171 100 91 0
31.240000 26.620000 15.400000 172 101 92 0
31.460000 26.620000 15.400000 173 102 93 0
31.680000 26.620000 15.400000 173 102 93 0
31.900000 26.620000 15.400000 176 102 94 0
32.120000 26.620000 15.400000 176 102 94 0
32.340000 26.620000 15.400000 176 102 94 0
32.560000 26.620000 14.080000 177 103 95 0
32.780000 26.620000 14.080000 178 103 93 0
33.000000 26.620000 14.080000 179 104 94 0
33.220000 26.620000 14.080000 180 107 96 0
33.440000 26.620000 14.080000 180 107 96 0
33.660000 26.620000 14.080000 180 110 97 0
33.880000 26.620000 14.080000 180 110 97 0
34.100000 26.620000 14.080000 181 111 98 0
34.320000 26.620000 14.080000 183 113 100 0
34.540000 26.620000 14.080000 185 115 100 0
34.760000 26.620000 14.080000 185 115 100 0
34.980000 26.620000 14.080000 188 118 103 0
35.200000 26.620000 14.080000 190 120 105 0
35.420000 26.620000 14.080000 191 121 106 0
35.640000 26.620000 12.540000 192 122 107 0
35.860000 26.620000 12.540000 192 126 107 0
36.080000 26.620000 11.220000 194 128 109 0
36.300000 26.620000 11.220000 193 131 113 0
36.520000 26.620000 11.220000 193 131 113 0
36.740000 26.620000 11.220000 192 134 118 0
36.960000 26.620000 11.220000 192 134 118 0
37.180000 26.620000 11.220000 201 133 119 0
0.000000 26.840000 40.040000 203 198 190 0
0.220000 26.840000 40.260000 202 198 192 0
0.440000 26.840000 40.260000 201 197 191 0
0.660000 26.840000 40.260000 201 197 191 0
0.880000 26.840000 40.260000 202 198 192 0
1.100000 26.840000 41.580000 200 199 192 0
1.320000 26.840000 41.580000 201 200 193 0
1.540000 26.840000 41.580000 203 199 193 0
1.760000 26.840000 41.580000 203 199 193 0
1.980000 26.840000 41.580000 202 198 192 0
2.200000 26.840000 41.580000 203 199 193 0
2.420000 26.840000 40.260000 202 201 194 0
2.640000 26.840000 26.620000 202 201 194 0
2.860000 26.840000 7.260000 202 202 195 0
3.080000 26.840000 0.220000 202 202 195 0
3.300000 26.840000 0.440000 201 201 196 0
3.520000 26.840000 0.440000 202 202 197 0
3.740000 26.840000 0.440000 204 200 196 0
3.960000 26.840000 0.440000 202 198 194 0
4.180000 26.840000 0.660000 202 198 194 0
4.400000 26.840000 0.660000 201 197 193 0
4.620000 26.840000 0.660000 196 195 188 0
4.840000 26.840000 0.660000 191 190 183 0
5.060000 26.840000 0.660000 189 180 170 0
5.280000 26.840000 0.660000 179 170 160 0
5.500000 26.840000 0.660000 177 157 145 0
6.160000 26.840000 2.200000 166 138 129 0
6.380000 26.840000 6.380000 163 136 124 0
6.600000 26.840000 9.020000 160 133 121 0
6.820000 26.840000 9.020000 160 131 120 0
7.040000 26.840000 14.740000 158 129 118 0
7.260000 26.840000 24.420000 156 127 116 0
7.480000 26.840000 32.560000 156 127 116 0
7.700000 26.840000 38.060000 155 126 115 0
7.920000 26.840000 40.700000 155 126 115 0
8.140000 26.840000 39.160000 155 126 115 0
8.360000 26.840000 38.940000 152 123 112 0
8.580000 26.840000 40.260000 153 122 112 0
8.800000 26.840000 40.260000 153 122 112 0
9.020000 26.840000 38.940000 153 122 112 0
9.240000 26.840000 37.620000 152 121 111 0
9.460000 26.840000 36.080000 152 121 113 0
9.680000 26.840000 34.760000 152 121 113 0
9.900000 26.840000 32.120000 144 123 115 0
10.120000 26.840000 29.260000 143 122 114 0
10.340000 26.840000 23.980000 138 120 113 0
10.560000 26.840000 19.800000 134 116 109 0
10.780000 26.840000 18.480000 133 115 108 0
11.000000 26.840000 18.480000 133 115 108 0
11.220000 26.840000 19.800000 133 113 107 0
11.440000 26.840000 19.800000 134 114 108 0
11.660000 26.840000 19.800000 133 115 108 0
11.880000 26.840000 18.480000 134 116 109 0
12.100000 26.840000 18.480000 135 117 110 0
12.320000 26.840000 18.480000 136 118 111 0
12.540000 26.840000 19.800000 132 117 109 0
12.760000 26.840000 18.480000 133 118 110 0
12.980000 26.840000 18.480000 133 118 110 0
13.200000 26.840000 18.480000 133 118 110 0
13.420000 26.840000 19.800000 135 117 108 0
13.640000 26.840000 18.260000 135 117 108 0
13.860000 26.840000 18.260000 135 117 110 0
14.080000 26.840000 18.260000 135 117 110 0
14.300000 26.840000 18.480000 134 119 111 0
14.520000 26.840000 18.480000 136 121 113 0
14.740000 26.840000 18.480000 136 122 114 0
14.960000 26.840000 18.480000 137 123 115 0
15.180000 26.840000 18.480000 138 124 118 0
15.400000 26.840000 18.480000 138 124 118 0
15.620000 26.840000 19.800000 139 125 119 0
15.840000 26.840000 19.800000 140 126 120 0
16.060000 26.840000 18.260000 139 128 121 0
16.280000 26.840000 19.800000 139 128 121 0
16.500000 26.840000 19.800000 142 128 120 0
16.720000 26.840000 21.120000 142 128 120 0
16.940000 26.840000 21.120000 144 129 119 0
17.160000 26.840000 22.440000 142 127 117 0
17.380000 26.840000 22.440000 143 129 121 0
17.600000 26.840000 22.440000 144 130 122 0
17.820000 26.840000 22.440000 141 130 123 0
18.040000 26.840000 23.760000 142 131 124 0
18.260000 26.840000 25.300000 152 127 117 0
18.480000 26.840000 25.300000 150 125 115 0
18.700000 26.840000 25.300000 156 123 111 0
18.920000 26.840000 26.620000 155 122 110 0
19.140000 26.840000 26.620000 155 122 110 0
19.360000 26.840000 26.620000 154 121 109 0
19.580000 26.840000 26.620000 153 119 105 0
19.800000 26.840000 26.620000 152 118 104 0
20.020000 26.840000 26.620000 152 118 104 0
20.240000 26.840000 26.620000 152 118 104 0
20.460000 26.840000 27.940000 151 116 105 0
20.680000 26.840000 27.940000 152 117 106 0
20.900000 26.840000 27.940000 154 117 106 0
21.120000 26.840000 26.400000 153 116 105 0
21.340000 26.840000 26.400000 153 114 104 0
21.560000 26.840000 26.620000 154 115 105 0
21.780000 26.840000 27.940000 153 114 104 0
22.000000 26.840000 27.940000 152 113 103 0
22.220000 26.840000 26.400000 154 110 102 0
22.440000 26.840000 25.080000 154 110 102 0
22.660000 26.840000 26.620000 155 110 102 0
22.880000 26.840000 26.620000 153 108 100 0
23.100000 26.840000 26.620000 155 105 99 0
23.320000 26.840000 25.080000 155 105 99 0
23.540000 26.840000 25.080000 156 105 97 0
23.760000 26.840000 26.620000 155 104 96 0
23.980000 26.840000 25.080000 157 102 95 0
24.200000 26.840000 25.080000 156 101 94 0
24.420000 26.840000 23.760000 158 100 94 0
24.640000 26.840000 23.760000 158 100 94 0
24.860000 26.840000 23.760000 160 99 93 0
25.080000 26.840000 23.540000 160 99 93 0
25.300000 26.840000 23.540000 161 97 92 0
25.520000 26.840000 22.220000 161 97 92 0
25.740000 26.840000 22.220000 161 97 92 0
25.960000 26.840000 22.440000 160 96 91 0
26.180000 26.840000 20.900000 162 96 92 0
26.400000 26.840000 20.900000 161 95 91 0
26.620000 26.840000 20.900000 160 94 90 0
26.840000 26.840000 20.900000 161 95 91 0
27.060000 26.840000 20.900000 162 94 90 0
27.280000 26.840000 19.580000 161 93 89 0
27.500000 26.840000 19.580000 159 94 87 0
27.720000 26.840000 19.580000 160 95 88 0
27.940000 26.840000 18.260000 163 95 91 0
28.160000 26.840000 18.260000 162 94 90 0
28.380000 26.840000 18.260000 165 95 90 0
28.600000 26.840000 18.260000 165 95 90 0
28.820000 26.840000 18.260000 165 95 90 0
29.040000 26.840000 16.720000 165 95 90 0
29.260000 26.840000 16.720000 166 96 91 0
29.480000 26.840000 16.940000 167 97 92 0
29.700000 26.840000 16.940000 167 97 92 0
29.920000 26.840000 16.720000 168 98 93 0
30.140000 26.840000 16.720000 169 98 91 0
30.360000 26.840000 16.720000 169 98 91 0
30.580000 26.840000 15.400000 169 98 91 0
30.800000 26.840000 15.400000 171 100 93 0
31.020000 26.840000 15.400000 171 100 91 0
31.240000 26.840000 15.400000 172 101 92 0
31.460000 26.840000 15.400000 174 100 92 0
31.680000 26.840000 15.400000 174 100 92 0
31.900000 26.840000 15.400000 175 101 93 0
32.120000 26.840000 15.400000 176 102 94 0
32.340000 26.840000 14.080000 176 102 94 0
32.560000 26.840000 14.080000 177 103 95 0
32.780000 26.840000 14.080000 178 105 94 0
33.000000 26.840000 14.080000 179 106 95 0
33.220000 26.840000 14.080000 180 107 96 0
33.440000 26.840000 14.080000 181 108 97 0
33.660000 26.840000 14.080000 182 109 97 0
33.880000 26.840000 14.080000 183 110 98 0
34.100000 26.840000 14.080000 182 112 99 0
34.320000 26.840000 14.080000 183 113 100 0
34.540000 26.840000 14.080000 186 113 99 0
34.760000 26.840000 14.080000 187 114 100 0
34.980000 26.840000 14.080000 188 119 101 0
35.200000 26.840000 14.080000 189 120 102 0
35.420000 26.840000 12.540000 187 123 106 0
35.640000 26.840000 12.540000 189 125 108 0
35.860000 26.840000 11.220000 189 135 118 0
36.080000 26.840000 11.220000 192 138 121 0
36.300000 26.840000 9.680000 196 134 114 0
36.520000 26.840000 11.220000 192 130 110 0
36.740000 26.840000 11.220000 195 127 111 0
36.960000 26.840000 11.220000 195 127 111 0
37.180000 26.840000 11.220000 199 121 106 0
0.000000 27.060000 40.260000 194 189 181 0
0.220000 27.060000 40.260000 194 190 184 0
0.440000 27.060000 40.260000 196 192 186 0
0.660000 27.060000 40.260000 194 190 184 0
0.880000 27.060000 40.260000 197 193 187 0
1.100000 27.060000 40.260000 195 194 187 0
1.320000 27.060000 41.580000 197 196 189 0
1.540000 27.060000 41.580000 197 193 187 0
1.760000 27.060000 41.580000 196 192 186 0
1.980000 27.060000 41.580000 198 194 188 0
2.200000 27.060000 41.580000 200 196 190 0
2.420000 27.060000 43.120000 199 198 191 0
2.640000 27.060000 32.120000 199 198 191 0
2.860000 27.060000 9.900000 197 197 190 0
3.080000 27.060000 0.440000 197 197 190 0
3.300000 27.060000 0.440000 197 197 192 0
3.520000 27.060000 0.440000 198 198 193 0
3.740000 27.060000 0.440000 200 196 192 0
3.960000 27.060000 0.440000 199 195 191 0
4.180000 27.060000 0.660000 197 193 189 0
4.400000 27.060000 0.660000 195 191 187 0
4.620000 27.060000 0.660000 190 189 182 0
4.840000 27.060000 0.660000 184 183 176 0
5.060000 27.060000 0.660000 183 174 164 0
5.940000 27.060000 2.200000 166 138 129 0
6.160000 27.060000 11.880000 162 134 125 0
6.380000 27.060000 25.740000 160 133 121 0
6.600000 27.060000 29.920000 158 131 119 0
6.820000 27.060000 29.700000 158 129 118 0
7.040000 27.060000 32.560000 156 127 116 0
7.260000 27.060000 38.060000 156 127 116 0
7.480000 27.060000 40.920000 155 126 115 0
7.700000 27.060000 39.380000 153 124 113 0
7.920000 27.060000 39.380000 154 125 114 0
8.140000 27.060000 37.840000 153 124 113 0
8.360000 27.060000 37.840000 152 123 112 0
8.580000 27.060000 38.940000 153 122 112 0
8.800000 27.060000 38.940000 152 121 111 0
9.020000 27.060000 37.620000 152 121 111 0
9.240000 27.060000 36.300000 151 120 110 0
9.460000 27.060000 34.760000 151 120 112 0
9.680000 27.060000 33.440000 151 120 112 0
9.900000 27.060000 32.120000 143 122 114 0
10.120000 27.060000 30.800000 142 121 113 0
10.340000 27.060000 26.620000 136 118 111 0
10.560000 27.060000 21.120000 132 114 107 0
10.780000 27.060000 18.480000 131 113 106 0
11.000000 27.060000 18.480000 132 114 107 0
11.220000 27.060000 19.800000 133 113 107 0
11.440000 27.060000 19.800000 133 113 107 0
11.660000 27.060000 18.480000 133 115 108 0
11.880000 27.060000 18.480000 134 116 109 0
12.100000 27.060000 19.800000 133 115 108 0
12.320000 27.060000 19.800000 134 116 109 0
12.540000 27.060000 19.800000 132 117 109 0
12.760000 27.060000 19.800000 132 117 109 0
12.980000 27.060000 18.480000 132 117 109 0
13.200000 27.060000 19.800000 133 118 110 0
13.420000 27.060000 19.800000 135 117 108 0
13.640000 27.060000 18.260000 135 117 108 0
13.860000 27.060000 18.260000 134 116 109 0
14.080000 27.060000 18.260000 134 116 109 0
14.300000 27.060000 18.480000 134 119 111 0
14.520000 27.060000 19.800000 135 120 112 0
14.740000 27.060000 19.800000 136 122 114 0
14.960000 27.060000 19.800000 137 123 115 0
15.180000 27.060000 19.800000 136 122 116 0
15.400000 27.060000 19.800000 138 124 118 0
15.620000 27.060000 19.800000 138 124 118 0
15.840000 27.060000 19.800000 139 125 119 0
16.060000 27.060000 19.800000 138 127 120 0
16.280000 27.060000 19.800000 139 128 121 0
16.500000 27.060000 21.120000 141 127 119 0
16.720000 27.060000 21.120000 142 128 120 0
16.940000 27.060000 21.120000 144 129 119 0
17.160000 27.060000 22.440000 143 128 118 0
17.380000 27.060000 22.440000 143 129 121 0
17.600000 27.060000 22.440000 142 128 120 0
17.820000 27.060000 23.760000 140 129 122 0
18.040000 27.060000 23.760000 141 130 123 0
18.260000 27.060000 25.300000 151 126 116 0
18.480000 27.060000 25.300000 151 126 116 0
18.700000 27.060000 25.300000 156 123 111 0
18.920000 27.060000 26.620000 154 121 109 0
19.140000 27.060000 26.620000 153 120 108 0
19.360000 27.060000 26.620000 152 119 107 0
19.580000 27.060000 26.620000 152 118 104 0
19.800000 27.060000 26.620000 152 118 104 0
20.020000 27.060000 26.620000 152 118 104 0
20.240000 27.060000 26.620000 151 117 103 0
20.460000 27.060000 26.620000 151 116 105 0
20.680000 27.060000 27.940000 151 116 105 0
20.900000 27.060000 27.940000 152 115 104 0
21.120000 27.060000 26.400000 152 115 104 0
21.340000 27.060000 26.620000 153 114 104 0
21.560000 27.060000 27.940000 152 113 103 0
21.780000 27.060000 27.940000 152 113 103 0
22.000000 27.060000 27.940000 151 112 102 0
22.220000 27.060000 26.400000 154 110 102 0
22.440000 27.060000 26.400000 153 109 101 0
22.660000 27.060000 26.400000 153 108 100 0
22.880000 27.060000 26.620000 152 107 99 0
23.100000 27.060000 26.620000 155 105 99 0
23.320000 27.060000 26.620000 155 105 99 0
23.540000 27.060000 26.620000 155 104 96 0
23.760000 27.060000 26.620000 153 102 94 0
23.980000 27.060000 25.080000 156 101 94 0
24.200000 27.060000 25.080000 156 101 94 0
24.420000 27.060000 23.760000 158 100 94 0
24.640000 27.060000 23.760000 158 100 94 0
24.860000 27.060000 23.540000 159 98 92 0
25.080000 27.060000 23.540000 159 98 92 0
25.300000 27.060000 23.540000 161 97 92 0
25.520000 27.060000 22.220000 161 97 92 0
25.740000 27.060000 20.900000 160 96 91 0
25.960000 27.060000 20.900000 160 96 91 0
26.180000 27.060000 21.120000 161 95 91 0
26.400000 27.060000 21.120000 160 94 90 0
26.620000 27.060000 20.900000 161 95 91 0
26.840000 27.060000 20.900000 160 94 90 0
27.060000 27.060000 20.900000 162 94 90 0
27.280000 27.060000 19.580000 161 93 89 0
27.500000 27.060000 19.580000 159 94 87 0
27.720000 27.060000 18.260000 160 95 88 0
27.940000 27.060000 18.260000 162 94 90 0
28.160000 27.060000 18.260000 163 95 91 0
28.380000 27.060000 18.260000 164 94 89 0
28.600000 27.060000 18.260000 165 95 90 0
28.820000 27.060000 16.940000 165 95 90 0
29.040000 27.060000 16.940000 165 95 90 0
