ply
format ascii 1.0
element vertex 1119
property float x
property float y
property float z
property uchar red
property uchar green
property uchar blue
property uchar alpha
end_header
30.360000 5.720000 29.260000 182 116 121 0
30.580000 5.720000 29.260000 179 113 118 0
30.800000 5.720000 29.260000 179 113 118 0
31.020000 5.720000 29.260000 180 115 118 0
31.240000 5.720000 29.260000 180 115 118 0
31.460000 5.720000 29.260000 180 112 120 0
31.680000 5.720000 29.260000 179 111 119 0
31.900000 5.720000 29.260000 179 113 118 0
32.120000 5.720000 29.260000 178 112 117 0
32.340000 5.720000 29.260000 178 112 117 0
32.560000 5.720000 29.260000 178 112 117 0
32.780000 5.720000 29.260000 178 113 116 0
33.000000 5.720000 29.260000 178 113 116 0
33.220000 5.720000 29.260000 180 113 118 0
33.440000 5.720000 29.260000 180 113 118 0
33.660000 5.720000 29.260000 180 114 119 0
33.880000 5.720000 29.260000 178 112 117 0
34.100000 5.720000 29.260000 176 113 117 0
34.320000 5.720000 29.260000 177 114 118 0
34.540000 5.720000 29.260000 178 113 114 0
34.760000 5.720000 29.260000 179 114 115 0
34.980000 5.720000 29.480000 179 112 117 0
35.200000 5.720000 27.940000 179 112 117 0
35.420000 5.720000 29.260000 179 113 118 0
35.640000 5.720000 29.260000 181 115 120 0
35.860000 5.720000 29.260000 162 138 149 0
36.080000 5.720000 29.260000 200 176 187 0
36.300000 5.720000 29.260000 208 188 194 0
36.520000 5.720000 29.260000 202 182 188 0
36.740000 5.720000 29.260000 198 159 161 0
36.960000 5.720000 29.260000 190 151 153 0
37.180000 5.720000 29.260000 184 142 147 0
0.000000 5.940000 27.940000 154 126 120 0
0.220000 5.940000 27.940000 153 128 119 0
0.440000 5.940000 27.940000 153 128 119 0
0.660000 5.940000 27.940000 156 128 120 0
0.880000 5.940000 27.940000 158 130 122 0
1.100000 5.940000 27.940000 161 132 123 0
1.320000 5.940000 27.940000 163 134 125 0
1.540000 5.940000 27.940000 164 133 126 0
1.760000 5.940000 27.940000 166 135 128 0
1.980000 5.940000 27.940000 169 133 132 0
2.200000 5.940000 27.940000 171 135 134 0
2.420000 5.940000 27.940000 173 137 136 0
2.640000 5.940000 27.940000 175 139 138 0
2.860000 5.940000 29.260000 176 139 141 0
3.080000 5.940000 29.260000 177 140 142 0
3.300000 5.940000 29.260000 178 143 145 0
3.520000 5.940000 29.260000 181 146 148 0
3.740000 5.940000 29.260000 180 146 155 0
3.960000 5.940000 29.260000 182 148 157 0
4.180000 5.940000 29.260000 183 151 161 0
4.400000 5.940000 29.260000 184 152 162 0
4.620000 5.940000 29.260000 187 155 165 0
4.840000 5.940000 29.260000 187 155 165 0
5.060000 5.940000 29.260000 191 161 164 0
5.280000 5.940000 30.580000 193 163 166 0
5.500000 5.940000 30.580000 193 165 172 0
5.720000 5.940000 30.580000 196 168 175 0
5.940000 5.940000 30.580000 199 173 177 0
6.160000 5.940000 30.580000 200 174 178 0
6.380000 5.940000 30.580000 205 176 176 0
6.600000 5.940000 30.580000 205 176 176 0
6.820000 5.940000 30.580000 208 182 178 0
7.040000 5.940000 30.800000 208 182 178 0
7.260000 5.940000 30.800000 210 181 178 0
7.480000 5.940000 30.580000 210 181 178 0
7.700000 5.940000 30.580000 212 183 180 0
7.920000 5.940000 30.580000 213 184 181 0
8.140000 5.940000 30.580000 210 184 180 0
8.360000 5.940000 30.800000 210 184 180 0
8.580000 5.940000 30.800000 214 186 180 0
8.800000 5.940000 30.800000 213 185 179 0
9.020000 5.940000 30.800000 212 184 176 0
9.240000 5.940000 30.800000 214 186 178 0
9.460000 5.940000 30.580000 213 184 173 0
9.680000 5.940000 32.120000 211 182 171 0
9.900000 5.940000 32.120000 210 169 160 0
10.120000 5.940000 32.120000 203 162 153 0
10.340000 5.940000 31.900000 203 149 144 0
10.560000 5.940000 31.900000 196 142 137 0
10.780000 5.940000 31.900000 186 133 140 0
11.000000 5.940000 31.900000 183 130 137 0
11.220000 5.940000 33.220000 182 129 136 0
11.440000 5.940000 33.220000 182 129 136 0
11.660000 5.940000 33.220000 181 130 140 0
11.880000 5.940000 33.220000 180 129 139 0
12.100000 5.940000 33.440000 181 130 140 0
12.320000 5.940000 33.440000 182 131 141 0
12.540000 5.940000 33.440000 184 132 140 0
12.760000 5.940000 33.440000 184 132 140 0
12.980000 5.940000 33.440000 183 131 141 0
13.200000 5.940000 33.440000 184 132 142 0
13.420000 5.940000 33.440000 182 131 141 0
13.640000 5.940000 33.440000 183 132 142 0
13.860000 5.940000 33.440000 182 131 143 0
14.080000 5.940000 33.440000 182 131 143 0
14.300000 5.940000 33.440000 182 131 141 0
14.520000 5.940000 33.440000 182 131 141 0
14.740000 5.940000 33.440000 183 131 141 0
14.960000 5.940000 34.760000 181 129 139 0
15.180000 5.940000 33.440000 181 130 142 0
15.400000 5.940000 33.440000 180 129 141 0
15.620000 5.940000 33.440000 179 130 144 0
15.840000 5.940000 33.440000 180 131 145 0
16.060000 5.940000 33.440000 180 131 145 0
16.280000 5.940000 33.440000 180 131 145 0
16.500000 5.940000 33.440000 181 130 144 0
16.720000 5.940000 33.440000 182 131 145 0
16.940000 5.940000 33.440000 179 130 144 0
17.160000 5.940000 33.440000 179 130 144 0
17.380000 5.940000 33.440000 179 132 147 0
17.600000 5.940000 33.440000 179 132 147 0
17.820000 5.940000 33.440000 176 132 150 0
18.040000 5.940000 33.440000 177 133 151 0
18.260000 5.940000 33.440000 177 134 156 0
18.480000 5.940000 33.440000 177 134 156 0
18.700000 5.940000 33.440000 178 133 151 0
18.920000 5.940000 32.120000 178 133 151 0
19.140000 5.940000 32.120000 177 133 153 0
19.360000 5.940000 32.120000 177 133 153 0
19.580000 5.940000 33.440000 177 133 155 0
19.800000 5.940000 32.120000 178 134 156 0
20.020000 5.940000 32.120000 175 135 157 0
20.240000 5.940000 32.120000 176 136 158 0
20.460000 5.940000 32.120000 179 136 159 0
20.680000 5.940000 32.120000 178 135 158 0
20.900000 5.940000 32.120000 180 135 159 0
21.120000 5.940000 30.580000 179 134 158 0
21.340000 5.940000 30.580000 177 134 157 0
21.560000 5.940000 30.800000 178 135 158 0
21.780000 5.940000 30.800000 175 134 159 0
22.000000 5.940000 30.580000 175 134 159 0
22.220000 5.940000 30.580000 178 135 158 0
22.440000 5.940000 30.580000 177 134 157 0
22.660000 5.940000 30.580000 177 132 156 0
22.880000 5.940000 30.580000 179 134 158 0
23.100000 5.940000 30.580000 178 135 158 0
23.320000 5.940000 30.580000 178 135 158 0
23.540000 5.940000 30.580000 178 137 164 0
23.760000 5.940000 30.580000 178 137 164 0
23.980000 5.940000 29.260000 177 136 161 0
24.200000 5.940000 29.260000 176 135 160 0
24.420000 5.940000 29.260000 179 134 158 0
24.640000 5.940000 29.260000 178 133 157 0
24.860000 5.940000 29.260000 177 132 156 0
25.080000 5.940000 30.580000 178 133 157 0
25.300000 5.940000 30.580000 176 135 162 0
25.520000 5.940000 29.260000 176 135 162 0
25.740000 5.940000 29.260000 179 140 166 0
25.960000 5.940000 29.260000 180 141 167 0
26.180000 5.940000 29.260000 181 140 165 0
26.400000 5.940000 29.260000 182 141 166 0
26.620000 5.940000 29.260000 187 142 168 0
26.840000 5.940000 29.260000 186 141 167 0
27.060000 5.940000 29.260000 178 153 178 0
27.280000 5.940000 29.260000 183 158 183 0
27.500000 5.940000 29.260000 183 159 180 0
27.720000 5.940000 29.260000 182 158 179 0
27.940000 5.940000 29.260000 185 144 169 0
28.160000 5.940000 29.260000 181 140 165 0
28.380000 5.940000 29.260000 182 136 160 0
28.600000 5.940000 29.260000 179 133 157 0
28.820000 5.940000 29.480000 186 133 148 0
29.040000 5.940000 29.480000 182 129 144 0
29.260000 5.940000 29.260000 183 121 129 0
29.480000 5.940000 29.260000 181 119 127 0
29.700000 5.940000 29.260000 183 115 125 0
29.920000 5.940000 29.480000 181 113 123 0
30.140000 5.940000 29.260000 178 112 117 0
30.360000 5.940000 29.260000 176 110 115 0
30.580000 5.940000 29.260000 176 110 115 0
30.800000 5.940000 29.260000 176 110 115 0
31.020000 5.940000 29.260000 178 113 116 0
31.240000 5.940000 29.260000 178 113 116 0
31.460000 5.940000 29.260000 178 110 118 0
31.680000 5.940000 29.260000 178 110 118 0
31.900000 5.940000 29.260000 176 110 115 0
32.120000 5.940000 29.260000 175 109 114 0
32.340000 5.940000 29.260000 176 110 115 0
32.560000 5.940000 30.580000 176 110 115 0
32.780000 5.940000 29.260000 175 110 113 0
33.000000 5.940000 29.260000 177 112 115 0
33.220000 5.940000 29.260000 178 111 116 0
33.440000 5.940000 29.260000 178 111 116 0
33.660000 5.940000 29.260000 177 111 116 0
33.880000 5.940000 29.260000 177 111 116 0
34.100000 5.940000 29.260000 175 112 116 0
34.320000 5.940000 29.260000 175 112 116 0
34.540000 5.940000 29.260000 177 112 113 0
34.760000 5.940000 29.260000 176 111 112 0
34.980000 5.940000 29.260000 177 110 115 0
35.200000 5.940000 29.480000 177 110 115 0
35.420000 5.940000 29.260000 176 110 115 0
35.640000 5.940000 29.260000 179 113 118 0
35.860000 5.940000 29.260000 158 134 145 0
36.080000 5.940000 29.260000 191 167 178 0
36.300000 5.940000 29.260000 204 184 190 0
36.520000 5.940000 29.260000 194 174 180 0
36.740000 5.940000 29.260000 185 146 148 0
36.960000 5.940000 29.260000 176 137 139 0
37.180000 5.940000 29.260000 176 134 139 0
0.000000 6.160000 27.940000 150 124 118 0
0.220000 6.160000 27.940000 154 124 117 0
0.440000 6.160000 27.940000 155 125 118 0
0.660000 6.160000 27.940000 160 126 120 0
0.880000 6.160000 27.940000 161 127 121 0
1.100000 6.160000 27.940000 164 128 125 0
1.320000 6.160000 27.940000 168 132 129 0
1.540000 6.160000 27.940000 173 131 130 0
1.760000 6.160000 27.940000 175 133 132 0
1.980000 6.160000 27.940000 175 134 133 0
2.200000 6.160000 27.940000 176 135 134 0
2.420000 6.160000 29.260000 177 136 137 0
2.640000 6.160000 29.260000 178 137 138 0
2.860000 6.160000 29.260000 178 137 138 0
3.080000 6.160000 29.260000 179 138 139 0
3.300000 6.160000 29.260000 181 139 138 0
3.520000 6.160000 29.260000 184 142 141 0
3.740000 6.160000 29.260000 183 142 143 0
3.960000 6.160000 29.260000 186 145 146 0
4.180000 6.160000 29.260000 187 146 149 0
4.400000 6.160000 29.260000 189 148 151 0
4.620000 6.160000 29.260000 191 150 153 0
4.840000 6.160000 29.260000 191 150 153 0
5.060000 6.160000 30.800000 193 153 159 0
5.280000 6.160000 30.580000 198 158 164 0
5.500000 6.160000 30.580000 197 160 163 0
5.720000 6.160000 30.580000 199 162 165 0
5.940000 6.160000 30.580000 200 168 168 0
6.160000 6.160000 30.580000 203 171 171 0
6.380000 6.160000 30.580000 205 173 171 0
6.600000 6.160000 30.580000 206 174 172 0
6.820000 6.160000 30.580000 209 175 169 0
7.040000 6.160000 30.580000 210 176 170 0
7.260000 6.160000 30.580000 214 178 175 0
7.480000 6.160000 30.580000 212 176 173 0
7.700000 6.160000 30.580000 209 177 175 0
7.920000 6.160000 30.580000 212 180 178 0
8.140000 6.160000 30.580000 209 180 171 0
8.360000 6.160000 30.800000 214 185 176 0
8.580000 6.160000 30.800000 214 180 173 0
8.800000 6.160000 30.800000 215 181 174 0
9.020000 6.160000 30.580000 220 181 171 0
9.240000 6.160000 30.580000 218 179 169 0
9.460000 6.160000 31.900000 222 169 158 0
9.680000 6.160000 31.900000 215 162 151 0
9.900000 6.160000 32.120000 210 151 150 0
10.120000 6.160000 30.800000 203 144 143 0
10.340000 6.160000 30.800000 193 132 132 0
10.560000 6.160000 32.120000 190 129 129 0
10.780000 6.160000 32.120000 187 128 129 0
11.000000 6.160000 31.900000 186 127 128 0
11.220000 6.160000 33.220000 184 127 129 0
11.440000 6.160000 33.220000 185 128 130 0
11.660000 6.160000 33.220000 184 127 131 0
11.880000 6.160000 33.220000 185 128 132 0
12.100000 6.160000 33.220000 184 126 133 0
12.320000 6.160000 33.440000 185 127 134 0
12.540000 6.160000 33.440000 186 128 135 0
12.760000 6.160000 33.440000 187 129 136 0
12.980000 6.160000 33.440000 185 129 135 0
13.200000 6.160000 33.440000 185 129 135 0
13.420000 6.160000 33.440000 185 129 137 0
13.640000 6.160000 33.440000 185 129 137 0
13.860000 6.160000 33.440000 185 129 137 0
14.080000 6.160000 33.440000 185 129 137 0
14.300000 6.160000 33.440000 184 126 135 0
14.520000 6.160000 34.760000 184 126 135 0
14.740000 6.160000 34.760000 181 128 135 0
14.960000 6.160000 34.760000 181 128 135 0
15.180000 6.160000 34.760000 182 128 139 0
15.400000 6.160000 34.760000 182 128 139 0
15.620000 6.160000 34.760000 182 128 139 0
15.840000 6.160000 34.760000 182 128 139 0
16.060000 6.160000 34.760000 182 128 139 0
16.280000 6.160000 33.440000 182 128 139 0
16.500000 6.160000 33.440000 181 129 139 0
16.720000 6.160000 33.440000 181 129 139 0
16.940000 6.160000 33.440000 181 126 140 0
17.160000 6.160000 33.440000 182 127 141 0
17.380000 6.160000 34.760000 181 128 141 0
17.600000 6.160000 34.760000 181 128 141 0
17.820000 6.160000 34.760000 179 130 147 0
18.040000 6.160000 33.440000 179 130 147 0
18.260000 6.160000 33.440000 181 130 144 0
18.480000 6.160000 33.440000 182 131 145 0
18.700000 6.160000 33.440000 180 131 148 0
18.920000 6.160000 33.440000 179 130 147 0
19.140000 6.160000 33.440000 179 130 147 0
19.360000 6.160000 33.440000 179 130 147 0
19.580000 6.160000 33.440000 180 132 151 0
19.800000 6.160000 33.440000 180 132 151 0
20.020000 6.160000 32.120000 178 133 151 0
20.240000 6.160000 32.120000 178 133 151 0
20.460000 6.160000 32.120000 180 132 153 0
20.680000 6.160000 32.120000 181 133 154 0
20.900000 6.160000 31.900000 180 132 151 0
21.120000 6.160000 31.900000 179 131 150 0
21.340000 6.160000 31.900000 179 131 150 0
21.560000 6.160000 30.580000 179 131 150 0
21.780000 6.160000 30.580000 177 131 152 0
22.000000 6.160000 30.580000 178 132 153 0
22.220000 6.160000 30.580000 178 132 155 0
22.440000 6.160000 30.580000 177 131 154 0
22.660000 6.160000 30.580000 178 132 153 0
22.880000 6.160000 30.580000 178 132 153 0
23.100000 6.160000 30.580000 180 132 153 0
23.320000 6.160000 30.580000 182 134 155 0
23.540000 6.160000 30.580000 178 134 154 0
23.760000 6.160000 30.580000 179 135 155 0
23.980000 6.160000 30.580000 178 132 155 0
24.200000 6.160000 29.260000 177 131 154 0
24.420000 6.160000 29.260000 177 131 152 0
24.640000 6.160000 30.580000 177 131 152 0
24.860000 6.160000 30.580000 179 131 152 0
25.080000 6.160000 30.580000 178 130 151 0
25.300000 6.160000 30.580000 177 133 153 0
25.520000 6.160000 29.260000 177 133 153 0
25.740000 6.160000 29.260000 180 134 157 0
25.960000 6.160000 29.260000 182 136 159 0
26.180000 6.160000 29.260000 183 137 158 0
26.400000 6.160000 29.260000 183 137 158 0
26.620000 6.160000 29.260000 183 139 161 0
26.840000 6.160000 29.260000 185 141 163 0
27.060000 6.160000 29.260000 188 145 167 0
27.280000 6.160000 29.260000 192 149 171 0
27.500000 6.160000 29.260000 195 147 166 0
27.720000 6.160000 29.260000 188 140 159 0
27.940000 6.160000 29.260000 192 134 144 0
28.160000 6.160000 29.260000 188 130 140 0
28.380000 6.160000 29.260000 185 122 128 0
28.600000 6.160000 29.260000 186 123 129 0
28.820000 6.160000 29.480000 183 120 126 0
29.040000 6.160000 29.260000 180 117 123 0
29.260000 6.160000 29.260000 181 114 118 0
29.480000 6.160000 29.260000 180 113 117 0
29.700000 6.160000 29.480000 183 113 118 0
29.920000 6.160000 29.480000 180 110 115 0
30.140000 6.160000 29.260000 177 110 112 0
30.360000 6.160000 29.260000 175 108 110 0
30.580000 6.160000 29.260000 175 108 112 0
30.800000 6.160000 29.260000 176 109 113 0
31.020000 6.160000 29.260000 177 110 112 0
31.240000 6.160000 29.260000 177 110 112 0
31.460000 6.160000 29.260000 178 109 111 0
31.680000 6.160000 29.260000 178 109 111 0
31.900000 6.160000 29.260000 177 110 112 0
32.120000 6.160000 30.580000 175 108 110 0
32.340000 6.160000 30.580000 174 107 111 0
32.560000 6.160000 30.580000 174 107 111 0
32.780000 6.160000 29.260000 175 108 110 0
33.000000 6.160000 29.480000 176 109 111 0
33.220000 6.160000 29.260000 178 109 111 0
33.440000 6.160000 29.040000 179 110 112 0
33.660000 6.160000 29.260000 177 110 112 0
33.880000 6.160000 29.260000 176 109 111 0
34.100000 6.160000 29.260000 177 110 114 0
34.320000 6.160000 29.260000 176 109 113 0
34.540000 6.160000 29.260000 176 109 111 0
34.760000 6.160000 29.260000 176 109 111 0
34.980000 6.160000 29.260000 177 108 108 0
35.200000 6.160000 29.260000 177 108 108 0
35.420000 6.160000 29.260000 176 109 111 0
35.640000 6.160000 29.260000 177 110 112 0
35.860000 6.160000 29.260000 161 129 137 0
36.080000 6.160000 29.260000 194 162 170 0
36.300000 6.160000 29.260000 203 176 176 0
36.520000 6.160000 29.260000 193 166 166 0
36.740000 6.160000 29.260000 181 132 133 0
36.960000 6.160000 29.260000 177 128 129 0
37.180000 6.160000 29.260000 180 125 126 0
0.000000 6.380000 27.940000 148 122 116 0
0.220000 6.380000 27.940000 154 124 117 0
0.440000 6.380000 27.940000 155 125 118 0
0.660000 6.380000 27.940000 161 127 121 0
0.880000 6.380000 27.940000 165 131 125 0
1.100000 6.380000 27.940000 169 133 130 0
1.320000 6.380000 29.260000 171 135 132 0
1.540000 6.380000 27.940000 176 134 133 0
1.760000 6.380000 27.940000 177 135 134 0
1.980000 6.380000 27.940000 176 135 134 0
2.200000 6.380000 27.940000 178 137 136 0
2.420000 6.380000 29.260000 177 136 137 0
2.640000 6.380000 29.260000 177 136 137 0
2.860000 6.380000 29.260000 177 136 137 0
3.080000 6.380000 29.260000 178 137 138 0
3.300000 6.380000 29.260000 180 138 137 0
3.520000 6.380000 29.260000 181 139 138 0
3.740000 6.380000 29.260000 183 142 143 0
3.960000 6.380000 29.260000 183 142 143 0
4.180000 6.380000 30.580000 185 144 147 0
4.400000 6.380000 30.580000 186 145 148 0
4.620000 6.380000 30.580000 187 146 149 0
4.840000 6.380000 30.580000 188 147 150 0
5.060000 6.380000 30.580000 189 149 155 0
5.280000 6.380000 30.580000 192 152 158 0
5.500000 6.380000 30.580000 195 158 161 0
5.720000 6.380000 30.580000 197 160 163 0
5.940000 6.380000 30.580000 197 165 165 0
6.160000 6.380000 30.580000 199 167 167 0
6.380000 6.380000 30.580000 201 169 167 0
6.600000 6.380000 30.580000 203 171 169 0
6.820000 6.380000 30.580000 206 172 166 0
7.040000 6.380000 30.580000 207 173 167 0
7.260000 6.380000 30.580000 210 174 171 0
7.480000 6.380000 30.580000 210 174 171 0
7.700000 6.380000 30.580000 207 175 173 0
7.920000 6.380000 30.800000 208 176 174 0
8.140000 6.380000 30.580000 209 180 171 0
8.360000 6.380000 30.580000 210 181 172 0
8.580000 6.380000 30.800000 213 179 172 0
8.800000 6.380000 30.800000 212 178 171 0
9.020000 6.380000 30.800000 216 177 167 0
9.240000 6.380000 30.580000 208 169 159 0
9.460000 6.380000 30.580000 211 158 147 0
9.680000 6.380000 30.800000 203 150 139 0
9.900000 6.380000 30.800000 198 139 138 0
10.120000 6.380000 31.020000 188 129 128 0
10.340000 6.380000 31.240000 186 125 125 0
10.560000 6.380000 31.240000 185 124 124 0
10.780000 6.380000 31.020000 185 126 127 0
11.000000 6.380000 32.340000 184 125 126 0
11.220000 6.380000 32.120000 183 126 128 0
11.440000 6.380000 32.120000 183 126 128 0
11.660000 6.380000 33.440000 182 125 129 0
11.880000 6.380000 33.220000 183 126 130 0
12.100000 6.380000 33.220000 182 124 131 0
12.320000 6.380000 33.220000 183 125 132 0
12.540000 6.380000 33.440000 183 125 132 0
12.760000 6.380000 33.440000 184 126 133 0
12.980000 6.380000 33.440000 183 127 133 0
13.200000 6.380000 33.440000 183 127 133 0
13.420000 6.380000 33.440000 183 127 135 0
13.640000 6.380000 33.440000 183 127 135 0
13.860000 6.380000 34.980000 183 127 135 0
14.080000 6.380000 34.980000 181 125 133 0
14.300000 6.380000 34.760000 183 125 134 0
14.520000 6.380000 34.760000 183 125 134 0
14.740000 6.380000 34.760000 180 127 134 0
14.960000 6.380000 34.760000 180 127 134 0
15.180000 6.380000 34.760000 179 125 136 0
15.400000 6.380000 34.760000 179 125 136 0
15.620000 6.380000 34.760000 180 126 137 0
15.840000 6.380000 34.760000 181 127 138 0
16.060000 6.380000 34.760000 181 127 138 0
16.280000 6.380000 34.760000 179 125 136 0
16.500000 6.380000 34.760000 179 127 137 0
16.720000 6.380000 34.760000 179 127 137 0
16.940000 6.380000 34.760000 181 126 140 0
17.160000 6.380000 34.760000 180 125 139 0
17.380000 6.380000 34.760000 181 128 141 0
17.600000 6.380000 34.760000 180 127 140 0
17.820000 6.380000 34.760000 177 128 145 0
18.040000 6.380000 34.760000 179 130 147 0
18.260000 6.380000 34.760000 179 128 142 0
18.480000 6.380000 34.760000 178 127 141 0
18.700000 6.380000 34.760000 177 128 145 0
18.920000 6.380000 33.440000 176 127 144 0
19.140000 6.380000 33.440000 176 127 144 0
19.360000 6.380000 33.440000 178 129 146 0
19.580000 6.380000 33.440000 177 129 148 0
19.800000 6.380000 33.440000 178 130 149 0
20.020000 6.380000 33.440000 177 132 150 0
20.240000 6.380000 32.120000 176 131 149 0
20.460000 6.380000 31.900000 177 129 150 0
20.680000 6.380000 31.900000 178 130 151 0
20.900000 6.380000 31.900000 176 128 147 0
21.120000 6.380000 31.900000 176 128 147 0
21.340000 6.380000 31.900000 176 128 147 0
21.560000 6.380000 31.900000 176 128 147 0
21.780000 6.380000 31.900000 174 128 149 0
22.000000 6.380000 31.900000 174 128 149 0
22.220000 6.380000 30.580000 176 130 153 0
22.440000 6.380000 30.580000 175 129 152 0
22.660000 6.380000 30.580000 175 129 150 0
22.880000 6.380000 30.580000 176 130 151 0
23.100000 6.380000 30.580000 179 131 152 0
23.320000 6.380000 30.580000 179 131 152 0
23.540000 6.380000 30.580000 176 132 152 0
23.760000 6.380000 30.580000 176 132 152 0
23.980000 6.380000 30.580000 177 131 154 0
24.200000 6.380000 30.580000 177 131 154 0
24.420000 6.380000 30.580000 176 130 151 0
24.640000 6.380000 30.580000 175 129 150 0
24.860000 6.380000 30.580000 177 129 150 0
25.080000 6.380000 30.580000 177 129 150 0
25.300000 6.380000 30.580000 174 130 150 0
25.520000 6.380000 29.260000 174 130 150 0
25.740000 6.380000 29.260000 176 130 153 0
25.960000 6.380000 29.260000 176 130 153 0
26.180000 6.380000 29.260000 178 132 153 0
26.400000 6.380000 29.260000 179 133 154 0
26.620000 6.380000 29.260000 181 137 159 0
26.840000 6.380000 29.260000 183 139 161 0
27.060000 6.380000 29.260000 183 140 162 0
27.280000 6.380000 29.260000 180 137 159 0
27.500000 6.380000 29.260000 181 133 152 0
27.720000 6.380000 29.260000 175 127 146 0
27.940000 6.380000 29.260000 181 123 133 0
28.160000 6.380000 29.260000 175 117 127 0
28.380000 6.380000 29.480000 177 114 120 0
28.600000 6.380000 29.480000 176 113 119 0
28.820000 6.380000 29.480000 176 113 119 0
29.040000 6.380000 29.260000 176 113 119 0
29.260000 6.380000 29.260000 178 111 115 0
29.480000 6.380000 29.260000 178 111 115 0
29.700000 6.380000 29.260000 180 110 115 0
29.920000 6.380000 29.260000 179 109 114 0
30.140000 6.380000 29.260000 175 108 110 0
30.360000 6.380000 29.040000 175 108 110 0
30.580000 6.380000 29.040000 175 108 112 0
30.800000 6.380000 29.040000 175 108 112 0
31.020000 6.380000 29.040000 175 108 110 0
31.240000 6.380000 29.260000 176 109 111 0
31.460000 6.380000 29.480000 177 108 110 0
31.680000 6.380000 29.260000 177 108 110 0
31.900000 6.380000 29.260000 174 107 109 0
32.120000 6.380000 29.260000 174 107 109 0
32.340000 6.380000 30.580000 173 106 110 0
32.560000 6.380000 29.040000 173 106 110 0
32.780000 6.380000 29.260000 173 106 108 0
33.000000 6.380000 29.480000 174 107 109 0
33.220000 6.380000 29.260000 177 108 110 0
33.440000 6.380000 30.580000 177 108 110 0
33.660000 6.380000 30.580000 174 107 109 0
33.880000 6.380000 30.580000 174 107 109 0
34.100000 6.380000 29.260000 175 108 112 0
34.320000 6.380000 29.260000 173 106 110 0
34.540000 6.380000 29.260000 174 107 109 0
34.760000 6.380000 29.260000 174 107 109 0
34.980000 6.380000 29.260000 176 107 107 0
35.200000 6.380000 29.260000 177 108 108 0
35.420000 6.380000 29.260000 175 108 110 0
35.640000 6.380000 29.260000 175 108 110 0
35.860000 6.380000 29.260000 155 123 131 0
36.080000 6.380000 29.260000 190 158 166 0
36.300000 6.380000 29.260000 201 174 174 0
36.520000 6.380000 29.260000 191 164 164 0
36.740000 6.380000 29.260000 176 127 128 0
36.960000 6.380000 29.260000 169 120 121 0
37.180000 6.380000 29.260000 172 117 118 0
0.000000 6.600000 29.260000 149 123 117 0
0.220000 6.600000 29.040000 153 127 121 0
0.440000 6.600000 29.040000 156 130 124 0
0.660000 6.600000 29.040000 169 133 132 0
0.880000 6.600000 29.260000 171 135 134 0
1.100000 6.600000 29.260000 173 137 136 0
1.320000 6.600000 29.260000 173 137 136 0
1.540000 6.600000 29.260000 179 134 132 0
1.760000 6.600000 29.260000 180 135 133 0
1.980000 6.600000 29.260000 183 134 132 0
2.200000 6.600000 29.260000 184 135 133 0
2.420000 6.600000 29.260000 180 135 133 0
2.640000 6.600000 29.260000 180 135 133 0
2.860000 6.600000 29.260000 180 135 133 0
3.080000 6.600000 29.260000 180 135 133 0
3.300000 6.600000 29.260000 181 135 133 0
3.520000 6.600000 29.260000 182 136 134 0
3.740000 6.600000 29.260000 185 139 136 0
3.960000 6.600000 29.260000 185 139 136 0
4.180000 6.600000 30.580000 185 140 138 0
4.400000 6.600000 30.580000 187 142 140 0
4.620000 6.600000 30.580000 186 144 143 0
4.840000 6.600000 30.580000 187 145 144 0
5.060000 6.600000 30.580000 190 145 145 0
5.280000 6.600000 30.580000 194 149 149 0
5.500000 6.600000 30.580000 198 153 155 0
5.720000 6.600000 30.580000 201 156 158 0
5.940000 6.600000 30.580000 201 161 156 0
6.160000 6.600000 30.580000 203 163 158 0
6.380000 6.600000 30.580000 204 165 157 0
6.600000 6.600000 30.580000 205 166 158 0
6.820000 6.600000 30.800000 208 167 160 0
7.040000 6.600000 30.800000 207 166 159 0
7.260000 6.600000 30.580000 205 170 161 0
7.480000 6.600000 30.580000 207 172 163 0
7.700000 6.600000 30.800000 207 171 166 0
7.920000 6.600000 30.800000 207 171 166 0
8.140000 6.600000 30.800000 210 171 161 0
8.360000 6.600000 30.800000 211 172 162 0
8.580000 6.600000 30.800000 214 173 164 0
8.800000 6.600000 30.800000 213 172 163 0
9.020000 6.600000 30.800000 220 162 155 0
9.240000 6.600000 30.800000 214 156 149 0
9.460000 6.600000 30.800000 211 146 139 0
9.680000 6.600000 30.800000 200 135 128 0
9.900000 6.600000 30.800000 189 125 120 0
10.120000 6.600000 31.020000 188 124 119 0
10.340000 6.600000 29.920000 187 123 118 0
10.560000 6.600000 29.920000 187 123 118 0
10.780000 6.600000 29.920000 184 124 121 0
11.000000 6.600000 31.240000 184 124 121 0
11.220000 6.600000 31.240000 185 123 121 0
11.440000 6.600000 31.240000 185 123 121 0
11.660000 6.600000 33.440000 185 123 123 0
11.880000 6.600000 33.220000 184 122 122 0
12.100000 6.600000 33.220000 184 123 123 0
12.320000 6.600000 33.220000 184 123 123 0
12.540000 6.600000 34.760000 184 125 126 0
12.760000 6.600000 34.760000 184 125 126 0
12.980000 6.600000 33.440000 186 125 127 0
13.200000 6.600000 33.440000 184 123 125 0
13.420000 6.600000 34.760000 183 123 126 0
13.640000 6.600000 34.980000 183 123 126 0
13.860000 6.600000 34.980000 185 124 127 0
14.080000 6.600000 34.980000 183 122 125 0
14.300000 6.600000 34.980000 181 124 128 0
14.520000 6.600000 34.760000 181 124 128 0
14.740000 6.600000 36.080000 180 123 127 0
14.960000 6.600000 36.080000 180 123 127 0
15.180000 6.600000 36.080000 180 122 129 0
15.400000 6.600000 36.080000 180 122 129 0
15.620000 6.600000 34.760000 183 123 130 0
15.840000 6.600000 34.980000 182 122 129 0
16.060000 6.600000 34.760000 179 123 129 0
16.280000 6.600000 34.540000 180 124 130 0
16.500000 6.600000 34.760000 181 124 134 0
16.720000 6.600000 34.760000 181 124 134 0
16.940000 6.600000 34.760000 180 126 135 0
17.160000 6.600000 34.760000 179 125 134 0
17.380000 6.600000 34.760000 183 125 135 0
17.600000 6.600000 34.760000 183 125 135 0
17.820000 6.600000 34.760000 181 124 134 0
18.040000 6.600000 34.760000 180 123 133 0
18.260000 6.600000 34.760000 178 124 135 0
18.480000 6.600000 34.760000 177 123 134 0
18.700000 6.600000 34.760000 178 124 135 0
18.920000 6.600000 34.760000 178 124 135 0
19.140000 6.600000 33.440000 178 123 137 0
19.360000 6.600000 33.440000 179 124 138 0
19.580000 6.600000 33.440000 180 127 142 0
19.800000 6.600000 33.440000 179 126 141 0
20.020000 6.600000 33.440000 180 127 142 0
20.240000 6.600000 33.440000 180 127 142 0
20.460000 6.600000 33.440000 180 127 142 0
20.680000 6.600000 33.440000 179 126 141 0
20.900000 6.600000 33.440000 179 126 143 0
21.120000 6.600000 33.440000 179 126 143 0
21.340000 6.600000 31.900000 178 126 144 0
21.560000 6.600000 31.900000 177 125 143 0
21.780000 6.600000 31.900000 177 125 142 0
22.000000 6.600000 31.900000 177 125 142 0
22.220000 6.600000 31.900000 179 127 144 0
22.440000 6.600000 31.900000 177 125 142 0
22.660000 6.600000 30.580000 178 126 144 0
22.880000 6.600000 30.580000 177 125 143 0
23.100000 6.600000 30.580000 179 127 147 0
23.320000 6.600000 30.580000 180 128 148 0
23.540000 6.600000 30.580000 178 129 145 0
23.760000 6.600000 30.580000 177 128 144 0
23.980000 6.600000 30.580000 177 128 145 0
24.200000 6.600000 30.580000 177 128 145 0
24.420000 6.600000 30.580000 178 126 144 0
24.640000 6.600000 30.580000 180 128 146 0
24.860000 6.600000 30.580000 179 127 147 0
25.080000 6.600000 30.580000 179 127 147 0
25.300000 6.600000 30.580000 176 127 144 0
25.520000 6.600000 30.580000 176 127 144 0
25.740000 6.600000 30.580000 178 128 148 0
25.960000 6.600000 30.580000 178 128 148 0
26.180000 6.600000 30.580000 178 128 148 0
26.400000 6.600000 30.580000 179 129 149 0
26.620000 6.600000 30.580000 185 130 148 0
26.840000 6.600000 29.260000 183 128 146 0
27.060000 6.600000 29.260000 189 123 130 0
27.280000 6.600000 29.260000 185 119 126 0
27.500000 6.600000 29.260000 184 114 120 0
27.720000 6.600000 29.260000 181 111 117 0
27.940000 6.600000 30.580000 180 110 116 0
28.160000 6.600000 30.800000 178 108 114 0
28.380000 6.600000 29.480000 178 108 113 0
28.600000 6.600000 29.480000 179 109 114 0
28.820000 6.600000 29.260000 177 107 112 0
29.040000 6.600000 30.580000 178 108 113 0
29.260000 6.600000 30.580000 178 106 112 0
29.480000 6.600000 29.260000 177 105 111 0
29.700000 6.600000 29.260000 178 106 112 0
29.920000 6.600000 29.260000 177 105 111 0
30.140000 6.600000 30.580000 176 107 109 0
30.360000 6.600000 30.580000 176 107 109 0
30.580000 6.600000 29.040000 176 107 109 0
30.800000 6.600000 29.040000 175 106 108 0
31.020000 6.600000 29.040000 177 106 109 0
31.240000 6.600000 29.260000 177 106 109 0
31.460000 6.600000 29.260000 176 105 108 0
31.680000 6.600000 29.260000 176 105 108 0
31.900000 6.600000 29.260000 174 105 107 0
32.120000 6.600000 29.260000 175 106 108 0
32.340000 6.600000 29.260000 174 105 107 0
32.560000 6.600000 29.260000 174 105 107 0
32.780000 6.600000 29.260000 174 103 106 0
33.000000 6.600000 29.260000 175 104 107 0
33.220000 6.600000 29.260000 175 104 107 0
33.440000 6.600000 29.260000 174 103 106 0
33.660000 6.600000 30.580000 176 107 109 0
33.880000 6.600000 30.580000 173 104 106 0
34.100000 6.600000 30.580000 173 106 108 0
34.320000 6.600000 30.580000 173 106 108 0
34.540000 6.600000 30.580000 174 105 107 0
34.760000 6.600000 30.580000 174 105 107 0
34.980000 6.600000 29.260000 175 106 108 0
35.200000 6.600000 29.260000 174 105 107 0
35.420000 6.600000 29.260000 173 106 108 0
35.640000 6.600000 29.260000 175 108 110 0
35.860000 6.600000 29.260000 158 121 126 0
36.080000 6.600000 29.260000 184 147 152 0
36.300000 6.600000 29.260000 199 174 173 0
36.520000 6.600000 29.260000 193 168 167 0
36.740000 6.600000 29.260000 181 124 126 0
36.960000 6.600000 29.260000 171 114 116 0
37.180000 6.600000 29.260000 172 111 113 0
0.000000 6.820000 29.040000 154 128 122 0
0.220000 6.820000 29.040000 158 132 126 0
0.440000 6.820000 29.040000 162 136 130 0
0.660000 6.820000 29.040000 174 138 137 0
0.880000 6.820000 29.260000 176 140 139 0
1.100000 6.820000 29.260000 175 139 138 0
1.320000 6.820000 29.260000 174 138 137 0
1.540000 6.820000 29.260000 181 136 134 0
1.760000 6.820000 29.260000 181 136 134 0
1.980000 6.820000 29.260000 183 134 132 0
2.200000 6.820000 29.260000 183 134 132 0
2.420000 6.820000 29.260000 180 135 133 0
2.640000 6.820000 29.260000 178 133 131 0
2.860000 6.820000 29.260000 178 133 131 0
3.080000 6.820000 29.260000 178 133 131 0
3.300000 6.820000 29.260000 180 134 132 0
3.520000 6.820000 29.260000 181 135 133 0
3.740000 6.820000 29.260000 183 137 134 0
3.960000 6.820000 29.260000 183 137 134 0
4.180000 6.820000 30.580000 183 138 136 0
4.400000 6.820000 30.580000 185 140 138 0
4.620000 6.820000 30.580000 183 141 140 0
4.840000 6.820000 30.580000 184 142 141 0
5.060000 6.820000 30.580000 188 143 143 0
5.280000 6.820000 30.580000 191 146 146 0
5.500000 6.820000 30.580000 195 150 152 0
5.720000 6.820000 30.580000 197 152 154 0
5.940000 6.820000 30.580000 196 156 151 0
6.160000 6.820000 30.580000 199 159 154 0
6.380000 6.820000 30.580000 199 160 152 0
6.600000 6.820000 30.580000 201 162 154 0
6.820000 6.820000 30.800000 203 162 155 0
7.040000 6.820000 30.800000 205 164 157 0
7.260000 6.820000 30.800000 204 169 160 0
7.480000 6.820000 30.800000 203 168 159 0
7.700000 6.820000 30.800000 204 168 163 0
7.920000 6.820000 30.800000 204 168 163 0
8.140000 6.820000 30.800000 207 168 158 0
8.360000 6.820000 30.800000 207 168 158 0
8.580000 6.820000 30.800000 209 168 159 0
8.800000 6.820000 30.800000 204 163 154 0
9.020000 6.820000 30.800000 210 152 145 0
9.240000 6.820000 30.800000 201 143 136 0
9.460000 6.820000 30.800000 194 129 122 0
9.680000 6.820000 30.800000 187 122 115 0
9.900000 6.820000 30.800000 185 121 116 0
10.120000 6.820000 31.020000 186 122 117 0
10.340000 6.820000 31.240000 185 121 116 0
10.560000 6.820000 29.920000 186 122 117 0
10.780000 6.820000 29.920000 182 122 119 0
11.000000 6.820000 30.140000 184 124 121 0
11.220000 6.820000 30.140000 184 122 120 0
11.440000 6.820000 31.460000 184 122 120 0
11.660000 6.820000 32.340000 183 121 121 0
11.880000 6.820000 33.220000 182 120 120 0
12.100000 6.820000 34.540000 182 121 121 0
12.320000 6.820000 34.760000 183 122 122 0
12.540000 6.820000 34.760000 180 121 122 0
12.760000 6.820000 34.760000 182 123 124 0
12.980000 6.820000 34.760000 183 122 124 0
13.200000 6.820000 34.760000 182 121 123 0
13.420000 6.820000 34.980000 181 121 124 0
13.640000 6.820000 34.980000 181 121 124 0
13.860000 6.820000 34.980000 182 121 124 0
14.080000 6.820000 34.980000 183 122 125 0
14.300000 6.820000 34.980000 178 121 125 0
14.520000 6.820000 36.080000 178 121 125 0
14.740000 6.820000 36.080000 178 121 125 0
14.960000 6.820000 34.760000 178 121 125 0
15.180000 6.820000 34.980000 179 121 128 0
15.400000 6.820000 34.980000 178 120 127 0
15.620000 6.820000 34.760000 181 121 128 0
15.840000 6.820000 34.760000 181 121 128 0
16.060000 6.820000 36.080000 178 122 128 0
16.280000 6.820000 36.080000 179 123 129 0
16.500000 6.820000 36.080000 179 122 132 0
16.720000 6.820000 34.760000 180 123 133 0
16.940000 6.820000 34.760000 177 123 132 0
17.160000 6.820000 34.760000 177 123 132 0
17.380000 6.820000 34.760000 181 123 133 0
17.600000 6.820000 34.760000 181 123 133 0
17.820000 6.820000 34.760000 180 123 133 0
18.040000 6.820000 34.760000 178 121 131 0
18.260000 6.820000 34.760000 176 122 133 0
18.480000 6.820000 34.760000 176 122 133 0
18.700000 6.820000 34.760000 176 122 133 0
18.920000 6.820000 34.760000 176 122 133 0
19.140000 6.820000 34.760000 176 121 135 0
19.360000 6.820000 34.760000 177 122 136 0
19.580000 6.820000 34.760000 175 122 137 0
19.800000 6.820000 33.440000 176 123 138 0
20.020000 6.820000 33.440000 177 124 139 0
20.240000 6.820000 33.440000 178 125 140 0
20.460000 6.820000 33.440000 177 124 139 0
20.680000 6.820000 33.440000 177 124 139 0
20.900000 6.820000 33.440000 176 123 140 0
21.120000 6.820000 33.440000 177 124 141 0
21.340000 6.820000 31.900000 175 123 141 0
21.560000 6.820000 31.900000 175 123 141 0
21.780000 6.820000 31.900000 175 123 140 0
22.000000 6.820000 31.900000 174 122 139 0
22.220000 6.820000 31.900000 175 123 140 0
22.440000 6.820000 31.900000 174 122 139 0
22.660000 6.820000 31.900000 175 123 141 0
22.880000 6.820000 31.900000 175 123 141 0
23.100000 6.820000 30.580000 176 124 144 0
23.320000 6.820000 30.580000 177 125 145 0
23.540000 6.820000 30.580000 175 126 142 0
23.760000 6.820000 30.580000 175 126 142 0
23.980000 6.820000 30.580000 176 127 144 0
24.200000 6.820000 30.580000 175 126 143 0
24.420000 6.820000 30.580000 175 123 141 0
24.640000 6.820000 30.580000 176 124 142 0
24.860000 6.820000 30.580000 178 126 146 0
25.080000 6.820000 30.580000 177 125 145 0
25.300000 6.820000 30.580000 176 127 144 0
25.520000 6.820000 30.580000 176 127 144 0
25.740000 6.820000 30.580000 175 125 145 0
25.960000 6.820000 30.580000 175 125 145 0
26.180000 6.820000 30.580000 176 126 146 0
26.400000 6.820000 30.580000 177 127 147 0
26.620000 6.820000 30.580000 180 125 143 0
26.840000 6.820000 30.580000 173 118 136 0
27.060000 6.820000 30.580000 181 115 122 0
27.280000 6.820000 30.580000 177 111 118 0
27.500000 6.820000 30.580000 179 109 115 0
27.720000 6.820000 30.580000 177 107 113 0
27.940000 6.820000 30.580000 177 107 113 0
28.160000 6.820000 30.580000 177 107 113 0
28.380000 6.820000 29.480000 175 105 110 0
28.600000 6.820000 29.480000 175 105 110 0
28.820000 6.820000 30.580000 175 105 110 0
29.040000 6.820000 30.580000 175 105 110 0
29.260000 6.820000 30.580000 176 104 110 0
29.480000 6.820000 30.580000 175 103 109 0
29.700000 6.820000 30.580000 176 104 110 0
29.920000 6.820000 30.580000 174 102 108 0
30.140000 6.820000 30.580000 175 106 108 0
30.360000 6.820000 30.580000 174 105 107 0
30.580000 6.820000 30.580000 173 104 106 0
30.800000 6.820000 29.040000 175 106 108 0
31.020000 6.820000 29.040000 175 104 107 0
31.240000 6.820000 29.040000 176 105 108 0
31.460000 6.820000 29.260000 175 104 107 0
31.680000 6.820000 29.260000 174 103 106 0
31.900000 6.820000 29.260000 172 103 105 0
32.120000 6.820000 30.580000 172 103 105 0
32.340000 6.820000 30.580000 173 104 106 0
32.560000 6.820000 29.260000 173 104 106 0
32.780000 6.820000 29.260000 173 102 105 0
33.000000 6.820000 29.260000 173 102 105 0
33.220000 6.820000 29.260000 173 102 105 0
33.440000 6.820000 29.260000 173 102 105 0
33.660000 6.820000 29.260000 172 103 105 0
33.880000 6.820000 30.580000 173 104 106 0
34.100000 6.820000 30.580000 171 104 106 0
34.320000 6.820000 30.580000 171 104 106 0
34.540000 6.820000 30.580000 172 103 105 0
34.760000 6.820000 29.260000 173 104 106 0
34.980000 6.820000 29.260000 172 103 105 0
35.200000 6.820000 29.260000 173 104 106 0
35.420000 6.820000 29.260000 172 105 107 0
35.640000 6.820000 30.580000 172 105 107 0
35.860000 6.820000 29.260000 153 116 121 0
36.080000 6.820000 29.260000 181 144 149 0
36.300000 6.820000 29.040000 198 173 172 0
36.520000 6.820000 29.260000 195 170 169 0
36.740000 6.820000 29.260000 184 127 129 0
36.960000 6.820000 29.260000 168 111 113 0
37.180000 6.820000 30.580000 170 109 111 0
0.000000 7.040000 29.260000 167 132 134 0
0.220000 7.040000 29.260000 176 137 137 0
0.440000 7.040000 29.260000 177 138 138 0
0.660000 7.040000 29.260000 180 138 137 0
0.880000 7.040000 29.260000 180 138 137 0
1.100000 7.040000 29.260000 184 135 133 0
1.320000 7.040000 29.260000 184 135 133 0
1.540000 7.040000 29.260000 184 134 132 0
1.760000 7.040000 29.260000 184 134 132 0
1.980000 7.040000 29.260000 184 132 131 0
2.200000 7.040000 29.260000 185 133 132 0
2.420000 7.040000 29.260000 185 133 132 0
2.640000 7.040000 29.260000 183 131 130 0
2.860000 7.040000 29.260000 185 131 128 0
3.080000 7.040000 29.260000 184 130 127 0
3.300000 7.040000 29.260000 183 131 128 0
3.520000 7.040000 29.260000 183 131 128 0
3.740000 7.040000 30.580000 187 133 130 0
3.960000 7.040000 29.260000 188 134 131 0
4.180000 7.040000 30.580000 186 136 134 0
4.400000 7.040000 30.580000 186 136 134 0
4.620000 7.040000 30.580000 187 137 133 0
4.840000 7.040000 30.580000 189 139 135 0
5.060000 7.040000 30.580000 193 139 134 0
5.280000 7.040000 30.580000 195 141 136 0
5.500000 7.040000 30.580000 196 144 141 0
5.720000 7.040000 30.580000 199 147 144 0
5.940000 7.040000 30.580000 200 150 146 0
6.160000 7.040000 30.580000 200 150 146 0
6.380000 7.040000 30.580000 201 152 143 0
6.600000 7.040000 30.580000 203 154 145 0
6.820000 7.040000 30.800000 204 156 147 0
7.040000 7.040000 30.800000 204 156 147 0
7.260000 7.040000 30.800000 204 159 151 0
7.480000 7.040000 30.800000 204 159 151 0
7.700000 7.040000 30.800000 206 158 149 0
7.920000 7.040000 30.800000 208 160 151 0
8.140000 7.040000 30.800000 210 160 148 0
8.360000 7.040000 30.800000 207 157 145 0
8.580000 7.040000 30.800000 208 153 145 0
8.800000 7.040000 30.800000 203 148 140 0
9.020000 7.040000 30.800000 208 140 134 0
9.240000 7.040000 30.800000 195 127 121 0
9.460000 7.040000 30.800000 188 120 114 0
9.680000 7.040000 30.800000 187 119 113 0
9.900000 7.040000 31.020000 187 119 113 0
10.120000 7.040000 31.020000 187 119 113 0
10.340000 7.040000 31.020000 186 120 116 0
10.560000 7.040000 29.920000 185 119 115 0
10.780000 7.040000 29.920000 186 122 118 0
11.000000 7.040000 29.920000 186 122 118 0
11.220000 7.040000 31.460000 185 121 117 0
11.440000 7.040000 31.460000 185 121 117 0
11.660000 7.040000 32.560000 183 119 115 0
11.880000 7.040000 33.440000 183 119 115 0
12.100000 7.040000 34.540000 184 118 114 0
12.320000 7.040000 34.540000 185 119 115 0
12.540000 7.040000 34.760000 184 120 116 0
12.760000 7.040000 34.760000 185 121 117 0
12.980000 7.040000 34.760000 184 119 118 0
13.200000 7.040000 34.760000 184 119 118 0
13.420000 7.040000 34.980000 183 118 117 0
13.640000 7.040000 34.980000 183 118 117 0
13.860000 7.040000 34.980000 183 118 117 0
14.080000 7.040000 34.980000 184 119 118 0
14.300000 7.040000 34.980000 180 119 119 0
14.520000 7.040000 34.980000 179 118 118 0
14.740000 7.040000 34.980000 181 118 121 0
14.960000 7.040000 35.200000 181 118 121 0
15.180000 7.040000 35.420000 182 119 122 0
15.400000 7.040000 35.420000 181 118 121 0
15.620000 7.040000 34.980000 182 119 123 0
15.840000 7.040000 36.300000 182 119 123 0
16.060000 7.040000 36.080000 180 118 124 0
16.280000 7.040000 36.080000 181 119 125 0
16.500000 7.040000 36.080000 181 119 125 0
16.720000 7.040000 36.080000 181 119 125 0
16.940000 7.040000 36.080000 181 119 125 0
17.160000 7.040000 36.080000 182 120 126 0
17.380000 7.040000 36.080000 181 121 128 0
17.600000 7.040000 36.080000 181 121 128 0
17.820000 7.040000 36.080000 179 119 126 0
18.040000 7.040000 34.760000 180 120 127 0
18.260000 7.040000 36.080000 180 119 129 0
18.480000 7.040000 36.080000 179 118 128 0
18.700000 7.040000 34.760000 177 119 129 0
18.920000 7.040000 34.760000 177 119 129 0
19.140000 7.040000 34.760000 178 120 130 0
19.360000 7.040000 34.760000 178 120 130 0
19.580000 7.040000 34.760000 177 120 134 0
19.800000 7.040000 34.760000 178 121 135 0
20.020000 7.040000 34.760000 179 120 133 0
20.240000 7.040000 34.760000 178 119 132 0
20.460000 7.040000 33.440000 178 121 133 0
20.680000 7.040000 33.440000 178 121 133 0
20.900000 7.040000 33.440000 178 121 135 0
21.120000 7.040000 33.440000 179 122 136 0
21.340000 7.040000 33.440000 175 120 136 0
21.560000 7.040000 31.900000 175 120 136 0
21.780000 7.040000 31.900000 175 120 136 0
22.000000 7.040000 31.900000 176 121 137 0
22.220000 7.040000 31.900000 175 120 136 0
22.440000 7.040000 31.900000 175 120 136 0
22.660000 7.040000 31.900000 175 120 136 0
22.880000 7.040000 31.900000 176 121 137 0
23.100000 7.040000 31.900000 176 121 139 0
23.320000 7.040000 30.580000 177 122 140 0
23.540000 7.040000 30.580000 177 124 141 0
23.760000 7.040000 30.580000 177 124 141 0
23.980000 7.040000 30.580000 177 122 138 0
24.200000 7.040000 30.580000 176 121 137 0
24.420000 7.040000 30.580000 175 122 137 0
24.640000 7.040000 30.580000 175 122 137 0
24.860000 7.040000 30.580000 176 122 141 0
25.080000 7.040000 30.580000 177 123 142 0
25.300000 7.040000 30.580000 175 121 140 0
25.520000 7.040000 30.580000 177 123 142 0
25.740000 7.040000 30.580000 177 124 141 0
25.960000 7.040000 30.580000 178 125 142 0
26.180000 7.040000 30.580000 177 122 138 0
26.400000 7.040000 30.580000 176 121 137 0
26.620000 7.040000 30.580000 182 114 122 0
26.840000 7.040000 30.580000 180 112 120 0
27.060000 7.040000 30.580000 179 108 111 0
27.280000 7.040000 30.580000 177 106 109 0
27.500000 7.040000 30.580000 178 105 109 0
27.720000 7.040000 30.580000 176 103 107 0
27.940000 7.040000 30.580000 177 104 108 0
28.160000 7.040000 30.580000 175 102 106 0
28.380000 7.040000 30.800000 177 104 108 0
28.600000 7.040000 30.800000 176 103 107 0
28.820000 7.040000 30.580000 175 104 107 0
29.040000 7.040000 30.580000 175 104 107 0
29.260000 7.040000 30.580000 175 102 104 0
29.480000 7.040000 30.580000 175 102 104 0
29.700000 7.040000 30.580000 175 102 106 0
29.920000 7.040000 30.580000 174 101 105 0
30.140000 7.040000 30.580000 173 100 104 0
30.360000 7.040000 30.580000 174 101 105 0
30.580000 7.040000 29.040000 172 101 102 0
30.800000 7.040000 29.040000 173 102 103 0
31.020000 7.040000 29.040000 177 102 104 0
31.240000 7.040000 29.260000 176 101 103 0
31.460000 7.040000 29.260000 174 101 103 0
31.680000 7.040000 29.260000 173 100 102 0
31.900000 7.040000 29.260000 173 100 104 0
32.120000 7.040000 30.580000 173 100 104 0
32.340000 7.040000 30.580000 172 101 102 0
32.560000 7.040000 30.580000 171 100 101 0
32.780000 7.040000 29.260000 173 100 102 0
33.000000 7.040000 29.260000 172 99 101 0
33.220000 7.040000 29.260000 172 99 101 0
33.440000 7.040000 29.260000 173 100 102 0
33.660000 7.040000 29.260000 172 101 102 0
33.880000 7.040000 30.580000 172 101 102 0
34.100000 7.040000 30.580000 173 102 103 0
34.320000 7.040000 30.580000 173 102 103 0
34.540000 7.040000 30.580000 174 101 103 0
34.760000 7.040000 29.260000 173 100 102 0
34.980000 7.040000 29.260000 174 101 103 0
35.200000 7.040000 29.260000 174 101 103 0
35.420000 7.040000 29.260000 172 103 105 0
35.640000 7.040000 30.580000 173 104 106 0
35.860000 7.040000 29.260000 152 110 115 0
36.080000 7.040000 29.260000 182 140 145 0
36.300000 7.040000 29.260000 193 173 179 0
36.520000 7.040000 29.260000 193 173 179 0
36.740000 7.040000 29.260000 187 127 130 0
36.960000 7.040000 29.260000 170 110 113 0
37.180000 7.040000 30.580000 171 106 109 0
0.000000 7.260000 29.260000 176 141 143 0
0.220000 7.260000 29.260000 181 142 142 0
0.440000 7.260000 29.260000 180 141 141 0
0.660000 7.260000 29.260000 182 140 139 0
0.880000 7.260000 29.260000 181 139 138 0
1.100000 7.260000 29.260000 185 136 134 0
1.320000 7.260000 29.260000 183 134 132 0
1.540000 7.260000 29.260000 185 135 133 0
1.760000 7.260000 29.260000 184 134 132 0
1.980000 7.260000 29.260000 185 133 132 0
2.200000 7.260000 29.260000 184 132 131 0
2.420000 7.260000 29.260000 183 131 130 0
2.640000 7.260000 29.260000 182 130 129 0
2.860000 7.260000 29.260000 183 129 126 0
3.080000 7.260000 29.260000 184 130 127 0
3.300000 7.260000 29.260000 182 130 127 0
3.520000 7.260000 29.260000 181 129 126 0
3.740000 7.260000 29.260000 184 130 127 0
3.960000 7.260000 29.260000 185 131 128 0
4.180000 7.260000 30.580000 183 133 131 0
4.400000 7.260000 30.580000 183 133 131 0
4.620000 7.260000 30.580000 185 135 131 0
4.840000 7.260000 30.580000 186 136 132 0
5.060000 7.260000 30.580000 190 136 131 0
5.280000 7.260000 30.580000 192 138 133 0
5.500000 7.260000 30.580000 192 140 137 0
5.720000 7.260000 30.580000 194 142 139 0
5.940000 7.260000 30.580000 195 145 141 0
6.160000 7.260000 30.580000 196 146 142 0
6.380000 7.260000 30.580000 196 147 138 0
6.600000 7.260000 30.580000 199 150 141 0
6.820000 7.260000 30.800000 198 150 141 0
7.040000 7.260000 30.800000 199 151 142 0
7.260000 7.260000 30.800000 199 154 146 0
7.480000 7.260000 30.800000 198 153 145 0
7.700000 7.260000 30.800000 201 153 144 0
7.920000 7.260000 30.800000 203 155 146 0
8.140000 7.260000 30.800000 203 153 141 0
8.360000 7.260000 30.800000 201 151 139 0
8.580000 7.260000 30.800000 201 146 138 0
8.800000 7.260000 30.800000 193 138 130 0
9.020000 7.260000 30.800000 191 123 117 0
9.240000 7.260000 30.800000 186 118 112 0
9.460000 7.260000 30.800000 186 118 112 0
9.680000 7.260000 30.800000 185 117 111 0
9.900000 7.260000 31.020000 185 117 111 0
10.120000 7.260000 31.020000 185 117 111 0
10.340000 7.260000 31.020000 183 117 113 0
10.560000 7.260000 29.920000 186 120 116 0
10.780000 7.260000 29.920000 186 122 118 0
11.000000 7.260000 29.920000 185 121 117 0
11.220000 7.260000 30.140000 185 121 117 0
11.440000 7.260000 31.460000 185 121 117 0
11.660000 7.260000 31.240000 182 118 114 0
11.880000 7.260000 33.440000 182 118 114 0
12.100000 7.260000 34.540000 183 117 113 0
12.320000 7.260000 34.540000 184 118 114 0
12.540000 7.260000 34.760000 182 118 114 0
12.760000 7.260000 34.760000 183 119 115 0
12.980000 7.260000 34.760000 183 118 117 0
13.200000 7.260000 34.980000 182 117 116 0
13.420000 7.260000 34.980000 182 117 116 0
13.640000 7.260000 34.980000 182 117 116 0
13.860000 7.260000 34.980000 183 118 117 0
14.080000 7.260000 34.980000 181 116 115 0
14.300000 7.260000 35.200000 178 117 117 0
14.520000 7.260000 35.200000 180 119 119 0
