ply
format ascii 1.0
element vertex 1120
property float x
property float y
property float z
property uchar red
property uchar green
property uchar blue
property uchar alpha
end_header
36.740000 2.860000 27.940000 240 241 240 0
36.960000 2.860000 27.940000 240 241 240 0
37.180000 2.860000 27.940000 240 241 240 0
0.000000 3.080000 27.940000 189 127 133 0
0.220000 3.080000 27.940000 184 122 128 0
0.440000 3.080000 27.940000 185 122 128 0
0.660000 3.080000 27.940000 184 121 127 0
0.880000 3.080000 29.260000 184 122 128 0
1.100000 3.080000 29.260000 183 121 127 0
1.320000 3.080000 29.480000 181 121 128 0
1.540000 3.080000 29.480000 182 122 129 0
1.760000 3.080000 29.480000 181 119 125 0
1.980000 3.080000 29.480000 181 119 125 0
2.200000 3.080000 27.940000 183 120 126 0
2.420000 3.080000 27.940000 183 120 126 0
2.640000 3.080000 27.940000 183 121 127 0
2.860000 3.080000 27.940000 180 118 124 0
3.080000 3.080000 29.260000 180 120 125 0
3.300000 3.080000 29.260000 179 119 124 0
3.520000 3.080000 29.260000 183 121 127 0
3.740000 3.080000 29.260000 182 120 126 0
3.960000 3.080000 29.260000 183 120 126 0
4.180000 3.080000 29.260000 182 119 125 0
4.400000 3.080000 29.260000 182 120 126 0
4.620000 3.080000 29.260000 181 119 125 0
4.840000 3.080000 29.260000 182 122 127 0
5.060000 3.080000 29.260000 186 126 131 0
5.280000 3.080000 27.940000 177 160 171 0
5.500000 3.080000 27.940000 209 192 203 0
5.720000 3.080000 27.940000 212 199 204 0
5.940000 3.080000 29.260000 204 191 196 0
6.160000 3.080000 29.260000 206 181 182 0
6.380000 3.080000 29.260000 198 173 174 0
6.600000 3.080000 29.260000 196 161 162 0
6.820000 3.080000 29.260000 190 155 156 0
7.040000 3.080000 27.940000 184 158 164 0
7.260000 3.080000 27.940000 191 165 171 0
7.480000 3.080000 28.160000 199 182 185 0
7.700000 3.080000 28.160000 200 183 186 0
7.920000 3.080000 27.940000 201 166 168 0
8.140000 3.080000 29.260000 185 150 152 0
8.360000 3.080000 29.260000 177 142 143 0
8.580000 3.080000 29.260000 179 144 145 0
8.800000 3.080000 29.260000 175 151 160 0
9.020000 3.080000 29.260000 192 168 177 0
9.240000 3.080000 29.260000 181 194 208 0
9.460000 3.080000 29.260000 194 207 221 0
9.680000 3.080000 29.260000 194 209 223 0
9.900000 3.080000 29.480000 195 210 224 0
10.120000 3.080000 29.260000 195 211 222 0
10.340000 3.080000 29.260000 195 211 222 0
10.560000 3.080000 27.940000 195 212 227 0
10.780000 3.080000 27.940000 197 214 229 0
11.000000 3.080000 27.940000 196 216 235 0
11.220000 3.080000 27.940000 197 217 236 0
11.440000 3.080000 29.480000 196 221 238 0
11.660000 3.080000 27.940000 198 223 240 0
11.880000 3.080000 27.940000 193 231 237 0
12.100000 3.080000 27.940000 199 237 243 0
12.320000 3.080000 27.940000 202 240 238 0
12.540000 3.080000 27.940000 204 242 240 0
12.760000 3.080000 27.940000 223 238 238 0
12.980000 3.080000 27.940000 226 241 241 0
13.200000 3.080000 27.940000 237 241 239 0
13.420000 3.080000 28.160000 238 242 240 0
13.640000 3.080000 27.940000 240 241 240 0
13.860000 3.080000 27.940000 240 241 240 0
14.080000 3.080000 27.940000 240 241 240 0
14.300000 3.080000 27.940000 240 241 240 0
14.520000 3.080000 27.940000 238 242 240 0
14.740000 3.080000 27.940000 238 242 240 0
14.960000 3.080000 27.940000 240 241 240 0
15.180000 3.080000 27.940000 240 241 240 0
15.400000 3.080000 27.940000 240 241 240 0
15.620000 3.080000 27.940000 240 241 240 0
15.840000 3.080000 27.940000 240 241 240 0
16.060000 3.080000 29.260000 240 241 240 0
16.280000 3.080000 29.260000 240 241 240 0
16.500000 3.080000 29.260000 240 241 240 0
16.720000 3.080000 29.260000 240 241 240 0
16.940000 3.080000 27.940000 240 241 240 0
17.160000 3.080000 27.940000 240 241 240 0
17.380000 3.080000 27.940000 240 241 240 0
17.600000 3.080000 27.940000 240 241 240 0
17.820000 3.080000 27.940000 240 241 240 0
18.040000 3.080000 27.940000 240 241 240 0
18.260000 3.080000 27.940000 240 241 240 0
18.480000 3.080000 27.940000 240 241 240 0
18.700000 3.080000 27.940000 240 241 240 0
18.920000 3.080000 27.940000 240 241 240 0
19.140000 3.080000 27.940000 240 241 240 0
19.360000 3.080000 27.940000 240 241 240 0
19.580000 3.080000 27.940000 240 241 240 0
19.800000 3.080000 29.260000 240 241 240 0
20.020000 3.080000 29.260000 240 241 240 0
20.240000 3.080000 29.260000 240 241 240 0
20.460000 3.080000 29.260000 240 241 240 0
20.680000 3.080000 27.940000 240 241 240 0
20.900000 3.080000 27.940000 240 241 240 0
21.120000 3.080000 27.940000 240 241 240 0
21.340000 3.080000 27.940000 240 241 240 0
21.560000 3.080000 27.940000 240 241 240 0
21.780000 3.080000 27.940000 240 241 240 0
22.000000 3.080000 27.940000 240 241 240 0
22.220000 3.080000 27.940000 240 241 240 0
22.440000 3.080000 26.620000 240 241 240 0
22.660000 3.080000 22.440000 240 241 240 0
22.880000 3.080000 21.120000 240 241 240 0
23.100000 3.080000 22.440000 240 241 240 0
23.320000 3.080000 23.760000 240 241 240 0
23.540000 3.080000 26.400000 240 241 240 0
23.760000 3.080000 29.260000 240 241 240 0
23.980000 3.080000 30.580000 240 241 240 0
24.200000 3.080000 29.260000 240 241 240 0
24.420000 3.080000 29.260000 240 241 240 0
24.640000 3.080000 29.260000 240 241 240 0
24.860000 3.080000 29.260000 240 241 240 0
25.080000 3.080000 29.260000 240 241 240 0
25.300000 3.080000 29.260000 240 241 240 0
25.520000 3.080000 29.260000 240 241 240 0
25.740000 3.080000 29.260000 240 241 240 0
25.960000 3.080000 29.260000 239 240 239 0
26.180000 3.080000 29.260000 240 241 240 0
26.400000 3.080000 29.260000 240 241 240 0
26.620000 3.080000 29.260000 240 241 240 0
26.840000 3.080000 29.260000 239 240 239 0
27.060000 3.080000 29.260000 239 240 239 0
27.280000 3.080000 29.260000 240 241 240 0
27.500000 3.080000 29.260000 240 241 240 0
27.720000 3.080000 29.260000 240 241 240 0
27.940000 3.080000 29.260000 240 241 240 0
28.160000 3.080000 29.260000 240 241 240 0
28.380000 3.080000 29.260000 240 241 240 0
28.600000 3.080000 29.260000 240 241 240 0
28.820000 3.080000 29.260000 240 241 240 0
29.040000 3.080000 29.260000 240 241 240 0
29.260000 3.080000 29.260000 240 241 240 0
29.480000 3.080000 29.260000 240 241 240 0
29.700000 3.080000 29.260000 240 241 240 0
29.920000 3.080000 29.260000 240 241 240 0
30.140000 3.080000 29.480000 240 241 240 0
30.360000 3.080000 29.260000 240 241 240 0
30.580000 3.080000 29.260000 240 241 240 0
30.800000 3.080000 29.260000 240 241 240 0
31.020000 3.080000 29.260000 240 241 240 0
31.240000 3.080000 29.260000 240 241 240 0
31.460000 3.080000 29.260000 240 241 240 0
31.680000 3.080000 27.940000 240 241 240 0
31.900000 3.080000 27.940000 240 241 240 0
32.120000 3.080000 20.900000 240 241 240 0
32.340000 3.080000 7.040000 240 241 240 0
34.760000 3.080000 5.720000 240 241 240 0
34.980000 3.080000 19.580000 240 241 240 0
35.200000 3.080000 26.620000 240 241 240 0
35.420000 3.080000 27.940000 240 241 240 0
35.640000 3.080000 27.940000 240 241 240 0
35.860000 3.080000 27.940000 240 241 240 0
36.080000 3.080000 27.940000 240 241 240 0
36.300000 3.080000 27.940000 240 241 240 0
36.520000 3.080000 27.940000 240 241 240 0
36.740000 3.080000 27.940000 240 241 240 0
36.960000 3.080000 27.940000 240 241 240 0
37.180000 3.080000 27.940000 240 241 240 0
0.000000 3.300000 27.940000 181 119 125 0
0.220000 3.300000 27.940000 179 117 123 0
0.440000 3.300000 29.260000 181 118 124 0
0.660000 3.300000 29.260000 180 117 123 0
0.880000 3.300000 29.260000 180 118 124 0
1.100000 3.300000 29.260000 178 116 122 0
1.320000 3.300000 29.260000 176 116 123 0
1.540000 3.300000 29.260000 177 117 124 0
1.760000 3.300000 29.260000 178 116 122 0
1.980000 3.300000 29.260000 177 115 121 0
2.200000 3.300000 29.260000 178 115 121 0
2.420000 3.300000 29.260000 179 116 122 0
2.640000 3.300000 29.260000 178 116 122 0
2.860000 3.300000 29.260000 176 114 120 0
3.080000 3.300000 29.260000 177 117 122 0
3.300000 3.300000 29.260000 176 116 121 0
3.520000 3.300000 29.260000 178 116 122 0
3.740000 3.300000 29.260000 178 116 122 0
3.960000 3.300000 29.260000 180 117 123 0
4.180000 3.300000 29.260000 178 115 121 0
4.400000 3.300000 29.260000 178 116 122 0
4.620000 3.300000 29.480000 178 116 122 0
4.840000 3.300000 29.260000 176 116 121 0
5.060000 3.300000 29.260000 179 119 124 0
5.280000 3.300000 29.260000 168 151 162 0
5.500000 3.300000 27.940000 199 182 193 0
5.720000 3.300000 29.260000 209 196 201 0
5.940000 3.300000 29.260000 202 189 194 0
6.160000 3.300000 29.260000 199 174 175 0
6.380000 3.300000 29.260000 192 167 168 0
6.600000 3.300000 29.260000 189 154 155 0
6.820000 3.300000 29.260000 183 148 149 0
7.040000 3.300000 29.260000 178 152 158 0
7.260000 3.300000 27.940000 188 162 168 0
7.480000 3.300000 28.160000 194 177 180 0
7.700000 3.300000 27.940000 196 179 182 0
7.920000 3.300000 29.260000 195 160 162 0
8.140000 3.300000 29.260000 181 146 148 0
8.360000 3.300000 29.260000 177 142 143 0
8.580000 3.300000 29.260000 178 143 144 0
8.800000 3.300000 29.260000 173 149 158 0
9.020000 3.300000 29.260000 177 153 162 0
9.240000 3.300000 29.260000 165 178 192 0
9.460000 3.300000 29.260000 181 194 208 0
9.680000 3.300000 29.260000 190 205 219 0
9.900000 3.300000 29.260000 193 208 222 0
10.120000 3.300000 29.260000 194 210 221 0
10.340000 3.300000 29.260000 195 211 222 0
10.560000 3.300000 29.260000 194 211 226 0
10.780000 3.300000 29.260000 197 214 229 0
11.000000 3.300000 29.260000 195 215 234 0
11.220000 3.300000 29.260000 196 216 235 0
11.440000 3.300000 29.260000 195 220 237 0
11.660000 3.300000 27.940000 196 221 238 0
11.880000 3.300000 27.940000 192 230 236 0
12.100000 3.300000 27.940000 196 234 240 0
12.320000 3.300000 27.940000 201 239 237 0
12.540000 3.300000 27.940000 203 241 239 0
12.760000 3.300000 27.940000 221 236 236 0
12.980000 3.300000 27.940000 225 240 240 0
13.200000 3.300000 27.940000 236 240 238 0
13.420000 3.300000 27.940000 238 242 240 0
13.640000 3.300000 27.940000 240 241 240 0
13.860000 3.300000 27.940000 240 241 240 0
14.080000 3.300000 27.940000 240 241 240 0
14.300000 3.300000 27.940000 240 241 240 0
14.520000 3.300000 27.940000 238 242 240 0
14.740000 3.300000 27.940000 238 242 240 0
14.960000 3.300000 27.940000 240 241 240 0
15.180000 3.300000 27.940000 240 241 240 0
15.400000 3.300000 27.940000 240 241 240 0
15.620000 3.300000 27.940000 240 241 240 0
15.840000 3.300000 27.940000 240 241 240 0
16.060000 3.300000 27.940000 240 241 240 0
16.280000 3.300000 27.940000 240 241 240 0
16.500000 3.300000 29.260000 240 241 240 0
16.720000 3.300000 27.940000 240 241 240 0
16.940000 3.300000 27.940000 240 241 240 0
17.160000 3.300000 27.940000 240 241 240 0
17.380000 3.300000 29.260000 240 241 240 0
17.600000 3.300000 27.940000 240 241 240 0
17.820000 3.300000 27.940000 240 241 240 0
18.040000 3.300000 27.940000 240 241 240 0
18.260000 3.300000 27.940000 240 241 240 0
18.480000 3.300000 29.260000 240 241 240 0
18.700000 3.300000 27.940000 240 241 240 0
18.920000 3.300000 27.940000 240 241 240 0
19.140000 3.300000 27.940000 240 241 240 0
19.360000 3.300000 27.940000 240 241 240 0
19.580000 3.300000 27.940000 240 241 240 0
19.800000 3.300000 27.940000 240 241 240 0
20.020000 3.300000 27.940000 240 241 240 0
20.240000 3.300000 27.940000 240 241 240 0
20.460000 3.300000 27.940000 240 241 240 0
20.680000 3.300000 27.940000 240 241 240 0
20.900000 3.300000 27.940000 240 241 240 0
21.120000 3.300000 27.940000 240 241 240 0
21.340000 3.300000 27.940000 240 241 240 0
21.560000 3.300000 27.940000 240 241 240 0
21.780000 3.300000 27.940000 240 241 240 0
22.000000 3.300000 27.940000 240 241 240 0
22.220000 3.300000 27.940000 240 241 240 0
22.440000 3.300000 27.940000 240 241 240 0
22.660000 3.300000 27.940000 240 241 240 0
22.880000 3.300000 27.940000 240 241 240 0
23.100000 3.300000 27.940000 240 241 240 0
23.320000 3.300000 29.260000 240 241 240 0
23.540000 3.300000 30.580000 240 241 240 0
23.760000 3.300000 30.580000 240 241 240 0
23.980000 3.300000 30.800000 240 241 240 0
24.200000 3.300000 29.260000 240 241 240 0
24.420000 3.300000 29.260000 240 241 240 0
24.640000 3.300000 29.260000 240 241 240 0
24.860000 3.300000 29.260000 240 241 240 0
25.080000 3.300000 29.260000 240 241 240 0
25.300000 3.300000 29.260000 240 241 240 0
25.520000 3.300000 29.260000 240 241 240 0
25.740000 3.300000 29.260000 239 240 239 0
25.960000 3.300000 29.260000 239 240 239 0
26.180000 3.300000 29.260000 239 240 239 0
26.400000 3.300000 29.260000 240 241 240 0
26.620000 3.300000 29.260000 240 241 240 0
26.840000 3.300000 29.260000 239 240 239 0
27.060000 3.300000 29.260000 239 240 239 0
27.280000 3.300000 29.260000 239 240 239 0
27.500000 3.300000 29.260000 240 241 240 0
27.720000 3.300000 29.260000 240 241 240 0
27.940000 3.300000 29.260000 240 241 240 0
28.160000 3.300000 29.260000 240 241 240 0
28.380000 3.300000 29.260000 240 241 240 0
28.600000 3.300000 29.260000 240 241 240 0
28.820000 3.300000 29.260000 240 241 240 0
29.040000 3.300000 29.260000 240 241 240 0
29.260000 3.300000 29.260000 240 241 240 0
29.480000 3.300000 29.260000 240 241 240 0
29.700000 3.300000 29.260000 240 241 240 0
29.920000 3.300000 29.260000 240 241 240 0
30.140000 3.300000 29.480000 240 241 240 0
30.360000 3.300000 29.260000 240 241 240 0
30.580000 3.300000 29.260000 240 241 240 0
30.800000 3.300000 27.940000 240 241 240 0
31.020000 3.300000 27.940000 240 241 240 0
31.240000 3.300000 27.940000 240 241 240 0
31.460000 3.300000 27.940000 240 241 240 0
31.680000 3.300000 27.940000 240 241 240 0
31.900000 3.300000 27.940000 240 241 240 0
32.120000 3.300000 19.580000 240 241 240 0
32.340000 3.300000 5.720000 240 241 240 0
34.760000 3.300000 2.860000 240 241 240 0
34.980000 3.300000 9.900000 240 241 240 0
35.200000 3.300000 18.260000 240 241 240 0
35.420000 3.300000 23.760000 240 241 240 0
35.640000 3.300000 26.620000 240 241 240 0
35.860000 3.300000 27.940000 240 241 240 0
36.080000 3.300000 27.940000 240 241 240 0
36.300000 3.300000 28.160000 240 241 240 0
36.520000 3.300000 27.940000 240 241 240 0
36.740000 3.300000 27.940000 240 241 240 0
36.960000 3.300000 27.940000 240 241 240 0
37.180000 3.300000 27.940000 240 241 240 0
0.000000 3.520000 29.260000 179 113 118 0
0.220000 3.520000 29.260000 179 113 118 0
0.440000 3.520000 29.260000 180 115 118 0
0.660000 3.520000 29.260000 180 115 118 0
0.880000 3.520000 29.260000 180 112 120 0
1.100000 3.520000 29.260000 179 111 119 0
1.320000 3.520000 29.260000 179 113 118 0
1.540000 3.520000 29.260000 178 112 117 0
1.760000 3.520000 29.260000 178 112 117 0
1.980000 3.520000 29.260000 178 112 117 0
2.200000 3.520000 29.260000 178 113 116 0
2.420000 3.520000 29.260000 178 113 116 0
2.640000 3.520000 29.260000 180 113 118 0
2.860000 3.520000 29.260000 180 113 118 0
3.080000 3.520000 29.260000 180 114 119 0
3.300000 3.520000 29.260000 178 112 117 0
3.520000 3.520000 29.260000 176 113 117 0
3.740000 3.520000 29.260000 177 114 118 0
3.960000 3.520000 29.260000 178 113 114 0
4.180000 3.520000 29.260000 179 114 115 0
4.400000 3.520000 29.480000 179 112 117 0
4.620000 3.520000 27.940000 179 112 117 0
4.840000 3.520000 29.260000 179 113 118 0
5.060000 3.520000 29.260000 181 115 120 0
5.280000 3.520000 29.260000 162 138 149 0
5.500000 3.520000 29.260000 200 176 187 0
5.720000 3.520000 29.260000 208 188 194 0
5.940000 3.520000 29.260000 202 182 188 0
6.160000 3.520000 29.260000 198 159 161 0
6.380000 3.520000 29.260000 190 151 153 0
6.600000 3.520000 29.260000 184 142 147 0
6.820000 3.520000 29.260000 179 137 142 0
7.040000 3.520000 29.260000 176 146 149 0
7.260000 3.520000 29.260000 187 157 160 0
7.480000 3.520000 29.260000 199 172 176 0
7.700000 3.520000 29.260000 198 171 175 0
7.920000 3.520000 29.260000 195 156 158 0
8.140000 3.520000 29.260000 181 142 144 0
8.360000 3.520000 29.260000 179 140 142 0
8.580000 3.520000 29.260000 179 140 142 0
8.800000 3.520000 29.260000 178 143 145 0
9.020000 3.520000 29.260000 179 144 146 0
9.240000 3.520000 29.260000 169 148 162 0
9.460000 3.520000 29.260000 187 166 180 0
9.680000 3.520000 29.260000 179 195 206 0
9.900000 3.520000 29.260000 192 208 219 0
10.120000 3.520000 29.260000 191 210 222 0
10.340000 3.520000 29.260000 191 210 222 0
10.560000 3.520000 29.260000 189 211 229 0
10.780000 3.520000 29.260000 191 213 231 0
11.000000 3.520000 29.260000 190 215 233 0
11.220000 3.520000 29.260000 193 218 236 0
11.440000 3.520000 29.260000 193 219 237 0
11.660000 3.520000 29.260000 193 219 237 0
11.880000 3.520000 29.260000 185 228 239 0
12.100000 3.520000 29.260000 190 233 244 0
12.320000 3.520000 27.940000 190 239 239 0
12.540000 3.520000 27.940000 193 242 242 0
12.760000 3.520000 27.940000 209 238 237 0
12.980000 3.520000 27.940000 213 242 241 0
13.200000 3.520000 27.940000 235 239 237 0
13.420000 3.520000 28.160000 237 241 239 0
13.640000 3.520000 28.160000 239 240 239 0
13.860000 3.520000 28.160000 240 241 240 0
14.080000 3.520000 27.940000 240 241 240 0
14.300000 3.520000 27.940000 240 241 240 0
14.520000 3.520000 27.940000 240 241 240 0
14.740000 3.520000 27.940000 240 241 240 0
14.960000 3.520000 27.940000 238 242 240 0
15.180000 3.520000 27.940000 238 242 240 0
15.400000 3.520000 27.940000 240 241 240 0
15.620000 3.520000 27.940000 240 241 240 0
15.840000 3.520000 27.940000 240 241 240 0
16.060000 3.520000 27.940000 240 241 240 0
16.280000 3.520000 27.940000 240 241 240 0
16.500000 3.520000 27.940000 240 241 240 0
16.720000 3.520000 27.940000 238 242 240 0
16.940000 3.520000 27.940000 238 242 240 0
17.160000 3.520000 27.940000 240 241 240 0
17.380000 3.520000 29.260000 240 241 240 0
17.600000 3.520000 27.940000 240 241 240 0
17.820000 3.520000 27.940000 240 241 240 0
18.040000 3.520000 27.940000 240 241 240 0
18.260000 3.520000 27.940000 240 241 240 0
18.480000 3.520000 27.940000 240 241 240 0
18.700000 3.520000 27.940000 240 241 240 0
18.920000 3.520000 27.940000 240 241 240 0
19.140000 3.520000 27.940000 240 241 240 0
19.360000 3.520000 27.940000 240 241 240 0
19.580000 3.520000 27.940000 240 241 240 0
19.800000 3.520000 27.940000 240 241 240 0
20.020000 3.520000 27.940000 240 241 240 0
20.240000 3.520000 27.940000 240 241 240 0
20.460000 3.520000 27.940000 240 241 240 0
20.680000 3.520000 27.940000 240 241 240 0
20.900000 3.520000 27.940000 240 241 240 0
21.120000 3.520000 27.940000 240 241 240 0
21.340000 3.520000 27.940000 240 241 240 0
21.560000 3.520000 27.940000 238 242 240 0
21.780000 3.520000 27.940000 238 242 240 0
22.000000 3.520000 27.940000 238 242 240 0
22.220000 3.520000 27.940000 238 242 240 0
22.440000 3.520000 27.940000 238 242 240 0
22.660000 3.520000 27.940000 238 242 240 0
22.880000 3.520000 27.940000 238 242 240 0
23.100000 3.520000 27.940000 238 242 240 0
23.320000 3.520000 29.260000 238 242 240 0
23.540000 3.520000 29.260000 238 242 240 0
23.760000 3.520000 29.260000 238 242 240 0
23.980000 3.520000 29.260000 238 242 240 0
24.200000 3.520000 27.940000 238 242 240 0
24.420000 3.520000 27.940000 238 242 240 0
24.640000 3.520000 27.940000 240 241 240 0
24.860000 3.520000 29.260000 240 241 240 0
25.080000 3.520000 29.260000 238 242 240 0
25.300000 3.520000 29.260000 238 242 240 0
25.520000 3.520000 29.260000 238 242 240 0
25.740000 3.520000 29.260000 237 241 239 0
25.960000 3.520000 29.260000 237 241 239 0
26.180000 3.520000 29.260000 237 241 239 0
26.400000 3.520000 29.260000 239 240 239 0
26.620000 3.520000 29.260000 239 240 239 0
26.840000 3.520000 29.260000 237 241 239 0
27.060000 3.520000 29.260000 237 241 239 0
27.280000 3.520000 29.260000 237 241 239 0
27.500000 3.520000 29.260000 237 241 239 0
27.720000 3.520000 29.260000 239 240 239 0
27.940000 3.520000 29.260000 240 241 240 0
28.160000 3.520000 29.260000 240 241 240 0
28.380000 3.520000 29.260000 240 241 240 0
28.600000 3.520000 29.260000 240 241 240 0
28.820000 3.520000 29.260000 240 241 240 0
29.040000 3.520000 29.260000 240 241 240 0
29.260000 3.520000 29.260000 240 241 240 0
29.480000 3.520000 29.260000 240 241 240 0
29.700000 3.520000 29.260000 240 241 240 0
29.920000 3.520000 29.260000 240 241 240 0
30.140000 3.520000 29.260000 240 241 240 0
30.360000 3.520000 29.480000 240 241 240 0
30.580000 3.520000 27.940000 240 241 240 0
30.800000 3.520000 27.940000 240 241 240 0
31.020000 3.520000 27.940000 240 241 240 0
31.240000 3.520000 27.940000 240 241 240 0
31.460000 3.520000 27.940000 240 241 240 0
31.680000 3.520000 27.940000 240 241 240 0
31.900000 3.520000 26.620000 240 241 240 0
32.120000 3.520000 20.900000 240 241 240 0
32.340000 3.520000 8.580000 240 241 240 0
32.560000 3.520000 1.540000 240 241 240 0
34.980000 3.520000 1.540000 240 241 240 0
35.200000 3.520000 7.040000 240 241 240 0
35.420000 3.520000 16.940000 240 241 240 0
35.640000 3.520000 22.440000 240 241 240 0
35.860000 3.520000 26.620000 240 241 240 0
36.080000 3.520000 27.940000 240 241 240 0
36.300000 3.520000 27.940000 240 241 240 0
36.520000 3.520000 27.940000 240 241 240 0
36.740000 3.520000 26.620000 240 241 240 0
36.960000 3.520000 26.620000 240 241 240 0
37.180000 3.520000 26.620000 240 241 240 0
0.000000 3.740000 29.260000 176 110 115 0
0.220000 3.740000 29.260000 176 110 115 0
0.440000 3.740000 29.260000 178 113 116 0
0.660000 3.740000 29.260000 178 113 116 0
0.880000 3.740000 29.260000 178 110 118 0
1.100000 3.740000 29.260000 178 110 118 0
1.320000 3.740000 29.260000 176 110 115 0
1.540000 3.740000 29.260000 175 109 114 0
1.760000 3.740000 29.260000 176 110 115 0
1.980000 3.740000 30.580000 176 110 115 0
2.200000 3.740000 29.260000 175 110 113 0
2.420000 3.740000 29.260000 177 112 115 0
2.640000 3.740000 29.260000 178 111 116 0
2.860000 3.740000 29.260000 178 111 116 0
3.080000 3.740000 29.260000 177 111 116 0
3.300000 3.740000 29.260000 177 111 116 0
3.520000 3.740000 29.260000 175 112 116 0
3.740000 3.740000 29.260000 175 112 116 0
3.960000 3.740000 29.260000 177 112 113 0
4.180000 3.740000 29.260000 176 111 112 0
4.400000 3.740000 29.260000 177 110 115 0
4.620000 3.740000 29.480000 177 110 115 0
4.840000 3.740000 29.260000 176 110 115 0
5.060000 3.740000 29.260000 179 113 118 0
5.280000 3.740000 29.260000 158 134 145 0
5.500000 3.740000 29.260000 191 167 178 0
5.720000 3.740000 29.260000 204 184 190 0
5.940000 3.740000 29.260000 194 174 180 0
6.160000 3.740000 29.260000 185 146 148 0
6.380000 3.740000 29.260000 176 137 139 0
6.600000 3.740000 29.260000 176 134 139 0
6.820000 3.740000 29.260000 174 132 137 0
7.040000 3.740000 29.260000 169 139 142 0
7.260000 3.740000 29.260000 184 154 157 0
7.480000 3.740000 29.260000 195 168 172 0
7.700000 3.740000 29.260000 192 165 169 0
7.920000 3.740000 29.260000 191 152 154 0
8.140000 3.740000 29.260000 179 140 142 0
8.360000 3.740000 29.260000 175 136 138 0
8.580000 3.740000 29.260000 178 139 141 0
8.800000 3.740000 29.260000 177 142 144 0
9.020000 3.740000 29.260000 175 140 142 0
9.240000 3.740000 29.260000 160 139 153 0
9.460000 3.740000 29.260000 166 145 159 0
9.680000 3.740000 29.260000 163 179 190 0
9.900000 3.740000 29.260000 181 197 208 0
10.120000 3.740000 29.260000 190 209 221 0
10.340000 3.740000 29.260000 191 210 222 0
10.560000 3.740000 29.260000 188 210 228 0
10.780000 3.740000 29.260000 189 211 229 0
11.000000 3.740000 29.260000 188 213 231 0
11.220000 3.740000 29.260000 190 215 233 0
11.440000 3.740000 29.260000 191 217 235 0
11.660000 3.740000 29.260000 194 220 238 0
11.880000 3.740000 29.260000 184 227 238 0
12.100000 3.740000 29.260000 187 230 241 0
12.320000 3.740000 29.260000 188 237 237 0
12.540000 3.740000 27.940000 191 240 240 0
12.760000 3.740000 27.940000 208 237 236 0
12.980000 3.740000 27.940000 212 241 240 0
13.200000 3.740000 27.940000 234 238 236 0
13.420000 3.740000 28.160000 236 240 238 0
13.640000 3.740000 28.160000 239 240 239 0
13.860000 3.740000 28.160000 239 240 239 0
14.080000 3.740000 27.940000 240 241 240 0
14.300000 3.740000 27.940000 240 241 240 0
14.520000 3.740000 27.940000 240 241 240 0
14.740000 3.740000 27.940000 240 241 240 0
14.960000 3.740000 27.940000 238 242 240 0
15.180000 3.740000 27.940000 238 242 240 0
15.400000 3.740000 27.940000 240 241 240 0
15.620000 3.740000 27.940000 240 241 240 0
15.840000 3.740000 27.940000 240 241 240 0
16.060000 3.740000 27.940000 240 241 240 0
16.280000 3.740000 27.940000 240 241 240 0
16.500000 3.740000 27.940000 240 241 240 0
16.720000 3.740000 27.940000 238 242 240 0
16.940000 3.740000 27.940000 238 242 240 0
17.160000 3.740000 27.940000 240 241 240 0
17.380000 3.740000 27.940000 240 241 240 0
17.600000 3.740000 27.940000 240 241 240 0
17.820000 3.740000 27.940000 240 241 240 0
18.040000 3.740000 27.940000 240 241 240 0
18.260000 3.740000 27.940000 240 241 240 0
18.480000 3.740000 27.940000 240 241 240 0
18.700000 3.740000 27.940000 240 241 240 0
18.920000 3.740000 27.940000 240 241 240 0
19.140000 3.740000 27.940000 240 241 240 0
19.360000 3.740000 27.940000 240 241 240 0
19.580000 3.740000 27.940000 240 241 240 0
19.800000 3.740000 27.940000 240 241 240 0
20.020000 3.740000 27.940000 240 241 240 0
20.240000 3.740000 27.940000 240 241 240 0
20.460000 3.740000 27.940000 240 241 240 0
20.680000 3.740000 27.940000 240 241 240 0
20.900000 3.740000 29.260000 240 241 240 0
21.120000 3.740000 27.940000 240 241 240 0
21.340000 3.740000 27.940000 240 241 240 0
21.560000 3.740000 27.940000 238 242 240 0
21.780000 3.740000 27.940000 238 242 240 0
22.000000 3.740000 27.940000 238 242 240 0
22.220000 3.740000 27.940000 238 242 240 0
22.440000 3.740000 27.940000 238 242 240 0
22.660000 3.740000 27.940000 238 242 240 0
22.880000 3.740000 27.940000 238 242 240 0
23.100000 3.740000 27.940000 238 242 240 0
23.320000 3.740000 27.940000 238 242 240 0
23.540000 3.740000 27.940000 238 242 240 0
23.760000 3.740000 27.940000 238 242 240 0
23.980000 3.740000 27.940000 238 242 240 0
24.200000 3.740000 27.940000 238 242 240 0
24.420000 3.740000 27.940000 238 242 240 0
24.640000 3.740000 27.940000 240 241 240 0
24.860000 3.740000 29.260000 240 241 240 0
25.080000 3.740000 29.260000 237 241 239 0
25.300000 3.740000 29.260000 238 242 240 0
25.520000 3.740000 29.260000 237 241 239 0
25.740000 3.740000 29.260000 237 241 239 0
25.960000 3.740000 30.800000 237 241 239 0
26.180000 3.740000 29.260000 237 241 239 0
26.400000 3.740000 29.260000 239 240 239 0
26.620000 3.740000 29.260000 239 240 239 0
26.840000 3.740000 29.260000 237 241 239 0
27.060000 3.740000 29.260000 237 241 239 0
27.280000 3.740000 29.260000 237 241 239 0
27.500000 3.740000 29.260000 237 241 239 0
27.720000 3.740000 29.260000 239 240 239 0
27.940000 3.740000 29.260000 240 241 240 0
28.160000 3.740000 29.260000 240 241 240 0
28.380000 3.740000 29.260000 240 241 240 0
28.600000 3.740000 29.260000 240 241 240 0
28.820000 3.740000 29.260000 240 241 240 0
29.040000 3.740000 29.260000 240 241 240 0
29.260000 3.740000 29.260000 240 241 240 0
29.480000 3.740000 29.260000 240 241 240 0
29.700000 3.740000 29.260000 240 241 240 0
29.920000 3.740000 29.260000 240 241 240 0
30.140000 3.740000 29.260000 240 241 240 0
30.360000 3.740000 29.480000 240 241 240 0
30.580000 3.740000 27.940000 240 241 240 0
30.800000 3.740000 27.940000 240 241 240 0
31.020000 3.740000 27.940000 240 241 240 0
31.240000 3.740000 27.940000 240 241 240 0
31.460000 3.740000 27.940000 240 241 240 0
31.680000 3.740000 27.940000 240 241 240 0
31.900000 3.740000 27.940000 240 241 240 0
32.120000 3.740000 23.760000 240 241 240 0
32.340000 3.740000 14.080000 240 241 240 0
32.560000 3.740000 4.400000 240 241 240 0
34.980000 3.740000 0.220000 240 241 240 0
35.200000 3.740000 0.220000 240 241 240 0
35.420000 3.740000 7.260000 240 241 240 0
35.640000 3.740000 15.400000 240 241 240 0
35.860000 3.740000 22.440000 240 241 240 0
36.080000 3.740000 26.620000 240 241 240 0
36.300000 3.740000 26.620000 240 241 240 0
36.520000 3.740000 26.620000 240 241 240 0
36.740000 3.740000 26.620000 240 241 240 0
36.960000 3.740000 26.620000 240 241 240 0
37.180000 3.740000 26.620000 240 241 240 0
0.000000 3.960000 29.260000 175 108 112 0
0.220000 3.960000 29.260000 176 109 113 0
0.440000 3.960000 29.260000 177 110 112 0
0.660000 3.960000 29.260000 177 110 112 0
0.880000 3.960000 29.260000 178 109 111 0
1.100000 3.960000 29.260000 178 109 111 0
1.320000 3.960000 29.260000 177 110 112 0
1.540000 3.960000 30.580000 175 108 110 0
1.760000 3.960000 30.580000 174 107 111 0
1.980000 3.960000 30.580000 174 107 111 0
2.200000 3.960000 29.260000 175 108 110 0
2.420000 3.960000 29.480000 176 109 111 0
2.640000 3.960000 29.260000 178 109 111 0
2.860000 3.960000 29.040000 179 110 112 0
3.080000 3.960000 29.260000 177 110 112 0
3.300000 3.960000 29.260000 176 109 111 0
3.520000 3.960000 29.260000 177 110 114 0
3.740000 3.960000 29.260000 176 109 113 0
3.960000 3.960000 29.260000 176 109 111 0
4.180000 3.960000 29.260000 176 109 111 0
4.400000 3.960000 29.260000 177 108 108 0
4.620000 3.960000 29.260000 177 108 108 0
4.840000 3.960000 29.260000 176 109 111 0
5.060000 3.960000 29.260000 177 110 112 0
5.280000 3.960000 29.260000 161 129 137 0
5.500000 3.960000 29.260000 194 162 170 0
5.720000 3.960000 29.260000 203 176 176 0
5.940000 3.960000 29.260000 193 166 166 0
6.160000 3.960000 29.260000 181 132 133 0
6.380000 3.960000 29.260000 177 128 129 0
6.600000 3.960000 29.260000 180 125 126 0
6.820000 3.960000 29.260000 176 121 122 0
7.040000 3.960000 29.480000 166 129 132 0
7.260000 3.960000 29.260000 181 144 147 0
7.480000 3.960000 29.260000 191 164 166 0
7.700000 3.960000 29.260000 190 163 165 0
7.920000 3.960000 29.260000 191 146 148 0
8.140000 3.960000 29.260000 179 134 136 0
8.360000 3.960000 29.260000 174 132 137 0
8.580000 3.960000 29.260000 175 133 138 0
8.800000 3.960000 29.260000 174 137 142 0
9.020000 3.960000 29.260000 174 137 142 0
9.240000 3.960000 29.260000 171 134 136 0
9.460000 3.960000 29.260000 170 133 135 0
9.680000 3.960000 29.260000 164 152 169 0
9.900000 3.960000 29.260000 184 172 189 0
10.120000 3.960000 29.260000 180 208 225 0
10.340000 3.960000 29.260000 182 210 227 0
10.560000 3.960000 29.260000 183 211 230 0
10.780000 3.960000 29.260000 184 212 231 0
11.000000 3.960000 29.260000 183 213 234 0
11.220000 3.960000 29.260000 185 215 236 0
11.440000 3.960000 29.260000 184 218 238 0
11.660000 3.960000 29.260000 184 218 238 0
11.880000 3.960000 29.260000 180 227 238 0
12.100000 3.960000 29.260000 183 230 241 0
12.320000 3.960000 29.260000 177 239 237 0
12.540000 3.960000 29.260000 179 241 239 0
12.760000 3.960000 27.940000 200 238 236 0
12.980000 3.960000 27.940000 204 242 240 0
13.200000 3.960000 27.940000 224 239 239 0
13.420000 3.960000 27.940000 226 241 241 0
13.640000 3.960000 28.160000 232 240 238 0
13.860000 3.960000 27.940000 233 241 239 0
14.080000 3.960000 27.940000 237 241 239 0
14.300000 3.960000 27.940000 237 241 239 0
14.520000 3.960000 27.940000 239 240 239 0
14.740000 3.960000 27.940000 240 241 240 0
14.960000 3.960000 27.940000 240 241 240 0
15.180000 3.960000 27.940000 240 241 240 0
15.400000 3.960000 27.940000 238 242 240 0
15.620000 3.960000 27.940000 238 242 240 0
15.840000 3.960000 27.940000 238 242 240 0
16.060000 3.960000 27.940000 238 242 240 0
16.280000 3.960000 27.940000 240 241 240 0
16.500000 3.960000 27.940000 240 241 240 0
16.720000 3.960000 28.160000 240 241 240 0
16.940000 3.960000 28.160000 240 241 240 0
17.160000 3.960000 27.940000 238 242 240 0
17.380000 3.960000 27.940000 238 242 240 0
17.600000 3.960000 27.940000 240 241 240 0
17.820000 3.960000 27.940000 240 241 240 0
18.040000 3.960000 27.940000 240 241 240 0
18.260000 3.960000 27.940000 240 241 240 0
18.480000 3.960000 27.940000 240 241 240 0
18.700000 3.960000 27.940000 240 241 240 0
18.920000 3.960000 27.940000 240 241 240 0
19.140000 3.960000 27.940000 240 241 240 0
19.360000 3.960000 27.940000 240 241 240 0
19.580000 3.960000 27.940000 240 241 240 0
19.800000 3.960000 27.940000 240 241 240 0
20.020000 3.960000 27.940000 240 241 240 0
20.240000 3.960000 27.940000 240 241 240 0
20.460000 3.960000 27.940000 240 241 240 0
20.680000 3.960000 27.940000 240 241 240 0
20.900000 3.960000 29.260000 240 241 240 0
21.120000 3.960000 29.260000 240 241 240 0
21.340000 3.960000 27.940000 240 241 240 0
21.560000 3.960000 27.940000 238 242 240 0
21.780000 3.960000 27.940000 238 242 240 0
22.000000 3.960000 27.940000 238 242 240 0
22.220000 3.960000 27.940000 238 242 240 0
22.440000 3.960000 27.940000 238 242 240 0
22.660000 3.960000 27.940000 238 242 240 0
22.880000 3.960000 27.940000 238 242 240 0
23.100000 3.960000 27.940000 238 242 240 0
23.320000 3.960000 27.940000 238 242 240 0
23.540000 3.960000 27.940000 238 242 240 0
23.760000 3.960000 27.940000 238 242 240 0
23.980000 3.960000 27.940000 238 242 240 0
24.200000 3.960000 27.940000 238 242 240 0
24.420000 3.960000 27.940000 238 242 240 0
24.640000 3.960000 27.940000 238 242 240 0
24.860000 3.960000 29.260000 238 242 240 0
25.080000 3.960000 29.260000 236 241 240 0
25.300000 3.960000 29.260000 236 241 240 0
25.520000 3.960000 29.260000 236 241 240 0
25.740000 3.960000 29.260000 235 240 239 0
25.960000 3.960000 30.800000 235 240 239 0
26.180000 3.960000 30.580000 235 240 239 0
26.400000 3.960000 29.260000 236 241 240 0
26.620000 3.960000 29.260000 236 241 240 0
26.840000 3.960000 29.260000 235 240 239 0
27.060000 3.960000 29.260000 235 240 239 0
27.280000 3.960000 29.260000 236 241 240 0
27.500000 3.960000 29.260000 236 241 240 0
27.720000 3.960000 29.260000 237 240 240 0
27.940000 3.960000 29.260000 237 240 240 0
28.160000 3.960000 29.260000 237 241 239 0
28.380000 3.960000 29.260000 237 241 239 0
28.600000 3.960000 29.260000 237 240 240 0
28.820000 3.960000 29.260000 238 241 241 0
29.040000 3.960000 29.260000 238 242 240 0
29.260000 3.960000 29.260000 238 242 240 0
29.480000 3.960000 29.260000 238 242 240 0
29.700000 3.960000 29.260000 238 242 240 0
29.920000 3.960000 29.260000 238 242 240 0
30.140000 3.960000 29.260000 238 242 240 0
30.360000 3.960000 29.260000 238 242 240 0
30.580000 3.960000 27.940000 238 242 240 0
30.800000 3.960000 27.940000 238 242 240 0
31.020000 3.960000 27.940000 238 242 240 0
31.240000 3.960000 27.940000 240 241 240 0
31.460000 3.960000 26.620000 240 241 240 0
31.680000 3.960000 26.620000 240 241 240 0
31.900000 3.960000 26.620000 240 241 240 0
32.120000 3.960000 26.620000 240 241 240 0
32.340000 3.960000 19.580000 240 241 240 0
32.560000 3.960000 8.580000 240 241 240 0
32.780000 3.960000 1.540000 240 241 240 0
33.000000 3.960000 0.220000 240 241 240 0
33.220000 3.960000 0.220000 240 241 240 0
34.980000 3.960000 0.220000 240 241 240 0
35.420000 3.960000 0.220000 240 241 240 0
35.640000 3.960000 7.260000 240 241 240 0
35.860000 3.960000 19.580000 240 241 240 0
36.080000 3.960000 26.620000 240 241 240 0
36.300000 3.960000 26.620000 240 241 240 0
36.520000 3.960000 25.300000 240 241 240 0
36.740000 3.960000 25.300000 240 241 240 0
36.960000 3.960000 26.620000 240 241 240 0
37.180000 3.960000 26.620000 240 241 240 0
0.000000 4.180000 29.040000 175 108 112 0
0.220000 4.180000 29.040000 175 108 112 0
0.440000 4.180000 29.040000 175 108 110 0
0.660000 4.180000 29.260000 176 109 111 0
0.880000 4.180000 29.480000 177 108 110 0
1.100000 4.180000 29.260000 177 108 110 0
1.320000 4.180000 29.260000 174 107 109 0
1.540000 4.180000 29.260000 174 107 109 0
1.760000 4.180000 30.580000 173 106 110 0
1.980000 4.180000 29.040000 173 106 110 0
2.200000 4.180000 29.260000 173 106 108 0
2.420000 4.180000 29.480000 174 107 109 0
2.640000 4.180000 29.260000 177 108 110 0
2.860000 4.180000 30.580000 177 108 110 0
3.080000 4.180000 30.580000 174 107 109 0
3.300000 4.180000 30.580000 174 107 109 0
3.520000 4.180000 29.260000 175 108 112 0
3.740000 4.180000 29.260000 173 106 110 0
3.960000 4.180000 29.260000 174 107 109 0
4.180000 4.180000 29.260000 174 107 109 0
4.400000 4.180000 29.260000 176 107 107 0
4.620000 4.180000 29.260000 177 108 108 0
4.840000 4.180000 29.260000 175 108 110 0
5.060000 4.180000 29.260000 175 108 110 0
5.280000 4.180000 29.260000 155 123 131 0
5.500000 4.180000 29.260000 190 158 166 0
5.720000 4.180000 29.260000 201 174 174 0
5.940000 4.180000 29.260000 191 164 164 0
6.160000 4.180000 29.260000 176 127 128 0
6.380000 4.180000 29.260000 169 120 121 0
6.600000 4.180000 29.260000 172 117 118 0
6.820000 4.180000 29.260000 169 114 115 0
7.040000 4.180000 29.260000 158 121 124 0
7.260000 4.180000 29.260000 174 137 140 0
7.480000 4.180000 29.260000 186 159 161 0
7.700000 4.180000 29.260000 187 160 162 0
7.920000 4.180000 29.260000 190 145 147 0
8.140000 4.180000 29.260000 176 131 133 0
8.360000 4.180000 29.260000 173 131 136 0
8.580000 4.180000 29.260000 173 131 136 0
8.800000 4.180000 29.260000 170 133 138 0
9.020000 4.180000 29.260000 171 134 139 0
9.240000 4.180000 29.260000 171 134 136 0
9.460000 4.180000 29.260000 168 131 133 0
9.680000 4.180000 29.260000 153 141 158 0
9.900000 4.180000 29.260000 168 156 173 0
10.120000 4.180000 29.260000 174 202 219 0
10.340000 4.180000 29.260000 173 201 218 0
10.560000 4.180000 29.260000 181 209 228 0
10.780000 4.180000 29.260000 183 211 230 0
11.000000 4.180000 29.260000 182 212 233 0
11.220000 4.180000 29.260000 184 214 235 0
11.440000 4.180000 29.260000 181 215 235 0
11.660000 4.180000 29.260000 184 218 238 0
11.880000 4.180000 29.260000 179 226 237 0
12.100000 4.180000 29.260000 181 228 239 0
12.320000 4.180000 29.260000 176 238 236 0
12.540000 4.180000 29.260000 179 241 239 0
12.760000 4.180000 27.940000 198 236 234 0
12.980000 4.180000 27.940000 203 241 239 0
13.200000 4.180000 27.940000 222 237 237 0
13.420000 4.180000 27.940000 225 240 240 0
13.640000 4.180000 26.620000 231 239 237 0
13.860000 4.180000 27.940000 232 240 238 0
14.080000 4.180000 27.940000 237 241 239 0
14.300000 4.180000 27.940000 237 241 239 0
14.520000 4.180000 27.940000 239 240 239 0
14.740000 4.180000 27.940000 239 240 239 0
14.960000 4.180000 27.940000 240 241 240 0
15.180000 4.180000 27.940000 240 241 240 0
15.400000 4.180000 27.940000 238 242 240 0
15.620000 4.180000 27.940000 238 242 240 0
15.840000 4.180000 27.940000 238 242 240 0
16.060000 4.180000 27.940000 238 242 240 0
16.280000 4.180000 27.940000 240 241 240 0
16.500000 4.180000 27.940000 240 241 240 0
16.720000 4.180000 27.940000 240 241 240 0
16.940000 4.180000 26.620000 240 241 240 0
17.160000 4.180000 26.620000 238 242 240 0
17.380000 4.180000 27.940000 238 242 240 0
17.600000 4.180000 27.940000 240 241 240 0
17.820000 4.180000 29.260000 240 241 240 0
18.040000 4.180000 29.260000 240 241 240 0
18.260000 4.180000 29.260000 240 241 240 0
18.480000 4.180000 29.480000 240 241 240 0
18.700000 4.180000 27.940000 240 241 240 0
18.920000 4.180000 27.940000 240 241 240 0
19.140000 4.180000 27.940000 240 241 240 0
19.360000 4.180000 28.160000 240 241 240 0
19.580000 4.180000 28.160000 240 241 240 0
19.800000 4.180000 27.940000 240 241 240 0
20.020000 4.180000 27.940000 240 241 240 0
20.240000 4.180000 27.940000 240 241 240 0
20.460000 4.180000 27.940000 240 241 240 0
20.680000 4.180000 27.940000 240 241 240 0
20.900000 4.180000 29.480000 240 241 240 0
21.120000 4.180000 29.480000 240 241 240 0
21.340000 4.180000 27.940000 240 241 240 0
21.560000 4.180000 27.940000 238 242 240 0
21.780000 4.180000 27.940000 238 242 240 0
22.000000 4.180000 27.940000 238 242 240 0
22.220000 4.180000 27.940000 238 242 240 0
22.440000 4.180000 27.940000 238 242 240 0
22.660000 4.180000 27.940000 238 242 240 0
22.880000 4.180000 27.940000 238 242 240 0
23.100000 4.180000 27.940000 238 242 240 0
23.320000 4.180000 27.940000 238 242 240 0
23.540000 4.180000 27.940000 238 242 240 0
23.760000 4.180000 27.940000 238 242 240 0
23.980000 4.180000 27.940000 238 242 240 0
24.200000 4.180000 27.940000 238 242 240 0
24.420000 4.180000 27.940000 238 242 240 0
24.640000 4.180000 29.260000 238 242 240 0
24.860000 4.180000 29.260000 238 242 240 0
25.080000 4.180000 29.480000 235 240 239 0
25.300000 4.180000 29.260000 234 239 238 0
25.520000 4.180000 29.260000 234 239 238 0
25.740000 4.180000 29.260000 234 239 238 0
25.960000 4.180000 30.800000 233 238 237 0
26.180000 4.180000 30.580000 234 239 238 0
26.400000 4.180000 30.580000 234 239 238 0
26.620000 4.180000 29.260000 234 239 238 0
26.840000 4.180000 29.260000 233 238 237 0
27.060000 4.180000 29.260000 234 239 238 0
27.280000 4.180000 29.260000 235 240 239 0
27.500000 4.180000 29.260000 235 240 239 0
27.720000 4.180000 29.260000 236 239 239 0
27.940000 4.180000 29.260000 236 239 239 0
28.160000 4.180000 29.260000 236 240 238 0
28.380000 4.180000 29.260000 237 241 239 0
28.600000 4.180000 29.260000 237 240 240 0
28.820000 4.180000 29.260000 237 240 240 0
29.040000 4.180000 29.260000 238 242 240 0
29.260000 4.180000 29.260000 238 242 240 0
29.480000 4.180000 29.260000 238 242 240 0
29.700000 4.180000 29.260000 238 242 240 0
29.920000 4.180000 29.260000 238 242 240 0
30.140000 4.180000 29.260000 238 242 240 0
30.360000 4.180000 29.260000 238 242 240 0
30.580000 4.180000 27.940000 238 242 240 0
30.800000 4.180000 27.940000 238 242 240 0
31.020000 4.180000 27.940000 238 242 240 0
31.240000 4.180000 27.940000 240 241 240 0
31.460000 4.180000 26.620000 240 241 240 0
31.680000 4.180000 26.620000 240 241 240 0
31.900000 4.180000 26.620000 240 241 240 0
32.120000 4.180000 27.940000 240 241 240 0
32.340000 4.180000 25.080000 240 241 240 0
32.560000 4.180000 16.940000 240 241 240 0
32.780000 4.180000 8.580000 240 241 240 0
33.000000 4.180000 4.400000 240 241 240 0
33.220000 4.180000 0.220000 240 241 240 0
33.440000 4.180000 0.220000 240 241 240 0
34.760000 4.180000 0.220000 240 241 240 0
34.980000 4.180000 0.220000 240 241 240 0
35.640000 4.180000 4.400000 240 241 240 0
35.860000 4.180000 16.940000 240 241 240 0
36.080000 4.180000 25.080000 240 241 240 0
36.300000 4.180000 25.080000 240 241 240 0
36.520000 4.180000 25.080000 240 241 240 0
36.740000 4.180000 25.080000 240 241 240 0
36.960000 4.180000 26.620000 240 241 240 0
37.180000 4.180000 27.940000 240 241 240 0
0.000000 4.400000 29.040000 176 107 109 0
0.220000 4.400000 29.040000 175 106 108 0
0.440000 4.400000 29.040000 177 106 109 0
0.660000 4.400000 29.260000 177 106 109 0
0.880000 4.400000 29.260000 176 105 108 0
1.100000 4.400000 29.260000 176 105 108 0
1.320000 4.400000 29.260000 174 105 107 0
1.540000 4.400000 29.260000 175 106 108 0
1.760000 4.400000 29.260000 174 105 107 0
1.980000 4.400000 29.260000 174 105 107 0
2.200000 4.400000 29.260000 174 103 106 0
2.420000 4.400000 29.260000 175 104 107 0
2.640000 4.400000 29.260000 175 104 107 0
2.860000 4.400000 29.260000 174 103 106 0
3.080000 4.400000 30.580000 176 107 109 0
3.300000 4.400000 30.580000 173 104 106 0
3.520000 4.400000 30.580000 173 106 108 0
3.740000 4.400000 30.580000 173 106 108 0
3.960000 4.400000 30.580000 174 105 107 0
4.180000 4.400000 30.580000 174 105 107 0
4.400000 4.400000 29.260000 175 106 108 0
4.620000 4.400000 29.260000 174 105 107 0
4.840000 4.400000 29.260000 173 106 108 0
5.060000 4.400000 29.260000 175 108 110 0
5.280000 4.400000 29.260000 158 121 126 0
5.500000 4.400000 29.260000 184 147 152 0
5.720000 4.400000 29.260000 199 174 173 0
5.940000 4.400000 29.260000 193 168 167 0
6.160000 4.400000 29.260000 181 124 126 0
6.380000 4.400000 29.260000 171 114 116 0
6.600000 4.400000 29.260000 172 111 113 0
6.820000 4.400000 29.260000 170 109 111 0
7.040000 4.400000 29.260000 160 115 117 0
7.260000 4.400000 29.260000 171 126 128 0
7.480000 4.400000 29.260000 177 155 155 0
7.700000 4.400000 29.260000 185 163 163 0
7.920000 4.400000 29.260000 193 148 148 0
8.140000 4.400000 29.260000 176 131 131 0
8.360000 4.400000 29.260000 174 127 132 0
8.580000 4.400000 29.260000 173 126 131 0
8.800000 4.400000 29.260000 171 130 133 0
9.020000 4.400000 29.260000 173 132 135 0
9.240000 4.400000 29.260000 170 130 134 0
9.460000 4.400000 29.260000 169 129 133 0
9.680000 4.400000 29.260000 168 131 136 0
9.900000 4.400000 29.260000 174 137 142 0
10.120000 4.400000 29.260000 169 163 184 0
10.340000 4.400000 29.260000 186 180 201 0
10.560000 4.400000 29.480000 170 205 228 0
10.780000 4.400000 29.260000 174 209 232 0
11.000000 4.400000 29.040000 184 211 236 0
11.220000 4.400000 29.260000 184 211 236 0
11.440000 4.400000 29.260000 173 219 238 0
11.660000 4.400000 29.260000 174 220 239 0
11.880000 4.400000 30.580000 170 225 240 0
12.100000 4.400000 30.580000 173 228 243 0
12.320000 4.400000 29.260000 168 235 238 0
12.540000 4.400000 29.260000 174 241 244 0
12.760000 4.400000 27.940000 185 240 238 0
12.980000 4.400000 27.940000 189 244 242 0
13.200000 4.400000 27.940000 207 241 238 0
13.420000 4.400000 27.940000 209 243 240 0
13.640000 4.400000 26.620000 218 241 242 0
13.860000 4.400000 27.940000 220 243 244 0
14.080000 4.400000 27.940000 231 240 240 0
14.300000 4.400000 27.940000 232 241 241 0
14.520000 4.400000 27.940000 237 241 239 0
14.740000 4.400000 27.940000 237 241 239 0
14.960000 4.400000 26.620000 237 241 239 0
15.180000 4.400000 27.940000 237 241 239 0
15.400000 4.400000 27.940000 239 240 239 0
15.620000 4.400000 27.940000 239 240 239 0
15.840000 4.400000 27.940000 237 241 239 0
16.060000 4.400000 27.940000 237 241 239 0
16.280000 4.400000 26.620000 237 241 239 0
16.500000 4.400000 26.620000 238 242 240 0
16.720000 4.400000 26.620000 240 241 240 0
16.940000 4.400000 26.620000 240 241 240 0
17.160000 4.400000 26.620000 240 241 240 0
17.380000 4.400000 27.940000 240 241 240 0
17.600000 4.400000 27.940000 240 241 240 0
17.820000 4.400000 29.260000 240 241 240 0
18.040000 4.400000 29.260000 240 241 240 0
18.260000 4.400000 29.260000 240 241 240 0
18.480000 4.400000 29.480000 240 241 240 0
18.700000 4.400000 29.480000 240 241 240 0
18.920000 4.400000 28.160000 240 241 240 0
19.140000 4.400000 28.160000 240 241 240 0
19.360000 4.400000 28.160000 240 241 240 0
19.580000 4.400000 28.160000 240 241 240 0
19.800000 4.400000 27.940000 240 241 240 0
20.020000 4.400000 27.940000 240 241 240 0
20.240000 4.400000 27.940000 240 241 240 0
20.460000 4.400000 27.940000 240 241 240 0
20.680000 4.400000 27.940000 240 241 240 0
20.900000 4.400000 27.940000 240 241 240 0
21.120000 4.400000 27.940000 240 241 240 0
21.340000 4.400000 27.940000 240 241 240 0
21.560000 4.400000 27.940000 240 241 240 0
21.780000 4.400000 27.940000 240 241 240 0
22.000000 4.400000 27.940000 240 241 240 0
22.220000 4.400000 27.940000 240 241 240 0
22.440000 4.400000 27.940000 240 241 240 0
22.660000 4.400000 27.940000 240 241 240 0
22.880000 4.400000 27.940000 240 241 240 0
23.100000 4.400000 27.940000 240 241 240 0
23.320000 4.400000 27.940000 240 241 240 0
23.540000 4.400000 27.940000 240 241 240 0
23.760000 4.400000 27.940000 240 241 240 0
23.980000 4.400000 27.940000 240 241 240 0
24.200000 4.400000 27.940000 240 241 240 0
24.420000 4.400000 29.480000 240 241 240 0
24.640000 4.400000 29.260000 238 242 240 0
24.860000 4.400000 29.480000 237 241 239 0
25.080000 4.400000 29.480000 222 243 243 0
25.300000 4.400000 29.260000 221 242 242 0
25.520000 4.400000 29.260000 219 242 243 0
25.740000 4.400000 30.800000 218 241 242 0
25.960000 4.400000 30.800000 215 242 244 0
26.180000 4.400000 30.580000 215 242 244 0
26.400000 4.400000 30.580000 218 241 242 0
26.620000 4.400000 30.580000 218 241 242 0
26.840000 4.400000 30.580000 218 241 244 0
27.060000 4.400000 30.580000 218 241 244 0
27.280000 4.400000 30.580000 219 242 243 0
27.500000 4.400000 30.580000 218 241 242 0
27.720000 4.400000 30.580000 218 241 242 0
27.940000 4.400000 29.260000 219 242 243 0
28.160000 4.400000 29.260000 222 241 242 0
28.380000 4.400000 29.260000 223 242 243 0
28.600000 4.400000 29.260000 231 240 240 0
28.820000 4.400000 29.260000 232 241 241 0
29.040000 4.400000 29.260000 239 240 239 0
29.260000 4.400000 29.260000 239 240 239 0
29.480000 4.400000 29.260000 239 240 239 0
29.700000 4.400000 29.260000 240 241 240 0
29.920000 4.400000 29.260000 240 241 240 0
30.140000 4.400000 29.260000 240 241 240 0
30.360000 4.400000 29.260000 240 241 240 0
30.580000 4.400000 27.940000 240 241 240 0
30.800000 4.400000 27.940000 240 241 240 0
31.020000 4.400000 27.940000 240 241 240 0
31.240000 4.400000 27.940000 240 241 240 0
31.460000 4.400000 27.940000 240 241 240 0
31.680000 4.400000 27.940000 240 241 240 0
31.900000 4.400000 27.940000 240 241 240 0
32.120000 4.400000 27.940000 240 241 240 0
32.340000 4.400000 27.940000 240 241 240 0
32.560000 4.400000 25.080000 240 241 240 0
32.780000 4.400000 21.120000 240 241 240 0
33.000000 4.400000 15.400000 240 241 240 0
33.220000 4.400000 7.260000 240 241 240 0
