ply
format ascii 1.0
element vertex 1141
property float x
property float y
property float z
property uchar red
property uchar green
property uchar blue
property uchar alpha
end_header
32.560000 21.780000 0.880000 170 82 63 0
32.780000 21.780000 0.880000 169 81 62 0
33.000000 21.780000 0.880000 170 82 63 0
33.220000 21.780000 0.880000 169 81 62 0
33.440000 21.780000 0.880000 169 81 62 0
33.660000 21.780000 0.880000 169 81 62 0
33.880000 21.780000 0.990000 168 80 61 0
34.100000 21.780000 0.990000 168 80 61 0
34.320000 21.780000 1.650000 169 81 62 0
34.540000 21.780000 1.760000 168 80 61 0
34.760000 21.780000 1.760000 169 81 62 0
34.980000 21.780000 1.760000 170 81 62 0
35.200000 21.780000 1.760000 170 81 62 0
35.420000 21.780000 1.870000 170 81 62 0
35.640000 21.780000 1.870000 167 78 59 0
35.860000 21.780000 1.870000 169 77 61 0
36.080000 21.780000 1.870000 167 75 59 0
36.300000 21.780000 1.980000 167 73 58 0
36.520000 21.780000 1.980000 166 72 57 0
36.740000 21.780000 1.980000 167 70 56 0
36.960000 21.780000 2.640000 167 70 56 0
37.180000 21.780000 2.530000 167 71 54 0
0.000000 22.000000 14.630000 144 108 91 0
0.220000 22.000000 14.630000 146 109 95 0
0.440000 22.000000 14.630000 146 109 95 0
0.660000 22.000000 14.630000 145 111 96 0
0.880000 22.000000 14.630000 145 111 96 0
1.100000 22.000000 14.630000 144 110 95 0
1.320000 22.000000 14.630000 146 112 97 0
1.540000 22.000000 14.630000 146 112 97 0
1.760000 22.000000 14.630000 146 112 97 0
1.980000 22.000000 14.630000 145 111 96 0
2.200000 22.000000 14.630000 146 112 97 0
2.420000 22.000000 14.630000 145 113 97 0
2.640000 22.000000 14.630000 145 113 97 0
2.860000 22.000000 14.630000 143 113 97 0
3.080000 22.000000 14.630000 143 113 97 0
3.300000 22.000000 14.630000 146 114 98 0
3.520000 22.000000 14.630000 145 113 97 0
3.740000 22.000000 14.630000 144 114 98 0
3.960000 22.000000 14.630000 144 114 98 0
4.180000 22.000000 14.630000 143 113 97 0
4.400000 22.000000 14.630000 143 113 97 0
4.620000 22.000000 14.630000 141 113 96 0
4.840000 22.000000 14.630000 141 113 96 0
5.060000 22.000000 14.630000 143 113 97 0
5.280000 22.000000 14.630000 142 112 96 0
5.500000 22.000000 14.630000 140 112 96 0
5.720000 22.000000 14.630000 140 112 96 0
5.940000 22.000000 14.630000 141 113 96 0
6.160000 22.000000 14.630000 141 113 96 0
6.380000 22.000000 14.630000 142 116 98 0
6.600000 22.000000 14.630000 143 117 99 0
6.820000 22.000000 14.630000 145 117 100 0
7.040000 22.000000 14.630000 145 117 100 0
7.260000 22.000000 14.630000 145 117 101 0
7.480000 22.000000 14.630000 146 118 102 0
7.700000 22.000000 14.630000 145 115 99 0
7.920000 22.000000 14.630000 143 113 97 0
8.140000 22.000000 14.630000 143 111 95 0
8.360000 22.000000 14.630000 141 109 93 0
8.580000 22.000000 14.630000 142 108 91 0
8.800000 22.000000 14.630000 142 108 91 0
9.020000 22.000000 14.630000 144 108 91 0
9.240000 22.000000 14.630000 143 107 90 0
9.460000 22.000000 14.630000 144 106 90 0
9.680000 22.000000 14.630000 144 106 90 0
9.900000 22.000000 14.630000 144 104 89 0
10.120000 22.000000 14.630000 143 103 88 0
10.340000 22.000000 13.970000 142 102 87 0
10.560000 22.000000 14.630000 141 101 86 0
10.780000 22.000000 13.970000 141 101 86 0
11.000000 22.000000 13.970000 141 101 86 0
11.220000 22.000000 13.970000 143 101 84 0
11.440000 22.000000 14.630000 142 100 83 0
11.660000 22.000000 14.630000 140 100 85 0
11.880000 22.000000 14.630000 140 100 85 0
12.100000 22.000000 14.630000 141 99 82 0
12.320000 22.000000 14.630000 140 98 81 0
12.540000 22.000000 14.630000 142 95 80 0
12.760000 22.000000 14.630000 141 94 79 0
12.980000 22.000000 14.630000 144 92 76 0
13.200000 22.000000 14.630000 142 90 74 0
13.420000 22.000000 14.630000 146 88 72 0
13.640000 22.000000 15.290000 146 88 72 0
13.860000 22.000000 15.290000 145 87 70 0
14.080000 22.000000 15.290000 145 87 70 0
14.300000 22.000000 15.290000 147 85 69 0
14.520000 22.000000 15.290000 147 85 69 0
14.740000 22.000000 14.630000 149 83 64 0
14.960000 22.000000 14.630000 150 84 65 0
15.180000 22.000000 15.400000 152 80 63 0
15.400000 22.000000 15.400000 151 79 62 0
15.620000 22.000000 15.290000 151 79 62 0
15.840000 22.000000 15.290000 150 78 61 0
16.060000 22.000000 16.060000 154 77 62 0
16.280000 22.000000 16.060000 152 75 60 0
16.500000 22.000000 16.060000 153 75 58 0
16.720000 22.000000 16.060000 152 74 57 0
16.940000 22.000000 16.720000 152 74 59 0
17.160000 22.000000 16.720000 151 73 58 0
17.380000 22.000000 16.720000 151 73 58 0
17.600000 22.000000 16.720000 151 73 58 0
17.820000 22.000000 16.720000 151 71 55 0
18.040000 22.000000 17.380000 151 71 55 0
18.260000 22.000000 17.380000 153 71 55 0
18.480000 22.000000 18.150000 153 71 55 0
18.700000 22.000000 18.150000 151 71 57 0
18.920000 22.000000 18.150000 151 71 57 0
19.140000 22.000000 18.810000 154 72 56 0
19.360000 22.000000 18.810000 153 71 55 0
19.580000 22.000000 19.470000 152 70 54 0
19.800000 22.000000 19.470000 153 71 55 0
20.020000 22.000000 19.470000 154 72 56 0
20.240000 22.000000 19.470000 153 71 55 0
20.460000 22.000000 20.130000 153 71 55 0
20.680000 22.000000 20.130000 154 72 56 0
20.900000 22.000000 20.130000 153 71 55 0
21.120000 22.000000 20.130000 155 73 57 0
21.340000 22.000000 20.790000 155 71 56 0
21.560000 22.000000 20.790000 157 73 58 0
21.780000 22.000000 20.790000 157 73 58 0
22.000000 22.000000 20.900000 158 74 59 0
22.220000 22.000000 20.790000 158 74 59 0
22.440000 22.000000 20.900000 158 74 59 0
22.660000 22.000000 20.900000 158 74 58 0
22.880000 22.000000 20.900000 160 76 60 0
23.100000 22.000000 20.790000 161 77 61 0
23.320000 22.000000 20.900000 162 78 62 0
23.540000 22.000000 20.350000 161 77 61 0
23.760000 22.000000 20.460000 162 78 62 0
23.980000 22.000000 20.460000 163 79 63 0
24.200000 22.000000 20.570000 164 80 64 0
24.420000 22.000000 20.570000 163 81 62 0
24.640000 22.000000 20.460000 165 83 64 0
24.860000 22.000000 20.460000 166 84 65 0
25.080000 22.000000 20.460000 166 84 65 0
25.300000 22.000000 20.460000 167 85 68 0
25.520000 22.000000 20.460000 168 86 69 0
25.740000 22.000000 20.570000 168 86 69 0
25.960000 22.000000 20.570000 170 88 71 0
26.180000 22.000000 20.570000 170 88 69 0
26.400000 22.000000 20.460000 171 89 70 0
26.620000 22.000000 20.460000 171 89 72 0
26.840000 22.000000 20.460000 171 89 72 0
27.060000 22.000000 20.460000 171 89 70 0
27.280000 22.000000 20.460000 172 90 71 0
27.500000 22.000000 20.460000 174 92 73 0
27.720000 22.000000 20.460000 175 93 74 0
27.940000 22.000000 20.460000 175 93 74 0
28.160000 22.000000 20.460000 176 94 75 0
28.380000 22.000000 19.800000 175 93 76 0
28.600000 22.000000 19.800000 175 93 76 0
28.820000 22.000000 19.910000 173 91 72 0
29.040000 22.000000 20.570000 171 89 70 0
29.260000 22.000000 19.910000 172 90 71 0
29.480000 22.000000 19.910000 171 89 70 0
29.700000 22.000000 17.930000 172 89 70 0
29.920000 22.000000 10.890000 171 88 69 0
30.140000 22.000000 5.060000 170 87 68 0
30.360000 22.000000 1.430000 170 87 68 0
30.580000 22.000000 0.110000 169 86 65 0
30.800000 22.000000 0.110000 170 87 66 0
31.020000 22.000000 0.110000 170 84 66 0
31.240000 22.000000 0.110000 171 85 67 0
31.460000 22.000000 0.110000 171 85 65 0
31.680000 22.000000 0.110000 171 85 65 0
31.900000 22.000000 0.770000 170 84 66 0
32.120000 22.000000 0.770000 170 84 66 0
32.340000 22.000000 0.770000 171 83 64 0
32.560000 22.000000 0.770000 171 83 64 0
32.780000 22.000000 0.880000 169 81 62 0
33.000000 22.000000 0.880000 169 81 62 0
33.220000 22.000000 0.880000 170 82 63 0
33.440000 22.000000 0.880000 169 81 62 0
33.660000 22.000000 0.880000 169 81 62 0
33.880000 22.000000 0.990000 169 81 62 0
34.100000 22.000000 1.650000 168 80 61 0
34.320000 22.000000 1.650000 169 81 62 0
34.540000 22.000000 1.760000 168 80 61 0
34.760000 22.000000 1.760000 168 80 61 0
34.980000 22.000000 1.760000 169 80 61 0
35.200000 22.000000 1.760000 170 81 62 0
35.420000 22.000000 1.870000 169 80 61 0
35.640000 22.000000 1.870000 168 79 60 0
35.860000 22.000000 1.870000 170 78 62 0
36.080000 22.000000 1.870000 168 76 60 0
36.300000 22.000000 1.980000 167 73 58 0
36.520000 22.000000 1.980000 166 72 57 0
36.740000 22.000000 1.980000 167 70 56 0
36.960000 22.000000 1.980000 167 70 56 0
37.180000 22.000000 2.640000 168 72 55 0
0.000000 22.220000 14.630000 145 108 94 0
0.220000 22.220000 14.630000 145 108 94 0
0.440000 22.220000 14.630000 146 109 95 0
0.660000 22.220000 14.630000 145 111 96 0
0.880000 22.220000 14.630000 144 110 95 0
1.100000 22.220000 14.630000 145 111 96 0
1.320000 22.220000 14.630000 145 111 96 0
1.540000 22.220000 14.630000 146 112 97 0
1.760000 22.220000 14.630000 146 112 97 0
1.980000 22.220000 14.630000 146 112 97 0
2.200000 22.220000 14.630000 146 112 97 0
2.420000 22.220000 14.630000 146 114 98 0
2.640000 22.220000 14.630000 146 114 98 0
2.860000 22.220000 14.630000 145 113 97 0
3.080000 22.220000 14.630000 145 113 97 0
3.300000 22.220000 14.630000 145 113 97 0
3.520000 22.220000 14.630000 145 113 97 0
3.740000 22.220000 14.630000 144 114 98 0
3.960000 22.220000 14.630000 143 113 97 0
4.180000 22.220000 14.630000 142 112 96 0
4.400000 22.220000 14.630000 143 113 97 0
4.620000 22.220000 14.630000 141 113 96 0
4.840000 22.220000 14.630000 141 113 96 0
5.060000 22.220000 14.630000 142 112 97 0
5.280000 22.220000 14.630000 142 112 97 0
5.500000 22.220000 14.630000 140 112 96 0
5.720000 22.220000 14.630000 140 112 96 0
5.940000 22.220000 14.630000 140 112 95 0
6.160000 22.220000 14.630000 140 112 95 0
6.380000 22.220000 14.630000 142 116 98 0
6.600000 22.220000 14.630000 143 117 99 0
6.820000 22.220000 14.630000 143 117 100 0
7.040000 22.220000 14.630000 143 117 100 0
7.260000 22.220000 14.630000 144 116 100 0
7.480000 22.220000 14.630000 145 117 101 0
7.700000 22.220000 14.630000 145 115 99 0
7.920000 22.220000 14.630000 143 113 97 0
8.140000 22.220000 14.630000 143 111 95 0
8.360000 22.220000 14.630000 142 110 94 0
8.580000 22.220000 14.630000 143 109 94 0
8.800000 22.220000 14.630000 143 109 94 0
9.020000 22.220000 14.630000 144 107 93 0
9.240000 22.220000 14.630000 143 106 92 0
9.460000 22.220000 14.630000 145 107 91 0
9.680000 22.220000 14.630000 144 106 90 0
9.900000 22.220000 14.630000 143 105 89 0
10.120000 22.220000 13.970000 142 104 88 0
10.340000 22.220000 13.970000 141 101 86 0
10.560000 22.220000 14.630000 142 102 87 0
10.780000 22.220000 13.970000 141 101 86 0
11.000000 22.220000 13.970000 141 101 86 0
11.220000 22.220000 14.630000 140 100 85 0
11.440000 22.220000 14.630000 141 101 86 0
11.660000 22.220000 13.970000 141 101 86 0
11.880000 22.220000 14.630000 140 100 85 0
12.100000 22.220000 14.630000 142 99 85 0
12.320000 22.220000 14.630000 140 97 83 0
12.540000 22.220000 14.630000 140 96 82 0
12.760000 22.220000 14.630000 138 94 80 0
12.980000 22.220000 14.630000 144 90 73 0
13.200000 22.220000 14.630000 144 90 73 0
13.420000 22.220000 14.630000 147 87 72 0
13.640000 22.220000 15.290000 146 86 71 0
13.860000 22.220000 15.290000 151 84 70 0
14.080000 22.220000 15.290000 150 83 69 0
14.300000 22.220000 15.290000 149 85 68 0
14.520000 22.220000 15.290000 147 83 66 0
14.740000 22.220000 15.290000 150 82 66 0
14.960000 22.220000 15.400000 150 82 66 0
15.180000 22.220000 15.400000 150 80 65 0
15.400000 22.220000 15.290000 149 79 64 0
15.620000 22.220000 15.290000 152 78 64 0
15.840000 22.220000 16.060000 152 78 64 0
16.060000 22.220000 16.060000 150 76 60 0
16.280000 22.220000 16.060000 150 76 60 0
16.500000 22.220000 16.060000 152 74 59 0
16.720000 22.220000 16.720000 152 74 59 0
16.940000 22.220000 16.720000 150 72 57 0
17.160000 22.220000 16.720000 151 73 58 0
17.380000 22.220000 16.720000 151 71 57 0
17.600000 22.220000 16.720000 151 71 57 0
17.820000 22.220000 17.380000 151 71 57 0
18.040000 22.220000 17.380000 151 71 57 0
18.260000 22.220000 17.380000 151 71 57 0
18.480000 22.220000 18.150000 151 71 57 0
18.700000 22.220000 18.150000 150 70 56 0
18.920000 22.220000 18.150000 151 71 57 0
19.140000 22.220000 18.810000 152 70 54 0
19.360000 22.220000 18.810000 152 70 54 0
19.580000 22.220000 19.470000 152 70 54 0
19.800000 22.220000 19.470000 153 71 55 0
20.020000 22.220000 19.470000 153 71 55 0
20.240000 22.220000 19.470000 153 71 55 0
20.460000 22.220000 20.130000 154 72 56 0
20.680000 22.220000 20.130000 155 73 57 0
20.900000 22.220000 20.130000 154 72 56 0
21.120000 22.220000 20.130000 154 72 56 0
21.340000 22.220000 20.130000 156 72 57 0
21.560000 22.220000 20.790000 156 72 57 0
21.780000 22.220000 20.790000 157 73 58 0
22.000000 22.220000 20.900000 157 73 58 0
22.220000 22.220000 20.900000 158 74 59 0
22.440000 22.220000 20.900000 158 74 59 0
22.660000 22.220000 20.900000 159 75 59 0
22.880000 22.220000 20.900000 159 75 59 0
23.100000 22.220000 20.900000 160 76 60 0
23.320000 22.220000 20.900000 161 77 61 0
23.540000 22.220000 21.010000 161 77 61 0
23.760000 22.220000 20.460000 163 79 63 0
23.980000 22.220000 20.460000 163 81 62 0
24.200000 22.220000 20.460000 163 81 62 0
24.420000 22.220000 20.460000 163 81 64 0
24.640000 22.220000 20.460000 165 83 66 0
24.860000 22.220000 20.460000 166 84 67 0
25.080000 22.220000 20.460000 166 84 67 0
25.300000 22.220000 20.460000 168 84 68 0
25.520000 22.220000 20.460000 168 84 68 0
25.740000 22.220000 20.570000 168 86 67 0
25.960000 22.220000 20.570000 169 87 68 0
26.180000 22.220000 20.460000 170 88 69 0
26.400000 22.220000 20.460000 170 88 69 0
26.620000 22.220000 20.460000 170 88 71 0
26.840000 22.220000 20.460000 170 88 71 0
27.060000 22.220000 20.460000 171 89 72 0
27.280000 22.220000 20.460000 173 91 74 0
27.500000 22.220000 20.460000 173 91 72 0
27.720000 22.220000 20.460000 174 92 73 0
27.940000 22.220000 20.460000 172 93 73 0
28.160000 22.220000 20.460000 172 93 73 0
28.380000 22.220000 20.460000 175 93 76 0
28.600000 22.220000 20.570000 174 92 75 0
28.820000 22.220000 20.570000 173 89 73 0
29.040000 22.220000 20.570000 173 89 73 0
29.260000 22.220000 20.570000 171 89 70 0
29.480000 22.220000 19.910000 172 90 71 0
29.700000 22.220000 19.250000 171 89 70 0
29.920000 22.220000 15.070000 169 87 68 0
30.140000 22.220000 8.690000 170 87 68 0
30.360000 22.220000 2.200000 170 87 68 0
30.580000 22.220000 0.110000 172 86 68 0
30.800000 22.220000 0.110000 171 85 67 0
31.020000 22.220000 0.110000 171 85 65 0
31.240000 22.220000 0.110000 171 85 65 0
31.460000 22.220000 0.110000 171 85 65 0
31.680000 22.220000 0.110000 170 84 64 0
31.900000 22.220000 0.770000 170 84 66 0
32.120000 22.220000 0.770000 170 84 66 0
32.340000 22.220000 0.770000 171 83 66 0
32.560000 22.220000 0.770000 170 82 65 0
32.780000 22.220000 0.880000 169 83 63 0
33.000000 22.220000 0.880000 169 83 63 0
33.220000 22.220000 0.880000 170 82 63 0
33.440000 22.220000 0.880000 169 81 62 0
33.660000 22.220000 0.880000 168 80 61 0
33.880000 22.220000 0.990000 168 80 61 0
34.100000 22.220000 1.650000 168 80 63 0
34.320000 22.220000 1.650000 168 80 63 0
34.540000 22.220000 1.650000 168 79 60 0
34.760000 22.220000 1.760000 169 80 61 0
34.980000 22.220000 1.760000 170 81 62 0
35.200000 22.220000 1.760000 169 80 61 0
35.420000 22.220000 1.870000 169 79 63 0
35.640000 22.220000 1.870000 168 78 62 0
35.860000 22.220000 1.870000 169 77 61 0
36.080000 22.220000 1.870000 167 75 59 0
36.300000 22.220000 1.980000 169 72 58 0
36.520000 22.220000 1.980000 167 70 56 0
36.740000 22.220000 1.980000 167 70 56 0
36.960000 22.220000 1.980000 168 71 57 0
37.180000 22.220000 2.090000 166 72 55 0
0.000000 22.440000 14.630000 144 107 93 0
0.220000 22.440000 14.630000 144 107 93 0
0.440000 22.440000 14.630000 146 109 95 0
0.660000 22.440000 14.630000 144 110 95 0
0.880000 22.440000 14.630000 145 111 96 0
1.100000 22.440000 14.630000 145 111 96 0
1.320000 22.440000 14.630000 145 111 96 0
1.540000 22.440000 14.630000 146 112 97 0
1.760000 22.440000 14.630000 146 112 97 0
1.980000 22.440000 14.630000 146 112 97 0
2.200000 22.440000 14.630000 146 112 97 0
2.420000 22.440000 14.630000 146 114 98 0
2.640000 22.440000 14.630000 145 113 97 0
2.860000 22.440000 14.630000 146 114 98 0
3.080000 22.440000 14.630000 145 113 97 0
3.300000 22.440000 14.630000 145 113 97 0
3.520000 22.440000 14.630000 145 113 97 0
3.740000 22.440000 14.630000 143 113 97 0
3.960000 22.440000 14.630000 143 113 97 0
4.180000 22.440000 14.630000 144 114 98 0
4.400000 22.440000 14.630000 142 112 96 0
4.620000 22.440000 14.630000 141 113 96 0
4.840000 22.440000 14.630000 141 113 96 0
5.060000 22.440000 14.630000 141 111 96 0
5.280000 22.440000 14.630000 141 111 96 0
5.500000 22.440000 14.630000 140 112 96 0
5.720000 22.440000 14.630000 139 111 95 0
5.940000 22.440000 14.630000 140 112 95 0
6.160000 22.440000 14.630000 141 113 96 0
6.380000 22.440000 14.630000 141 115 97 0
6.600000 22.440000 14.630000 143 117 99 0
6.820000 22.440000 14.630000 143 117 100 0
7.040000 22.440000 14.630000 144 118 101 0
7.260000 22.440000 14.630000 145 117 101 0
7.480000 22.440000 14.630000 144 116 100 0
7.700000 22.440000 14.740000 144 114 98 0
7.920000 22.440000 14.630000 143 113 97 0
8.140000 22.440000 14.630000 144 112 96 0
8.360000 22.440000 14.630000 143 111 95 0
8.580000 22.440000 14.630000 143 109 94 0
8.800000 22.440000 14.630000 143 109 94 0
9.020000 22.440000 14.630000 144 107 93 0
9.240000 22.440000 14.630000 142 105 91 0
9.460000 22.440000 14.630000 144 106 90 0
9.680000 22.440000 14.630000 143 105 89 0
9.900000 22.440000 14.630000 142 104 88 0
10.120000 22.440000 13.970000 142 104 88 0
10.340000 22.440000 13.970000 142 102 87 0
10.560000 22.440000 13.970000 140 100 85 0
10.780000 22.440000 13.970000 140 100 85 0
11.000000 22.440000 13.970000 140 100 85 0
11.220000 22.440000 14.630000 140 100 85 0
11.440000 22.440000 13.970000 141 101 86 0
11.660000 22.440000 13.970000 141 101 86 0
11.880000 22.440000 13.970000 140 100 85 0
12.100000 22.440000 14.630000 141 98 84 0
12.320000 22.440000 14.630000 140 97 83 0
12.540000 22.440000 14.630000 140 96 82 0
12.760000 22.440000 14.630000 138 94 80 0
12.980000 22.440000 14.630000 144 90 73 0
13.200000 22.440000 14.630000 143 89 72 0
13.420000 22.440000 14.630000 147 87 72 0
13.640000 22.440000 15.290000 146 86 71 0
13.860000 22.440000 15.290000 151 84 70 0
14.080000 22.440000 15.290000 150 83 69 0
14.300000 22.440000 15.290000 148 84 67 0
14.520000 22.440000 15.290000 148 84 67 0
14.740000 22.440000 15.290000 149 81 65 0
14.960000 22.440000 15.290000 149 81 65 0
15.180000 22.440000 15.290000 150 80 65 0
15.400000 22.440000 15.290000 149 79 64 0
15.620000 22.440000 15.290000 151 77 63 0
15.840000 22.440000 15.290000 151 77 63 0
16.060000 22.440000 15.950000 151 77 61 0
16.280000 22.440000 16.060000 150 76 60 0
16.500000 22.440000 16.060000 150 72 57 0
16.720000 22.440000 16.060000 151 73 58 0
16.940000 22.440000 16.720000 150 72 57 0
17.160000 22.440000 16.720000 151 73 58 0
17.380000 22.440000 16.720000 151 71 57 0
17.600000 22.440000 16.720000 151 71 57 0
17.820000 22.440000 17.380000 151 71 57 0
18.040000 22.440000 17.380000 151 71 57 0
18.260000 22.440000 17.380000 151 71 57 0
18.480000 22.440000 18.040000 150 70 56 0
18.700000 22.440000 18.040000 151 71 57 0
18.920000 22.440000 18.150000 150 70 56 0
19.140000 22.440000 18.810000 152 70 54 0
19.360000 22.440000 18.810000 152 70 54 0
19.580000 22.440000 19.470000 152 70 54 0
19.800000 22.440000 19.470000 153 71 55 0
20.020000 22.440000 19.470000 153 71 55 0
20.240000 22.440000 19.470000 153 71 55 0
20.460000 22.440000 20.130000 153 71 55 0
20.680000 22.440000 20.130000 154 72 56 0
20.900000 22.440000 20.130000 155 73 57 0
21.120000 22.440000 20.130000 154 72 56 0
21.340000 22.440000 20.130000 155 71 56 0
21.560000 22.440000 20.790000 156 72 57 0
21.780000 22.440000 20.790000 156 72 57 0
22.000000 22.440000 20.790000 158 74 59 0
22.220000 22.440000 20.900000 159 75 60 0
22.440000 22.440000 20.900000 157 73 58 0
22.660000 22.440000 20.900000 159 75 59 0
22.880000 22.440000 20.900000 160 76 60 0
23.100000 22.440000 20.790000 159 75 59 0
23.320000 22.440000 20.900000 161 77 61 0
23.540000 22.440000 21.010000 162 78 62 0
23.760000 22.440000 20.350000 162 78 62 0
23.980000 22.440000 20.460000 162 80 61 0
24.200000 22.440000 20.460000 163 81 62 0
24.420000 22.440000 20.460000 163 81 64 0
24.640000 22.440000 20.460000 164 82 65 0
24.860000 22.440000 20.460000 165 83 66 0
25.080000 22.440000 20.570000 166 84 67 0
25.300000 22.440000 20.570000 168 84 68 0
25.520000 22.440000 20.460000 168 84 68 0
25.740000 22.440000 20.460000 169 87 68 0
25.960000 22.440000 20.460000 169 87 68 0
26.180000 22.440000 20.460000 170 88 69 0
26.400000 22.440000 20.460000 169 87 68 0
26.620000 22.440000 20.460000 171 89 72 0
26.840000 22.440000 20.460000 171 89 72 0
27.060000 22.440000 20.460000 171 89 72 0
27.280000 22.440000 20.460000 172 90 73 0
27.500000 22.440000 20.460000 173 91 72 0
27.720000 22.440000 20.460000 174 92 73 0
27.940000 22.440000 20.460000 171 92 72 0
28.160000 22.440000 20.460000 171 92 72 0
28.380000 22.440000 20.460000 173 91 74 0
28.600000 22.440000 20.460000 174 92 75 0
28.820000 22.440000 20.570000 172 88 72 0
29.040000 22.440000 20.570000 173 89 73 0
29.260000 22.440000 20.570000 172 90 71 0
29.480000 22.440000 20.570000 172 90 71 0
29.700000 22.440000 19.910000 172 90 71 0
29.920000 22.440000 16.500000 170 88 69 0
30.140000 22.440000 6.710000 170 87 68 0
30.360000 22.440000 0.990000 171 88 69 0
30.580000 22.440000 0.110000 172 86 68 0
30.800000 22.440000 0.110000 171 85 67 0
31.020000 22.440000 0.110000 171 85 65 0
31.240000 22.440000 0.110000 171 85 65 0
31.460000 22.440000 0.110000 170 84 64 0
31.680000 22.440000 0.110000 171 85 65 0
31.900000 22.440000 0.770000 170 84 66 0
32.120000 22.440000 0.770000 170 84 66 0
32.340000 22.440000 0.770000 171 83 66 0
32.560000 22.440000 0.770000 171 83 66 0
32.780000 22.440000 0.880000 169 83 63 0
33.000000 22.440000 0.880000 170 84 64 0
33.220000 22.440000 0.880000 170 82 63 0
33.440000 22.440000 0.880000 169 81 62 0
33.660000 22.440000 0.880000 168 80 61 0
33.880000 22.440000 0.880000 168 80 61 0
34.100000 22.440000 0.990000 168 80 63 0
34.320000 22.440000 1.650000 169 81 64 0
34.540000 22.440000 1.650000 170 81 62 0
34.760000 22.440000 1.760000 169 80 61 0
34.980000 22.440000 1.760000 170 81 62 0
35.200000 22.440000 1.760000 169 80 61 0
35.420000 22.440000 1.760000 169 79 63 0
35.640000 22.440000 1.870000 169 79 63 0
35.860000 22.440000 1.870000 170 78 62 0
36.080000 22.440000 1.870000 168 76 60 0
36.300000 22.440000 1.980000 170 73 59 0
36.520000 22.440000 1.980000 168 71 57 0
36.740000 22.440000 1.980000 167 70 56 0
36.960000 22.440000 1.980000 168 71 57 0
37.180000 22.440000 1.980000 167 73 56 0
0.000000 22.660000 14.630000 144 108 91 0
0.220000 22.660000 14.630000 142 108 93 0
0.440000 22.660000 14.630000 143 109 94 0
0.660000 22.660000 14.630000 144 110 95 0
0.880000 22.660000 14.630000 145 111 96 0
1.100000 22.660000 14.630000 145 111 96 0
1.320000 22.660000 14.630000 145 111 96 0
1.540000 22.660000 14.630000 145 111 96 0
1.760000 22.660000 14.630000 145 111 96 0
1.980000 22.660000 14.630000 144 112 96 0
2.200000 22.660000 14.630000 146 114 98 0
2.420000 22.660000 14.630000 146 112 98 0
2.640000 22.660000 14.630000 147 113 99 0
2.860000 22.660000 14.630000 145 113 97 0
3.080000 22.660000 14.630000 144 112 96 0
3.300000 22.660000 14.630000 145 113 97 0
3.520000 22.660000 14.630000 145 113 97 0
3.740000 22.660000 14.630000 143 113 97 0
3.960000 22.660000 14.630000 143 113 97 0
4.180000 22.660000 14.740000 143 113 98 0
4.400000 22.660000 14.630000 143 113 98 0
4.620000 22.660000 14.630000 141 113 96 0
4.840000 22.660000 14.630000 141 113 96 0
5.060000 22.660000 14.630000 141 111 95 0
5.280000 22.660000 14.630000 141 111 95 0
5.500000 22.660000 14.630000 140 110 94 0
5.720000 22.660000 14.630000 140 110 94 0
5.940000 22.660000 14.630000 140 112 96 0
6.160000 22.660000 14.630000 141 113 97 0
6.380000 22.660000 14.630000 142 116 99 0
6.600000 22.660000 14.630000 142 116 99 0
6.820000 22.660000 14.630000 145 117 101 0
7.040000 22.660000 14.630000 145 117 101 0
7.260000 22.660000 14.630000 145 117 100 0
7.480000 22.660000 14.740000 144 116 99 0
7.700000 22.660000 14.740000 144 114 98 0
7.920000 22.660000 13.970000 143 113 97 0
8.140000 22.660000 13.970000 144 112 96 0
8.360000 22.660000 14.630000 143 111 95 0
8.580000 22.660000 14.630000 145 109 92 0
8.800000 22.660000 14.630000 144 108 91 0
9.020000 22.660000 13.970000 144 108 91 0
9.240000 22.660000 13.970000 143 107 90 0
9.460000 22.660000 14.630000 145 105 90 0
9.680000 22.660000 14.630000 144 104 89 0
9.900000 22.660000 14.630000 143 103 88 0
10.120000 22.660000 13.970000 142 102 87 0
10.340000 22.660000 13.970000 141 101 86 0
10.560000 22.660000 13.970000 141 101 86 0
10.780000 22.660000 13.970000 140 100 85 0
11.000000 22.660000 13.970000 140 100 85 0
11.220000 22.660000 13.970000 142 100 83 0
11.440000 22.660000 13.970000 141 99 82 0
11.660000 22.660000 13.970000 141 101 86 0
11.880000 22.660000 14.630000 140 100 85 0
12.100000 22.660000 14.630000 142 98 80 0
12.320000 22.660000 14.630000 140 96 78 0
12.540000 22.660000 14.630000 143 93 77 0
12.760000 22.660000 14.630000 142 92 76 0
12.980000 22.660000 14.630000 143 89 72 0
13.200000 22.660000 14.630000 142 88 71 0
13.420000 22.660000 14.630000 147 87 71 0
13.640000 22.660000 15.290000 146 86 70 0
13.860000 22.660000 15.290000 149 85 68 0
14.080000 22.660000 15.290000 148 84 67 0
14.300000 22.660000 15.290000 147 83 68 0
14.520000 22.660000 15.290000 148 84 69 0
14.740000 22.660000 15.290000 149 81 65 0
14.960000 22.660000 15.290000 148 80 64 0
15.180000 22.660000 15.290000 151 78 64 0
15.400000 22.660000 15.290000 150 77 63 0
15.620000 22.660000 15.290000 150 78 61 0
15.840000 22.660000 15.290000 150 78 61 0
16.060000 22.660000 15.290000 150 76 60 0
16.280000 22.660000 16.060000 150 76 60 0
16.500000 22.660000 16.060000 151 73 58 0
16.720000 22.660000 15.950000 151 73 58 0
16.940000 22.660000 16.720000 151 73 58 0
17.160000 22.660000 16.720000 152 74 59 0
17.380000 22.660000 16.720000 151 71 55 0
17.600000 22.660000 17.380000 151 71 55 0
17.820000 22.660000 17.380000 152 72 58 0
18.040000 22.660000 17.380000 151 71 57 0
18.260000 22.660000 18.040000 150 70 54 0
18.480000 22.660000 18.040000 151 71 55 0
18.700000 22.660000 18.040000 150 70 56 0
18.920000 22.660000 18.150000 150 70 56 0
19.140000 22.660000 18.810000 149 69 53 0
19.360000 22.660000 19.470000 149 69 53 0
19.580000 22.660000 19.470000 153 71 55 0
19.800000 22.660000 19.470000 153 71 55 0
20.020000 22.660000 19.470000 153 71 55 0
20.240000 22.660000 20.130000 153 71 55 0
20.460000 22.660000 20.130000 153 71 55 0
20.680000 22.660000 20.130000 153 71 55 0
20.900000 22.660000 20.130000 154 72 56 0
21.120000 22.660000 20.130000 154 72 56 0
21.340000 22.660000 20.130000 156 72 57 0
21.560000 22.660000 20.790000 156 72 57 0
21.780000 22.660000 20.790000 157 73 57 0
22.000000 22.660000 20.790000 157 73 57 0
22.220000 22.660000 20.900000 158 74 59 0
22.440000 22.660000 20.900000 158 74 59 0
22.660000 22.660000 20.790000 159 75 59 0
22.880000 22.660000 20.790000 161 77 61 0
23.100000 22.660000 20.900000 161 77 61 0
23.320000 22.660000 20.900000 161 77 61 0
23.540000 22.660000 20.900000 162 78 62 0
23.760000 22.660000 20.350000 162 78 62 0
23.980000 22.660000 20.350000 163 81 62 0
24.200000 22.660000 20.350000 163 81 62 0
24.420000 22.660000 20.460000 164 82 65 0
24.640000 22.660000 20.460000 164 82 65 0
24.860000 22.660000 20.570000 165 83 64 0
25.080000 22.660000 20.570000 167 85 66 0
25.300000 22.660000 20.570000 166 84 67 0
25.520000 22.660000 20.460000 167 85 68 0
25.740000 22.660000 20.460000 169 87 68 0
25.960000 22.660000 20.460000 169 87 68 0
26.180000 22.660000 20.460000 169 87 70 0
26.400000 22.660000 20.460000 171 89 72 0
26.620000 22.660000 20.460000 171 89 70 0
26.840000 22.660000 20.460000 170 88 69 0
27.060000 22.660000 20.460000 171 89 70 0
27.280000 22.660000 20.460000 172 90 71 0
27.500000 22.660000 20.460000 173 91 72 0
27.720000 22.660000 20.460000 172 90 71 0
27.940000 22.660000 20.460000 173 91 72 0
28.160000 22.660000 20.460000 173 91 72 0
28.380000 22.660000 20.460000 172 90 71 0
28.600000 22.660000 20.460000 172 90 71 0
28.820000 22.660000 20.460000 171 89 70 0
29.040000 22.660000 20.570000 171 89 70 0
29.260000 22.660000 20.570000 171 89 70 0
29.480000 22.660000 20.570000 171 89 70 0
29.700000 22.660000 20.570000 171 89 70 0
29.920000 22.660000 16.500000 171 89 70 0
30.140000 22.660000 8.140000 171 88 69 0
30.360000 22.660000 3.190000 170 87 68 0
30.580000 22.660000 0.880000 172 86 68 0
30.800000 22.660000 0.110000 171 85 67 0
31.020000 22.660000 0.110000 172 86 66 0
31.240000 22.660000 0.110000 171 85 65 0
31.460000 22.660000 0.110000 171 85 67 0
31.680000 22.660000 0.110000 171 85 67 0
31.900000 22.660000 0.110000 170 84 64 0
32.120000 22.660000 0.770000 170 84 64 0
32.340000 22.660000 0.770000 170 84 64 0
32.560000 22.660000 0.770000 170 84 64 0
32.780000 22.660000 0.770000 171 83 64 0
33.000000 22.660000 0.880000 171 83 64 0
33.220000 22.660000 0.880000 170 82 63 0
33.440000 22.660000 0.880000 170 82 63 0
33.660000 22.660000 0.880000 169 81 62 0
33.880000 22.660000 0.880000 168 80 61 0
34.100000 22.660000 0.880000 169 80 61 0
34.320000 22.660000 0.990000 169 80 61 0
34.540000 22.660000 1.650000 169 80 61 0
34.760000 22.660000 1.650000 169 80 61 0
34.980000 22.660000 1.760000 169 80 61 0
35.200000 22.660000 1.760000 169 80 61 0
35.420000 22.660000 1.760000 169 80 61 0
35.640000 22.660000 1.870000 167 78 59 0
35.860000 22.660000 1.870000 170 78 60 0
36.080000 22.660000 1.870000 167 75 57 0
36.300000 22.660000 1.980000 168 74 57 0
36.520000 22.660000 1.980000 166 72 55 0
36.740000 22.660000 1.980000 166 72 55 0
36.960000 22.660000 1.980000 167 73 56 0
37.180000 22.660000 1.980000 167 73 56 0
0.000000 22.880000 14.630000 142 106 89 0
0.220000 22.880000 14.630000 141 107 92 0
0.440000 22.880000 14.630000 142 108 93 0
0.660000 22.880000 14.630000 143 109 94 0
0.880000 22.880000 14.630000 143 109 94 0
1.100000 22.880000 14.630000 143 109 94 0
1.320000 22.880000 14.630000 145 111 96 0
1.540000 22.880000 14.630000 144 110 95 0
1.760000 22.880000 14.630000 144 110 95 0
1.980000 22.880000 14.630000 144 112 96 0
2.200000 22.880000 14.630000 143 111 95 0
2.420000 22.880000 14.630000 146 112 98 0
2.640000 22.880000 14.630000 147 113 99 0
2.860000 22.880000 14.630000 145 113 97 0
3.080000 22.880000 14.630000 145 113 97 0
3.300000 22.880000 14.630000 144 112 96 0
3.520000 22.880000 14.630000 144 112 96 0
3.740000 22.880000 14.630000 142 112 96 0
3.960000 22.880000 14.630000 143 113 97 0
4.180000 22.880000 14.740000 143 113 98 0
4.400000 22.880000 14.630000 143 113 98 0
4.620000 22.880000 14.630000 140 112 95 0
4.840000 22.880000 14.740000 139 111 94 0
5.060000 22.880000 14.740000 141 111 95 0
5.280000 22.880000 14.630000 141 111 95 0
5.500000 22.880000 14.630000 141 111 95 0
5.720000 22.880000 14.630000 141 111 95 0
5.940000 22.880000 14.630000 140 112 96 0
6.160000 22.880000 14.630000 141 113 97 0
6.380000 22.880000 14.630000 140 114 97 0
6.600000 22.880000 14.630000 142 116 99 0
6.820000 22.880000 14.630000 143 115 99 0
7.040000 22.880000 14.630000 144 116 100 0
7.260000 22.880000 14.630000 145 117 100 0
7.480000 22.880000 14.630000 144 116 99 0
7.700000 22.880000 14.630000 144 114 98 0
7.920000 22.880000 14.740000 143 113 97 0
8.140000 22.880000 13.970000 144 112 96 0
8.360000 22.880000 14.630000 142 110 94 0
8.580000 22.880000 14.630000 145 109 92 0
8.800000 22.880000 14.630000 145 109 92 0
9.020000 22.880000 14.630000 143 107 90 0
9.240000 22.880000 13.860000 143 107 90 0
9.460000 22.880000 14.630000 144 104 89 0
9.680000 22.880000 14.630000 143 103 88 0
9.900000 22.880000 14.630000 143 103 88 0
10.120000 22.880000 13.970000 143 103 88 0
10.340000 22.880000 13.970000 142 102 87 0
10.560000 22.880000 13.970000 140 100 85 0
10.780000 22.880000 13.970000 140 100 85 0
11.000000 22.880000 13.970000 140 100 85 0
11.220000 22.880000 13.970000 141 99 82 0
11.440000 22.880000 13.970000 142 100 83 0
11.660000 22.880000 13.970000 140 100 85 0
11.880000 22.880000 14.630000 139 99 84 0
12.100000 22.880000 14.630000 141 97 79 0
12.320000 22.880000 14.630000 139 95 77 0
12.540000 22.880000 14.630000 142 92 76 0
12.760000 22.880000 14.630000 141 91 75 0
12.980000 22.880000 15.290000 142 88 71 0
13.200000 22.880000 15.290000 142 88 71 0
13.420000 22.880000 15.290000 147 87 71 0
13.640000 22.880000 15.290000 146 86 70 0
13.860000 22.880000 15.290000 149 85 68 0
14.080000 22.880000 15.290000 147 83 66 0
14.300000 22.880000 15.290000 147 83 68 0
14.520000 22.880000 15.290000 147 83 68 0
14.740000 22.880000 15.290000 149 81 65 0
14.960000 22.880000 15.290000 149 81 65 0
15.180000 22.880000 15.290000 151 78 64 0
15.400000 22.880000 16.060000 151 78 64 0
15.620000 22.880000 15.950000 149 77 60 0
15.840000 22.880000 15.290000 150 78 61 0
16.060000 22.880000 15.950000 150 76 60 0
16.280000 22.880000 15.950000 149 75 59 0
16.500000 22.880000 16.060000 152 74 59 0
16.720000 22.880000 16.720000 150 72 57 0
16.940000 22.880000 16.720000 150 72 57 0
17.160000 22.880000 16.720000 151 73 58 0
17.380000 22.880000 16.720000 151 71 55 0
17.600000 22.880000 17.380000 151 71 55 0
17.820000 22.880000 17.380000 151 71 57 0
18.040000 22.880000 17.380000 150 70 56 0
18.260000 22.880000 18.040000 151 71 55 0
18.480000 22.880000 18.040000 150 70 54 0
18.700000 22.880000 18.040000 150 70 56 0
18.920000 22.880000 18.040000 150 70 56 0
19.140000 22.880000 18.810000 151 71 55 0
19.360000 22.880000 19.470000 149 69 53 0
19.580000 22.880000 19.470000 152 70 54 0
19.800000 22.880000 19.470000 153 71 55 0
20.020000 22.880000 19.470000 153 71 55 0
20.240000 22.880000 20.130000 152 70 54 0
20.460000 22.880000 20.130000 153 71 55 0
20.680000 22.880000 20.130000 153 71 55 0
20.900000 22.880000 20.130000 152 70 54 0
21.120000 22.880000 20.130000 154 72 56 0
21.340000 22.880000 20.790000 156 72 57 0
21.560000 22.880000 20.130000 157 73 58 0
21.780000 22.880000 20.790000 157 73 57 0
22.000000 22.880000 20.790000 158 74 58 0
22.220000 22.880000 20.900000 158 74 59 0
22.440000 22.880000 20.900000 157 73 58 0
22.660000 22.880000 20.790000 159 75 59 0
22.880000 22.880000 20.790000 160 76 60 0
23.100000 22.880000 20.900000 160 76 60 0
23.320000 22.880000 20.900000 160 76 60 0
23.540000 22.880000 20.900000 161 77 61 0
23.760000 22.880000 20.350000 162 78 62 0
23.980000 22.880000 20.460000 163 81 62 0
24.200000 22.880000 20.460000 163 81 62 0
24.420000 22.880000 20.460000 165 83 66 0
24.640000 22.880000 19.800000 164 82 65 0
24.860000 22.880000 19.800000 165 83 64 0
25.080000 22.880000 19.800000 166 84 65 0
25.300000 22.880000 19.800000 167 85 68 0
25.520000 22.880000 20.460000 168 86 69 0
25.740000 22.880000 20.460000 169 87 68 0
25.960000 22.880000 20.460000 168 86 67 0
26.180000 22.880000 20.460000 169 87 70 0
26.400000 22.880000 20.460000 170 88 71 0
26.620000 22.880000 20.460000 170 88 69 0
26.840000 22.880000 20.460000 170 88 69 0
27.060000 22.880000 20.460000 170 88 69 0
27.280000 22.880000 20.460000 172 90 71 0
27.500000 22.880000 20.460000 171 89 70 0
27.720000 22.880000 20.460000 173 91 72 0
27.940000 22.880000 20.460000 172 90 71 0
28.160000 22.880000 20.460000 171 89 70 0
28.380000 22.880000 20.460000 171 89 70 0
28.600000 22.880000 20.460000 171 89 70 0
28.820000 22.880000 20.460000 171 89 70 0
29.040000 22.880000 20.570000 171 89 70 0
29.260000 22.880000 20.570000 171 89 70 0
29.480000 22.880000 20.570000 171 89 70 0
29.700000 22.880000 20.570000 171 89 70 0
29.920000 22.880000 19.250000 171 89 70 0
30.140000 22.880000 16.500000 170 87 68 0
30.360000 22.880000 11.440000 171 88 69 0
30.580000 22.880000 4.950000 172 86 68 0
30.800000 22.880000 2.860000 171 85 67 0
31.020000 22.880000 1.430000 171 85 65 0
31.240000 22.880000 0.110000 171 85 65 0
31.460000 22.880000 0.110000 171 85 67 0
31.680000 22.880000 0.110000 171 85 67 0
31.900000 22.880000 0.110000 170 84 64 0
32.120000 22.880000 0.770000 170 84 64 0
32.340000 22.880000 0.770000 170 84 64 0
32.560000 22.880000 0.770000 171 85 65 0
32.780000 22.880000 0.770000 170 82 63 0
33.000000 22.880000 0.880000 171 83 64 0
33.220000 22.880000 0.880000 171 83 64 0
33.440000 22.880000 0.880000 170 82 63 0
33.660000 22.880000 0.880000 169 81 62 0
33.880000 22.880000 0.880000 169 81 62 0
34.100000 22.880000 0.880000 170 81 62 0
34.320000 22.880000 0.990000 170 81 62 0
34.540000 22.880000 1.650000 168 79 60 0
34.760000 22.880000 1.650000 170 81 62 0
34.980000 22.880000 1.760000 170 81 62 0
35.200000 22.880000 1.760000 169 80 61 0
35.420000 22.880000 1.760000 169 80 61 0
35.640000 22.880000 1.870000 168 79 60 0
35.860000 22.880000 1.870000 170 78 60 0
36.080000 22.880000 1.870000 168 76 58 0
36.300000 22.880000 1.870000 167 73 56 0
36.520000 22.880000 1.980000 166 72 55 0
36.740000 22.880000 1.980000 165 71 54 0
36.960000 22.880000 1.980000 166 72 55 0
37.180000 22.880000 1.980000 168 74 57 0
0.000000 23.100000 14.630000 144 108 91 0
0.220000 23.100000 14.630000 141 107 92 0
0.440000 23.100000 14.630000 142 108 93 0
0.660000 23.100000 14.630000 141 107 92 0
0.880000 23.100000 14.630000 143 109 94 0
1.100000 23.100000 14.630000 143 109 94 0
1.320000 23.100000 14.630000 143 109 94 0
1.540000 23.100000 14.630000 144 110 95 0
1.760000 23.100000 14.630000 144 110 95 0
1.980000 23.100000 14.630000 145 111 96 0
2.200000 23.100000 14.630000 145 111 96 0
2.420000 23.100000 14.630000 145 113 97 0
2.640000 23.100000 14.630000 145 113 97 0
2.860000 23.100000 14.630000 145 113 97 0
3.080000 23.100000 14.630000 144 112 96 0
3.300000 23.100000 14.630000 144 112 96 0
3.520000 23.100000 14.740000 145 113 97 0
3.740000 23.100000 14.740000 141 113 96 0
3.960000 23.100000 14.740000 142 114 97 0
4.180000 23.100000 14.630000 142 112 96 0
4.400000 23.100000 14.630000 142 112 96 0
4.620000 23.100000 14.630000 141 111 95 0
4.840000 23.100000 14.740000 140 110 94 0
5.060000 23.100000 14.740000 140 110 94 0
5.280000 23.100000 14.740000 140 110 94 0
5.500000 23.100000 14.740000 139 111 94 0
5.720000 23.100000 14.630000 140 112 95 0
5.940000 23.100000 13.970000 140 112 96 0
6.160000 23.100000 14.630000 140 112 96 0
6.380000 23.100000 14.630000 141 113 97 0
6.600000 23.100000 14.630000 143 115 99 0
6.820000 23.100000 14.630000 143 117 100 0
7.040000 23.100000 14.630000 143 117 100 0
7.260000 23.100000 14.630000 144 118 101 0
7.480000 23.100000 14.630000 142 116 99 0
7.700000 23.100000 14.630000 143 113 97 0
7.920000 23.100000 14.630000 143 113 97 0
8.140000 23.100000 14.630000 143 111 95 0
8.360000 23.100000 14.630000 143 111 95 0
8.580000 23.100000 14.630000 145 109 92 0
8.800000 23.100000 14.630000 145 109 92 0
9.020000 23.100000 14.630000 143 107 90 0
9.240000 23.100000 13.970000 143 107 90 0
9.460000 23.100000 13.970000 143 105 89 0
9.680000 23.100000 14.630000 142 104 88 0
9.900000 23.100000 14.630000 141 103 87 0
10.120000 23.100000 13.970000 141 103 87 0
10.340000 23.100000 13.970000 142 103 85 0
10.560000 23.100000 13.970000 141 102 84 0
10.780000 23.100000 13.970000 143 100 86 0
11.000000 23.100000 13.970000 142 99 85 0
11.220000 23.100000 13.970000 141 98 84 0
11.440000 23.100000 13.970000 142 99 85 0
11.660000 23.100000 13.970000 141 98 84 0
11.880000 23.100000 14.630000 140 97 83 0
12.100000 23.100000 14.630000 141 97 81 0
12.320000 23.100000 14.630000 140 96 80 0
12.540000 23.100000 14.630000 142 92 76 0
12.760000 23.100000 14.630000 141 91 75 0
12.980000 23.100000 15.290000 146 88 71 0
13.200000 23.100000 15.290000 144 86 69 0
13.420000 23.100000 15.290000 149 87 71 0
13.640000 23.100000 15.290000 149 87 71 0
13.860000 23.100000 15.290000 149 85 68 0
14.080000 23.100000 15.290000 148 84 67 0
14.300000 23.100000 15.290000 150 82 66 0
14.520000 23.100000 15.290000 150 82 66 0
14.740000 23.100000 15.290000 149 81 65 0
14.960000 23.100000 15.290000 149 81 65 0
15.180000 23.100000 15.290000 149 79 64 0
15.400000 23.100000 15.290000 149 79 64 0
15.620000 23.100000 15.950000 151 77 61 0
15.840000 23.100000 15.950000 151 77 61 0
16.060000 23.100000 15.950000 153 75 60 0
16.280000 23.100000 15.950000 152 74 59 0
16.500000 23.100000 15.950000 150 72 57 0
16.720000 23.100000 16.720000 151 73 58 0
16.940000 23.100000 16.720000 152 72 58 0
17.160000 23.100000 16.720000 151 71 57 0
17.380000 23.100000 16.720000 150 70 56 0
17.600000 23.100000 17.380000 150 70 56 0
17.820000 23.100000 17.380000 151 71 57 0
18.040000 23.100000 18.040000 151 71 57 0
18.260000 23.100000 18.040000 153 71 55 0
18.480000 23.100000 18.040000 152 70 54 0
18.700000 23.100000 18.040000 154 71 58 0
18.920000 23.100000 18.810000 153 70 57 0
19.140000 23.100000 18.810000 152 69 56 0
19.360000 23.100000 19.470000 152 69 56 0
19.580000 23.100000 19.470000 152 70 54 0
19.800000 23.100000 19.470000 152 70 54 0
20.020000 23.100000 19.470000 153 71 55 0
20.240000 23.100000 19.470000 153 71 55 0
20.460000 23.100000 20.130000 153 69 54 0
20.680000 23.100000 20.130000 154 70 55 0
20.900000 23.100000 20.130000 154 70 55 0
21.120000 23.100000 20.130000 155 71 56 0
21.340000 23.100000 20.790000 156 72 57 0
21.560000 23.100000 20.130000 156 72 57 0
21.780000 23.100000 20.790000 156 72 57 0
22.000000 23.100000 20.790000 156 72 57 0
22.220000 23.100000 20.900000 158 71 57 0
22.440000 23.100000 20.900000 159 72 58 0
22.660000 23.100000 20.790000 158 74 59 0
22.880000 23.100000 20.790000 160 76 61 0
23.100000 23.100000 20.790000 159 75 59 0
23.320000 23.100000 20.900000 161 77 61 0
23.540000 23.100000 21.010000 162 78 62 0
23.760000 23.100000 20.350000 163 79 63 0
23.980000 23.100000 20.350000 162 80 61 0
24.200000 23.100000 20.350000 164 82 63 0
24.420000 23.100000 20.460000 164 82 63 0
24.640000 23.100000 19.800000 164 82 63 0
24.860000 23.100000 20.460000 165 83 64 0
25.080000 23.100000 20.460000 165 83 64 0
25.300000 23.100000 19.800000 166 84 65 0
25.520000 23.100000 20.460000 167 85 66 0
25.740000 23.100000 20.460000 169 87 68 0
25.960000 23.100000 20.460000 168 86 67 0
26.180000 23.100000 20.460000 169 87 68 0
26.400000 23.100000 20.460000 170 88 69 0
26.620000 23.100000 20.460000 170 89 67 0
26.840000 23.100000 20.460000 169 88 66 0
27.060000 23.100000 20.460000 170 89 67 0
27.280000 23.100000 20.460000 171 90 68 0
27.500000 23.100000 20.460000 171 89 70 0
27.720000 23.100000 20.460000 173 91 72 0
27.940000 23.100000 20.460000 171 90 68 0
28.160000 23.100000 20.460000 171 90 68 0
28.380000 23.100000 20.460000 171 90 68 0
28.600000 23.100000 20.460000 171 90 68 0
28.820000 23.100000 20.460000 170 89 67 0
29.040000 23.100000 20.460000 170 89 67 0
29.260000 23.100000 20.570000 171 88 67 0
29.480000 23.100000 20.570000 171 88 67 0
29.700000 23.100000 19.910000 171 88 67 0
29.920000 23.100000 19.910000 171 88 67 0
30.140000 23.100000 20.570000 170 87 64 0
30.360000 23.100000 15.510000 170 87 64 0
30.580000 23.100000 9.130000 171 85 65 0
30.800000 23.100000 8.360000 171 85 65 0
31.020000 23.100000 4.180000 171 85 65 0
31.240000 23.100000 0.110000 171 85 65 0
31.460000 23.100000 0.110000 171 85 65 0
31.680000 23.100000 0.110000 170 84 64 0
31.900000 23.100000 0.110000 170 85 62 0
32.120000 23.100000 0.110000 170 85 62 0
32.340000 23.100000 0.770000 171 84 62 0
32.560000 23.100000 0.770000 170 83 61 0
32.780000 23.100000 0.770000 171 83 64 0
33.000000 23.100000 0.770000 171 83 64 0
33.220000 23.100000 0.880000 171 83 64 0
33.440000 23.100000 0.880000 169 81 62 0
33.660000 23.100000 0.880000 169 82 60 0
33.880000 23.100000 0.880000 169 82 60 0
34.100000 23.100000 0.880000 169 80 59 0
34.320000 23.100000 0.990000 170 81 60 0
34.540000 23.100000 0.990000 171 82 61 0
34.760000 23.100000 1.650000 170 81 60 0
34.980000 23.100000 1.760000 170 82 63 0
35.200000 23.100000 1.100000 169 81 62 0
35.420000 23.100000 1.760000 169 80 59 0
35.640000 23.100000 1.870000 170 81 60 0
35.860000 23.100000 1.870000 169 80 59 0
36.080000 23.100000 1.870000 166 77 56 0
36.300000 23.100000 1.870000 169 73 56 0
36.520000 23.100000 1.980000 167 71 54 0
36.740000 23.100000 1.980000 167 71 54 0
36.960000 23.100000 1.980000 168 72 55 0
37.180000 23.100000 1.980000 168 72 53 0
0.000000 23.320000 14.630000 142 106 89 0
0.220000 23.320000 14.630000 141 107 92 0
0.440000 23.320000 14.630000 142 108 93 0
0.660000 23.320000 14.630000 141 107 92 0
0.880000 23.320000 14.630000 142 108 93 0
1.100000 23.320000 14.630000 142 108 93 0
1.320000 23.320000 14.630000 143 109 94 0
1.540000 23.320000 14.630000 144 110 95 0
1.760000 23.320000 14.630000 144 110 95 0
1.980000 23.320000 14.630000 144 110 95 0
2.200000 23.320000 14.630000 145 111 96 0
2.420000 23.320000 14.630000 144 112 96 0
2.640000 23.320000 14.630000 145 113 97 0
2.860000 23.320000 14.630000 144 112 96 0
3.080000 23.320000 14.630000 144 112 96 0
3.300000 23.320000 14.630000 144 112 96 0
3.520000 23.320000 14.630000 144 112 96 0
3.740000 23.320000 13.970000 140 112 95 0
3.960000 23.320000 13.970000 141 113 96 0
4.180000 23.320000 14.630000 142 112 96 0
4.400000 23.320000 14.630000 141 111 95 0
4.620000 23.320000 14.630000 140 110 94 0
4.840000 23.320000 14.630000 140 110 94 0
5.060000 23.320000 14.740000 140 110 94 0
5.280000 23.320000 14.740000 139 109 93 0
5.500000 23.320000 14.630000 139 111 94 0
5.720000 23.320000 14.740000 139 111 94 0
5.940000 23.320000 13.970000 139 111 95 0
6.160000 23.320000 13.970000 139 111 95 0
6.380000 23.320000 14.630000 142 114 98 0
6.600000 23.320000 14.630000 143 115 99 0
6.820000 23.320000 14.630000 143 117 100 0
7.040000 23.320000 14.630000 142 116 99 0
7.260000 23.320000 14.630000 142 116 99 0
7.480000 23.320000 14.630000 143 117 100 0
7.700000 23.320000 14.630000 145 115 99 0
7.920000 23.320000 14.740000 141 111 95 0
8.140000 23.320000 14.630000 143 111 95 0
8.360000 23.320000 14.630000 143 111 95 0
8.580000 23.320000 14.630000 145 109 92 0
8.800000 23.320000 14.630000 143 107 90 0
9.020000 23.320000 14.630000 143 107 90 0
9.240000 23.320000 13.970000 142 106 89 0
9.460000 23.320000 13.970000 143 105 89 0
9.680000 23.320000 13.970000 142 104 88 0
9.900000 23.320000 13.970000 141 103 87 0
10.120000 23.320000 13.970000 141 103 87 0
10.340000 23.320000 13.970000 141 102 84 0
10.560000 23.320000 13.970000 141 102 84 0
10.780000 23.320000 14.630000 142 99 85 0
11.000000 23.320000 13.970000 141 98 84 0
11.220000 23.320000 13.970000 142 99 85 0
11.440000 23.320000 13.970000 141 98 84 0
11.660000 23.320000 13.970000 140 97 83 0
11.880000 23.320000 14.630000 140 97 83 0
12.100000 23.320000 14.630000 140 96 80 0
12.320000 23.320000 14.630000 139 95 79 0
12.540000 23.320000 14.630000 143 93 77 0
12.760000 23.320000 14.630000 140 90 74 0
12.980000 23.320000 14.630000 146 88 71 0
13.200000 23.320000 15.290000 145 87 70 0
13.420000 23.320000 15.290000 148 86 70 0
13.640000 23.320000 15.290000 147 85 69 0
13.860000 23.320000 15.290000 149 85 68 0
14.080000 23.320000 15.290000 148 84 67 0
14.300000 23.320000 15.290000 150 82 66 0
14.520000 23.320000 15.290000 149 81 65 0
14.740000 23.320000 15.290000 148 80 64 0
14.960000 23.320000 15.290000 148 80 64 0
15.180000 23.320000 15.290000 149 79 64 0
15.400000 23.320000 15.290000 148 78 63 0
15.620000 23.320000 15.290000 151 77 61 0
15.840000 23.320000 15.950000 150 76 60 0
16.060000 23.320000 15.950000 151 73 58 0
16.280000 23.320000 15.950000 151 73 58 0
16.500000 23.320000 15.950000 150 72 57 0
16.720000 23.320000 16.720000 151 73 58 0
16.940000 23.320000 16.720000 151 71 57 0
17.160000 23.320000 16.720000 151 71 57 0
17.380000 23.320000 17.380000 151 71 57 0
17.600000 23.320000 17.380000 150 70 56 0
17.820000 23.320000 17.380000 151 71 57 0
18.040000 23.320000 18.040000 151 71 57 0
18.260000 23.320000 18.040000 153 71 55 0
18.480000 23.320000 18.040000 152 70 54 0
18.700000 23.320000 18.810000 152 69 56 0
18.920000 23.320000 18.810000 152 69 56 0
19.140000 23.320000 18.810000 152 69 56 0
19.360000 23.320000 18.810000 153 70 57 0
19.580000 23.320000 19.470000 151 69 53 0
19.800000 23.320000 19.470000 152 70 54 0
20.020000 23.320000 19.470000 153 71 55 0
20.240000 23.320000 19.470000 152 70 54 0
20.460000 23.320000 20.130000 153 69 54 0
20.680000 23.320000 20.130000 153 69 54 0
20.900000 23.320000 20.130000 154 70 55 0
21.120000 23.320000 20.130000 154 70 55 0
21.340000 23.320000 20.130000 155 71 56 0
21.560000 23.320000 20.900000 155 71 56 0
