ply
format ascii 1.0
element vertex 1153
property float x
property float y
property float z
property uchar red
property uchar green
property uchar blue
property uchar alpha
end_header
25.960000 5.280000 1.760000 192 92 87 0
26.180000 5.280000 1.760000 192 92 87 0
26.400000 5.280000 1.760000 192 92 87 0
26.620000 5.280000 3.080000 191 91 86 0
26.840000 5.280000 3.080000 192 92 87 0
27.060000 5.280000 3.080000 194 94 89 0
27.280000 5.280000 3.300000 194 94 89 0
27.500000 5.280000 3.300000 194 94 89 0
27.720000 5.280000 3.300000 193 95 89 0
27.940000 5.280000 3.300000 195 97 91 0
28.160000 5.280000 4.620000 194 96 90 0
28.380000 5.280000 4.620000 194 96 90 0
28.600000 5.280000 4.620000 194 96 90 0
28.820000 5.280000 4.620000 194 96 90 0
29.040000 5.280000 5.940000 195 97 91 0
29.260000 5.280000 5.720000 197 99 93 0
29.480000 5.280000 5.720000 194 99 92 0
29.700000 5.280000 7.040000 196 101 94 0
29.920000 5.280000 7.040000 197 102 95 0
30.140000 5.280000 7.260000 197 102 95 0
30.360000 5.280000 7.260000 197 103 96 0
30.580000 5.280000 8.580000 199 105 98 0
30.800000 5.280000 8.580000 197 108 99 0
31.020000 5.280000 8.580000 199 110 101 0
31.240000 5.280000 8.580000 200 110 104 0
31.460000 5.280000 8.800000 198 108 102 0
31.680000 5.280000 8.800000 194 113 107 0
31.900000 5.280000 8.800000 198 117 111 0
32.120000 5.280000 10.340000 195 129 125 0
32.340000 5.280000 10.340000 200 134 130 0
32.560000 5.280000 10.340000 195 150 139 0
32.780000 5.280000 10.560000 201 156 145 0
33.000000 5.280000 10.560000 203 160 148 0
33.220000 5.280000 10.560000 206 163 151 0
33.440000 5.280000 10.560000 202 167 156 0
33.660000 5.280000 10.560000 205 170 159 0
33.880000 5.280000 10.780000 209 171 165 0
34.100000 5.280000 10.780000 210 172 166 0
34.320000 5.280000 12.100000 208 173 164 0
34.540000 5.280000 12.320000 211 176 167 0
34.760000 5.280000 12.320000 205 174 164 0
34.980000 5.280000 13.420000 206 175 165 0
35.200000 5.280000 14.300000 207 174 164 0
35.420000 5.280000 15.400000 206 173 163 0
35.640000 5.280000 15.400000 210 171 163 0
35.860000 5.280000 16.720000 208 169 161 0
36.080000 5.280000 16.940000 208 168 156 0
36.300000 5.280000 16.940000 206 166 154 0
36.520000 5.280000 16.940000 207 156 148 0
36.740000 5.280000 16.940000 205 154 146 0
36.960000 5.280000 17.160000 204 149 141 0
37.180000 5.280000 17.160000 199 144 136 0
0.000000 5.500000 29.700000 159 91 73 0
0.220000 5.500000 29.700000 159 91 73 0
0.440000 5.500000 29.920000 158 91 70 0
0.660000 5.500000 29.920000 158 91 70 0
0.880000 5.500000 29.920000 158 90 72 0
1.100000 5.500000 29.920000 157 89 71 0
1.320000 5.500000 29.920000 158 89 71 0
1.540000 5.500000 30.140000 157 88 70 0
1.760000 5.500000 30.140000 156 88 70 0
1.980000 5.500000 30.140000 156 88 70 0
2.200000 5.500000 30.140000 156 88 70 0
2.420000 5.500000 30.140000 156 88 70 0
2.640000 5.500000 30.360000 155 89 70 0
2.860000 5.500000 30.360000 155 89 70 0
3.080000 5.500000 30.360000 155 89 70 0
3.300000 5.500000 30.360000 155 89 70 0
3.520000 5.500000 30.360000 156 90 71 0
3.740000 5.500000 31.460000 157 91 72 0
3.960000 5.500000 31.680000 151 92 73 0
4.180000 5.500000 31.460000 152 93 74 0
4.400000 5.500000 31.460000 152 93 74 0
4.620000 5.500000 31.460000 153 94 75 0
4.840000 5.500000 31.460000 152 94 75 0
5.060000 5.500000 32.780000 154 96 77 0
5.280000 5.500000 32.780000 148 101 80 0
5.500000 5.500000 31.680000 148 101 80 0
5.720000 5.500000 31.680000 148 107 85 0
5.940000 5.500000 32.780000 149 108 86 0
6.160000 5.500000 32.560000 147 115 89 0
6.380000 5.500000 33.660000 149 117 91 0
6.600000 5.500000 34.760000 153 118 93 0
6.820000 5.500000 34.760000 157 122 97 0
7.040000 5.500000 36.080000 156 128 101 0
7.260000 5.500000 36.080000 161 133 106 0
7.480000 5.500000 36.080000 162 136 108 0
7.700000 5.500000 36.080000 167 141 113 0
7.920000 5.500000 36.080000 171 148 112 0
8.140000 5.500000 36.080000 176 153 117 0
8.360000 5.500000 36.080000 175 158 127 0
8.580000 5.500000 36.080000 180 163 132 0
8.800000 5.500000 36.080000 182 168 137 0
9.020000 5.500000 36.080000 186 172 141 0
9.240000 5.500000 36.300000 186 174 145 0
9.460000 5.500000 36.300000 192 180 151 0
9.680000 5.500000 36.300000 194 184 156 0
9.900000 5.500000 36.300000 197 187 159 0
10.120000 5.500000 36.300000 196 188 160 0
10.340000 5.500000 36.300000 200 192 164 0
10.560000 5.500000 36.520000 200 195 170 0
10.780000 5.500000 36.520000 201 196 171 0
11.000000 5.500000 36.520000 203 197 176 0
11.220000 5.500000 35.200000 205 199 178 0
11.440000 5.500000 35.200000 206 200 179 0
11.660000 5.500000 35.200000 206 200 179 0
11.880000 5.500000 36.740000 205 202 180 0
12.100000 5.500000 36.740000 205 202 180 0
12.320000 5.500000 36.740000 207 202 178 0
12.540000 5.500000 36.740000 208 203 179 0
12.760000 5.500000 38.280000 209 203 184 0
12.980000 5.500000 38.280000 210 204 185 0
13.200000 5.500000 39.600000 214 208 191 0
13.420000 5.500000 40.480000 234 228 211 0
13.640000 5.500000 41.580000 243 239 222 0
13.860000 5.500000 41.580000 244 240 223 0
14.080000 5.500000 41.580000 242 234 218 0
14.300000 5.500000 41.580000 234 226 210 0
14.520000 5.500000 41.580000 221 215 198 0
14.740000 5.500000 41.580000 221 215 198 0
14.960000 5.500000 32.120000 217 219 203 0
15.180000 5.500000 11.220000 229 231 215 0
15.400000 5.500000 0.220000 230 236 219 0
15.620000 5.500000 1.540000 223 229 212 0
15.840000 5.500000 1.540000 228 228 213 0
16.060000 5.500000 1.760000 229 229 214 0
16.280000 5.500000 0.440000 237 212 189 0
16.500000 5.500000 3.300000 216 191 168 0
16.720000 5.500000 12.980000 217 158 145 0
16.940000 5.500000 28.160000 204 145 132 0
17.160000 5.500000 37.840000 214 118 114 0
17.380000 5.500000 39.160000 202 106 102 0
17.600000 5.500000 37.620000 191 91 88 0
17.820000 5.500000 36.300000 189 89 86 0
18.040000 5.500000 36.080000 188 88 86 0
18.260000 5.500000 36.300000 187 87 85 0
18.480000 5.500000 36.300000 188 88 83 0
18.700000 5.500000 36.300000 187 87 82 0
18.920000 5.500000 36.300000 188 88 85 0
19.140000 5.500000 36.300000 187 87 84 0
19.360000 5.500000 36.300000 189 87 85 0
19.580000 5.500000 37.840000 189 87 85 0
19.800000 5.500000 37.840000 189 89 86 0
20.020000 5.500000 37.840000 188 88 85 0
20.240000 5.500000 37.840000 190 88 84 0
20.460000 5.500000 37.840000 189 87 83 0
20.680000 5.500000 37.840000 189 89 86 0
20.900000 5.500000 38.060000 188 88 85 0
21.120000 5.500000 38.060000 190 88 84 0
21.340000 5.500000 38.060000 191 89 85 0
21.560000 5.500000 38.280000 190 88 86 0
21.780000 5.500000 38.280000 191 89 87 0
22.000000 5.500000 38.280000 191 89 85 0
22.220000 5.500000 38.500000 191 89 85 0
22.440000 5.500000 38.500000 191 89 85 0
22.660000 5.500000 39.600000 191 89 85 0
22.880000 5.500000 41.800000 191 89 85 0
23.100000 5.500000 42.900000 191 89 85 0
23.320000 5.500000 42.900000 191 89 87 0
23.540000 5.500000 43.120000 191 89 87 0
23.760000 5.500000 31.900000 191 89 85 0
23.980000 5.500000 9.900000 190 88 84 0
24.200000 5.500000 0.220000 191 89 85 0
24.420000 5.500000 0.220000 192 90 86 0
24.640000 5.500000 0.220000 191 89 85 0
24.860000 5.500000 0.220000 191 89 85 0
25.080000 5.500000 1.760000 192 90 86 0
25.300000 5.500000 1.760000 192 90 86 0
25.520000 5.500000 1.760000 192 90 86 0
25.740000 5.500000 1.760000 192 90 86 0
25.960000 5.500000 1.760000 192 92 87 0
26.180000 5.500000 1.760000 192 92 87 0
26.400000 5.500000 1.760000 192 93 85 0
26.620000 5.500000 3.080000 192 93 85 0
26.840000 5.500000 3.080000 193 93 88 0
27.060000 5.500000 3.080000 193 93 88 0
27.280000 5.500000 3.300000 193 93 88 0
27.500000 5.500000 3.300000 194 94 89 0
27.720000 5.500000 3.300000 195 95 90 0
27.940000 5.500000 4.620000 194 94 89 0
28.160000 5.500000 4.620000 195 95 90 0
28.380000 5.500000 4.840000 195 95 90 0
28.600000 5.500000 4.840000 194 96 90 0
28.820000 5.500000 4.620000 196 98 92 0
29.040000 5.500000 5.940000 195 97 91 0
29.260000 5.500000 5.720000 195 97 91 0
29.480000 5.500000 7.040000 197 99 93 0
29.700000 5.500000 7.040000 198 100 94 0
29.920000 5.500000 7.040000 197 102 95 0
30.140000 5.500000 7.260000 197 102 95 0
30.360000 5.500000 7.260000 198 104 97 0
30.580000 5.500000 8.580000 198 104 97 0
30.800000 5.500000 8.580000 197 108 99 0
31.020000 5.500000 8.580000 198 109 100 0
31.240000 5.500000 8.580000 200 109 103 0
31.460000 5.500000 8.800000 200 109 103 0
31.680000 5.500000 8.800000 200 111 108 0
31.900000 5.500000 8.800000 202 113 110 0
32.120000 5.500000 10.340000 201 121 117 0
32.340000 5.500000 10.340000 205 125 121 0
32.560000 5.500000 10.560000 204 137 126 0
32.780000 5.500000 10.560000 212 145 134 0
33.000000 5.500000 10.560000 207 149 142 0
33.220000 5.500000 10.560000 210 152 145 0
33.440000 5.500000 10.560000 211 158 149 0
33.660000 5.500000 10.780000 213 160 151 0
33.880000 5.500000 10.780000 211 162 153 0
34.100000 5.500000 12.100000 213 164 155 0
34.320000 5.500000 12.320000 216 163 154 0
34.540000 5.500000 12.320000 217 164 155 0
34.760000 5.500000 12.320000 218 160 153 0
34.980000 5.500000 13.200000 219 161 154 0
35.200000 5.500000 15.620000 215 160 152 0
35.420000 5.500000 15.400000 214 159 151 0
35.640000 5.500000 15.400000 221 153 147 0
35.860000 5.500000 16.720000 215 147 141 0
36.080000 5.500000 16.940000 215 144 135 0
36.300000 5.500000 16.940000 211 140 131 0
36.520000 5.500000 16.940000 209 135 127 0
36.740000 5.500000 17.160000 204 130 122 0
36.960000 5.500000 17.160000 204 124 118 0
37.180000 5.500000 17.160000 200 120 114 0
0.000000 5.720000 29.700000 160 92 74 0
0.220000 5.720000 29.700000 159 91 73 0
0.440000 5.720000 29.920000 159 92 71 0
0.660000 5.720000 29.920000 158 91 70 0
0.880000 5.720000 29.920000 158 90 72 0
1.100000 5.720000 29.920000 158 90 72 0
1.320000 5.720000 29.920000 158 89 71 0
1.540000 5.720000 30.140000 157 88 70 0
1.760000 5.720000 30.140000 156 88 70 0
1.980000 5.720000 30.140000 156 88 70 0
2.200000 5.720000 30.140000 156 88 70 0
2.420000 5.720000 30.140000 155 87 69 0
2.640000 5.720000 30.360000 155 89 70 0
2.860000 5.720000 30.360000 154 88 69 0
3.080000 5.720000 30.360000 155 89 70 0
3.300000 5.720000 30.360000 155 89 70 0
3.520000 5.720000 31.240000 155 89 70 0
3.740000 5.720000 32.560000 155 89 70 0
3.960000 5.720000 32.560000 151 92 73 0
4.180000 5.720000 32.340000 151 92 73 0
4.400000 5.720000 33.440000 152 93 74 0
4.620000 5.720000 33.440000 151 92 73 0
4.840000 5.720000 33.440000 152 94 75 0
5.060000 5.720000 33.440000 151 93 74 0
5.280000 5.720000 33.660000 146 99 78 0
5.500000 5.720000 32.560000 147 100 79 0
5.720000 5.720000 32.560000 146 105 83 0
5.940000 5.720000 33.660000 146 105 83 0
6.160000 5.720000 34.760000 143 111 85 0
6.380000 5.720000 34.760000 148 116 90 0
6.600000 5.720000 35.860000 151 116 91 0
6.820000 5.720000 36.080000 154 119 94 0
7.040000 5.720000 36.080000 152 124 97 0
7.260000 5.720000 36.080000 157 129 102 0
7.480000 5.720000 36.080000 160 134 106 0
7.700000 5.720000 36.080000 164 138 110 0
7.920000 5.720000 36.080000 167 144 108 0
8.140000 5.720000 36.080000 174 151 115 0
8.360000 5.720000 36.080000 174 157 126 0
8.580000 5.720000 36.080000 177 160 129 0
8.800000 5.720000 36.080000 180 166 135 0
9.020000 5.720000 36.080000 184 170 139 0
9.240000 5.720000 36.300000 186 174 145 0
9.460000 5.720000 36.300000 191 179 150 0
9.680000 5.720000 36.300000 194 184 156 0
9.900000 5.720000 36.300000 196 186 158 0
10.120000 5.720000 36.300000 197 189 161 0
10.340000 5.720000 36.300000 199 191 163 0
10.560000 5.720000 36.520000 200 195 170 0
10.780000 5.720000 36.520000 201 196 171 0
11.000000 5.720000 36.520000 204 198 177 0
11.220000 5.720000 36.520000 205 199 178 0
11.440000 5.720000 36.520000 206 200 179 0
11.660000 5.720000 36.740000 206 200 179 0
11.880000 5.720000 36.740000 205 202 180 0
12.100000 5.720000 36.740000 205 202 180 0
12.320000 5.720000 36.740000 208 203 179 0
12.540000 5.720000 36.740000 208 203 179 0
12.760000 5.720000 38.280000 209 203 184 0
12.980000 5.720000 38.280000 210 204 185 0
13.200000 5.720000 38.280000 211 205 188 0
13.420000 5.720000 40.700000 212 206 189 0
13.640000 5.720000 41.580000 212 208 191 0
13.860000 5.720000 41.580000 216 212 195 0
14.080000 5.720000 41.580000 218 210 194 0
14.300000 5.720000 41.580000 219 211 195 0
14.520000 5.720000 41.580000 221 215 198 0
14.740000 5.720000 41.580000 223 217 200 0
14.960000 5.720000 34.760000 219 221 205 0
15.180000 5.720000 15.400000 225 227 211 0
15.400000 5.720000 3.080000 230 236 219 0
15.620000 5.720000 0.220000 225 231 214 0
15.840000 5.720000 1.540000 229 229 214 0
16.060000 5.720000 0.220000 225 225 210 0
16.280000 5.720000 3.080000 229 204 181 0
16.500000 5.720000 12.980000 204 179 156 0
16.720000 5.720000 28.160000 211 152 139 0
16.940000 5.720000 37.840000 196 137 124 0
17.160000 5.720000 39.160000 207 111 107 0
17.380000 5.720000 37.840000 192 96 92 0
17.600000 5.720000 36.300000 190 90 87 0
17.820000 5.720000 36.080000 187 87 84 0
18.040000 5.720000 36.080000 187 87 85 0
18.260000 5.720000 36.300000 187 87 85 0
18.480000 5.720000 36.300000 187 87 82 0
18.700000 5.720000 36.300000 187 87 82 0
18.920000 5.720000 36.300000 187 87 84 0
19.140000 5.720000 36.300000 187 87 84 0
19.360000 5.720000 36.300000 189 87 85 0
19.580000 5.720000 37.840000 188 86 84 0
19.800000 5.720000 37.840000 188 88 85 0
20.020000 5.720000 37.840000 188 88 85 0
20.240000 5.720000 37.840000 190 88 84 0
20.460000 5.720000 37.840000 190 88 84 0
20.680000 5.720000 38.060000 188 88 85 0
20.900000 5.720000 38.060000 189 89 86 0
21.120000 5.720000 38.060000 190 88 84 0
21.340000 5.720000 38.280000 190 88 84 0
21.560000 5.720000 38.280000 190 88 86 0
21.780000 5.720000 38.280000 191 89 87 0
22.000000 5.720000 38.500000 191 89 85 0
22.220000 5.720000 38.500000 190 88 84 0
22.440000 5.720000 38.500000 191 89 85 0
22.660000 5.720000 39.600000 190 88 84 0
22.880000 5.720000 41.800000 191 89 85 0
23.100000 5.720000 42.900000 190 88 84 0
23.320000 5.720000 42.900000 191 89 87 0
23.540000 5.720000 40.260000 191 89 87 0
23.760000 5.720000 26.400000 190 88 84 0
23.980000 5.720000 7.260000 191 89 85 0
24.200000 5.720000 0.220000 191 89 85 0
24.420000 5.720000 0.220000 191 89 85 0
24.640000 5.720000 0.220000 192 90 86 0
24.860000 5.720000 0.220000 192 90 86 0
25.080000 5.720000 1.760000 192 90 86 0
25.300000 5.720000 1.760000 192 90 86 0
25.520000 5.720000 1.760000 191 89 85 0
25.740000 5.720000 1.760000 192 90 86 0
25.960000 5.720000 1.760000 192 92 87 0
26.180000 5.720000 1.760000 192 92 87 0
26.400000 5.720000 3.080000 193 94 86 0
26.620000 5.720000 3.080000 192 93 85 0
26.840000 5.720000 3.080000 193 93 88 0
27.060000 5.720000 3.300000 193 93 88 0
27.280000 5.720000 3.300000 194 94 89 0
27.500000 5.720000 3.300000 194 94 89 0
27.720000 5.720000 3.300000 194 94 89 0
27.940000 5.720000 4.620000 195 95 90 0
28.160000 5.720000 4.620000 194 94 89 0
28.380000 5.720000 4.840000 196 96 91 0
28.600000 5.720000 4.840000 195 97 91 0
28.820000 5.720000 4.620000 196 98 92 0
29.040000 5.720000 5.940000 196 98 92 0
29.260000 5.720000 5.720000 196 98 92 0
29.480000 5.720000 7.040000 197 99 93 0
29.700000 5.720000 7.040000 197 99 93 0
29.920000 5.720000 7.040000 197 102 95 0
30.140000 5.720000 7.260000 198 103 96 0
30.360000 5.720000 8.580000 198 104 97 0
30.580000 5.720000 8.580000 199 105 98 0
30.800000 5.720000 8.580000 197 108 99 0
31.020000 5.720000 8.580000 198 109 100 0
31.240000 5.720000 8.800000 199 108 102 0
31.460000 5.720000 8.800000 199 108 102 0
31.680000 5.720000 8.800000 199 110 107 0
31.900000 5.720000 10.120000 200 111 108 0
32.120000 5.720000 10.340000 196 116 112 0
32.340000 5.720000 10.340000 199 119 115 0
32.560000 5.720000 10.560000 197 130 119 0
32.780000 5.720000 10.560000 201 134 123 0
33.000000 5.720000 10.560000 199 141 134 0
33.220000 5.720000 10.560000 200 142 135 0
33.440000 5.720000 10.780000 200 147 138 0
33.660000 5.720000 10.780000 203 150 141 0
33.880000 5.720000 12.100000 203 154 145 0
34.100000 5.720000 12.320000 204 155 146 0
34.320000 5.720000 12.320000 207 154 145 0
34.540000 5.720000 12.320000 205 152 143 0
34.760000 5.720000 13.420000 207 149 142 0
34.980000 5.720000 14.300000 204 146 139 0
35.200000 5.720000 15.400000 202 147 139 0
35.420000 5.720000 15.400000 204 149 141 0
35.640000 5.720000 15.400000 210 142 136 0
35.860000 5.720000 16.940000 203 135 129 0
36.080000 5.720000 16.940000 198 127 118 0
36.300000 5.720000 16.940000 196 125 116 0
36.520000 5.720000 16.940000 196 122 114 0
36.740000 5.720000 17.160000 193 119 111 0
36.960000 5.720000 17.160000 195 115 109 0
37.180000 5.720000 17.160000 194 114 108 0
0.000000 5.940000 29.700000 159 91 73 0
0.220000 5.940000 29.700000 161 93 75 0
0.440000 5.940000 29.700000 160 93 72 0
0.660000 5.940000 29.920000 159 92 71 0
0.880000 5.940000 29.920000 158 91 70 0
1.100000 5.940000 29.920000 158 91 70 0
1.320000 5.940000 30.140000 157 89 71 0
1.540000 5.940000 30.140000 157 89 71 0
1.760000 5.940000 30.140000 156 88 70 0
1.980000 5.940000 30.140000 156 88 70 0
2.200000 5.940000 30.140000 155 88 67 0
2.420000 5.940000 30.140000 155 88 67 0
2.640000 5.940000 30.360000 155 89 68 0
2.860000 5.940000 30.360000 155 89 68 0
3.080000 5.940000 30.360000 154 88 69 0
3.300000 5.940000 31.460000 154 88 69 0
3.520000 5.940000 32.340000 153 87 70 0
3.740000 5.940000 33.440000 155 89 72 0
3.960000 5.940000 33.440000 155 89 70 0
4.180000 5.940000 33.220000 155 89 70 0
4.400000 5.940000 34.540000 152 89 69 0
4.620000 5.940000 34.540000 153 90 70 0
4.840000 5.940000 34.540000 154 90 73 0
5.060000 5.940000 34.540000 154 90 73 0
5.280000 5.940000 34.760000 151 93 76 0
5.500000 5.940000 33.440000 153 95 78 0
5.720000 5.940000 34.980000 150 97 74 0
5.940000 5.940000 34.760000 152 99 76 0
6.160000 5.940000 34.540000 151 104 83 0
6.380000 5.940000 34.540000 152 105 84 0
6.600000 5.940000 36.080000 150 112 84 0
6.820000 5.940000 36.080000 153 115 87 0
7.040000 5.940000 36.080000 157 121 92 0
7.260000 5.940000 36.080000 160 124 95 0
7.480000 5.940000 36.080000 163 129 96 0
7.700000 5.940000 36.080000 167 133 100 0
7.920000 5.940000 36.080000 167 140 108 0
8.140000 5.940000 36.080000 172 145 113 0
8.360000 5.940000 36.080000 174 153 121 0
8.580000 5.940000 36.080000 178 157 125 0
8.800000 5.940000 36.080000 179 162 129 0
9.020000 5.940000 36.300000 185 168 135 0
9.240000 5.940000 36.300000 185 174 142 0
9.460000 5.940000 36.300000 190 179 147 0
9.680000 5.940000 36.300000 194 184 152 0
9.900000 5.940000 36.300000 196 186 154 0
10.120000 5.940000 36.300000 197 189 161 0
10.340000 5.940000 36.520000 200 192 164 0
10.560000 5.940000 36.520000 200 195 170 0
10.780000 5.940000 36.520000 202 197 172 0
11.000000 5.940000 36.520000 203 198 174 0
11.220000 5.940000 36.520000 204 199 175 0
11.440000 5.940000 36.520000 204 201 179 0
11.660000 5.940000 36.740000 205 202 180 0
11.880000 5.940000 36.740000 205 202 182 0
12.100000 5.940000 36.740000 205 202 182 0
12.320000 5.940000 36.740000 205 202 180 0
12.540000 5.940000 36.740000 205 202 180 0
12.760000 5.940000 38.280000 208 202 181 0
12.980000 5.940000 38.500000 209 203 182 0
13.200000 5.940000 38.500000 209 206 186 0
13.420000 5.940000 39.600000 209 206 186 0
13.640000 5.940000 40.480000 210 206 189 0
13.860000 5.940000 41.580000 211 207 190 0
14.080000 5.940000 41.580000 212 210 192 0
14.300000 5.940000 41.580000 219 217 199 0
14.520000 5.940000 41.580000 222 224 206 0
14.740000 5.940000 41.580000 225 227 209 0
14.960000 5.940000 40.260000 224 224 207 0
15.180000 5.940000 26.400000 223 223 206 0
15.400000 5.940000 8.580000 225 221 205 0
15.620000 5.940000 0.220000 227 223 207 0
15.840000 5.940000 0.220000 234 217 194 0
16.060000 5.940000 3.080000 222 205 182 0
16.280000 5.940000 12.760000 227 179 162 0
16.500000 5.940000 28.160000 209 161 144 0
16.720000 5.940000 39.160000 216 136 130 0
16.940000 5.940000 40.480000 201 121 115 0
17.160000 5.940000 39.160000 200 101 99 0
17.380000 5.940000 37.620000 189 90 88 0
17.600000 5.940000 36.080000 187 87 85 0
17.820000 5.940000 36.080000 187 87 85 0
18.040000 5.940000 36.080000 188 88 85 0
18.260000 5.940000 36.300000 187 87 84 0
18.480000 5.940000 36.300000 186 88 84 0
18.700000 5.940000 36.300000 185 87 83 0
18.920000 5.940000 36.300000 186 87 85 0
19.140000 5.940000 37.840000 186 87 85 0
19.360000 5.940000 37.840000 187 87 84 0
19.580000 5.940000 37.840000 188 88 85 0
19.800000 5.940000 37.840000 188 88 85 0
20.020000 5.940000 37.840000 186 86 83 0
20.240000 5.940000 37.840000 187 87 84 0
20.460000 5.940000 37.840000 187 87 84 0
20.680000 5.940000 38.060000 188 88 85 0
20.900000 5.940000 38.060000 188 88 85 0
21.120000 5.940000 38.060000 188 88 83 0
21.340000 5.940000 38.280000 189 89 84 0
21.560000 5.940000 38.280000 190 88 84 0
21.780000 5.940000 38.500000 190 88 84 0
22.000000 5.940000 38.500000 189 89 86 0
22.220000 5.940000 38.500000 189 89 86 0
22.440000 5.940000 38.500000 188 88 85 0
22.660000 5.940000 39.600000 190 90 87 0
22.880000 5.940000 41.800000 191 89 85 0
23.100000 5.940000 42.900000 190 88 84 0
23.320000 5.940000 42.900000 190 88 84 0
23.540000 5.940000 34.760000 190 88 84 0
23.760000 5.940000 15.400000 189 87 83 0
23.980000 5.940000 3.080000 191 89 85 0
24.200000 5.940000 0.220000 190 90 85 0
24.420000 5.940000 0.220000 190 90 85 0
24.640000 5.940000 0.220000 190 90 85 0
24.860000 5.940000 1.540000 191 91 86 0
25.080000 5.940000 1.540000 192 90 86 0
25.300000 5.940000 1.760000 192 90 86 0
25.520000 5.940000 1.760000 191 91 86 0
25.740000 5.940000 1.760000 192 92 87 0
25.960000 5.940000 1.760000 191 91 86 0
26.180000 5.940000 1.760000 192 92 87 0
26.400000 5.940000 3.080000 193 93 88 0
26.620000 5.940000 3.080000 193 93 88 0
26.840000 5.940000 3.080000 194 94 89 0
27.060000 5.940000 3.300000 194 94 89 0
27.280000 5.940000 3.300000 193 93 88 0
27.500000 5.940000 3.300000 195 95 90 0
27.720000 5.940000 3.300000 194 96 90 0
27.940000 5.940000 4.620000 193 95 89 0
28.160000 5.940000 4.840000 195 97 91 0
28.380000 5.940000 4.840000 195 97 91 0
28.600000 5.940000 4.840000 194 96 90 0
28.820000 5.940000 4.620000 196 98 92 0
29.040000 5.940000 5.720000 197 99 93 0
29.260000 5.940000 7.040000 197 99 93 0
29.480000 5.940000 7.040000 194 99 92 0
29.700000 5.940000 7.040000 195 100 93 0
29.920000 5.940000 7.040000 196 102 95 0
30.140000 5.940000 8.580000 197 103 96 0
30.360000 5.940000 8.580000 198 104 99 0
30.580000 5.940000 8.580000 198 104 99 0
30.800000 5.940000 8.580000 198 107 101 0
31.020000 5.940000 8.800000 198 107 101 0
31.240000 5.940000 8.800000 198 108 102 0
31.460000 5.940000 8.800000 199 109 103 0
31.680000 5.940000 10.120000 200 111 102 0
31.900000 5.940000 10.120000 199 110 101 0
32.120000 5.940000 10.340000 200 112 106 0
32.340000 5.940000 10.340000 201 113 107 0
32.560000 5.940000 10.560000 202 117 110 0
32.780000 5.940000 10.560000 205 120 113 0
33.000000 5.940000 11.880000 204 123 115 0
33.220000 5.940000 12.100000 205 124 116 0
33.440000 5.940000 12.100000 207 128 119 0
33.660000 5.940000 12.100000 209 130 121 0
33.880000 5.940000 12.100000 210 126 121 0
34.100000 5.940000 12.320000 211 127 122 0
34.320000 5.940000 12.320000 211 127 122 0
34.540000 5.940000 12.320000 210 126 121 0
34.760000 5.940000 13.420000 209 125 120 0
34.980000 5.940000 15.620000 206 122 117 0
35.200000 5.940000 15.400000 203 129 123 0
35.420000 5.940000 15.400000 207 133 127 0
35.640000 5.940000 15.400000 212 128 121 0
35.860000 5.940000 16.940000 201 117 110 0
36.080000 5.940000 16.940000 197 116 108 0
36.300000 5.940000 16.940000 196 115 107 0
36.520000 5.940000 16.940000 198 114 109 0
36.740000 5.940000 17.160000 197 113 108 0
36.960000 5.940000 17.160000 194 113 105 0
37.180000 5.940000 17.160000 192 111 103 0
0.000000 6.160000 29.700000 160 92 74 0
0.220000 6.160000 29.700000 160 92 74 0
0.440000 6.160000 29.700000 159 92 71 0
0.660000 6.160000 29.920000 159 92 71 0
0.880000 6.160000 29.920000 158 91 70 0
1.100000 6.160000 29.920000 158 91 70 0
1.320000 6.160000 30.140000 156 88 70 0
1.540000 6.160000 30.140000 155 87 69 0
1.760000 6.160000 30.140000 156 88 70 0
1.980000 6.160000 30.140000 157 89 71 0
2.200000 6.160000 30.140000 157 90 69 0
2.420000 6.160000 30.140000 156 89 68 0
2.640000 6.160000 30.360000 154 88 67 0
2.860000 6.160000 30.360000 154 88 67 0
3.080000 6.160000 30.360000 154 88 69 0
3.300000 6.160000 31.460000 153 87 68 0
3.520000 6.160000 32.120000 154 88 71 0
3.740000 6.160000 33.220000 154 88 71 0
3.960000 6.160000 33.220000 154 88 69 0
4.180000 6.160000 33.220000 155 89 70 0
4.400000 6.160000 34.540000 153 90 70 0
4.620000 6.160000 34.760000 153 90 70 0
4.840000 6.160000 34.760000 154 90 73 0
5.060000 6.160000 34.760000 154 90 73 0
5.280000 6.160000 34.760000 150 92 75 0
5.500000 6.160000 34.760000 151 93 76 0
5.720000 6.160000 34.760000 150 97 74 0
5.940000 6.160000 34.760000 150 97 74 0
6.160000 6.160000 34.760000 149 102 81 0
6.380000 6.160000 34.760000 150 103 82 0
6.600000 6.160000 36.080000 148 110 82 0
6.820000 6.160000 36.080000 149 111 83 0
7.040000 6.160000 36.080000 152 116 87 0
7.260000 6.160000 36.080000 156 120 91 0
7.480000 6.160000 36.080000 161 127 94 0
7.700000 6.160000 36.080000 163 129 96 0
7.920000 6.160000 36.080000 163 136 104 0
8.140000 6.160000 36.080000 170 143 111 0
8.360000 6.160000 36.080000 170 149 117 0
8.580000 6.160000 36.300000 174 153 121 0
8.800000 6.160000 36.300000 177 160 127 0
9.020000 6.160000 36.300000 182 165 132 0
9.240000 6.160000 36.300000 183 172 140 0
9.460000 6.160000 36.300000 189 178 146 0
9.680000 6.160000 36.300000 191 181 149 0
9.900000 6.160000 36.300000 195 185 153 0
10.120000 6.160000 36.300000 197 189 161 0
10.340000 6.160000 36.520000 199 191 163 0
10.560000 6.160000 36.520000 199 194 169 0
10.780000 6.160000 36.520000 202 197 172 0
11.000000 6.160000 36.520000 203 198 174 0
11.220000 6.160000 36.520000 204 199 175 0
11.440000 6.160000 36.740000 204 201 179 0
11.660000 6.160000 36.740000 204 201 179 0
11.880000 6.160000 36.740000 204 201 181 0
12.100000 6.160000 36.740000 205 202 182 0
12.320000 6.160000 36.740000 205 202 180 0
12.540000 6.160000 36.960000 205 202 180 0
12.760000 6.160000 38.280000 209 203 182 0
12.980000 6.160000 38.500000 209 203 182 0
13.200000 6.160000 38.500000 208 205 185 0
13.420000 6.160000 39.600000 209 206 186 0
13.640000 6.160000 40.480000 210 206 189 0
13.860000 6.160000 41.580000 210 206 189 0
14.080000 6.160000 41.580000 214 212 194 0
14.300000 6.160000 41.580000 223 221 203 0
14.520000 6.160000 41.580000 221 223 205 0
14.740000 6.160000 41.580000 220 222 204 0
14.960000 6.160000 41.800000 222 222 205 0
15.180000 6.160000 34.760000 221 221 204 0
15.400000 6.160000 15.400000 220 216 200 0
15.620000 6.160000 5.720000 214 210 194 0
15.840000 6.160000 8.580000 217 200 177 0
16.060000 6.160000 15.620000 204 187 164 0
16.280000 6.160000 28.160000 209 161 144 0
16.500000 6.160000 39.160000 197 149 132 0
16.720000 6.160000 40.480000 204 124 118 0
16.940000 6.160000 39.160000 191 111 105 0
17.160000 6.160000 37.620000 192 93 91 0
17.380000 6.160000 37.620000 185 86 84 0
17.600000 6.160000 36.080000 187 87 85 0
17.820000 6.160000 36.080000 186 86 84 0
18.040000 6.160000 36.080000 186 86 83 0
18.260000 6.160000 36.300000 186 86 83 0
18.480000 6.160000 36.300000 185 87 83 0
18.700000 6.160000 36.300000 185 87 83 0
18.920000 6.160000 36.300000 185 86 84 0
19.140000 6.160000 37.840000 186 87 85 0
19.360000 6.160000 37.840000 187 87 84 0
19.580000 6.160000 37.840000 188 88 85 0
19.800000 6.160000 37.840000 187 87 84 0
20.020000 6.160000 37.840000 188 88 85 0
20.240000 6.160000 37.840000 187 87 84 0
20.460000 6.160000 38.060000 188 88 85 0
20.680000 6.160000 38.060000 187 87 84 0
20.900000 6.160000 38.060000 188 88 85 0
21.120000 6.160000 38.280000 188 88 83 0
21.340000 6.160000 38.280000 189 89 84 0
21.560000 6.160000 38.280000 189 87 83 0
21.780000 6.160000 38.500000 190 88 84 0
22.000000 6.160000 38.500000 189 89 86 0
22.220000 6.160000 38.500000 188 88 85 0
22.440000 6.160000 39.820000 188 88 85 0
22.660000 6.160000 40.700000 188 88 85 0
22.880000 6.160000 41.580000 189 87 83 0
23.100000 6.160000 42.900000 190 88 84 0
23.320000 6.160000 40.260000 189 87 83 0
23.540000 6.160000 26.400000 190 88 84 0
23.760000 6.160000 7.040000 190 88 84 0
23.980000 6.160000 0.220000 189 87 83 0
24.200000 6.160000 0.220000 190 90 85 0
24.420000 6.160000 0.220000 190 90 85 0
24.640000 6.160000 1.540000 190 90 85 0
24.860000 6.160000 1.540000 191 91 86 0
25.080000 6.160000 1.540000 191 89 85 0
25.300000 6.160000 1.540000 193 91 87 0
25.520000 6.160000 1.760000 192 92 87 0
25.740000 6.160000 1.760000 191 91 86 0
25.960000 6.160000 1.760000 193 93 88 0
26.180000 6.160000 1.760000 192 92 87 0
26.400000 6.160000 3.080000 192 92 87 0
26.620000 6.160000 3.080000 192 92 87 0
26.840000 6.160000 3.080000 193 93 88 0
27.060000 6.160000 3.300000 194 94 89 0
27.280000 6.160000 3.300000 194 94 89 0
27.500000 6.160000 3.300000 194 94 89 0
27.720000 6.160000 4.620000 194 96 90 0
27.940000 6.160000 4.620000 194 96 90 0
28.160000 6.160000 4.840000 194 96 90 0
28.380000 6.160000 4.840000 195 97 91 0
28.600000 6.160000 4.840000 195 97 91 0
28.820000 6.160000 4.840000 196 98 92 0
29.040000 6.160000 5.720000 196 98 92 0
29.260000 6.160000 7.040000 195 97 91 0
29.480000 6.160000 7.040000 194 99 92 0
29.700000 6.160000 7.040000 196 101 94 0
29.920000 6.160000 7.260000 197 103 96 0
30.140000 6.160000 8.580000 198 104 97 0
30.360000 6.160000 8.580000 198 104 99 0
30.580000 6.160000 8.580000 199 105 100 0
30.800000 6.160000 8.580000 198 107 101 0
31.020000 6.160000 8.800000 198 107 101 0
31.240000 6.160000 8.800000 197 107 101 0
31.460000 6.160000 10.120000 198 108 102 0
31.680000 6.160000 10.120000 198 109 100 0
31.900000 6.160000 10.120000 199 110 101 0
32.120000 6.160000 10.340000 199 111 105 0
32.340000 6.160000 10.340000 199 111 105 0
32.560000 6.160000 10.560000 198 113 106 0
32.780000 6.160000 11.880000 198 113 106 0
33.000000 6.160000 11.880000 196 115 107 0
33.220000 6.160000 12.100000 200 119 111 0
33.440000 6.160000 12.100000 199 120 111 0
33.660000 6.160000 12.100000 199 120 111 0
33.880000 6.160000 12.100000 201 117 112 0
34.100000 6.160000 12.320000 200 116 111 0
34.320000 6.160000 12.320000 200 116 111 0
34.540000 6.160000 12.320000 198 114 109 0
34.760000 6.160000 13.200000 197 113 108 0
34.980000 6.160000 15.620000 198 114 109 0
35.200000 6.160000 15.400000 197 123 117 0
35.420000 6.160000 16.720000 198 124 118 0
35.640000 6.160000 16.720000 200 116 109 0
35.860000 6.160000 16.940000 198 114 107 0
36.080000 6.160000 16.940000 195 114 106 0
36.300000 6.160000 16.940000 194 113 105 0
36.520000 6.160000 17.160000 196 112 107 0
36.740000 6.160000 17.160000 195 111 106 0
36.960000 6.160000 17.160000 192 111 103 0
37.180000 6.160000 17.160000 191 110 102 0
0.000000 6.380000 29.700000 162 94 76 0
0.220000 6.380000 29.700000 159 91 73 0
0.440000 6.380000 29.700000 160 92 74 0
0.660000 6.380000 29.920000 159 91 73 0
0.880000 6.380000 29.920000 158 89 71 0
1.100000 6.380000 29.920000 157 88 70 0
1.320000 6.380000 29.920000 156 88 70 0
1.540000 6.380000 30.140000 156 88 70 0
1.760000 6.380000 30.140000 155 89 72 0
1.980000 6.380000 30.140000 155 89 72 0
2.200000 6.380000 30.140000 155 89 68 0
2.420000 6.380000 30.140000 156 90 69 0
2.640000 6.380000 30.360000 157 88 70 0
2.860000 6.380000 30.360000 156 87 69 0
3.080000 6.380000 30.360000 154 88 69 0
3.300000 6.380000 31.460000 153 87 68 0
3.520000 6.380000 32.340000 152 86 69 0
3.740000 6.380000 33.220000 153 87 70 0
3.960000 6.380000 33.220000 154 88 69 0
4.180000 6.380000 33.220000 154 88 69 0
4.400000 6.380000 33.220000 155 87 69 0
4.620000 6.380000 34.760000 155 87 69 0
4.840000 6.380000 34.760000 156 90 73 0
5.060000 6.380000 34.760000 155 89 72 0
5.280000 6.380000 34.760000 153 90 70 0
5.500000 6.380000 34.760000 154 91 71 0
5.720000 6.380000 34.760000 151 92 69 0
5.940000 6.380000 34.760000 152 93 70 0
6.160000 6.380000 34.760000 150 97 74 0
6.380000 6.380000 34.760000 152 99 76 0
6.600000 6.380000 36.080000 149 102 79 0
6.820000 6.380000 36.080000 152 105 82 0
7.040000 6.380000 36.080000 154 107 82 0
7.260000 6.380000 36.080000 159 112 87 0
7.480000 6.380000 36.080000 160 120 90 0
7.700000 6.380000 36.080000 165 125 95 0
7.920000 6.380000 36.080000 162 131 105 0
8.140000 6.380000 36.080000 167 136 110 0
8.360000 6.380000 36.300000 173 143 112 0
8.580000 6.380000 36.300000 177 147 116 0
8.800000 6.380000 36.300000 176 156 126 0
9.020000 6.380000 36.300000 182 162 132 0
9.240000 6.380000 36.300000 185 168 135 0
9.460000 6.380000 36.300000 190 173 140 0
9.680000 6.380000 36.300000 190 179 147 0
9.900000 6.380000 36.300000 195 184 152 0
10.120000 6.380000 36.520000 197 190 159 0
10.340000 6.380000 36.520000 199 192 161 0
10.560000 6.380000 36.520000 200 194 165 0
10.780000 6.380000 36.520000 202 196 167 0
11.000000 6.380000 36.520000 202 197 170 0
11.220000 6.380000 36.520000 204 199 172 0
11.440000 6.380000 36.740000 202 199 177 0
11.660000 6.380000 36.740000 204 201 179 0
11.880000 6.380000 36.740000 203 202 179 0
12.100000 6.380000 36.740000 203 202 179 0
12.320000 6.380000 36.960000 204 201 177 0
12.540000 6.380000 36.960000 205 202 178 0
12.760000 6.380000 38.280000 207 204 182 0
12.980000 6.380000 38.500000 208 205 183 0
13.200000 6.380000 38.500000 207 204 182 0
13.420000 6.380000 39.600000 208 205 183 0
13.640000 6.380000 40.480000 208 206 186 0
13.860000 6.380000 41.580000 209 207 187 0
14.080000 6.380000 41.580000 217 215 198 0
14.300000 6.380000 41.580000 223 221 204 0
14.520000 6.380000 41.580000 224 220 204 0
14.740000 6.380000 41.580000 223 219 203 0
14.960000 6.380000 41.580000 221 217 203 0
15.180000 6.380000 40.260000 220 216 202 0
15.400000 6.380000 29.260000 222 209 188 0
15.620000 6.380000 20.900000 215 202 181 0
15.840000 6.380000 26.620000 228 173 163 0
16.060000 6.380000 33.440000 216 161 151 0
16.280000 6.380000 39.160000 213 142 133 0
16.500000 6.380000 40.480000 200 129 120 0
16.720000 6.380000 39.160000 205 109 108 0
16.940000 6.380000 37.620000 192 96 95 0
17.160000 6.380000 37.620000 186 88 84 0
17.380000 6.380000 36.080000 185 87 83 0
17.600000 6.380000 36.080000 184 86 82 0
17.820000 6.380000 36.080000 184 86 82 0
18.040000 6.380000 36.080000 183 84 82 0
18.260000 6.380000 36.300000 184 85 83 0
18.480000 6.380000 36.300000 184 86 82 0
18.700000 6.380000 36.300000 184 86 82 0
18.920000 6.380000 36.300000 184 86 82 0
19.140000 6.380000 37.840000 185 87 83 0
19.360000 6.380000 37.840000 186 86 83 0
19.580000 6.380000 37.840000 187 87 84 0
19.800000 6.380000 37.840000 187 87 84 0
20.020000 6.380000 37.840000 187 87 84 0
20.240000 6.380000 38.060000 187 87 84 0
20.460000 6.380000 38.060000 186 86 83 0
20.680000 6.380000 38.060000 186 86 81 0
20.900000 6.380000 38.280000 186 86 81 0
21.120000 6.380000 38.280000 187 87 84 0
21.340000 6.380000 38.280000 188 88 85 0
21.560000 6.380000 38.280000 187 87 84 0
21.780000 6.380000 38.500000 188 88 85 0
22.000000 6.380000 38.500000 188 88 83 0
22.220000 6.380000 38.500000 189 89 84 0
22.440000 6.380000 39.600000 188 88 83 0
22.660000 6.380000 41.800000 188 88 83 0
22.880000 6.380000 42.900000 188 88 85 0
23.100000 6.380000 42.900000 190 90 87 0
23.320000 6.380000 34.760000 189 89 86 0
23.540000 6.380000 15.400000 189 89 86 0
23.760000 6.380000 3.080000 189 89 84 0
23.980000 6.380000 0.220000 189 89 84 0
24.200000 6.380000 0.220000 190 90 85 0
24.420000 6.380000 0.220000 190 90 85 0
24.640000 6.380000 1.540000 191 91 86 0
24.860000 6.380000 1.540000 191 91 86 0
25.080000 6.380000 1.540000 191 91 86 0
25.300000 6.380000 1.540000 190 90 85 0
25.520000 6.380000 1.540000 192 92 87 0
25.740000 6.380000 1.760000 192 92 87 0
25.960000 6.380000 1.760000 191 91 86 0
26.180000 6.380000 3.080000 191 91 86 0
26.400000 6.380000 3.080000 192 92 87 0
26.620000 6.380000 3.080000 192 92 87 0
26.840000 6.380000 3.080000 193 93 88 0
27.060000 6.380000 3.300000 194 94 89 0
27.280000 6.380000 3.300000 194 94 89 0
27.500000 6.380000 3.300000 194 94 89 0
27.720000 6.380000 4.620000 194 96 90 0
27.940000 6.380000 4.840000 195 97 91 0
28.160000 6.380000 4.840000 194 96 90 0
28.380000 6.380000 4.840000 195 97 91 0
28.600000 6.380000 4.840000 194 99 92 0
28.820000 6.380000 4.840000 194 99 92 0
29.040000 6.380000 5.940000 195 97 91 0
29.260000 6.380000 7.040000 195 97 91 0
29.480000 6.380000 7.040000 196 98 92 0
29.700000 6.380000 7.040000 197 99 93 0
29.920000 6.380000 7.040000 197 101 97 0
30.140000 6.380000 8.580000 197 101 97 0
30.360000 6.380000 8.580000 196 105 99 0
30.580000 6.380000 8.580000 196 105 99 0
30.800000 6.380000 8.580000 196 105 99 0
31.020000 6.380000 8.800000 197 106 100 0
31.240000 6.380000 10.120000 198 107 101 0
31.460000 6.380000 10.120000 198 107 101 0
31.680000 6.380000 10.120000 200 108 104 0
31.900000 6.380000 10.340000 200 108 104 0
32.120000 6.380000 10.340000 200 110 104 0
32.340000 6.380000 10.340000 200 110 104 0
32.560000 6.380000 11.880000 199 109 104 0
32.780000 6.380000 11.880000 199 109 104 0
33.000000 6.380000 11.880000 199 111 105 0
33.220000 6.380000 12.100000 200 112 106 0
33.440000 6.380000 12.100000 200 110 105 0
33.660000 6.380000 12.100000 201 111 106 0
33.880000 6.380000 12.100000 199 109 103 0
34.100000 6.380000 12.320000 198 108 102 0
34.320000 6.380000 12.320000 198 109 106 0
34.540000 6.380000 13.420000 199 110 107 0
34.760000 6.380000 14.300000 197 108 105 0
34.980000 6.380000 15.400000 198 109 106 0
35.200000 6.380000 16.720000 196 110 106 0
35.420000 6.380000 16.720000 196 110 106 0
35.640000 6.380000 16.720000 198 114 109 0
35.860000 6.380000 16.940000 196 112 107 0
36.080000 6.380000 16.940000 192 114 109 0
36.300000 6.380000 16.940000 191 113 108 0
36.520000 6.380000 16.940000 192 110 107 0
36.740000 6.380000 17.160000 192 110 107 0
36.960000 6.380000 17.160000 183 113 110 0
37.180000 6.380000 17.160000 184 114 111 0
0.000000 6.600000 29.700000 161 93 75 0
0.220000 6.600000 29.700000 159 91 73 0
0.440000 6.600000 29.700000 159 91 73 0
0.660000 6.600000 29.920000 159 91 73 0
0.880000 6.600000 29.920000 159 90 72 0
1.100000 6.600000 29.920000 157 88 70 0
1.320000 6.600000 29.920000 156 88 70 0
1.540000 6.600000 30.140000 157 89 71 0
1.760000 6.600000 30.140000 155 89 72 0
1.980000 6.600000 30.140000 155 89 72 0
2.200000 6.600000 30.140000 156 90 69 0
2.420000 6.600000 30.140000 155 89 68 0
2.640000 6.600000 30.360000 157 88 70 0
2.860000 6.600000 30.360000 156 87 69 0
3.080000 6.600000 30.360000 154 88 69 0
3.300000 6.600000 30.140000 154 88 69 0
3.520000 6.600000 32.560000 153 87 70 0
3.740000 6.600000 33.440000 153 87 70 0
3.960000 6.600000 33.220000 154 88 69 0
4.180000 6.600000 33.220000 153 87 68 0
4.400000 6.600000 33.220000 154 86 68 0
4.620000 6.600000 33.220000 155 87 69 0
4.840000 6.600000 34.760000 153 87 70 0
5.060000 6.600000 34.760000 155 89 72 0
5.280000 6.600000 34.760000 153 90 70 0
5.500000 6.600000 34.760000 152 89 69 0
5.720000 6.600000 34.760000 151 92 69 0
5.940000 6.600000 34.760000 151 92 69 0
6.160000 6.600000 34.760000 147 94 71 0
6.380000 6.600000 34.760000 150 97 74 0
6.600000 6.600000 34.760000 148 101 78 0
6.820000 6.600000 36.080000 150 103 80 0
7.040000 6.600000 36.080000 154 107 82 0
7.260000 6.600000 36.080000 156 109 84 0
7.480000 6.600000 36.080000 155 115 85 0
7.700000 6.600000 36.080000 160 120 90 0
7.920000 6.600000 36.300000 157 126 100 0
8.140000 6.600000 36.300000 163 132 106 0
8.360000 6.600000 36.300000 169 139 108 0
8.580000 6.600000 36.300000 174 144 113 0
8.800000 6.600000 36.300000 174 154 124 0
9.020000 6.600000 36.300000 179 159 129 0
9.240000 6.600000 36.300000 182 165 132 0
9.460000 6.600000 36.300000 186 169 136 0
9.680000 6.600000 36.300000 187 176 144 0
9.900000 6.600000 36.520000 192 181 149 0
10.120000 6.600000 36.520000 194 187 156 0
10.340000 6.600000 36.520000 197 190 159 0
10.560000 6.600000 36.520000 199 193 164 0
10.780000 6.600000 36.520000 201 195 166 0
11.000000 6.600000 36.520000 201 196 169 0
11.220000 6.600000 36.740000 203 198 171 0
11.440000 6.600000 36.740000 203 200 178 0
11.660000 6.600000 36.740000 203 200 178 0
11.880000 6.600000 36.740000 202 201 178 0
12.100000 6.600000 36.740000 202 201 178 0
12.320000 6.600000 36.960000 203 200 176 0
12.540000 6.600000 36.960000 205 202 178 0
12.760000 6.600000 38.500000 206 203 181 0
12.980000 6.600000 38.500000 207 204 182 0
13.200000 6.600000 38.500000 207 204 182 0
13.420000 6.600000 39.600000 207 204 182 0
13.640000 6.600000 40.480000 207 205 185 0
13.860000 6.600000 41.580000 207 205 185 0
14.080000 6.600000 41.580000 214 212 195 0
14.300000 6.600000 41.580000 222 220 203 0
14.520000 6.600000 41.580000 222 218 202 0
14.740000 6.600000 41.580000 222 218 202 0
14.960000 6.600000 41.580000 220 216 202 0
15.180000 6.600000 41.800000 220 216 202 0
15.400000 6.600000 40.260000 217 204 183 0
15.620000 6.600000 36.300000 203 190 169 0
15.840000 6.600000 38.940000 216 161 151 0
16.060000 6.600000 41.800000 202 147 137 0
16.280000 6.600000 40.480000 202 131 122 0
16.500000 6.600000 39.160000 189 118 109 0
16.720000 6.600000 37.620000 195 99 98 0
16.940000 6.600000 37.620000 185 89 88 0
17.160000 6.600000 36.080000 184 86 82 0
17.380000 6.600000 36.080000 182 84 80 0
17.600000 6.600000 36.080000 182 84 80 0
17.820000 6.600000 36.080000 183 85 81 0
18.040000 6.600000 36.080000 183 84 82 0
18.260000 6.600000 36.300000 183 84 82 0
18.480000 6.600000 36.300000 183 85 81 0
18.700000 6.600000 36.300000 184 86 82 0
18.920000 6.600000 37.840000 185 87 83 0
19.140000 6.600000 37.840000 184 86 82 0
19.360000 6.600000 37.840000 185 85 82 0
19.580000 6.600000 37.840000 186 86 83 0
19.800000 6.600000 37.840000 186 86 83 0
20.020000 6.600000 37.840000 186 86 83 0
20.240000 6.600000 38.060000 186 86 83 0
20.460000 6.600000 38.060000 186 86 83 0
20.680000 6.600000 38.060000 186 86 81 0
20.900000 6.600000 38.280000 186 86 81 0
21.120000 6.600000 38.280000 187 87 84 0
21.340000 6.600000 38.280000 187 87 84 0
21.560000 6.600000 38.280000 188 88 85 0
21.780000 6.600000 38.500000 188 88 85 0
22.000000 6.600000 38.500000 188 88 83 0
22.220000 6.600000 39.820000 189 89 84 0
22.440000 6.600000 40.700000 189 89 84 0
22.660000 6.600000 41.580000 188 88 83 0
22.880000 6.600000 42.900000 188 88 85 0
23.100000 6.600000 40.260000 188 88 85 0
23.320000 6.600000 26.400000 188 88 85 0
23.540000 6.600000 8.580000 189 89 86 0
23.760000 6.600000 0.220000 188 88 83 0
23.980000 6.600000 0.220000 189 89 84 0
24.200000 6.600000 0.220000 189 89 84 0
24.420000 6.600000 0.220000 190 90 85 0
24.640000 6.600000 1.540000 191 91 86 0
24.860000 6.600000 1.540000 190 90 85 0
25.080000 6.600000 1.540000 191 91 86 0
25.300000 6.600000 1.540000 191 91 86 0
25.520000 6.600000 1.540000 191 91 86 0
25.740000 6.600000 1.760000 191 91 86 0
25.960000 6.600000 3.080000 191 91 86 0
26.180000 6.600000 3.080000 190 90 85 0
26.400000 6.600000 3.080000 192 92 87 0
26.620000 6.600000 3.080000 192 92 87 0
26.840000 6.600000 3.080000 192 92 87 0
27.060000 6.600000 3.300000 193 93 88 0
27.280000 6.600000 3.300000 195 95 90 0
27.500000 6.600000 3.300000 195 95 90 0
27.720000 6.600000 4.620000 194 96 90 0
27.940000 6.600000 4.840000 195 97 91 0
28.160000 6.600000 4.840000 194 96 90 0
28.380000 6.600000 4.840000 195 97 91 0
28.600000 6.600000 5.060000 194 99 92 0
28.820000 6.600000 4.840000 194 99 92 0
29.040000 6.600000 5.940000 195 97 91 0
29.260000 6.600000 7.040000 195 97 91 0
29.480000 6.600000 7.040000 195 97 91 0
29.700000 6.600000 7.040000 195 97 91 0
29.920000 6.600000 8.580000 196 100 96 0
30.140000 6.600000 8.580000 197 101 97 0
30.360000 6.600000 8.580000 196 105 99 0
30.580000 6.600000 8.580000 197 106 100 0
30.800000 6.600000 8.800000 197 106 100 0
31.020000 6.600000 10.120000 197 106 100 0
31.240000 6.600000 10.120000 197 106 100 0
31.460000 6.600000 10.120000 198 107 101 0
31.680000 6.600000 10.120000 199 107 103 0
31.900000 6.600000 10.340000 199 107 103 0
32.120000 6.600000 10.340000 198 108 102 0
32.340000 6.600000 10.340000 200 110 104 0
32.560000 6.600000 11.880000 198 108 103 0
32.780000 6.600000 11.880000 198 108 103 0
33.000000 6.600000 11.880000 198 110 104 0
33.220000 6.600000 12.100000 200 112 106 0
33.440000 6.600000 12.100000 199 109 104 0
33.660000 6.600000 12.100000 199 109 104 0
33.880000 6.600000 12.100000 198 108 102 0
34.100000 6.600000 12.320000 197 107 101 0
34.320000 6.600000 12.320000 195 106 103 0
34.540000 6.600000 13.420000 197 108 105 0
34.760000 6.600000 15.620000 196 107 104 0
34.980000 6.600000 16.720000 195 106 103 0
35.200000 6.600000 16.720000 194 108 104 0
35.420000 6.600000 16.720000 196 110 106 0
35.640000 6.600000 16.720000 194 110 105 0
35.860000 6.600000 16.720000 193 109 104 0
36.080000 6.600000 16.940000 192 114 109 0
36.300000 6.600000 16.940000 193 115 110 0
36.520000 6.600000 16.940000 200 118 115 0
36.740000 6.600000 16.940000 197 115 112 0
36.960000 6.600000 17.160000 193 123 120 0
37.180000 6.600000 17.160000 196 126 123 0
0.000000 6.820000 29.700000 162 93 75 0
0.220000 6.820000 29.700000 161 92 74 0
0.440000 6.820000 29.700000 159 92 71 0
0.660000 6.820000 29.700000 159 92 71 0
0.880000 6.820000 29.920000 158 89 69 0
1.100000 6.820000 29.920000 158 89 69 0
1.320000 6.820000 29.920000 156 89 68 0
1.540000 6.820000 30.140000 155 88 67 0
1.760000 6.820000 30.140000 156 88 70 0
1.980000 6.820000 30.140000 156 88 70 0
2.200000 6.820000 30.140000 156 89 68 0
2.420000 6.820000 30.140000 156 89 68 0
2.640000 6.820000 30.140000 156 89 68 0
2.860000 6.820000 30.360000 156 89 68 0
3.080000 6.820000 30.360000 155 88 67 0
3.300000 6.820000 30.140000 155 88 67 0
3.520000 6.820000 32.560000 155 88 67 0
3.740000 6.820000 33.440000 154 87 66 0
3.960000 6.820000 33.220000 154 87 66 0
4.180000 6.820000 33.220000 154 87 66 0
4.400000 6.820000 33.220000 154 87 65 0
4.620000 6.820000 33.440000 154 87 65 0
4.840000 6.820000 33.440000 154 87 66 0
5.060000 6.820000 33.440000 155 88 67 0
5.280000 6.820000 34.760000 154 88 67 0
5.500000 6.820000 34.760000 154 88 67 0
5.720000 6.820000 34.760000 154 88 67 0
5.940000 6.820000 34.760000 156 90 69 0
6.160000 6.820000 34.760000 153 92 69 0
6.380000 6.820000 34.760000 153 92 69 0
6.600000 6.820000 34.760000 150 95 72 0
6.820000 6.820000 34.760000 153 98 75 0
7.040000 6.820000 36.300000 151 104 79 0
7.260000 6.820000 36.300000 154 107 82 0
7.480000 6.820000 36.300000 157 112 84 0
7.700000 6.820000 36.300000 160 115 87 0
7.920000 6.820000 36.300000 159 122 91 0
8.140000 6.820000 36.300000 163 126 95 0
8.360000 6.820000 36.300000 165 133 103 0
8.580000 6.820000 36.300000 171 139 109 0
8.800000 6.820000 36.300000 174 147 113 0
9.020000 6.820000 36.300000 180 153 119 0
9.240000 6.820000 36.300000 180 159 127 0
9.460000 6.820000 36.520000 187 166 134 0
9.680000 6.820000 36.520000 189 172 137 0
9.900000 6.820000 36.520000 192 175 140 0
10.120000 6.820000 36.520000 195 181 147 0
10.340000 6.820000 36.520000 200 186 152 0
10.560000 6.820000 36.520000 199 192 161 0
10.780000 6.820000 36.520000 201 194 163 0
11.000000 6.820000 36.740000 202 196 169 0
11.220000 6.820000 36.740000 204 198 171 0
11.440000 6.820000 36.740000 204 199 175 0
11.660000 6.820000 36.740000 205 200 176 0
11.880000 6.820000 36.740000 203 200 178 0
12.100000 6.820000 36.960000 203 200 178 0
12.320000 6.820000 36.960000 205 200 176 0
12.540000 6.820000 38.500000 206 201 177 0
12.760000 6.820000 38.500000 206 200 179 0
12.980000 6.820000 38.500000 207 201 180 0
13.200000 6.820000 38.500000 207 204 182 0
13.420000 6.820000 39.600000 206 203 181 0
13.640000 6.820000 40.480000 206 203 181 0
13.860000 6.820000 41.580000 206 203 181 0
14.080000 6.820000 41.580000 209 206 186 0
14.300000 6.820000 41.580000 219 216 196 0
14.520000 6.820000 41.580000 226 220 201 0
14.740000 6.820000 41.580000 224 218 199 0
14.960000 6.820000 41.580000 230 212 193 0
15.180000 6.820000 41.800000 221 203 184 0
15.400000 6.820000 41.800000 225 181 167 0
15.620000 6.820000 41.800000 210 166 152 0
15.840000 6.820000 41.800000 215 145 133 0
16.060000 6.820000 40.480000 201 131 119 0
16.280000 6.820000 39.160000 206 110 107 0
16.500000 6.820000 37.620000 194 98 95 0
16.720000 6.820000 37.620000 185 89 86 0
16.940000 6.820000 36.080000 182 86 83 0
17.160000 6.820000 36.080000 184 84 81 0
17.380000 6.820000 36.080000 183 83 80 0
17.600000 6.820000 36.080000 183 83 80 0
