ply
format ascii 1.0
element vertex 1147
property float x
property float y
property float z
property uchar red
property uchar green
property uchar blue
property uchar alpha
end_header
31.460000 1.320000 18.480000 192 86 83 0
31.680000 1.320000 20.020000 193 87 84 0
31.900000 1.320000 20.020000 193 87 84 0
32.120000 1.320000 20.020000 194 88 85 0
32.340000 1.320000 20.020000 194 88 85 0
32.560000 1.320000 20.020000 194 88 85 0
32.780000 1.320000 20.020000 194 88 85 0
33.000000 1.320000 20.240000 194 90 86 0
33.220000 1.320000 20.240000 193 89 85 0
33.440000 1.320000 20.240000 191 91 88 0
33.660000 1.320000 18.920000 194 94 91 0
33.880000 1.320000 18.920000 193 99 95 0
34.100000 1.320000 18.920000 195 101 97 0
34.320000 1.320000 18.920000 197 105 103 0
34.540000 1.320000 18.920000 198 106 104 0
34.760000 1.320000 19.140000 169 137 135 0
34.980000 1.320000 19.140000 220 188 186 0
35.200000 1.320000 19.140000 232 201 214 0
35.420000 1.320000 19.140000 234 203 216 0
35.640000 1.320000 19.140000 237 222 224 0
35.860000 1.320000 19.140000 240 225 227 0
36.080000 1.320000 20.240000 255 171 164 0
36.300000 1.320000 22.440000 204 119 112 0
36.520000 1.320000 23.760000 194 100 95 0
36.740000 1.320000 22.440000 194 100 95 0
36.960000 1.320000 22.660000 195 99 95 0
37.180000 1.320000 22.660000 194 98 94 0
0.000000 1.540000 19.140000 192 186 147 0
0.220000 1.540000 19.140000 194 188 149 0
0.440000 1.540000 19.140000 195 189 148 0
0.660000 1.540000 19.140000 196 190 149 0
0.880000 1.540000 19.140000 195 192 152 0
1.100000 1.540000 19.140000 197 194 154 0
1.320000 1.540000 19.140000 199 196 158 0
1.540000 1.540000 19.140000 200 197 159 0
1.760000 1.540000 19.140000 202 197 162 0
1.980000 1.540000 20.240000 203 198 163 0
2.200000 1.540000 21.120000 203 200 164 0
2.420000 1.540000 22.220000 204 201 165 0
2.640000 1.540000 22.220000 205 201 167 0
2.860000 1.540000 22.220000 205 201 167 0
3.080000 1.540000 22.220000 206 202 172 0
3.300000 1.540000 22.440000 208 204 174 0
3.520000 1.540000 22.440000 210 206 174 0
3.740000 1.540000 22.440000 211 207 175 0
3.960000 1.540000 22.440000 210 208 178 0
4.180000 1.540000 22.440000 211 209 179 0
4.400000 1.540000 22.440000 211 209 181 0
4.620000 1.540000 21.120000 212 210 182 0
4.840000 1.540000 21.340000 214 209 182 0
5.060000 1.540000 22.660000 214 209 182 0
5.280000 1.540000 22.660000 211 209 181 0
5.500000 1.540000 22.880000 212 210 182 0
5.720000 1.540000 22.880000 211 209 181 0
5.940000 1.540000 24.200000 211 209 181 0
6.160000 1.540000 24.420000 212 207 180 0
6.380000 1.540000 25.740000 211 206 179 0
6.600000 1.540000 28.600000 210 205 178 0
6.820000 1.540000 29.920000 209 204 177 0
7.040000 1.540000 31.460000 207 203 173 0
7.260000 1.540000 32.780000 207 203 173 0
7.480000 1.540000 32.780000 207 203 173 0
7.700000 1.540000 33.000000 206 202 172 0
7.920000 1.540000 33.000000 209 204 177 0
8.140000 1.540000 33.000000 211 206 179 0
8.360000 1.540000 33.000000 213 208 183 0
8.580000 1.540000 33.000000 216 211 186 0
8.800000 1.540000 34.100000 221 216 192 0
9.020000 1.540000 34.980000 239 234 210 0
9.240000 1.540000 36.080000 248 239 219 0
9.460000 1.540000 36.080000 249 240 220 0
9.680000 1.540000 36.080000 240 233 209 0
9.900000 1.540000 36.080000 222 215 191 0
10.120000 1.540000 36.300000 217 210 186 0
10.340000 1.540000 34.760000 214 207 183 0
10.560000 1.540000 34.980000 212 205 181 0
10.780000 1.540000 34.980000 211 204 180 0
11.000000 1.540000 35.200000 211 204 180 0
11.220000 1.540000 35.200000 211 204 180 0
11.440000 1.540000 35.200000 211 204 180 0
11.660000 1.540000 35.200000 211 204 180 0
11.880000 1.540000 35.420000 211 204 180 0
12.100000 1.540000 35.420000 211 204 180 0
12.320000 1.540000 35.640000 211 204 181 0
12.540000 1.540000 36.960000 210 203 180 0
12.760000 1.540000 36.960000 210 202 178 0
12.980000 1.540000 36.960000 209 201 177 0
13.200000 1.540000 36.960000 221 187 172 0
13.420000 1.540000 37.180000 208 174 159 0
13.640000 1.540000 35.640000 221 151 136 0
13.860000 1.540000 34.320000 209 139 124 0
14.080000 1.540000 31.460000 214 115 107 0
14.300000 1.540000 30.140000 201 102 94 0
14.520000 1.540000 28.820000 198 97 90 0
14.740000 1.540000 28.600000 199 98 91 0
14.960000 1.540000 29.480000 193 112 103 0
15.180000 1.540000 29.260000 217 136 127 0
15.400000 1.540000 29.260000 221 148 134 0
15.620000 1.540000 30.580000 215 142 128 0
15.840000 1.540000 30.580000 213 116 105 0
16.060000 1.540000 30.580000 203 106 95 0
16.280000 1.540000 30.580000 203 102 95 0
16.500000 1.540000 31.900000 202 101 94 0
16.720000 1.540000 30.800000 200 99 92 0
16.940000 1.540000 29.920000 200 99 92 0
17.160000 1.540000 30.360000 202 98 92 0
17.380000 1.540000 30.140000 200 96 90 0
17.600000 1.540000 30.140000 199 95 89 0
17.820000 1.540000 30.360000 199 95 89 0
18.040000 1.540000 30.360000 198 94 88 0
18.260000 1.540000 31.680000 198 94 88 0
18.480000 1.540000 32.560000 199 93 90 0
18.700000 1.540000 33.660000 199 93 90 0
18.920000 1.540000 34.760000 197 93 89 0
19.140000 1.540000 34.980000 197 93 89 0
19.360000 1.540000 35.200000 198 92 89 0
19.580000 1.540000 35.200000 197 91 88 0
19.800000 1.540000 35.200000 197 91 86 0
20.020000 1.540000 35.420000 196 90 85 0
20.240000 1.540000 35.420000 197 91 88 0
20.460000 1.540000 35.420000 196 90 87 0
20.680000 1.540000 33.880000 199 93 90 0
20.900000 1.540000 32.340000 204 98 95 0
21.120000 1.540000 32.120000 201 97 93 0
21.340000 1.540000 31.900000 202 98 94 0
21.560000 1.540000 33.440000 201 95 90 0
21.780000 1.540000 33.440000 200 94 89 0
22.000000 1.540000 32.340000 199 93 90 0
22.220000 1.540000 32.340000 198 92 89 0
22.440000 1.540000 32.340000 196 90 87 0
22.660000 1.540000 21.120000 194 88 85 0
22.880000 1.540000 7.260000 193 87 86 0
23.100000 1.540000 4.400000 190 84 83 0
23.320000 1.540000 8.580000 188 82 81 0
23.540000 1.540000 10.120000 187 81 80 0
23.760000 1.540000 10.120000 187 81 80 0
23.980000 1.540000 11.440000 187 81 80 0
24.200000 1.540000 11.440000 187 81 80 0
24.420000 1.540000 11.440000 186 80 79 0
24.640000 1.540000 11.660000 186 80 79 0
24.860000 1.540000 11.660000 186 80 79 0
25.080000 1.540000 12.980000 186 80 79 0
25.300000 1.540000 12.980000 185 79 78 0
25.520000 1.540000 13.200000 186 80 79 0
25.740000 1.540000 13.200000 183 77 76 0
25.960000 1.540000 13.200000 183 77 76 0
26.180000 1.540000 13.420000 183 77 76 0
26.400000 1.540000 13.420000 185 76 76 0
26.620000 1.540000 13.420000 184 75 75 0
26.840000 1.540000 13.420000 185 76 76 0
27.060000 1.540000 13.420000 184 75 75 0
27.280000 1.540000 13.640000 184 78 77 0
27.500000 1.540000 13.640000 185 79 78 0
27.720000 1.540000 13.640000 184 78 77 0
27.940000 1.540000 14.740000 185 79 78 0
28.160000 1.540000 16.940000 186 77 77 0
28.380000 1.540000 18.040000 186 77 77 0
28.600000 1.540000 18.040000 187 78 78 0
28.820000 1.540000 18.040000 185 76 76 0
29.040000 1.540000 18.040000 185 79 78 0
29.260000 1.540000 18.260000 185 79 78 0
29.480000 1.540000 18.260000 188 79 79 0
29.700000 1.540000 18.260000 188 79 79 0
29.920000 1.540000 18.260000 188 79 79 0
30.140000 1.540000 18.480000 189 80 80 0
30.360000 1.540000 18.480000 191 82 80 0
30.580000 1.540000 18.480000 193 84 82 0
30.800000 1.540000 18.480000 191 85 82 0
31.020000 1.540000 18.480000 192 86 83 0
31.240000 1.540000 18.480000 192 86 83 0
31.460000 1.540000 20.020000 192 86 83 0
31.680000 1.540000 20.020000 194 88 85 0
31.900000 1.540000 20.020000 193 87 84 0
32.120000 1.540000 20.020000 195 86 84 0
32.340000 1.540000 20.020000 196 87 85 0
32.560000 1.540000 20.020000 194 88 85 0
32.780000 1.540000 20.020000 195 89 86 0
33.000000 1.540000 20.240000 195 91 87 0
33.220000 1.540000 20.240000 195 91 87 0
33.440000 1.540000 20.240000 193 91 87 0
33.660000 1.540000 20.240000 195 93 89 0
33.880000 1.540000 18.920000 195 97 93 0
34.100000 1.540000 18.920000 198 100 96 0
34.320000 1.540000 18.920000 194 105 106 0
34.540000 1.540000 18.920000 197 108 109 0
34.760000 1.540000 19.140000 190 119 122 0
34.980000 1.540000 19.140000 221 150 153 0
35.200000 1.540000 19.140000 235 189 195 0
35.420000 1.540000 19.140000 251 205 211 0
35.640000 1.540000 19.140000 249 223 231 0
35.860000 1.540000 19.140000 233 207 215 0
36.080000 1.540000 20.240000 238 153 145 0
36.300000 1.540000 22.440000 200 115 107 0
36.520000 1.540000 23.760000 196 98 94 0
36.740000 1.540000 22.440000 196 98 94 0
36.960000 1.540000 22.660000 196 98 94 0
37.180000 1.540000 22.660000 194 96 92 0
0.000000 1.760000 19.140000 192 186 147 0
0.220000 1.760000 19.140000 193 187 148 0
0.440000 1.760000 19.140000 195 189 148 0
0.660000 1.760000 19.140000 196 190 149 0
0.880000 1.760000 19.140000 196 193 153 0
1.100000 1.760000 19.140000 198 195 155 0
1.320000 1.760000 19.140000 199 196 158 0
1.540000 1.760000 19.140000 200 197 159 0
1.760000 1.760000 19.360000 202 197 162 0
1.980000 1.760000 20.460000 203 198 163 0
2.200000 1.760000 21.120000 202 199 163 0
2.420000 1.760000 22.220000 204 201 165 0
2.640000 1.760000 22.220000 204 200 166 0
2.860000 1.760000 22.220000 206 202 168 0
3.080000 1.760000 22.220000 208 204 174 0
3.300000 1.760000 22.440000 209 205 175 0
3.520000 1.760000 22.440000 209 205 173 0
3.740000 1.760000 22.440000 210 206 174 0
3.960000 1.760000 22.440000 210 208 178 0
4.180000 1.760000 22.440000 211 209 179 0
4.400000 1.760000 21.120000 212 210 182 0
4.620000 1.760000 21.120000 213 211 183 0
4.840000 1.760000 21.340000 216 211 184 0
5.060000 1.760000 21.340000 216 211 184 0
5.280000 1.760000 21.340000 213 211 183 0
5.500000 1.760000 22.880000 213 211 183 0
5.720000 1.760000 22.880000 212 210 182 0
5.940000 1.760000 22.880000 210 208 180 0
6.160000 1.760000 24.200000 213 208 181 0
6.380000 1.760000 25.740000 212 207 180 0
6.600000 1.760000 28.600000 210 205 178 0
6.820000 1.760000 29.920000 209 204 177 0
7.040000 1.760000 31.460000 208 204 174 0
7.260000 1.760000 32.780000 208 204 174 0
7.480000 1.760000 33.000000 207 203 173 0
7.700000 1.760000 33.000000 208 204 174 0
7.920000 1.760000 33.000000 210 205 178 0
8.140000 1.760000 33.000000 211 206 179 0
8.360000 1.760000 33.000000 212 207 182 0
8.580000 1.760000 33.000000 213 208 183 0
8.800000 1.760000 34.100000 214 209 185 0
9.020000 1.760000 34.980000 221 216 192 0
9.240000 1.760000 36.080000 222 213 193 0
9.460000 1.760000 36.080000 225 216 196 0
9.680000 1.760000 36.080000 220 213 189 0
9.900000 1.760000 36.080000 215 208 184 0
10.120000 1.760000 36.300000 215 208 184 0
10.340000 1.760000 34.980000 212 205 181 0
10.560000 1.760000 34.980000 212 205 181 0
10.780000 1.760000 35.200000 211 204 180 0
11.000000 1.760000 35.200000 211 204 180 0
11.220000 1.760000 35.200000 211 204 180 0
11.440000 1.760000 35.200000 211 204 180 0
11.660000 1.760000 35.420000 211 204 180 0
11.880000 1.760000 35.420000 211 204 180 0
12.100000 1.760000 35.420000 211 204 180 0
12.320000 1.760000 35.640000 212 205 182 0
12.540000 1.760000 36.960000 211 204 181 0
12.760000 1.760000 36.960000 210 202 178 0
12.980000 1.760000 36.960000 207 199 175 0
13.200000 1.760000 36.960000 216 182 167 0
13.420000 1.760000 37.180000 206 172 157 0
13.640000 1.760000 35.640000 216 146 131 0
13.860000 1.760000 34.320000 203 133 118 0
14.080000 1.760000 31.460000 210 111 103 0
14.300000 1.760000 28.820000 199 100 92 0
14.520000 1.760000 28.820000 198 97 90 0
14.740000 1.760000 28.380000 199 98 91 0
14.960000 1.760000 29.480000 190 109 100 0
15.180000 1.760000 29.260000 208 127 118 0
15.400000 1.760000 29.260000 210 137 123 0
15.620000 1.760000 29.260000 212 139 125 0
15.840000 1.760000 30.580000 215 118 107 0
16.060000 1.760000 30.580000 205 108 97 0
16.280000 1.760000 30.580000 202 101 94 0
16.500000 1.760000 31.900000 201 100 93 0
16.720000 1.760000 30.800000 200 99 92 0
16.940000 1.760000 29.920000 201 100 93 0
17.160000 1.760000 30.360000 202 98 92 0
17.380000 1.760000 30.140000 200 96 90 0
17.600000 1.760000 30.140000 201 97 91 0
17.820000 1.760000 30.360000 200 96 90 0
18.040000 1.760000 30.360000 199 95 89 0
18.260000 1.760000 31.460000 199 95 89 0
18.480000 1.760000 33.660000 200 94 91 0
18.700000 1.760000 34.760000 199 93 90 0
18.920000 1.760000 34.760000 198 94 90 0
19.140000 1.760000 34.980000 199 95 91 0
19.360000 1.760000 35.200000 198 92 89 0
19.580000 1.760000 35.200000 198 92 89 0
19.800000 1.760000 35.200000 197 91 86 0
20.020000 1.760000 35.420000 197 91 86 0
20.240000 1.760000 35.420000 196 90 87 0
20.460000 1.760000 35.420000 196 90 87 0
20.680000 1.760000 35.420000 197 91 88 0
20.900000 1.760000 33.880000 198 92 89 0
21.120000 1.760000 33.440000 199 95 91 0
21.340000 1.760000 33.440000 201 97 93 0
21.560000 1.760000 33.220000 201 95 90 0
21.780000 1.760000 33.440000 200 94 89 0
22.000000 1.760000 35.200000 199 93 90 0
22.220000 1.760000 36.520000 199 93 90 0
22.440000 1.760000 36.520000 196 90 87 0
22.660000 1.760000 28.160000 194 88 85 0
22.880000 1.760000 14.300000 193 87 86 0
23.100000 1.760000 7.260000 191 85 84 0
23.320000 1.760000 7.260000 189 83 82 0
23.540000 1.760000 10.120000 187 81 80 0
23.760000 1.760000 10.120000 186 80 79 0
23.980000 1.760000 11.440000 187 81 80 0
24.200000 1.760000 11.440000 186 80 79 0
24.420000 1.760000 11.440000 186 80 79 0
24.640000 1.760000 11.660000 186 80 79 0
24.860000 1.760000 12.980000 185 79 78 0
25.080000 1.760000 12.980000 187 81 80 0
25.300000 1.760000 12.980000 186 80 79 0
25.520000 1.760000 13.200000 185 79 78 0
25.740000 1.760000 13.200000 185 79 78 0
25.960000 1.760000 13.200000 184 78 77 0
26.180000 1.760000 13.420000 184 78 77 0
26.400000 1.760000 13.420000 184 75 75 0
26.620000 1.760000 13.420000 185 76 76 0
26.840000 1.760000 13.420000 185 76 76 0
27.060000 1.760000 13.420000 184 75 75 0
27.280000 1.760000 13.640000 184 78 77 0
27.500000 1.760000 13.640000 183 77 76 0
27.720000 1.760000 13.640000 185 79 78 0
27.940000 1.760000 14.740000 184 78 77 0
28.160000 1.760000 16.940000 186 77 77 0
28.380000 1.760000 18.040000 187 78 78 0
28.600000 1.760000 18.040000 185 76 76 0
28.820000 1.760000 18.040000 186 77 77 0
29.040000 1.760000 18.040000 185 79 78 0
29.260000 1.760000 18.260000 185 79 78 0
29.480000 1.760000 18.260000 188 79 79 0
29.700000 1.760000 18.260000 188 79 79 0
29.920000 1.760000 18.260000 190 81 81 0
30.140000 1.760000 18.480000 191 82 82 0
30.360000 1.760000 18.480000 193 84 82 0
30.580000 1.760000 18.480000 194 85 83 0
30.800000 1.760000 18.480000 191 85 82 0
31.020000 1.760000 18.480000 193 87 84 0
31.240000 1.760000 19.800000 193 87 84 0
31.460000 1.760000 20.020000 194 88 85 0
31.680000 1.760000 20.020000 194 88 85 0
31.900000 1.760000 20.020000 193 87 84 0
32.120000 1.760000 20.020000 195 86 84 0
32.340000 1.760000 20.020000 195 86 84 0
32.560000 1.760000 20.020000 194 88 85 0
32.780000 1.760000 20.020000 194 88 85 0
33.000000 1.760000 20.240000 194 90 86 0
33.220000 1.760000 20.240000 196 92 88 0
33.440000 1.760000 20.240000 195 93 89 0
33.660000 1.760000 20.240000 195 93 89 0
33.880000 1.760000 20.240000 195 97 93 0
34.100000 1.760000 18.920000 196 98 94 0
34.320000 1.760000 18.920000 192 103 104 0
34.540000 1.760000 18.920000 203 114 115 0
34.760000 1.760000 19.140000 201 130 133 0
34.980000 1.760000 19.140000 202 131 134 0
35.200000 1.760000 19.140000 202 156 162 0
35.420000 1.760000 19.140000 226 180 186 0
35.640000 1.760000 19.140000 231 205 213 0
35.860000 1.760000 19.140000 240 214 222 0
36.080000 1.760000 21.340000 255 183 175 0
36.300000 1.760000 22.220000 208 123 115 0
36.520000 1.760000 22.440000 197 99 95 0
36.740000 1.760000 22.440000 196 98 94 0
36.960000 1.760000 22.660000 196 98 94 0
37.180000 1.760000 22.660000 195 97 93 0
0.000000 1.980000 19.140000 193 187 148 0
0.220000 1.980000 19.140000 195 189 150 0
0.440000 1.980000 19.140000 195 189 150 0
0.660000 1.980000 19.140000 197 191 152 0
0.880000 1.980000 19.140000 198 194 154 0
1.100000 1.980000 19.140000 198 194 154 0
1.320000 1.980000 19.140000 199 196 160 0
1.540000 1.980000 19.140000 200 197 161 0
1.760000 1.980000 19.360000 201 197 163 0
1.980000 1.980000 20.240000 202 198 164 0
2.200000 1.980000 21.120000 203 199 167 0
2.420000 1.980000 22.220000 204 200 168 0
2.640000 1.980000 22.220000 204 200 168 0
2.860000 1.980000 22.220000 206 202 170 0
3.080000 1.980000 22.220000 208 204 174 0
3.300000 1.980000 22.440000 208 204 174 0
3.520000 1.980000 22.440000 209 205 175 0
3.740000 1.980000 22.440000 210 206 176 0
3.960000 1.980000 22.440000 209 207 179 0
4.180000 1.980000 22.440000 210 208 180 0
4.400000 1.980000 21.120000 214 209 182 0
4.620000 1.980000 21.120000 215 210 183 0
4.840000 1.980000 21.340000 214 212 186 0
5.060000 1.980000 21.340000 214 212 186 0
5.280000 1.980000 21.340000 214 212 184 0
5.500000 1.980000 22.880000 214 212 184 0
5.720000 1.980000 22.880000 215 210 183 0
5.940000 1.980000 22.880000 214 209 182 0
6.160000 1.980000 24.200000 213 208 181 0
6.380000 1.980000 25.740000 212 207 180 0
6.600000 1.980000 28.600000 211 206 179 0
6.820000 1.980000 29.920000 209 204 177 0
7.040000 1.980000 31.460000 209 205 175 0
7.260000 1.980000 32.780000 208 204 174 0
7.480000 1.980000 33.000000 209 203 176 0
7.700000 1.980000 33.000000 210 204 177 0
7.920000 1.980000 33.000000 210 204 177 0
8.140000 1.980000 33.000000 212 206 179 0
8.360000 1.980000 33.000000 213 206 182 0
8.580000 1.980000 34.320000 214 207 183 0
8.800000 1.980000 34.980000 214 207 183 0
9.020000 1.980000 36.080000 215 208 184 0
9.240000 1.980000 36.080000 216 209 185 0
9.460000 1.980000 36.080000 214 207 183 0
9.680000 1.980000 36.080000 215 208 184 0
9.900000 1.980000 36.300000 215 208 184 0
10.120000 1.980000 36.300000 213 207 180 0
10.340000 1.980000 34.980000 212 206 179 0
10.560000 1.980000 34.980000 212 205 181 0
10.780000 1.980000 35.200000 211 204 180 0
11.000000 1.980000 35.200000 211 204 180 0
11.220000 1.980000 35.200000 212 205 181 0
11.440000 1.980000 35.200000 211 204 180 0
11.660000 1.980000 35.420000 212 205 181 0
11.880000 1.980000 35.420000 212 205 181 0
12.100000 1.980000 35.420000 211 204 180 0
12.320000 1.980000 35.640000 211 204 180 0
12.540000 1.980000 36.960000 211 204 180 0
12.760000 1.980000 36.960000 216 201 177 0
12.980000 1.980000 36.960000 210 195 171 0
13.200000 1.980000 37.180000 223 176 155 0
13.420000 1.980000 37.180000 210 163 142 0
13.640000 1.980000 35.640000 223 136 124 0
13.860000 1.980000 33.000000 208 121 109 0
14.080000 1.980000 30.140000 205 104 97 0
14.300000 1.980000 28.820000 199 98 91 0
14.520000 1.980000 28.600000 198 97 90 0
14.740000 1.980000 29.480000 197 96 89 0
14.960000 1.980000 29.260000 200 101 93 0
15.180000 1.980000 29.260000 217 118 110 0
15.400000 1.980000 29.260000 216 123 113 0
15.620000 1.980000 29.260000 214 121 111 0
15.840000 1.980000 30.580000 210 111 103 0
16.060000 1.980000 30.580000 203 104 96 0
16.280000 1.980000 30.580000 203 101 97 0
16.500000 1.980000 30.580000 202 100 96 0
16.720000 1.980000 30.800000 201 100 93 0
16.940000 1.980000 29.920000 200 99 92 0
17.160000 1.980000 28.820000 201 97 91 0
17.380000 1.980000 30.140000 201 97 91 0
17.600000 1.980000 30.140000 200 96 92 0
17.820000 1.980000 30.140000 200 96 92 0
18.040000 1.980000 30.360000 200 96 92 0
18.260000 1.980000 31.460000 199 95 91 0
18.480000 1.980000 33.440000 199 93 88 0
18.700000 1.980000 34.760000 199 93 88 0
18.920000 1.980000 34.760000 199 93 90 0
19.140000 1.980000 34.980000 198 92 89 0
19.360000 1.980000 35.200000 198 92 89 0
19.580000 1.980000 35.200000 196 90 87 0
19.800000 1.980000 35.200000 198 92 89 0
20.020000 1.980000 35.420000 197 91 88 0
20.240000 1.980000 35.420000 197 91 86 0
20.460000 1.980000 35.420000 196 90 85 0
20.680000 1.980000 35.420000 197 91 88 0
20.900000 1.980000 35.200000 198 92 89 0
21.120000 1.980000 34.980000 199 93 90 0
21.340000 1.980000 33.440000 201 95 92 0
21.560000 1.980000 33.220000 200 94 91 0
21.780000 1.980000 33.440000 200 94 91 0
22.000000 1.980000 33.880000 199 93 90 0
22.220000 1.980000 35.200000 198 92 89 0
22.440000 1.980000 37.840000 197 91 88 0
22.660000 1.980000 34.980000 195 89 86 0
22.880000 1.980000 21.120000 193 87 86 0
23.100000 1.980000 8.580000 191 85 84 0
23.320000 1.980000 7.260000 189 83 82 0
23.540000 1.980000 10.120000 187 81 80 0
23.760000 1.980000 10.120000 185 79 78 0
23.980000 1.980000 11.440000 184 78 77 0
24.200000 1.980000 11.440000 186 80 79 0
24.420000 1.980000 11.660000 186 80 79 0
24.640000 1.980000 11.660000 186 80 79 0
24.860000 1.980000 12.980000 187 81 80 0
25.080000 1.980000 12.980000 185 79 78 0
25.300000 1.980000 12.980000 185 79 78 0
25.520000 1.980000 13.200000 186 77 77 0
25.740000 1.980000 13.200000 185 76 76 0
25.960000 1.980000 13.200000 183 77 76 0
26.180000 1.980000 13.420000 184 78 77 0
26.400000 1.980000 13.420000 186 77 77 0
26.620000 1.980000 13.420000 186 77 77 0
26.840000 1.980000 13.420000 185 76 76 0
27.060000 1.980000 13.640000 184 75 75 0
27.280000 1.980000 13.640000 186 77 77 0
27.500000 1.980000 13.640000 186 77 77 0
27.720000 1.980000 13.640000 184 78 77 0
27.940000 1.980000 14.740000 183 77 76 0
28.160000 1.980000 16.940000 187 78 78 0
28.380000 1.980000 18.040000 186 77 77 0
28.600000 1.980000 18.040000 186 77 77 0
28.820000 1.980000 18.040000 188 79 79 0
29.040000 1.980000 18.040000 186 77 77 0
29.260000 1.980000 18.260000 187 78 78 0
29.480000 1.980000 18.260000 189 80 78 0
29.700000 1.980000 18.260000 189 80 78 0
29.920000 1.980000 18.260000 189 80 78 0
30.140000 1.980000 18.480000 191 82 80 0
30.360000 1.980000 18.480000 193 84 84 0
30.580000 1.980000 18.480000 194 85 85 0
30.800000 1.980000 18.480000 195 86 84 0
31.020000 1.980000 18.480000 195 86 84 0
31.240000 1.980000 19.800000 193 87 84 0
31.460000 1.980000 20.020000 193 87 84 0
31.680000 1.980000 20.020000 193 87 84 0
31.900000 1.980000 20.020000 193 87 84 0
32.120000 1.980000 20.020000 194 88 85 0
32.340000 1.980000 20.020000 194 88 85 0
32.560000 1.980000 20.020000 196 87 85 0
32.780000 1.980000 20.020000 196 87 85 0
33.000000 1.980000 20.240000 195 89 86 0
33.220000 1.980000 20.240000 197 91 88 0
33.440000 1.980000 20.240000 194 92 88 0
33.660000 1.980000 20.240000 195 93 89 0
33.880000 1.980000 20.240000 196 94 92 0
34.100000 1.980000 20.240000 197 95 93 0
34.320000 1.980000 18.920000 195 99 96 0
34.540000 1.980000 18.920000 204 108 105 0
34.760000 1.980000 19.140000 176 137 137 0
34.980000 1.980000 19.140000 195 156 156 0
35.200000 1.980000 19.140000 205 164 165 0
35.420000 1.980000 19.140000 197 156 157 0
35.640000 1.980000 19.140000 240 162 170 0
35.860000 1.980000 20.240000 255 181 189 0
36.080000 1.980000 21.120000 255 159 156 0
36.300000 1.980000 22.220000 209 113 110 0
36.520000 1.980000 22.440000 197 99 93 0
36.740000 1.980000 22.440000 197 99 93 0
36.960000 1.980000 22.660000 195 99 95 0
37.180000 1.980000 22.660000 195 99 95 0
0.000000 2.200000 19.140000 192 186 147 0
0.220000 2.200000 19.140000 193 187 148 0
0.440000 2.200000 19.140000 195 189 150 0
0.660000 2.200000 19.140000 197 191 152 0
0.880000 2.200000 19.140000 197 193 153 0
1.100000 2.200000 19.140000 198 194 154 0
1.320000 2.200000 19.140000 199 196 160 0
1.540000 2.200000 19.140000 200 197 161 0
1.760000 2.200000 19.140000 201 197 163 0
1.980000 2.200000 20.460000 202 198 164 0
2.200000 2.200000 21.340000 204 200 168 0
2.420000 2.200000 22.220000 204 200 168 0
2.640000 2.200000 22.220000 205 201 169 0
2.860000 2.200000 22.220000 206 202 170 0
3.080000 2.200000 22.220000 208 204 174 0
3.300000 2.200000 22.440000 209 205 175 0
3.520000 2.200000 22.440000 210 206 176 0
3.740000 2.200000 22.440000 210 206 176 0
3.960000 2.200000 22.440000 209 207 179 0
4.180000 2.200000 22.440000 212 210 182 0
4.400000 2.200000 21.120000 214 209 182 0
4.620000 2.200000 21.120000 216 211 184 0
4.840000 2.200000 21.340000 215 213 187 0
5.060000 2.200000 21.340000 214 212 186 0
5.280000 2.200000 21.340000 216 214 186 0
5.500000 2.200000 21.340000 214 212 184 0
5.720000 2.200000 22.880000 217 212 185 0
5.940000 2.200000 22.880000 214 209 182 0
6.160000 2.200000 24.200000 213 208 181 0
6.380000 2.200000 25.740000 212 207 180 0
6.600000 2.200000 28.600000 210 205 178 0
6.820000 2.200000 29.920000 209 204 177 0
7.040000 2.200000 31.460000 208 204 174 0
7.260000 2.200000 32.780000 208 204 174 0
7.480000 2.200000 33.000000 209 203 176 0
7.700000 2.200000 33.000000 210 204 177 0
7.920000 2.200000 33.000000 211 205 178 0
8.140000 2.200000 33.000000 212 206 179 0
8.360000 2.200000 33.000000 213 206 182 0
8.580000 2.200000 34.100000 213 206 182 0
8.800000 2.200000 34.980000 213 206 182 0
9.020000 2.200000 36.080000 214 207 183 0
9.240000 2.200000 36.080000 214 207 183 0
9.460000 2.200000 36.080000 214 207 183 0
9.680000 2.200000 36.080000 214 207 183 0
9.900000 2.200000 36.300000 214 207 183 0
10.120000 2.200000 34.980000 214 208 181 0
10.340000 2.200000 34.980000 212 206 179 0
10.560000 2.200000 34.980000 211 204 180 0
10.780000 2.200000 35.200000 211 204 180 0
11.000000 2.200000 35.200000 212 205 181 0
11.220000 2.200000 35.200000 212 205 181 0
11.440000 2.200000 35.200000 212 205 181 0
11.660000 2.200000 35.420000 212 205 181 0
11.880000 2.200000 35.420000 212 205 181 0
12.100000 2.200000 35.420000 212 205 181 0
12.320000 2.200000 35.640000 212 205 181 0
12.540000 2.200000 36.960000 210 203 179 0
12.760000 2.200000 36.960000 213 198 174 0
12.980000 2.200000 36.960000 208 193 169 0
13.200000 2.200000 37.180000 218 171 150 0
13.420000 2.200000 35.640000 206 159 138 0
13.640000 2.200000 34.320000 217 130 118 0
13.860000 2.200000 31.460000 203 116 104 0
14.080000 2.200000 30.140000 202 101 94 0
14.300000 2.200000 28.820000 197 96 89 0
14.520000 2.200000 28.600000 197 96 89 0
14.740000 2.200000 29.480000 196 95 88 0
14.960000 2.200000 29.260000 198 99 91 0
15.180000 2.200000 29.260000 203 104 96 0
15.400000 2.200000 29.260000 205 112 102 0
15.620000 2.200000 30.580000 206 113 103 0
15.840000 2.200000 30.580000 205 106 98 0
16.060000 2.200000 30.580000 203 104 96 0
16.280000 2.200000 30.580000 203 101 97 0
16.500000 2.200000 30.580000 201 99 95 0
16.720000 2.200000 30.800000 201 100 93 0
16.940000 2.200000 29.920000 200 99 92 0
17.160000 2.200000 30.140000 202 98 92 0
17.380000 2.200000 30.140000 201 97 91 0
17.600000 2.200000 30.140000 200 96 92 0
17.820000 2.200000 30.140000 201 97 93 0
18.040000 2.200000 30.360000 199 95 91 0
18.260000 2.200000 31.460000 199 95 91 0
18.480000 2.200000 33.660000 200 94 89 0
18.700000 2.200000 34.760000 199 93 88 0
18.920000 2.200000 34.980000 199 93 90 0
19.140000 2.200000 34.980000 198 92 89 0
19.360000 2.200000 35.200000 197 91 88 0
19.580000 2.200000 35.200000 197 91 88 0
19.800000 2.200000 35.200000 197 91 88 0
20.020000 2.200000 35.420000 197 91 88 0
20.240000 2.200000 35.420000 197 91 86 0
20.460000 2.200000 35.420000 197 91 86 0
20.680000 2.200000 35.640000 196 90 87 0
20.900000 2.200000 35.420000 198 92 89 0
21.120000 2.200000 34.980000 200 94 91 0
21.340000 2.200000 33.220000 202 96 93 0
21.560000 2.200000 31.900000 203 97 94 0
21.780000 2.200000 32.120000 201 95 92 0
22.000000 2.200000 32.560000 199 93 90 0
22.220000 2.200000 35.200000 198 92 89 0
22.440000 2.200000 37.840000 196 90 87 0
22.660000 2.200000 34.980000 195 89 86 0
22.880000 2.200000 21.120000 193 87 86 0
23.100000 2.200000 8.580000 192 86 85 0
23.320000 2.200000 7.260000 189 83 82 0
23.540000 2.200000 10.120000 188 82 81 0
23.760000 2.200000 10.120000 186 80 79 0
23.980000 2.200000 11.440000 184 78 77 0
24.200000 2.200000 11.660000 183 77 76 0
24.420000 2.200000 11.660000 185 79 78 0
24.640000 2.200000 11.660000 187 81 80 0
24.860000 2.200000 12.980000 187 81 80 0
25.080000 2.200000 12.980000 186 80 79 0
25.300000 2.200000 12.980000 185 79 78 0
25.520000 2.200000 13.200000 186 77 77 0
25.740000 2.200000 13.200000 185 76 76 0
25.960000 2.200000 13.200000 185 79 78 0
26.180000 2.200000 13.420000 185 79 78 0
26.400000 2.200000 13.420000 186 77 77 0
26.620000 2.200000 13.420000 186 77 77 0
26.840000 2.200000 13.420000 186 77 77 0
27.060000 2.200000 13.640000 185 76 76 0
27.280000 2.200000 13.640000 186 77 77 0
27.500000 2.200000 13.640000 186 77 77 0
27.720000 2.200000 14.960000 184 78 77 0
27.940000 2.200000 15.840000 184 78 77 0
28.160000 2.200000 16.720000 187 78 78 0
28.380000 2.200000 18.040000 185 76 76 0
28.600000 2.200000 18.040000 187 78 78 0
28.820000 2.200000 18.040000 188 79 79 0
29.040000 2.200000 18.040000 188 79 79 0
29.260000 2.200000 18.260000 188 79 79 0
29.480000 2.200000 18.260000 189 80 78 0
29.700000 2.200000 18.260000 190 81 79 0
29.920000 2.200000 18.260000 189 80 78 0
30.140000 2.200000 18.480000 191 82 80 0
30.360000 2.200000 18.480000 192 83 83 0
30.580000 2.200000 18.480000 193 84 84 0
30.800000 2.200000 18.480000 194 85 83 0
31.020000 2.200000 18.480000 195 86 84 0
31.240000 2.200000 19.800000 192 86 83 0
31.460000 2.200000 20.020000 193 87 84 0
31.680000 2.200000 20.020000 192 86 83 0
31.900000 2.200000 20.020000 194 88 85 0
32.120000 2.200000 20.020000 193 87 84 0
32.340000 2.200000 20.020000 195 89 86 0
32.560000 2.200000 20.020000 197 88 86 0
32.780000 2.200000 20.020000 196 87 85 0
33.000000 2.200000 20.240000 195 89 86 0
33.220000 2.200000 20.240000 196 90 87 0
33.440000 2.200000 20.240000 194 92 88 0
33.660000 2.200000 20.240000 194 92 88 0
33.880000 2.200000 20.240000 194 92 90 0
34.100000 2.200000 20.240000 196 94 92 0
34.320000 2.200000 20.460000 191 95 92 0
34.540000 2.200000 19.140000 196 100 97 0
34.760000 2.200000 19.140000 173 134 134 0
34.980000 2.200000 19.140000 231 192 192 0
35.200000 2.200000 19.140000 254 213 214 0
35.420000 2.200000 19.140000 235 194 195 0
35.640000 2.200000 19.140000 225 147 155 0
35.860000 2.200000 21.340000 208 130 138 0
36.080000 2.200000 22.440000 210 114 111 0
36.300000 2.200000 23.760000 198 102 99 0
36.520000 2.200000 23.760000 197 99 93 0
36.740000 2.200000 22.440000 196 98 92 0
36.960000 2.200000 22.660000 194 98 94 0
37.180000 2.200000 22.660000 194 98 94 0
0.000000 2.420000 19.140000 192 186 147 0
0.220000 2.420000 19.140000 193 187 148 0
0.440000 2.420000 19.140000 194 190 150 0
0.660000 2.420000 19.140000 196 192 152 0
0.880000 2.420000 19.140000 198 193 156 0
1.100000 2.420000 19.140000 199 194 157 0
1.320000 2.420000 19.140000 199 196 160 0
1.540000 2.420000 19.140000 200 197 161 0
1.760000 2.420000 19.140000 201 198 162 0
1.980000 2.420000 19.140000 203 200 164 0
2.200000 2.420000 21.340000 202 201 166 0
2.420000 2.420000 22.440000 202 201 166 0
2.640000 2.420000 22.220000 206 202 172 0
2.860000 2.420000 22.220000 207 203 173 0
3.080000 2.420000 22.220000 208 204 174 0
3.300000 2.420000 22.440000 209 205 175 0
3.520000 2.420000 22.440000 210 206 176 0
3.740000 2.420000 22.440000 211 207 177 0
3.960000 2.420000 22.440000 211 209 181 0
4.180000 2.420000 22.440000 212 210 182 0
4.400000 2.420000 21.120000 214 212 186 0
4.620000 2.420000 21.120000 216 214 188 0
4.840000 2.420000 21.340000 214 217 193 0
5.060000 2.420000 21.340000 213 216 192 0
5.280000 2.420000 21.340000 216 214 194 0
5.500000 2.420000 21.340000 215 213 193 0
5.720000 2.420000 22.880000 217 212 185 0
5.940000 2.420000 22.880000 215 210 183 0
6.160000 2.420000 24.200000 214 209 182 0
6.380000 2.420000 25.740000 212 207 180 0
6.600000 2.420000 28.600000 211 207 177 0
6.820000 2.420000 29.920000 209 205 175 0
7.040000 2.420000 31.460000 208 204 174 0
7.260000 2.420000 33.000000 209 205 175 0
7.480000 2.420000 33.000000 209 203 176 0
7.700000 2.420000 33.000000 210 204 177 0
7.920000 2.420000 33.000000 211 205 178 0
8.140000 2.420000 33.000000 212 206 179 0
8.360000 2.420000 33.000000 212 206 179 0
8.580000 2.420000 34.100000 212 206 179 0
8.800000 2.420000 34.980000 213 207 180 0
9.020000 2.420000 36.080000 213 207 180 0
9.240000 2.420000 36.080000 212 205 181 0
9.460000 2.420000 36.080000 212 205 181 0
9.680000 2.420000 36.300000 213 206 183 0
9.900000 2.420000 34.760000 212 205 182 0
10.120000 2.420000 34.980000 207 205 188 0
10.340000 2.420000 34.980000 208 206 189 0
10.560000 2.420000 35.200000 215 206 184 0
10.780000 2.420000 35.200000 216 207 185 0
11.000000 2.420000 35.200000 213 206 183 0
11.220000 2.420000 35.200000 213 206 183 0
11.440000 2.420000 35.200000 214 207 184 0
11.660000 2.420000 35.420000 213 206 183 0
11.880000 2.420000 35.420000 213 206 182 0
12.100000 2.420000 35.420000 213 206 182 0
12.320000 2.420000 35.640000 213 204 182 0
12.540000 2.420000 36.960000 211 202 180 0
12.760000 2.420000 36.960000 219 194 171 0
12.980000 2.420000 36.960000 211 186 163 0
13.200000 2.420000 37.180000 220 162 143 0
13.420000 2.420000 35.640000 206 148 129 0
13.640000 2.420000 34.320000 221 122 114 0
13.860000 2.420000 31.460000 208 109 101 0
14.080000 2.420000 28.820000 200 99 92 0
14.300000 2.420000 27.280000 198 97 90 0
14.520000 2.420000 28.600000 197 96 89 0
14.740000 2.420000 29.480000 196 95 88 0
14.960000 2.420000 30.580000 199 98 91 0
15.180000 2.420000 29.260000 202 101 94 0
15.400000 2.420000 29.260000 202 103 95 0
15.620000 2.420000 30.580000 202 103 95 0
15.840000 2.420000 30.580000 205 104 97 0
16.060000 2.420000 30.580000 203 102 95 0
16.280000 2.420000 30.580000 202 101 94 0
16.500000 2.420000 30.580000 202 101 94 0
16.720000 2.420000 30.580000 202 101 94 0
16.940000 2.420000 31.020000 201 100 93 0
17.160000 2.420000 30.140000 201 100 93 0
17.380000 2.420000 30.140000 199 98 91 0
17.600000 2.420000 30.140000 198 97 90 0
17.820000 2.420000 30.360000 198 97 90 0
18.040000 2.420000 30.360000 200 96 92 0
18.260000 2.420000 31.460000 200 96 92 0
18.480000 2.420000 32.560000 199 95 91 0
18.700000 2.420000 33.440000 198 94 90 0
18.920000 2.420000 34.980000 198 94 90 0
19.140000 2.420000 34.980000 198 94 90 0
19.360000 2.420000 35.200000 197 93 89 0
19.580000 2.420000 35.200000 196 92 88 0
19.800000 2.420000 35.200000 197 91 88 0
20.020000 2.420000 35.420000 197 91 88 0
20.240000 2.420000 35.420000 196 90 87 0
20.460000 2.420000 35.420000 197 91 88 0
20.680000 2.420000 35.640000 197 91 88 0
20.900000 2.420000 35.420000 198 92 89 0
21.120000 2.420000 33.660000 200 96 92 0
21.340000 2.420000 33.440000 203 99 95 0
21.560000 2.420000 31.900000 202 98 94 0
21.780000 2.420000 32.120000 201 97 93 0
22.000000 2.420000 32.560000 200 94 91 0
22.220000 2.420000 34.980000 197 91 88 0
22.440000 2.420000 37.620000 196 90 87 0
22.660000 2.420000 37.620000 194 88 85 0
22.880000 2.420000 25.300000 194 88 87 0
23.100000 2.420000 10.120000 192 86 85 0
23.320000 2.420000 5.940000 191 85 84 0
23.540000 2.420000 8.800000 190 84 83 0
23.760000 2.420000 10.120000 186 81 81 0
23.980000 2.420000 11.440000 185 80 80 0
24.200000 2.420000 11.440000 186 79 80 0
24.420000 2.420000 11.660000 186 79 80 0
24.640000 2.420000 12.980000 187 81 80 0
24.860000 2.420000 12.980000 187 81 80 0
25.080000 2.420000 12.980000 187 81 80 0
25.300000 2.420000 13.200000 185 79 78 0
25.520000 2.420000 13.200000 184 77 78 0
25.740000 2.420000 13.200000 183 76 77 0
25.960000 2.420000 13.200000 185 78 79 0
26.180000 2.420000 13.420000 185 78 79 0
26.400000 2.420000 13.420000 185 79 78 0
26.620000 2.420000 13.420000 184 78 77 0
26.840000 2.420000 13.420000 183 77 76 0
27.060000 2.420000 13.640000 184 78 77 0
27.280000 2.420000 13.640000 184 78 77 0
27.500000 2.420000 13.640000 185 79 78 0
27.720000 2.420000 14.960000 186 77 78 0
27.940000 2.420000 15.840000 185 76 77 0
28.160000 2.420000 16.720000 183 77 76 0
28.380000 2.420000 18.040000 185 79 78 0
28.600000 2.420000 18.040000 187 78 78 0
28.820000 2.420000 18.040000 187 78 78 0
29.040000 2.420000 18.040000 186 80 79 0
29.260000 2.420000 18.260000 188 82 81 0
29.480000 2.420000 18.260000 189 80 78 0
29.700000 2.420000 18.260000 190 81 79 0
29.920000 2.420000 18.260000 190 81 81 0
30.140000 2.420000 18.480000 191 82 82 0
30.360000 2.420000 18.480000 192 83 83 0
30.580000 2.420000 18.480000 194 85 85 0
30.800000 2.420000 18.480000 193 87 84 0
31.020000 2.420000 19.800000 192 86 83 0
31.240000 2.420000 19.800000 193 87 82 0
31.460000 2.420000 19.800000 193 87 82 0
31.680000 2.420000 20.020000 195 86 84 0
31.900000 2.420000 20.020000 196 87 85 0
32.120000 2.420000 20.020000 193 87 84 0
32.340000 2.420000 20.020000 195 89 86 0
32.560000 2.420000 20.020000 194 90 86 0
32.780000 2.420000 20.020000 194 90 86 0
33.000000 2.420000 20.240000 195 91 87 0
33.220000 2.420000 20.240000 195 91 87 0
33.440000 2.420000 20.240000 197 91 88 0
33.660000 2.420000 20.240000 196 90 87 0
33.880000 2.420000 20.240000 196 92 88 0
34.100000 2.420000 20.240000 196 92 88 0
34.320000 2.420000 20.460000 195 93 91 0
34.540000 2.420000 19.140000 198 96 94 0
34.760000 2.420000 19.140000 183 114 114 0
34.980000 2.420000 19.140000 234 165 165 0
35.200000 2.420000 19.140000 237 215 215 0
35.420000 2.420000 19.140000 241 219 219 0
35.640000 2.420000 19.140000 248 185 189 0
35.860000 2.420000 20.240000 214 151 155 0
36.080000 2.420000 22.440000 203 107 104 0
36.300000 2.420000 23.760000 198 102 99 0
36.520000 2.420000 23.760000 195 99 95 0
36.740000 2.420000 22.660000 195 99 95 0
36.960000 2.420000 22.660000 194 98 94 0
37.180000 2.420000 22.660000 195 99 95 0
0.000000 2.640000 19.140000 191 185 146 0
0.220000 2.640000 19.140000 193 187 148 0
0.440000 2.640000 19.140000 194 190 150 0
0.660000 2.640000 19.140000 196 192 152 0
0.880000 2.640000 19.140000 197 192 155 0
1.100000 2.640000 19.140000 199 194 157 0
1.320000 2.640000 19.140000 199 196 160 0
1.540000 2.640000 19.140000 200 197 161 0
1.760000 2.640000 19.140000 201 198 162 0
1.980000 2.640000 19.140000 202 199 163 0
2.200000 2.640000 21.340000 202 201 166 0
2.420000 2.640000 22.440000 202 201 166 0
2.640000 2.640000 22.220000 206 202 172 0
2.860000 2.640000 22.220000 207 203 173 0
3.080000 2.640000 22.220000 208 204 174 0
3.300000 2.640000 22.220000 209 205 175 0
3.520000 2.640000 22.440000 210 206 176 0
3.740000 2.640000 22.440000 211 207 177 0
3.960000 2.640000 22.440000 211 209 181 0
4.180000 2.640000 22.440000 213 211 183 0
4.400000 2.640000 21.120000 215 213 187 0
4.620000 2.640000 21.120000 217 215 189 0
4.840000 2.640000 21.340000 214 217 193 0
5.060000 2.640000 21.340000 214 217 193 0
5.280000 2.640000 21.340000 216 214 194 0
5.500000 2.640000 21.340000 217 215 195 0
5.720000 2.640000 22.880000 218 213 186 0
5.940000 2.640000 22.880000 215 210 183 0
6.160000 2.640000 24.200000 212 207 180 0
6.380000 2.640000 25.740000 211 206 179 0
6.600000 2.640000 28.600000 210 206 176 0
6.820000 2.640000 29.920000 209 205 175 0
7.040000 2.640000 31.460000 209 205 175 0
7.260000 2.640000 33.000000 208 204 174 0
7.480000 2.640000 33.000000 209 203 176 0
7.700000 2.640000 33.000000 209 203 176 0
7.920000 2.640000 33.000000 210 204 177 0
8.140000 2.640000 33.000000 211 205 178 0
8.360000 2.640000 33.000000 212 206 179 0
8.580000 2.640000 34.100000 212 206 179 0
8.800000 2.640000 34.980000 213 207 180 0
9.020000 2.640000 36.080000 212 206 179 0
9.240000 2.640000 36.080000 213 206 182 0
9.460000 2.640000 36.080000 213 206 182 0
9.680000 2.640000 36.300000 213 206 183 0
9.900000 2.640000 34.980000 221 214 191 0
10.120000 2.640000 34.980000 229 227 210 0
10.340000 2.640000 35.200000 235 233 216 0
10.560000 2.640000 35.200000 233 224 202 0
10.780000 2.640000 35.200000 219 210 188 0
11.000000 2.640000 35.200000 216 209 186 0
11.220000 2.640000 35.200000 215 208 185 0
11.440000 2.640000 35.200000 214 207 184 0
11.660000 2.640000 35.420000 214 207 184 0
11.880000 2.640000 35.420000 213 206 182 0
12.100000 2.640000 35.640000 213 206 182 0
12.320000 2.640000 35.640000 212 203 181 0
12.540000 2.640000 36.960000 210 201 179 0
12.760000 2.640000 36.960000 217 192 169 0
12.980000 2.640000 36.960000 205 180 157 0
13.200000 2.640000 37.180000 215 157 138 0
13.420000 2.640000 35.640000 201 143 124 0
13.640000 2.640000 33.000000 215 116 108 0
13.860000 2.640000 30.140000 203 104 96 0
14.080000 2.640000 28.600000 200 99 92 0
14.300000 2.640000 27.280000 198 97 90 0
14.520000 2.640000 28.600000 197 96 89 0
14.740000 2.640000 29.480000 196 95 88 0
14.960000 2.640000 30.580000 199 98 91 0
15.180000 2.640000 29.260000 200 99 92 0
15.400000 2.640000 29.260000 202 103 95 0
15.620000 2.640000 30.580000 203 104 96 0
15.840000 2.640000 30.580000 204 103 96 0
16.060000 2.640000 30.580000 202 101 94 0
16.280000 2.640000 30.580000 202 101 94 0
16.500000 2.640000 30.580000 201 100 93 0
16.720000 2.640000 30.800000 202 101 94 0
16.940000 2.640000 29.920000 202 101 94 0
17.160000 2.640000 30.140000 200 99 92 0
17.380000 2.640000 30.140000 200 99 92 0
17.600000 2.640000 30.140000 199 98 91 0
17.820000 2.640000 30.360000 199 98 91 0
18.040000 2.640000 30.360000 201 97 93 0
18.260000 2.640000 31.680000 200 96 92 0
18.480000 2.640000 32.560000 199 95 91 0
18.700000 2.640000 33.440000 199 95 91 0
18.920000 2.640000 34.760000 198 94 90 0
19.140000 2.640000 34.980000 198 94 90 0
19.360000 2.640000 34.980000 198 94 90 0
19.580000 2.640000 35.200000 197 93 89 0
19.800000 2.640000 35.200000 197 91 88 0
20.020000 2.640000 35.420000 197 91 88 0
20.240000 2.640000 35.420000 198 92 89 0
20.460000 2.640000 35.420000 196 90 87 0
20.680000 2.640000 35.640000 197 91 88 0
20.900000 2.640000 34.320000 196 90 87 0
21.120000 2.640000 34.100000 197 93 89 0
21.340000 2.640000 33.440000 200 96 92 0
21.560000 2.640000 33.220000 202 98 94 0
21.780000 2.640000 32.120000 200 96 92 0
22.000000 2.640000 33.660000 200 94 91 0
22.220000 2.640000 36.300000 198 92 89 0
22.440000 2.640000 37.620000 195 89 86 0
22.660000 2.640000 40.480000 195 89 86 0
22.880000 2.640000 33.440000 194 88 87 0
23.100000 2.640000 16.940000 193 87 86 0
23.320000 2.640000 8.580000 193 87 86 0
23.540000 2.640000 8.800000 191 85 84 0
23.760000 2.640000 10.120000 187 82 82 0
23.980000 2.640000 11.440000 186 81 81 0
24.200000 2.640000 11.440000 187 80 81 0
24.420000 2.640000 11.660000 186 79 80 0
24.640000 2.640000 12.980000 186 80 79 0
24.860000 2.640000 12.980000 185 79 78 0
25.080000 2.640000 12.980000 186 80 79 0
25.300000 2.640000 13.200000 184 78 77 0
25.520000 2.640000 13.200000 184 77 78 0
25.740000 2.640000 13.200000 184 77 78 0
25.960000 2.640000 13.200000 184 77 78 0
26.180000 2.640000 13.420000 184 77 78 0
26.400000 2.640000 13.420000 184 78 77 0
26.620000 2.640000 13.420000 184 78 77 0
26.840000 2.640000 13.420000 184 78 77 0
27.060000 2.640000 13.640000 184 78 77 0
27.280000 2.640000 13.640000 184 78 77 0
27.500000 2.640000 13.640000 183 77 76 0
27.720000 2.640000 14.960000 186 77 78 0
27.940000 2.640000 15.840000 185 76 77 0
28.160000 2.640000 16.720000 184 78 77 0
28.380000 2.640000 18.040000 184 78 77 0
28.600000 2.640000 18.040000 189 80 80 0
28.820000 2.640000 18.040000 187 78 78 0
29.040000 2.640000 18.260000 185 79 78 0
29.260000 2.640000 18.260000 186 80 79 0
29.480000 2.640000 18.260000 188 79 77 0
29.700000 2.640000 18.260000 189 80 78 0
29.920000 2.640000 18.260000 190 81 81 0
30.140000 2.640000 18.480000 192 83 83 0
30.360000 2.640000 18.480000 192 83 83 0
30.580000 2.640000 18.480000 193 84 84 0
30.800000 2.640000 18.480000 192 86 83 0
31.020000 2.640000 19.800000 192 86 83 0
31.240000 2.640000 19.800000 192 86 81 0
31.460000 2.640000 19.800000 193 87 82 0
31.680000 2.640000 19.800000 194 85 83 0
31.900000 2.640000 20.020000 195 86 84 0
32.120000 2.640000 20.020000 193 87 84 0
32.340000 2.640000 20.020000 195 89 86 0
32.560000 2.640000 20.020000 195 91 87 0
32.780000 2.640000 20.020000 195 91 87 0
33.000000 2.640000 20.240000 195 91 87 0
33.220000 2.640000 20.240000 196 92 88 0
33.440000 2.640000 20.240000 197 91 88 0
33.660000 2.640000 20.240000 196 90 87 0
33.880000 2.640000 20.240000 196 92 88 0
34.100000 2.640000 20.240000 196 92 88 0
34.320000 2.640000 20.460000 195 93 91 0
34.540000 2.640000 19.140000 196 94 92 0
34.760000 2.640000 19.140000 176 107 107 0
34.980000 2.640000 19.140000 197 128 128 0
35.200000 2.640000 19.140000 206 184 184 0
35.420000 2.640000 19.140000 234 212 212 0
35.640000 2.640000 19.140000 255 195 199 0
35.860000 2.640000 20.460000 225 162 166 0
36.080000 2.640000 22.660000 208 112 109 0
36.300000 2.640000 23.760000 197 101 98 0
36.520000 2.640000 22.440000 196 100 96 0
36.740000 2.640000 22.660000 195 99 95 0
36.960000 2.640000 22.660000 196 100 96 0
37.180000 2.640000 22.660000 195 99 95 0
0.000000 2.860000 19.140000 190 186 146 0
0.220000 2.860000 19.140000 192 188 148 0
0.440000 2.860000 19.140000 193 190 152 0
0.660000 2.860000 19.140000 194 191 153 0
0.880000 2.860000 19.140000 196 193 155 0
1.100000 2.860000 19.140000 198 195 157 0
1.320000 2.860000 19.140000 197 196 160 0
1.540000 2.860000 19.140000 199 198 162 0
1.760000 2.860000 19.140000 200 199 164 0
1.980000 2.860000 19.140000 200 199 164 0
2.200000 2.860000 20.240000 201 200 167 0
2.420000 2.860000 21.120000 203 202 169 0
2.640000 2.860000 22.220000 204 202 172 0
2.860000 2.860000 22.220000 205 203 173 0
3.080000 2.860000 22.220000 206 204 174 0
3.300000 2.860000 22.220000 207 205 175 0
3.520000 2.860000 22.440000 208 206 178 0
3.740000 2.860000 22.440000 210 208 180 0
3.960000 2.860000 22.440000 211 209 181 0
4.180000 2.860000 22.440000 213 211 183 0
4.400000 2.860000 22.440000 212 214 187 0
4.620000 2.860000 21.120000 214 216 189 0
4.840000 2.860000 21.340000 214 215 192 0
5.060000 2.860000 21.340000 214 215 192 0
5.280000 2.860000 21.340000 215 214 189 0
5.500000 2.860000 21.340000 215 214 189 0
5.720000 2.860000 22.880000 217 212 187 0
5.940000 2.860000 22.880000 214 209 184 0
6.160000 2.860000 24.200000 211 206 179 0
6.380000 2.860000 27.060000 210 205 178 0
6.600000 2.860000 28.600000 207 205 175 0
6.820000 2.860000 31.460000 206 204 174 0
7.040000 2.860000 31.460000 208 203 176 0
7.260000 2.860000 33.000000 207 202 175 0
7.480000 2.860000 33.000000 208 203 176 0
7.700000 2.860000 33.000000 209 204 177 0
7.920000 2.860000 33.000000 209 204 179 0
8.140000 2.860000 33.000000 210 205 180 0
8.360000 2.860000 34.320000 210 205 180 0
8.580000 2.860000 35.200000 211 206 181 0
8.800000 2.860000 36.080000 212 207 182 0
9.020000 2.860000 36.080000 211 206 181 0
9.240000 2.860000 36.080000 213 207 188 0
9.460000 2.860000 36.300000 212 206 187 0
9.680000 2.860000 34.980000 224 225 224 0
9.900000 2.860000 34.980000 239 240 239 0
10.120000 2.860000 35.200000 240 241 240 0
10.340000 2.860000 35.200000 240 241 240 0
10.560000 2.860000 35.200000 240 241 240 0
10.780000 2.860000 35.200000 237 238 237 0
11.000000 2.860000 35.200000 227 220 197 0
11.220000 2.860000 35.200000 218 211 188 0
11.440000 2.860000 35.200000 215 210 186 0
11.660000 2.860000 35.420000 213 208 184 0
11.880000 2.860000 35.420000 213 206 183 0
12.100000 2.860000 35.640000 213 206 183 0
12.320000 2.860000 35.640000 211 204 180 0
12.540000 2.860000 36.960000 207 200 176 0
12.760000 2.860000 36.960000 222 183 161 0
12.980000 2.860000 36.960000 209 170 148 0
13.200000 2.860000 35.640000 221 144 133 0
13.420000 2.860000 34.320000 206 129 118 0
13.640000 2.860000 31.460000 211 110 103 0
13.860000 2.860000 28.600000 202 101 94 0
14.080000 2.860000 28.600000 198 97 90 0
14.300000 2.860000 27.280000 197 96 89 0
14.520000 2.860000 28.600000 197 96 89 0
14.740000 2.860000 29.480000 198 97 90 0
14.960000 2.860000 30.580000 197 98 90 0
15.180000 2.860000 29.260000 199 100 92 0
15.400000 2.860000 29.260000 201 102 94 0
15.620000 2.860000 30.800000 203 104 96 0
15.840000 2.860000 30.580000 204 103 96 0
16.060000 2.860000 30.580000 203 102 95 0
16.280000 2.860000 30.580000 201 102 94 0
16.500000 2.860000 30.580000 201 102 94 0
16.720000 2.860000 30.800000 201 100 93 0
16.940000 2.860000 30.140000 202 101 94 0
17.160000 2.860000 28.820000 201 100 93 0
17.380000 2.860000 30.140000 200 99 92 0
17.600000 2.860000 30.140000 200 99 92 0
17.820000 2.860000 30.360000 199 98 91 0
18.040000 2.860000 30.360000 201 97 91 0
18.260000 2.860000 31.680000 200 96 90 0
18.480000 2.860000 32.560000 197 95 91 0
18.700000 2.860000 33.440000 196 94 90 0
18.920000 2.860000 33.440000 199 95 91 0
19.140000 2.860000 34.980000 198 94 90 0
19.360000 2.860000 34.980000 198 94 90 0
19.580000 2.860000 35.200000 197 93 89 0
19.800000 2.860000 35.200000 197 93 89 0
20.020000 2.860000 35.420000 196 92 88 0
20.240000 2.860000 35.420000 195 91 87 0
20.460000 2.860000 35.420000 195 91 87 0
20.680000 2.860000 35.640000 196 92 88 0
20.900000 2.860000 34.320000 195 91 87 0
21.120000 2.860000 34.100000 197 93 89 0
21.340000 2.860000 34.980000 198 94 90 0
21.560000 2.860000 34.760000 199 93 90 0
21.780000 2.860000 33.440000 200 94 91 0
