ply
format ascii 1.0
element vertex 1104
property float x
property float y
property float z
property uchar red
property uchar green
property uchar blue
property uchar alpha
end_header
30.580000 15.400000 32.120000 175 132 137 0
30.800000 15.400000 36.300000 175 132 137 0
31.020000 15.400000 36.300000 174 132 137 0
31.240000 15.400000 34.760000 175 133 138 0
31.460000 15.400000 33.440000 176 134 141 0
31.680000 15.400000 33.440000 178 136 143 0
31.900000 15.400000 33.440000 179 138 151 0
32.120000 15.400000 32.120000 180 139 152 0
32.340000 15.400000 32.120000 183 140 152 0
32.560000 15.400000 32.120000 185 142 154 0
32.780000 15.400000 32.120000 183 147 156 0
33.000000 15.400000 32.120000 184 148 157 0
33.220000 15.400000 30.580000 191 149 156 0
33.440000 15.400000 30.580000 191 149 156 0
33.660000 15.400000 30.580000 204 140 136 0
33.880000 15.400000 30.580000 193 129 125 0
34.100000 15.400000 30.580000 187 119 113 0
34.320000 15.400000 30.580000 183 115 109 0
34.540000 15.400000 30.800000 184 114 109 0
34.760000 15.400000 30.800000 184 114 109 0
34.980000 15.400000 32.120000 184 114 109 0
35.200000 15.400000 32.120000 184 114 109 0
35.420000 15.400000 32.120000 183 113 108 0
35.640000 15.400000 32.340000 182 112 107 0
35.860000 15.400000 32.340000 183 112 105 0
36.080000 15.400000 32.340000 183 112 105 0
36.300000 15.400000 32.340000 183 112 105 0
36.520000 15.400000 32.340000 182 111 104 0
36.740000 15.400000 33.880000 182 110 106 0
36.960000 15.400000 34.100000 182 110 106 0
37.180000 15.400000 32.780000 181 107 103 0
0.000000 15.620000 2.640000 184 202 201 0
0.220000 15.620000 2.640000 185 204 205 0
0.440000 15.620000 2.640000 186 205 206 0
0.660000 15.620000 2.420000 185 206 207 0
0.880000 15.620000 2.420000 186 207 208 0
1.100000 15.620000 2.420000 189 206 208 0
1.320000 15.620000 2.420000 189 206 208 0
1.540000 15.620000 3.300000 188 206 205 0
1.760000 15.620000 3.300000 189 207 206 0
1.980000 15.620000 3.080000 190 205 205 0
2.200000 15.620000 3.080000 189 204 204 0
2.420000 15.620000 4.400000 186 204 203 0
2.640000 15.620000 4.400000 186 204 203 0
2.860000 15.620000 4.400000 188 203 203 0
3.080000 15.620000 4.400000 188 203 203 0
3.300000 15.620000 4.400000 189 203 201 0
3.520000 15.620000 5.720000 191 205 203 0
3.740000 15.620000 5.720000 191 205 201 0
3.960000 15.620000 5.720000 192 206 202 0
4.180000 15.620000 7.040000 199 211 206 0
4.400000 15.620000 7.040000 201 213 208 0
4.620000 15.620000 7.040000 202 212 208 0
4.840000 15.620000 7.040000 203 213 209 0
5.060000 15.620000 7.040000 204 214 210 0
5.280000 15.620000 7.040000 204 214 210 0
5.500000 15.620000 7.260000 205 215 209 0
5.720000 15.620000 7.260000 206 216 210 0
5.940000 15.620000 7.260000 206 216 212 0
6.160000 15.620000 7.260000 206 216 212 0
6.380000 15.620000 7.260000 207 217 211 0
6.600000 15.620000 7.480000 207 217 211 0
6.820000 15.620000 7.480000 207 217 213 0
7.040000 15.620000 7.480000 207 217 213 0
7.260000 15.620000 7.700000 207 217 213 0
7.480000 15.620000 7.700000 207 217 213 0
7.700000 15.620000 9.020000 207 217 213 0
7.920000 15.620000 9.240000 208 218 214 0
8.140000 15.620000 9.240000 209 218 212 0
8.360000 15.620000 9.240000 209 218 212 0
8.580000 15.620000 9.460000 210 218 215 0
8.800000 15.620000 9.460000 209 217 214 0
9.020000 15.620000 9.460000 209 218 212 0
9.240000 15.620000 9.680000 210 219 213 0
9.460000 15.620000 10.780000 210 219 213 0
9.680000 15.620000 12.760000 210 219 213 0
9.900000 15.620000 13.860000 210 219 213 0
10.120000 15.620000 14.080000 209 218 212 0
10.340000 15.620000 14.080000 210 218 215 0
10.560000 15.620000 14.080000 209 217 214 0
10.780000 15.620000 14.080000 210 218 215 0
11.000000 15.620000 14.080000 210 218 215 0
11.220000 15.620000 14.300000 209 218 212 0
11.440000 15.620000 14.300000 209 218 212 0
11.660000 15.620000 15.840000 208 217 211 0
11.880000 15.620000 15.840000 208 217 211 0
12.100000 15.620000 15.840000 208 216 213 0
12.320000 15.620000 15.840000 209 217 214 0
12.540000 15.620000 16.060000 209 217 214 0
12.760000 15.620000 16.060000 208 216 213 0
12.980000 15.620000 16.060000 207 215 212 0
13.200000 15.620000 16.280000 207 215 212 0
13.420000 15.620000 17.600000 206 214 211 0
13.640000 15.620000 17.820000 206 214 211 0
13.860000 15.620000 17.820000 206 214 211 0
14.080000 15.620000 17.820000 206 214 211 0
14.300000 15.620000 18.920000 205 213 210 0
14.520000 15.620000 19.800000 204 212 209 0
14.740000 15.620000 20.900000 204 212 209 0
14.960000 15.620000 20.900000 202 210 207 0
15.180000 15.620000 20.900000 201 211 208 0
15.400000 15.620000 20.900000 200 210 207 0
15.620000 15.620000 21.120000 199 207 204 0
15.840000 15.620000 21.120000 199 207 204 0
16.060000 15.620000 22.440000 197 205 202 0
16.280000 15.620000 22.660000 194 202 199 0
16.500000 15.620000 22.660000 186 201 203 0
16.720000 15.620000 22.660000 180 195 197 0
16.940000 15.620000 22.660000 179 184 185 0
17.160000 15.620000 22.660000 173 178 179 0
17.380000 15.620000 22.660000 170 171 170 0
17.600000 15.620000 22.660000 166 167 166 0
17.820000 15.620000 22.660000 161 162 161 0
18.040000 15.620000 22.880000 158 159 158 0
18.260000 15.620000 22.660000 155 157 164 0
18.480000 15.620000 21.340000 152 154 161 0
18.700000 15.620000 21.340000 150 154 161 0
18.920000 15.620000 18.260000 150 154 161 0
19.140000 15.620000 16.940000 148 156 164 0
19.360000 15.620000 14.080000 146 154 162 0
19.580000 15.620000 14.080000 147 153 162 0
19.800000 15.620000 12.760000 147 153 162 0
20.020000 15.620000 11.440000 147 153 162 0
20.240000 15.620000 12.760000 147 153 162 0
20.460000 15.620000 11.440000 149 153 160 0
20.680000 15.620000 11.440000 149 153 160 0
20.900000 15.620000 11.440000 148 152 159 0
21.120000 15.620000 11.440000 149 153 160 0
21.340000 15.620000 11.440000 147 153 162 0
21.560000 15.620000 10.120000 145 151 160 0
21.780000 15.620000 9.900000 146 152 161 0
22.000000 15.620000 8.580000 145 151 160 0
22.220000 15.620000 8.580000 147 151 158 0
22.440000 15.620000 9.900000 147 151 158 0
22.660000 15.620000 9.900000 148 152 159 0
22.880000 15.620000 9.900000 147 151 158 0
23.100000 15.620000 9.900000 147 151 158 0
23.320000 15.620000 9.900000 146 150 157 0
23.540000 15.620000 9.900000 145 149 156 0
23.760000 15.620000 9.900000 145 149 156 0
23.980000 15.620000 8.580000 146 148 155 0
24.200000 15.620000 8.580000 146 148 155 0
24.420000 15.620000 8.580000 147 147 152 0
24.640000 15.620000 7.260000 146 146 151 0
24.860000 15.620000 7.260000 148 146 152 0
25.080000 15.620000 7.260000 147 145 151 0
25.300000 15.620000 8.580000 151 146 148 0
25.520000 15.620000 8.580000 149 144 146 0
25.740000 15.620000 8.580000 149 142 144 0
25.960000 15.620000 7.260000 149 142 144 0
26.180000 15.620000 7.260000 148 141 144 0
26.400000 15.620000 8.580000 147 140 143 0
26.620000 15.620000 8.580000 150 139 140 0
26.840000 15.620000 8.580000 150 139 140 0
27.060000 15.620000 8.580000 152 137 137 0
27.280000 15.620000 8.580000 151 136 136 0
27.500000 15.620000 8.580000 154 133 133 0
27.720000 15.620000 8.580000 153 132 132 0
27.940000 15.620000 7.260000 155 130 131 0
28.160000 15.620000 8.580000 156 131 132 0
28.380000 15.620000 11.440000 164 127 130 0
28.600000 15.620000 14.080000 165 128 131 0
28.820000 15.620000 12.760000 164 129 131 0
29.040000 15.620000 7.260000 166 131 133 0
29.260000 15.620000 5.720000 168 128 132 0
29.480000 15.620000 12.760000 169 129 133 0
29.700000 15.620000 20.900000 173 130 134 0
29.920000 15.620000 19.580000 173 130 134 0
30.140000 15.620000 18.260000 173 130 135 0
30.360000 15.620000 27.940000 174 131 136 0
30.580000 15.620000 34.760000 174 131 136 0
30.800000 15.620000 34.760000 174 131 136 0
31.020000 15.620000 34.760000 175 133 138 0
31.240000 15.620000 33.440000 174 132 137 0
31.460000 15.620000 32.120000 177 135 142 0
31.680000 15.620000 32.120000 178 136 143 0
31.900000 15.620000 32.120000 179 138 151 0
32.120000 15.620000 32.120000 181 140 153 0
32.340000 15.620000 32.120000 185 142 154 0
32.560000 15.620000 30.580000 186 143 155 0
32.780000 15.620000 30.580000 185 149 158 0
33.000000 15.620000 30.580000 187 151 160 0
33.220000 15.620000 30.580000 191 149 156 0
33.440000 15.620000 30.580000 186 144 151 0
33.660000 15.620000 30.580000 193 129 125 0
33.880000 15.620000 30.580000 184 120 116 0
34.100000 15.620000 30.580000 183 115 109 0
34.320000 15.620000 30.580000 184 116 110 0
34.540000 15.620000 30.580000 183 113 108 0
34.760000 15.620000 30.800000 182 112 107 0
34.980000 15.620000 32.120000 183 113 108 0
35.200000 15.620000 32.120000 182 112 107 0
35.420000 15.620000 32.120000 182 112 107 0
35.640000 15.620000 32.340000 182 112 107 0
35.860000 15.620000 32.340000 183 112 105 0
36.080000 15.620000 32.340000 182 111 104 0
36.300000 15.620000 32.340000 181 110 103 0
36.520000 15.620000 32.340000 181 110 103 0
36.740000 15.620000 33.880000 181 109 105 0
36.960000 15.620000 34.100000 180 108 104 0
37.180000 15.620000 32.780000 181 107 103 0
0.000000 15.840000 2.640000 184 202 201 0
0.220000 15.840000 2.640000 186 204 203 0
0.440000 15.840000 2.640000 186 204 203 0
0.660000 15.840000 2.420000 188 206 205 0
0.880000 15.840000 2.420000 188 206 205 0
1.100000 15.840000 2.420000 188 205 207 0
1.320000 15.840000 2.420000 188 205 207 0
1.540000 15.840000 3.520000 189 207 206 0
1.760000 15.840000 3.300000 189 207 206 0
1.980000 15.840000 3.080000 190 205 203 0
2.200000 15.840000 4.400000 190 205 203 0
2.420000 15.840000 4.400000 187 205 204 0
2.640000 15.840000 4.400000 186 204 203 0
2.860000 15.840000 4.400000 189 204 202 0
3.080000 15.840000 4.400000 189 204 202 0
3.300000 15.840000 4.400000 187 205 204 0
3.520000 15.840000 5.720000 187 205 204 0
3.740000 15.840000 5.720000 191 205 201 0
3.960000 15.840000 5.720000 194 208 204 0
4.180000 15.840000 7.040000 200 210 206 0
4.400000 15.840000 7.040000 202 212 208 0
4.620000 15.840000 7.040000 204 213 207 0
4.840000 15.840000 7.040000 204 213 207 0
5.060000 15.840000 7.040000 205 213 210 0
5.280000 15.840000 7.040000 206 214 211 0
5.500000 15.840000 7.040000 207 216 210 0
5.720000 15.840000 7.260000 207 216 210 0
5.940000 15.840000 7.260000 207 215 212 0
6.160000 15.840000 7.260000 208 216 213 0
6.380000 15.840000 7.260000 209 218 212 0
6.600000 15.840000 7.480000 208 217 211 0
6.820000 15.840000 7.480000 208 217 211 0
7.040000 15.840000 7.480000 209 218 212 0
7.260000 15.840000 7.700000 209 218 212 0
7.480000 15.840000 7.700000 209 218 212 0
7.700000 15.840000 9.020000 209 218 212 0
7.920000 15.840000 9.240000 209 218 212 0
8.140000 15.840000 9.240000 209 218 212 0
8.360000 15.840000 9.240000 209 218 212 0
8.580000 15.840000 9.460000 210 219 213 0
8.800000 15.840000 9.460000 209 218 212 0
9.020000 15.840000 9.460000 210 219 213 0
9.240000 15.840000 9.680000 209 218 212 0
9.460000 15.840000 10.780000 210 219 213 0
9.680000 15.840000 12.760000 210 219 213 0
9.900000 15.840000 13.860000 210 219 213 0
10.120000 15.840000 14.080000 210 219 213 0
10.340000 15.840000 14.080000 209 218 212 0
10.560000 15.840000 14.080000 210 219 213 0
10.780000 15.840000 14.080000 209 217 214 0
11.000000 15.840000 14.080000 209 217 214 0
11.220000 15.840000 14.300000 209 218 212 0
11.440000 15.840000 14.300000 209 218 212 0
11.660000 15.840000 15.840000 208 217 211 0
11.880000 15.840000 15.840000 208 217 211 0
12.100000 15.840000 15.840000 208 216 213 0
12.320000 15.840000 15.840000 208 216 213 0
12.540000 15.840000 16.060000 208 216 213 0
12.760000 15.840000 16.060000 209 217 214 0
12.980000 15.840000 16.060000 207 215 212 0
13.200000 15.840000 16.280000 208 216 213 0
13.420000 15.840000 17.600000 207 216 210 0
13.640000 15.840000 17.820000 207 216 210 0
13.860000 15.840000 17.820000 206 216 212 0
14.080000 15.840000 17.820000 204 214 210 0
14.300000 15.840000 18.920000 204 212 209 0
14.520000 15.840000 19.800000 204 212 209 0
14.740000 15.840000 20.900000 203 212 206 0
14.960000 15.840000 20.900000 202 211 205 0
15.180000 15.840000 20.900000 201 209 206 0
15.400000 15.840000 20.900000 200 208 205 0
15.620000 15.840000 21.120000 199 207 204 0
15.840000 15.840000 21.120000 198 206 203 0
16.060000 15.840000 21.120000 192 202 199 0
16.280000 15.840000 22.440000 191 201 198 0
16.500000 15.840000 22.660000 194 190 186 0
16.720000 15.840000 22.660000 187 183 179 0
16.940000 15.840000 22.660000 179 174 166 0
17.160000 15.840000 22.660000 174 169 161 0
17.380000 15.840000 22.660000 170 162 155 0
17.600000 15.840000 22.660000 167 159 152 0
17.820000 15.840000 22.660000 159 157 157 0
18.040000 15.840000 21.340000 158 156 156 0
18.260000 15.840000 21.340000 153 153 158 0
18.480000 15.840000 21.340000 151 151 156 0
18.700000 15.840000 21.120000 148 152 158 0
18.920000 15.840000 18.260000 150 154 160 0
19.140000 15.840000 15.620000 147 153 162 0
19.360000 15.840000 14.080000 147 153 162 0
19.580000 15.840000 14.080000 149 153 160 0
19.800000 15.840000 12.760000 149 153 160 0
20.020000 15.840000 11.440000 150 154 161 0
20.240000 15.840000 11.440000 149 153 160 0
20.460000 15.840000 11.440000 147 154 160 0
20.680000 15.840000 11.440000 145 152 158 0
20.900000 15.840000 11.440000 148 155 161 0
21.120000 15.840000 11.440000 147 154 160 0
21.340000 15.840000 9.900000 148 152 159 0
21.560000 15.840000 9.900000 147 151 158 0
21.780000 15.840000 9.900000 146 150 157 0
22.000000 15.840000 9.900000 147 151 158 0
22.220000 15.840000 9.900000 146 153 159 0
22.440000 15.840000 9.900000 146 153 159 0
22.660000 15.840000 9.900000 147 151 158 0
22.880000 15.840000 8.580000 147 151 158 0
23.100000 15.840000 8.580000 147 151 157 0
23.320000 15.840000 9.900000 147 151 157 0
23.540000 15.840000 9.900000 148 150 157 0
23.760000 15.840000 9.900000 147 149 156 0
23.980000 15.840000 8.580000 146 149 153 0
24.200000 15.840000 8.580000 147 150 154 0
24.420000 15.840000 8.580000 145 149 155 0
24.640000 15.840000 8.580000 145 149 155 0
24.860000 15.840000 7.260000 147 147 152 0
25.080000 15.840000 7.260000 146 146 151 0
25.300000 15.840000 8.580000 147 146 149 0
25.520000 15.840000 8.580000 147 146 149 0
25.740000 15.840000 7.260000 145 144 145 0
25.960000 15.840000 7.260000 145 144 145 0
26.180000 15.840000 7.260000 151 142 142 0
26.400000 15.840000 8.580000 151 142 142 0
26.620000 15.840000 8.580000 150 141 141 0
26.840000 15.840000 9.900000 150 141 141 0
27.060000 15.840000 9.900000 155 135 132 0
27.280000 15.840000 8.580000 156 136 133 0
27.500000 15.840000 10.120000 160 129 130 0
27.720000 15.840000 9.900000 159 128 129 0
27.940000 15.840000 9.900000 161 126 128 0
28.160000 15.840000 11.440000 163 128 130 0
28.380000 15.840000 15.400000 168 126 131 0
28.600000 15.840000 18.260000 168 126 131 0
28.820000 15.840000 16.940000 165 130 131 0
29.040000 15.840000 9.900000 167 132 133 0
29.260000 15.840000 8.580000 170 129 132 0
29.480000 15.840000 16.940000 171 130 133 0
29.700000 15.840000 23.760000 172 130 135 0
29.920000 15.840000 27.940000 172 130 135 0
30.140000 15.840000 27.940000 174 131 136 0
30.360000 15.840000 30.800000 174 131 136 0
30.580000 15.840000 33.440000 177 131 136 0
30.800000 15.840000 33.440000 178 132 137 0
31.020000 15.840000 32.120000 177 131 136 0
31.240000 15.840000 32.120000 179 133 138 0
31.460000 15.840000 32.120000 178 136 143 0
31.680000 15.840000 32.120000 180 138 145 0
31.900000 15.840000 30.800000 179 138 147 0
32.120000 15.840000 30.580000 183 142 151 0
32.340000 15.840000 30.580000 185 144 155 0
32.560000 15.840000 30.580000 186 145 156 0
32.780000 15.840000 30.580000 190 147 152 0
33.000000 15.840000 30.580000 189 146 151 0
33.220000 15.840000 30.580000 202 136 132 0
33.440000 15.840000 30.580000 193 127 123 0
33.660000 15.840000 30.580000 187 119 111 0
33.880000 15.840000 30.580000 183 115 107 0
34.100000 15.840000 30.580000 185 115 110 0
34.320000 15.840000 30.580000 183 113 108 0
34.540000 15.840000 30.580000 183 114 106 0
34.760000 15.840000 30.800000 184 115 107 0
34.980000 15.840000 30.800000 184 113 106 0
35.200000 15.840000 32.120000 183 112 105 0
35.420000 15.840000 32.120000 181 112 104 0
35.640000 15.840000 32.340000 182 113 105 0
35.860000 15.840000 32.340000 183 109 101 0
36.080000 15.840000 32.340000 184 110 102 0
36.300000 15.840000 32.340000 181 110 103 0
36.520000 15.840000 32.340000 181 110 103 0
36.740000 15.840000 32.560000 180 109 102 0
36.960000 15.840000 32.560000 180 109 102 0
37.180000 15.840000 32.780000 181 107 99 0
0.000000 16.060000 2.640000 184 202 201 0
0.220000 16.060000 2.640000 185 203 202 0
0.440000 16.060000 2.640000 186 204 203 0
0.660000 16.060000 2.420000 187 205 204 0
0.880000 16.060000 2.420000 188 206 205 0
1.100000 16.060000 2.420000 188 205 207 0
1.320000 16.060000 2.420000 187 204 206 0
1.540000 16.060000 3.300000 187 205 204 0
1.760000 16.060000 3.080000 187 205 204 0
1.980000 16.060000 3.080000 189 204 202 0
2.200000 16.060000 4.400000 189 204 202 0
2.420000 16.060000 4.400000 186 204 203 0
2.640000 16.060000 4.400000 187 205 204 0
2.860000 16.060000 4.400000 187 202 200 0
3.080000 16.060000 4.400000 187 202 200 0
3.300000 16.060000 4.400000 186 204 203 0
3.520000 16.060000 5.720000 187 205 204 0
3.740000 16.060000 5.720000 190 204 200 0
3.960000 16.060000 5.720000 194 208 204 0
4.180000 16.060000 7.040000 199 209 205 0
4.400000 16.060000 7.040000 201 211 207 0
4.620000 16.060000 7.040000 203 212 206 0
4.840000 16.060000 7.040000 204 213 207 0
5.060000 16.060000 7.040000 205 213 210 0
5.280000 16.060000 7.040000 205 213 210 0
5.500000 16.060000 7.040000 206 215 209 0
5.720000 16.060000 7.260000 206 215 209 0
5.940000 16.060000 7.260000 207 215 212 0
6.160000 16.060000 7.260000 208 216 213 0
6.380000 16.060000 7.260000 207 216 210 0
6.600000 16.060000 7.480000 208 217 211 0
6.820000 16.060000 7.480000 208 217 211 0
7.040000 16.060000 7.480000 207 216 210 0
7.260000 16.060000 7.700000 208 217 211 0
7.480000 16.060000 7.700000 208 217 211 0
7.700000 16.060000 9.020000 208 217 211 0
7.920000 16.060000 9.240000 208 217 211 0
8.140000 16.060000 9.240000 208 217 211 0
8.360000 16.060000 9.240000 208 217 211 0
8.580000 16.060000 9.460000 209 218 212 0
8.800000 16.060000 9.460000 208 217 211 0
9.020000 16.060000 9.460000 209 218 212 0
9.240000 16.060000 9.680000 209 218 212 0
9.460000 16.060000 10.780000 208 217 211 0
9.680000 16.060000 12.760000 208 217 211 0
9.900000 16.060000 13.860000 209 218 212 0
10.120000 16.060000 14.080000 208 217 211 0
10.340000 16.060000 14.080000 207 216 210 0
10.560000 16.060000 14.080000 208 217 211 0
10.780000 16.060000 14.080000 208 216 213 0
11.000000 16.060000 14.080000 208 216 213 0
11.220000 16.060000 14.300000 208 217 211 0
11.440000 16.060000 14.300000 207 216 210 0
11.660000 16.060000 15.840000 208 217 211 0
11.880000 16.060000 15.840000 208 217 211 0
12.100000 16.060000 15.840000 207 215 212 0
12.320000 16.060000 15.840000 208 216 213 0
12.540000 16.060000 16.060000 207 215 212 0
12.760000 16.060000 16.060000 207 215 212 0
12.980000 16.060000 16.060000 207 215 212 0
13.200000 16.060000 16.280000 206 214 211 0
13.420000 16.060000 17.600000 206 215 209 0
13.640000 16.060000 17.820000 204 213 207 0
13.860000 16.060000 17.820000 204 214 210 0
14.080000 16.060000 17.820000 203 213 209 0
14.300000 16.060000 17.600000 203 211 208 0
14.520000 16.060000 19.800000 203 211 208 0
14.740000 16.060000 20.900000 201 210 204 0
14.960000 16.060000 20.900000 200 209 203 0
15.180000 16.060000 20.900000 199 207 204 0
15.400000 16.060000 20.900000 197 205 202 0
15.620000 16.060000 20.900000 195 203 200 0
15.840000 16.060000 21.120000 194 202 199 0
16.060000 16.060000 21.120000 190 200 197 0
16.280000 16.060000 22.440000 183 193 190 0
16.500000 16.060000 22.660000 186 182 178 0
16.720000 16.060000 22.660000 176 172 168 0
16.940000 16.060000 22.660000 170 165 157 0
17.160000 16.060000 22.660000 167 162 154 0
17.380000 16.060000 22.660000 166 158 151 0
17.600000 16.060000 22.660000 163 155 148 0
17.820000 16.060000 21.340000 156 154 154 0
18.040000 16.060000 21.340000 153 151 151 0
18.260000 16.060000 21.340000 151 151 156 0
18.480000 16.060000 21.120000 149 149 154 0
18.700000 16.060000 19.800000 147 151 157 0
18.920000 16.060000 18.260000 148 152 158 0
19.140000 16.060000 15.400000 147 153 162 0
19.360000 16.060000 14.080000 147 153 162 0
19.580000 16.060000 14.080000 149 153 160 0
19.800000 16.060000 12.760000 149 153 160 0
20.020000 16.060000 11.440000 148 152 159 0
20.240000 16.060000 11.440000 148 152 159 0
20.460000 16.060000 11.440000 145 152 158 0
20.680000 16.060000 11.440000 146 153 159 0
20.900000 16.060000 11.440000 146 153 159 0
21.120000 16.060000 11.440000 147 154 160 0
21.340000 16.060000 9.900000 148 152 159 0
21.560000 16.060000 11.440000 147 151 158 0
21.780000 16.060000 11.440000 147 151 158 0
22.000000 16.060000 9.900000 148 152 159 0
22.220000 16.060000 9.900000 146 153 159 0
22.440000 16.060000 9.900000 145 152 158 0
22.660000 16.060000 9.900000 148 152 159 0
22.880000 16.060000 8.580000 147 151 158 0
23.100000 16.060000 8.580000 146 150 156 0
23.320000 16.060000 9.900000 146 150 156 0
23.540000 16.060000 9.900000 148 150 157 0
23.760000 16.060000 9.900000 146 148 155 0
23.980000 16.060000 8.580000 146 149 153 0
24.200000 16.060000 8.580000 147 150 154 0
24.420000 16.060000 8.580000 145 149 155 0
24.640000 16.060000 8.580000 145 149 155 0
24.860000 16.060000 8.580000 147 147 152 0
25.080000 16.060000 8.580000 147 147 152 0
25.300000 16.060000 9.900000 147 146 149 0
25.520000 16.060000 9.900000 147 146 149 0
25.740000 16.060000 8.580000 146 145 146 0
25.960000 16.060000 8.580000 147 146 147 0
26.180000 16.060000 8.580000 152 143 143 0
26.400000 16.060000 8.580000 151 142 142 0
26.620000 16.060000 8.580000 149 140 140 0
26.840000 16.060000 9.900000 149 140 140 0
27.060000 16.060000 9.900000 156 136 133 0
27.280000 16.060000 9.900000 154 134 131 0
27.500000 16.060000 12.760000 159 128 129 0
27.720000 16.060000 14.080000 159 128 129 0
27.940000 16.060000 14.080000 163 128 130 0
28.160000 16.060000 14.080000 164 129 131 0
28.380000 16.060000 18.260000 169 127 132 0
28.600000 16.060000 22.440000 168 126 131 0
28.820000 16.060000 20.900000 164 129 130 0
29.040000 16.060000 16.940000 165 130 131 0
29.260000 16.060000 18.260000 170 129 132 0
29.480000 16.060000 22.440000 171 130 133 0
29.700000 16.060000 22.440000 172 130 135 0
29.920000 16.060000 27.940000 173 131 136 0
30.140000 16.060000 30.580000 175 132 137 0
30.360000 16.060000 30.800000 175 132 137 0
30.580000 16.060000 32.120000 177 131 136 0
30.800000 16.060000 32.120000 177 131 136 0
31.020000 16.060000 30.800000 178 132 137 0
31.240000 16.060000 30.580000 180 134 139 0
31.460000 16.060000 30.580000 178 136 143 0
31.680000 16.060000 30.580000 178 136 143 0
31.900000 16.060000 30.580000 181 140 149 0
32.120000 16.060000 30.580000 183 142 151 0
32.340000 16.060000 30.580000 185 144 155 0
32.560000 16.060000 30.580000 186 145 156 0
32.780000 16.060000 30.580000 187 144 149 0
33.000000 16.060000 30.580000 184 141 146 0
33.220000 16.060000 30.580000 190 124 120 0
33.440000 16.060000 30.580000 183 117 113 0
33.660000 16.060000 30.580000 184 116 108 0
33.880000 16.060000 30.580000 183 115 107 0
34.100000 16.060000 30.580000 184 114 109 0
34.320000 16.060000 30.580000 183 113 108 0
34.540000 16.060000 30.580000 183 114 106 0
34.760000 16.060000 30.800000 182 113 105 0
34.980000 16.060000 30.800000 183 112 105 0
35.200000 16.060000 30.800000 182 111 104 0
35.420000 16.060000 32.120000 181 112 104 0
35.640000 16.060000 32.340000 181 112 104 0
35.860000 16.060000 32.340000 182 108 100 0
36.080000 16.060000 32.340000 181 107 99 0
36.300000 16.060000 32.340000 180 109 102 0
36.520000 16.060000 32.340000 180 109 102 0
36.740000 16.060000 32.560000 180 109 102 0
36.960000 16.060000 32.560000 179 108 101 0
37.180000 16.060000 32.780000 180 106 98 0
0.000000 16.280000 2.640000 186 201 199 0
0.220000 16.280000 2.640000 185 200 200 0
0.440000 16.280000 2.640000 187 202 202 0
0.660000 16.280000 2.420000 188 203 203 0
0.880000 16.280000 2.420000 188 203 203 0
1.100000 16.280000 2.420000 187 205 204 0
1.320000 16.280000 2.420000 187 205 204 0
1.540000 16.280000 2.200000 189 204 202 0
1.760000 16.280000 3.300000 188 203 201 0
1.980000 16.280000 4.400000 188 203 201 0
2.200000 16.280000 4.400000 189 204 202 0
2.420000 16.280000 4.400000 189 204 202 0
2.640000 16.280000 4.400000 188 203 201 0
2.860000 16.280000 4.400000 189 203 199 0
3.080000 16.280000 4.400000 188 202 198 0
3.300000 16.280000 4.400000 189 203 201 0
3.520000 16.280000 5.720000 190 204 202 0
3.740000 16.280000 5.720000 192 203 200 0
3.960000 16.280000 5.720000 195 206 203 0
4.180000 16.280000 7.040000 198 208 204 0
4.400000 16.280000 7.040000 201 211 207 0
4.620000 16.280000 7.040000 202 212 208 0
4.840000 16.280000 7.040000 202 212 208 0
5.060000 16.280000 7.040000 207 213 208 0
5.280000 16.280000 7.040000 207 213 208 0
5.500000 16.280000 7.040000 205 214 208 0
5.720000 16.280000 7.260000 206 215 209 0
5.940000 16.280000 7.260000 206 215 209 0
6.160000 16.280000 7.260000 207 216 210 0
6.380000 16.280000 7.260000 208 217 211 0
6.600000 16.280000 7.480000 208 217 211 0
6.820000 16.280000 7.480000 208 217 211 0
7.040000 16.280000 7.480000 208 217 211 0
7.260000 16.280000 7.700000 210 216 209 0
7.480000 16.280000 7.700000 210 216 209 0
7.700000 16.280000 9.020000 207 216 210 0
7.920000 16.280000 9.240000 208 217 211 0
8.140000 16.280000 9.240000 209 215 210 0
8.360000 16.280000 9.240000 209 215 210 0
8.580000 16.280000 9.460000 209 215 210 0
8.800000 16.280000 9.460000 209 215 210 0
9.020000 16.280000 9.460000 210 216 209 0
9.240000 16.280000 9.680000 210 216 209 0
9.460000 16.280000 10.780000 211 217 212 0
9.680000 16.280000 12.760000 210 216 211 0
9.900000 16.280000 13.860000 210 216 211 0
10.120000 16.280000 14.080000 209 215 210 0
10.340000 16.280000 14.080000 209 215 208 0
10.560000 16.280000 14.080000 209 215 208 0
10.780000 16.280000 14.080000 209 215 208 0
11.000000 16.280000 14.080000 209 215 208 0
11.220000 16.280000 14.300000 210 216 211 0
11.440000 16.280000 14.300000 209 215 210 0
11.660000 16.280000 15.840000 209 215 210 0
11.880000 16.280000 15.840000 209 215 210 0
12.100000 16.280000 15.840000 208 214 207 0
12.320000 16.280000 15.840000 209 215 208 0
12.540000 16.280000 16.060000 209 215 210 0
12.760000 16.280000 16.060000 208 214 209 0
12.980000 16.280000 16.060000 207 213 208 0
13.200000 16.280000 16.280000 207 213 208 0
13.420000 16.280000 17.600000 207 213 208 0
13.640000 16.280000 17.820000 207 213 208 0
13.860000 16.280000 17.820000 207 213 208 0
14.080000 16.280000 17.820000 205 211 206 0
14.300000 16.280000 17.600000 204 210 205 0
14.520000 16.280000 19.800000 204 210 205 0
14.740000 16.280000 20.900000 200 209 203 0
14.960000 16.280000 20.900000 199 208 202 0
15.180000 16.280000 20.900000 200 206 201 0
15.400000 16.280000 20.900000 198 204 199 0
15.620000 16.280000 20.900000 200 198 194 0
15.840000 16.280000 21.120000 196 194 190 0
16.060000 16.280000 21.120000 194 186 178 0
16.280000 16.280000 21.120000 186 178 170 0
16.500000 16.280000 21.120000 179 170 160 0
16.720000 16.280000 21.120000 173 164 154 0
16.940000 16.280000 21.120000 167 159 152 0
17.160000 16.280000 21.120000 165 157 150 0
17.380000 16.280000 21.120000 163 153 147 0
17.600000 16.280000 21.120000 160 150 144 0
17.820000 16.280000 21.340000 156 150 147 0
18.040000 16.280000 21.120000 156 150 147 0
18.260000 16.280000 19.800000 147 148 148 0
18.480000 16.280000 19.800000 147 148 148 0
18.700000 16.280000 19.800000 146 149 153 0
18.920000 16.280000 18.260000 148 151 155 0
19.140000 16.280000 15.400000 149 153 160 0
19.360000 16.280000 15.400000 149 153 160 0
19.580000 16.280000 14.080000 147 154 159 0
19.800000 16.280000 12.760000 146 153 158 0
20.020000 16.280000 12.760000 148 152 159 0
20.240000 16.280000 11.440000 148 152 159 0
20.460000 16.280000 11.440000 148 152 159 0
20.680000 16.280000 12.760000 148 152 159 0
20.900000 16.280000 12.760000 148 152 159 0
21.120000 16.280000 11.440000 148 152 159 0
21.340000 16.280000 9.900000 147 151 157 0
21.560000 16.280000 11.440000 147 151 157 0
21.780000 16.280000 11.440000 147 151 158 0
22.000000 16.280000 11.440000 148 152 159 0
22.220000 16.280000 11.220000 146 150 156 0
22.440000 16.280000 11.220000 148 152 158 0
22.660000 16.280000 11.440000 147 151 157 0
22.880000 16.280000 9.900000 147 151 157 0
23.100000 16.280000 9.900000 146 150 156 0
23.320000 16.280000 9.900000 146 150 156 0
23.540000 16.280000 9.900000 146 150 156 0
23.760000 16.280000 9.900000 147 151 157 0
23.980000 16.280000 9.900000 147 149 156 0
24.200000 16.280000 9.900000 148 150 157 0
24.420000 16.280000 9.900000 146 148 155 0
24.640000 16.280000 9.900000 147 149 156 0
24.860000 16.280000 8.580000 147 147 150 0
25.080000 16.280000 9.900000 147 147 150 0
25.300000 16.280000 9.900000 149 148 151 0
25.520000 16.280000 9.900000 147 146 149 0
25.740000 16.280000 9.900000 149 144 146 0
25.960000 16.280000 8.580000 149 144 146 0
26.180000 16.280000 8.580000 153 142 143 0
26.400000 16.280000 8.580000 152 141 142 0
26.620000 16.280000 8.580000 159 137 137 0
26.840000 16.280000 9.900000 158 136 136 0
27.060000 16.280000 11.220000 165 130 131 0
27.280000 16.280000 12.760000 163 128 129 0
27.500000 16.280000 14.080000 166 127 127 0
27.720000 16.280000 16.940000 166 127 127 0
27.940000 16.280000 18.260000 167 128 130 0
28.160000 16.280000 18.260000 167 128 130 0
28.380000 16.280000 21.120000 167 128 130 0
28.600000 16.280000 22.440000 167 128 130 0
28.820000 16.280000 22.440000 172 126 131 0
29.040000 16.280000 23.760000 173 127 132 0
29.260000 16.280000 26.620000 171 128 132 0
29.480000 16.280000 26.620000 172 129 133 0
29.700000 16.280000 25.080000 175 129 134 0
29.920000 16.280000 27.940000 175 129 134 0
30.140000 16.280000 30.800000 177 130 133 0
30.360000 16.280000 29.260000 177 130 133 0
30.580000 16.280000 30.800000 178 131 134 0
30.800000 16.280000 30.580000 179 132 135 0
31.020000 16.280000 30.580000 176 133 137 0
31.240000 16.280000 30.580000 178 135 139 0
31.460000 16.280000 30.580000 180 134 140 0
31.680000 16.280000 30.580000 183 137 143 0
31.900000 16.280000 30.580000 184 140 148 0
32.120000 16.280000 29.260000 186 142 150 0
32.340000 16.280000 29.260000 189 144 146 0
32.560000 16.280000 29.260000 188 143 145 0
32.780000 16.280000 29.040000 200 132 126 0
33.000000 16.280000 29.040000 192 124 118 0
33.220000 16.280000 29.040000 186 117 109 0
33.440000 16.280000 29.040000 184 115 107 0
33.660000 16.280000 30.580000 184 115 107 0
33.880000 16.280000 30.580000 183 114 106 0
34.100000 16.280000 30.580000 184 115 107 0
34.320000 16.280000 30.580000 183 114 106 0
34.540000 16.280000 30.580000 183 112 105 0
34.760000 16.280000 30.800000 183 112 105 0
34.980000 16.280000 30.800000 183 112 105 0
35.200000 16.280000 30.800000 182 111 104 0
35.420000 16.280000 30.800000 180 109 102 0
35.640000 16.280000 32.120000 180 109 102 0
35.860000 16.280000 32.340000 183 109 101 0
36.080000 16.280000 32.340000 181 107 99 0
36.300000 16.280000 32.340000 181 107 99 0
36.520000 16.280000 32.340000 181 107 99 0
36.740000 16.280000 32.560000 181 106 98 0
36.960000 16.280000 32.560000 180 105 97 0
37.180000 16.280000 32.780000 182 104 95 0
0.000000 16.500000 2.640000 184 199 197 0
0.220000 16.500000 2.640000 185 200 200 0
0.440000 16.500000 2.640000 187 202 202 0
0.660000 16.500000 2.420000 188 203 203 0
0.880000 16.500000 2.420000 188 203 203 0
1.100000 16.500000 2.420000 186 204 203 0
1.320000 16.500000 2.420000 186 204 203 0
1.540000 16.500000 2.200000 188 203 201 0
1.760000 16.500000 3.080000 188 203 201 0
1.980000 16.500000 4.400000 189 204 202 0
2.200000 16.500000 4.400000 188 203 201 0
2.420000 16.500000 4.400000 188 203 201 0
2.640000 16.500000 4.400000 188 203 201 0
2.860000 16.500000 4.400000 188 202 198 0
3.080000 16.500000 4.400000 189 203 199 0
3.300000 16.500000 4.400000 189 203 201 0
3.520000 16.500000 5.720000 189 203 201 0
3.740000 16.500000 5.720000 193 204 201 0
3.960000 16.500000 5.720000 193 204 201 0
4.180000 16.500000 7.040000 198 208 204 0
4.400000 16.500000 7.040000 201 211 207 0
4.620000 16.500000 7.040000 201 211 207 0
4.840000 16.500000 7.040000 202 212 208 0
5.060000 16.500000 7.040000 205 211 206 0
5.280000 16.500000 7.040000 207 213 208 0
5.500000 16.500000 7.040000 206 215 209 0
5.720000 16.500000 7.260000 206 215 209 0
5.940000 16.500000 7.260000 206 215 209 0
6.160000 16.500000 7.260000 207 216 210 0
6.380000 16.500000 7.260000 207 216 210 0
6.600000 16.500000 7.480000 207 216 210 0
6.820000 16.500000 7.480000 207 216 210 0
7.040000 16.500000 7.480000 208 217 211 0
7.260000 16.500000 7.700000 210 216 209 0
7.480000 16.500000 9.020000 209 215 208 0
7.700000 16.500000 9.020000 207 216 210 0
7.920000 16.500000 9.240000 207 216 210 0
8.140000 16.500000 9.240000 209 215 210 0
8.360000 16.500000 9.240000 209 215 210 0
8.580000 16.500000 9.460000 210 216 211 0
8.800000 16.500000 9.460000 210 216 211 0
9.020000 16.500000 9.460000 209 215 208 0
9.240000 16.500000 9.680000 209 215 208 0
9.460000 16.500000 10.780000 210 216 211 0
9.680000 16.500000 12.760000 210 216 211 0
9.900000 16.500000 13.860000 210 216 211 0
10.120000 16.500000 14.080000 208 214 209 0
10.340000 16.500000 14.080000 209 215 208 0
10.560000 16.500000 14.080000 208 214 207 0
10.780000 16.500000 14.080000 209 215 208 0
11.000000 16.500000 14.080000 209 215 208 0
11.220000 16.500000 14.300000 209 215 210 0
11.440000 16.500000 14.300000 208 214 209 0
11.660000 16.500000 15.840000 208 214 209 0
11.880000 16.500000 15.840000 208 214 209 0
12.100000 16.500000 15.840000 208 214 207 0
12.320000 16.500000 15.840000 208 214 207 0
12.540000 16.500000 16.060000 208 214 209 0
12.760000 16.500000 16.060000 207 213 208 0
12.980000 16.500000 16.060000 206 212 207 0
13.200000 16.500000 16.280000 206 212 207 0
13.420000 16.500000 17.600000 206 212 207 0
13.640000 16.500000 17.820000 206 212 207 0
13.860000 16.500000 17.820000 205 211 206 0
14.080000 16.500000 17.820000 204 210 205 0
14.300000 16.500000 17.820000 203 209 204 0
14.520000 16.500000 18.920000 202 208 203 0
14.740000 16.500000 19.580000 199 208 202 0
14.960000 16.500000 20.900000 197 206 200 0
15.180000 16.500000 20.900000 197 203 198 0
15.400000 16.500000 20.900000 196 202 197 0
15.620000 16.500000 20.900000 198 196 192 0
15.840000 16.500000 21.120000 190 188 184 0
16.060000 16.500000 21.120000 185 177 169 0
16.280000 16.500000 21.120000 178 170 162 0
16.500000 16.500000 21.120000 173 164 154 0
16.720000 16.500000 21.120000 169 160 150 0
16.940000 16.500000 21.120000 163 155 148 0
17.160000 16.500000 21.120000 160 152 145 0
17.380000 16.500000 21.120000 161 151 145 0
17.600000 16.500000 21.120000 159 149 143 0
17.820000 16.500000 19.800000 153 147 144 0
18.040000 16.500000 19.800000 152 146 143 0
18.260000 16.500000 19.800000 146 147 147 0
18.480000 16.500000 19.800000 146 147 147 0
18.700000 16.500000 18.260000 144 147 151 0
18.920000 16.500000 16.940000 146 149 153 0
19.140000 16.500000 15.400000 148 152 159 0
19.360000 16.500000 14.080000 148 152 159 0
19.580000 16.500000 14.080000 146 153 158 0
19.800000 16.500000 12.760000 145 152 157 0
20.020000 16.500000 12.760000 148 152 159 0
20.240000 16.500000 11.440000 148 152 159 0
20.460000 16.500000 12.760000 147 151 158 0
20.680000 16.500000 12.760000 148 152 159 0
20.900000 16.500000 12.760000 148 152 159 0
21.120000 16.500000 11.220000 147 151 158 0
21.340000 16.500000 11.440000 147 151 157 0
21.560000 16.500000 11.440000 146 150 156 0
21.780000 16.500000 11.440000 147 151 158 0
22.000000 16.500000 11.440000 147 151 158 0
22.220000 16.500000 11.440000 147 151 157 0
22.440000 16.500000 11.440000 147 151 157 0
22.660000 16.500000 11.440000 147 151 157 0
22.880000 16.500000 11.440000 147 151 157 0
23.100000 16.500000 11.220000 146 150 156 0
23.320000 16.500000 9.900000 146 150 156 0
23.540000 16.500000 9.900000 147 151 157 0
23.760000 16.500000 9.900000 146 150 156 0
23.980000 16.500000 11.220000 147 149 156 0
24.200000 16.500000 9.900000 147 149 156 0
24.420000 16.500000 9.900000 146 148 155 0
24.640000 16.500000 9.900000 145 147 154 0
24.860000 16.500000 8.580000 148 148 151 0
25.080000 16.500000 9.900000 148 148 151 0
25.300000 16.500000 8.580000 148 147 150 0
25.520000 16.500000 8.580000 147 146 149 0
25.740000 16.500000 9.900000 150 145 147 0
25.960000 16.500000 9.900000 150 145 147 0
26.180000 16.500000 9.900000 153 142 143 0
26.400000 16.500000 9.900000 151 140 141 0
26.620000 16.500000 11.440000 157 135 135 0
26.840000 16.500000 12.760000 155 133 133 0
27.060000 16.500000 14.080000 163 128 129 0
27.280000 16.500000 14.080000 163 128 129 0
27.500000 16.500000 15.400000 166 127 127 0
27.720000 16.500000 16.940000 166 127 127 0
27.940000 16.500000 18.260000 166 127 129 0
28.160000 16.500000 21.120000 167 128 130 0
28.380000 16.500000 21.120000 167 128 130 0
28.600000 16.500000 22.440000 166 127 129 0
28.820000 16.500000 23.760000 172 126 131 0
29.040000 16.500000 26.620000 174 128 133 0
29.260000 16.500000 27.940000 172 129 133 0
29.480000 16.500000 27.940000 172 129 133 0
29.700000 16.500000 29.260000 174 128 133 0
29.920000 16.500000 30.800000 175 129 134 0
30.140000 16.500000 29.260000 176 129 132 0
30.360000 16.500000 29.260000 177 130 133 0
30.580000 16.500000 29.260000 178 131 134 0
30.800000 16.500000 29.260000 178 131 134 0
31.020000 16.500000 29.260000 176 133 137 0
31.240000 16.500000 29.260000 178 135 139 0
31.460000 16.500000 29.260000 181 135 141 0
31.680000 16.500000 29.260000 184 138 144 0
31.900000 16.500000 29.260000 184 140 148 0
32.120000 16.500000 29.260000 185 141 149 0
32.340000 16.500000 29.260000 187 142 144 0
32.560000 16.500000 29.260000 182 137 139 0
32.780000 16.500000 29.260000 192 124 118 0
33.000000 16.500000 29.260000 185 117 111 0
33.220000 16.500000 29.040000 184 115 107 0
33.440000 16.500000 29.040000 184 115 107 0
33.660000 16.500000 29.040000 183 114 106 0
33.880000 16.500000 30.580000 182 113 105 0
34.100000 16.500000 30.580000 182 113 105 0
34.320000 16.500000 30.580000 183 114 106 0
34.540000 16.500000 30.580000 183 112 105 0
34.760000 16.500000 30.580000 183 112 105 0
34.980000 16.500000 30.800000 182 111 104 0
35.200000 16.500000 30.800000 181 110 103 0
35.420000 16.500000 30.800000 180 109 102 0
35.640000 16.500000 32.120000 180 109 102 0
35.860000 16.500000 32.340000 182 108 100 0
36.080000 16.500000 32.340000 181 107 99 0
36.300000 16.500000 32.340000 181 107 99 0
36.520000 16.500000 32.340000 181 107 99 0
36.740000 16.500000 32.560000 181 106 98 0
36.960000 16.500000 32.560000 181 106 98 0
37.180000 16.500000 32.780000 180 102 93 0
0.000000 16.720000 2.640000 184 198 194 0
0.220000 16.720000 2.640000 185 199 197 0
0.440000 16.720000 2.640000 187 201 199 0
0.660000 16.720000 2.420000 185 203 200 0
0.880000 16.720000 2.420000 186 204 201 0
1.100000 16.720000 2.420000 188 203 201 0
1.320000 16.720000 2.420000 188 203 201 0
1.540000 16.720000 3.300000 189 203 199 0
1.760000 16.720000 4.400000 189 203 199 0
1.980000 16.720000 4.400000 189 203 199 0
2.200000 16.720000 4.400000 189 203 199 0
2.420000 16.720000 4.400000 186 204 201 0
2.640000 16.720000 4.400000 185 203 200 0
2.860000 16.720000 4.400000 187 202 200 0
3.080000 16.720000 4.400000 187 202 200 0
3.300000 16.720000 4.400000 189 203 199 0
3.520000 16.720000 5.720000 189 203 199 0
3.740000 16.720000 5.720000 192 202 198 0
3.960000 16.720000 5.720000 195 205 201 0
4.180000 16.720000 7.040000 198 208 204 0
4.400000 16.720000 7.040000 200 210 206 0
4.620000 16.720000 7.040000 202 211 205 0
4.840000 16.720000 7.040000 203 212 206 0
5.060000 16.720000 7.040000 206 212 205 0
5.280000 16.720000 7.040000 206 212 205 0
5.500000 16.720000 7.040000 207 213 206 0
5.720000 16.720000 7.260000 208 214 207 0
5.940000 16.720000 7.260000 207 216 210 0
6.160000 16.720000 7.260000 207 216 210 0
6.380000 16.720000 7.260000 206 215 209 0
6.600000 16.720000 7.480000 206 215 209 0
6.820000 16.720000 7.480000 208 214 207 0
7.040000 16.720000 7.480000 209 215 208 0
7.260000 16.720000 9.020000 209 215 208 0
7.480000 16.720000 9.020000 208 214 207 0
7.700000 16.720000 9.020000 206 215 209 0
7.920000 16.720000 9.240000 207 216 210 0
8.140000 16.720000 9.240000 209 215 208 0
8.360000 16.720000 9.240000 208 214 207 0
8.580000 16.720000 9.460000 209 215 208 0
8.800000 16.720000 9.460000 209 215 208 0
9.020000 16.720000 9.460000 209 215 208 0
9.240000 16.720000 9.460000 209 215 208 0
9.460000 16.720000 10.780000 208 217 209 0
9.680000 16.720000 12.760000 208 217 209 0
9.900000 16.720000 13.860000 209 215 208 0
10.120000 16.720000 14.080000 208 214 207 0
10.340000 16.720000 14.080000 208 214 207 0
10.560000 16.720000 14.080000 208 214 207 0
10.780000 16.720000 14.080000 208 214 207 0
11.000000 16.720000 14.080000 208 214 207 0
11.220000 16.720000 14.300000 209 215 208 0
11.440000 16.720000 14.300000 208 214 207 0
11.660000 16.720000 15.840000 208 214 207 0
11.880000 16.720000 15.840000 208 214 207 0
12.100000 16.720000 15.840000 208 214 207 0
12.320000 16.720000 15.840000 207 213 206 0
12.540000 16.720000 16.060000 207 213 206 0
12.760000 16.720000 16.060000 206 212 205 0
12.980000 16.720000 16.060000 206 212 205 0
13.200000 16.720000 16.280000 205 211 204 0
13.420000 16.720000 16.280000 205 211 204 0
13.640000 16.720000 17.820000 205 211 204 0
13.860000 16.720000 17.820000 204 210 205 0
14.080000 16.720000 17.820000 203 209 204 0
14.300000 16.720000 17.820000 202 208 203 0
14.520000 16.720000 17.600000 200 206 201 0
14.740000 16.720000 19.800000 198 204 199 0
14.960000 16.720000 20.900000 197 203 198 0
15.180000 16.720000 20.900000 199 199 192 0
15.400000 16.720000 20.900000 194 194 187 0
15.620000 16.720000 20.900000 193 185 177 0
15.840000 16.720000 21.120000 182 174 166 0
16.060000 16.720000 21.120000 177 168 158 0
16.280000 16.720000 21.120000 171 162 152 0
16.500000 16.720000 21.120000 168 160 153 0
16.720000 16.720000 21.120000 161 153 146 0
16.940000 16.720000 21.120000 161 149 144 0
17.160000 16.720000 19.800000 159 147 142 0
17.380000 16.720000 19.800000 158 148 144 0
17.600000 16.720000 19.800000 156 146 142 0
17.820000 16.720000 19.800000 158 142 137 0
18.040000 16.720000 19.800000 158 142 137 0
18.260000 16.720000 18.480000 151 145 142 0
18.480000 16.720000 18.260000 150 144 141 0
18.700000 16.720000 18.260000 145 145 150 0
18.920000 16.720000 16.940000 147 147 152 0
19.140000 16.720000 15.400000 148 152 158 0
19.360000 16.720000 14.080000 148 152 158 0
19.580000 16.720000 12.760000 145 152 157 0
19.800000 16.720000 12.760000 145 152 157 0
20.020000 16.720000 11.440000 148 152 158 0
20.240000 16.720000 11.440000 147 151 157 0
20.460000 16.720000 12.760000 148 152 159 0
20.680000 16.720000 12.760000 148 152 159 0
20.900000 16.720000 12.760000 148 152 158 0
21.120000 16.720000 11.220000 147 151 157 0
21.340000 16.720000 11.440000 148 152 158 0
21.560000 16.720000 12.760000 146 150 156 0
21.780000 16.720000 11.440000 146 150 154 0
22.000000 16.720000 11.440000 147 151 155 0
22.220000 16.720000 11.440000 146 150 156 0
22.440000 16.720000 11.440000 146 150 156 0
22.660000 16.720000 12.760000 147 151 157 0
22.880000 16.720000 12.760000 146 150 156 0
23.100000 16.720000 11.220000 146 150 156 0
23.320000 16.720000 9.900000 147 151 157 0
23.540000 16.720000 9.900000 146 150 154 0
23.760000 16.720000 11.440000 145 149 153 0
23.980000 16.720000 11.220000 146 150 156 0
24.200000 16.720000 11.220000 144 148 154 0
24.420000 16.720000 9.900000 145 148 152 0
24.640000 16.720000 9.900000 145 148 152 0
24.860000 16.720000 8.580000 148 148 153 0
25.080000 16.720000 9.900000 148 148 153 0
25.300000 16.720000 8.580000 148 147 150 0
25.520000 16.720000 8.580000 147 146 149 0
25.740000 16.720000 9.900000 154 143 144 0
25.960000 16.720000 9.900000 153 142 143 0
26.180000 16.720000 11.440000 165 134 135 0
26.400000 16.720000 12.760000 164 133 134 0
26.620000 16.720000 14.080000 167 128 130 0
26.840000 16.720000 15.400000 165 126 128 0
27.060000 16.720000 16.940000 165 124 127 0
27.280000 16.720000 16.940000 167 126 129 0
27.500000 16.720000 15.400000 167 124 128 0
27.720000 16.720000 16.940000 168 125 129 0
27.940000 16.720000 18.260000 168 125 129 0
28.160000 16.720000 19.580000 169 126 130 0
28.380000 16.720000 22.440000 169 126 128 0
28.600000 16.720000 23.760000 168 125 127 0
28.820000 16.720000 25.080000 171 126 128 0
29.040000 16.720000 27.940000 173 128 130 0
29.260000 16.720000 27.940000 174 128 133 0
29.480000 16.720000 27.940000 174 128 133 0
29.700000 16.720000 29.260000 175 128 131 0
29.920000 16.720000 29.260000 176 129 132 0
30.140000 16.720000 29.260000 178 129 130 0
30.360000 16.720000 29.260000 178 129 130 0
30.580000 16.720000 29.260000 177 130 135 0
30.800000 16.720000 29.260000 179 132 137 0
31.020000 16.720000 29.260000 177 134 139 0
31.240000 16.720000 29.260000 179 136 141 0
31.460000 16.720000 29.260000 181 137 145 0
31.680000 16.720000 29.260000 184 140 148 0
31.900000 16.720000 29.260000 189 139 143 0
32.120000 16.720000 29.260000 189 139 143 0
32.340000 16.720000 29.260000 197 131 127 0
32.560000 16.720000 28.160000 189 123 119 0
32.780000 16.720000 26.840000 185 115 110 0
33.000000 16.720000 28.160000 184 114 109 0
33.220000 16.720000 29.260000 185 116 108 0
33.440000 16.720000 29.040000 183 114 106 0
33.660000 16.720000 29.040000 183 114 106 0
33.880000 16.720000 30.580000 183 114 106 0
34.100000 16.720000 30.580000 182 113 105 0
34.320000 16.720000 30.580000 182 113 105 0
34.540000 16.720000 30.580000 183 112 105 0
34.760000 16.720000 30.580000 182 111 104 0
34.980000 16.720000 30.800000 182 111 104 0
35.200000 16.720000 30.800000 180 109 102 0
35.420000 16.720000 30.800000 182 108 100 0
35.640000 16.720000 30.800000 181 107 99 0
35.860000 16.720000 32.340000 182 107 99 0
36.080000 16.720000 32.340000 183 108 100 0
36.300000 16.720000 32.340000 182 107 99 0
36.520000 16.720000 32.340000 181 106 98 0
36.740000 16.720000 32.560000 181 106 98 0
36.960000 16.720000 32.560000 179 104 96 0
37.180000 16.720000 32.780000 180 102 95 0
0.000000 16.940000 2.640000 184 198 194 0
0.220000 16.940000 2.640000 185 199 197 0
0.440000 16.940000 2.420000 187 201 199 0
0.660000 16.940000 2.420000 185 203 200 0
0.880000 16.940000 2.420000 185 203 200 0
1.100000 16.940000 2.420000 187 202 200 0
1.320000 16.940000 2.420000 188 203 201 0
1.540000 16.940000 3.520000 188 202 198 0
1.760000 16.940000 4.400000 189 203 199 0
1.980000 16.940000 4.400000 189 203 199 0
2.200000 16.940000 4.400000 189 203 199 0
2.420000 16.940000 4.400000 185 203 200 0
2.640000 16.940000 4.400000 184 202 199 0
2.860000 16.940000 4.400000 186 201 199 0
3.080000 16.940000 4.400000 186 201 199 0
3.300000 16.940000 4.400000 188 202 198 0
3.520000 16.940000 5.720000 188 202 198 0
3.740000 16.940000 5.720000 193 203 199 0
3.960000 16.940000 5.720000 195 205 201 0
4.180000 16.940000 7.040000 197 207 203 0
4.400000 16.940000 7.040000 199 209 205 0
4.620000 16.940000 7.040000 203 212 206 0
4.840000 16.940000 7.040000 203 212 206 0
5.060000 16.940000 7.040000 206 212 205 0
5.280000 16.940000 7.040000 206 212 205 0
5.500000 16.940000 7.040000 206 212 205 0
5.720000 16.940000 7.260000 208 214 207 0
5.940000 16.940000 7.260000 206 215 209 0
6.160000 16.940000 7.260000 206 215 209 0
6.380000 16.940000 7.260000 207 216 210 0
6.600000 16.940000 8.800000 206 215 209 0
6.820000 16.940000 8.800000 208 214 207 0
7.040000 16.940000 9.020000 208 214 207 0
7.260000 16.940000 9.020000 209 215 208 0
7.480000 16.940000 9.020000 209 215 208 0
7.700000 16.940000 9.020000 206 215 209 0
7.920000 16.940000 9.240000 207 216 210 0
8.140000 16.940000 9.240000 209 215 208 0
8.360000 16.940000 9.240000 208 214 207 0
8.580000 16.940000 9.460000 209 215 208 0
8.800000 16.940000 9.460000 209 215 208 0
9.020000 16.940000 9.460000 209 215 208 0
9.240000 16.940000 11.000000 209 215 208 0
9.460000 16.940000 10.780000 208 217 209 0
9.680000 16.940000 12.760000 206 215 207 0
9.900000 16.940000 13.860000 208 214 207 0
10.120000 16.940000 14.080000 207 213 206 0
10.340000 16.940000 14.080000 208 214 207 0
10.560000 16.940000 14.080000 208 214 207 0
10.780000 16.940000 14.080000 209 215 208 0
11.000000 16.940000 14.080000 208 214 207 0
11.220000 16.940000 14.300000 208 214 207 0
11.440000 16.940000 14.300000 207 213 206 0
