ply
format ascii 1.0
element vertex 1141
property float x
property float y
property float z
property uchar red
property uchar green
property uchar blue
property uchar alpha
end_header
25.520000 2.200000 5.940000 236 240 238 0
25.740000 2.200000 5.940000 235 239 237 0
25.960000 2.200000 5.940000 235 239 237 0
26.180000 2.200000 5.940000 235 239 237 0
26.400000 2.200000 5.940000 235 238 238 0
26.620000 2.200000 5.940000 235 238 238 0
26.840000 2.200000 5.940000 235 238 238 0
27.060000 2.200000 5.940000 235 238 238 0
27.280000 2.200000 5.940000 236 240 238 0
27.500000 2.200000 5.940000 236 240 238 0
27.720000 2.200000 5.940000 236 240 238 0
27.940000 2.200000 5.940000 236 240 238 0
28.160000 2.200000 5.940000 236 240 238 0
28.380000 2.200000 5.940000 236 240 238 0
28.600000 2.200000 5.940000 237 241 239 0
28.820000 2.200000 5.940000 238 242 240 0
29.040000 2.200000 5.940000 240 241 240 0
29.260000 2.200000 5.940000 240 241 240 0
29.480000 2.200000 5.940000 240 241 240 0
29.700000 2.200000 5.940000 240 241 240 0
29.920000 2.200000 5.940000 240 241 240 0
30.140000 2.200000 5.940000 240 241 240 0
30.360000 2.200000 4.620000 240 241 240 0
30.580000 2.200000 4.620000 240 241 240 0
30.800000 2.200000 4.620000 240 241 240 0
31.020000 2.200000 4.620000 240 241 240 0
31.240000 2.200000 3.300000 240 241 240 0
31.460000 2.200000 3.300000 240 241 240 0
31.680000 2.200000 3.080000 240 241 240 0
31.900000 2.200000 3.080000 240 241 240 0
32.120000 2.200000 1.760000 240 241 240 0
32.340000 2.200000 1.760000 240 241 240 0
32.560000 2.200000 3.300000 240 241 240 0
32.780000 2.200000 3.300000 240 241 240 0
33.000000 2.200000 4.620000 240 241 240 0
33.220000 2.200000 4.620000 240 241 240 0
33.440000 2.200000 4.620000 240 241 240 0
33.660000 2.200000 4.620000 240 241 240 0
33.880000 2.200000 4.620000 240 241 240 0
34.100000 2.200000 3.300000 240 241 240 0
34.320000 2.200000 3.080000 240 241 240 0
34.540000 2.200000 3.080000 240 241 240 0
34.760000 2.200000 3.300000 240 241 240 0
34.980000 2.200000 0.440000 240 241 240 0
35.200000 2.200000 7.260000 240 241 240 0
35.420000 2.200000 18.260000 240 241 240 0
35.640000 2.200000 18.480000 240 241 240 0
35.860000 2.200000 12.980000 240 241 240 0
36.080000 2.200000 4.620000 240 241 240 0
36.300000 2.200000 3.080000 240 241 240 0
36.520000 2.200000 5.940000 240 241 240 0
36.740000 2.200000 12.760000 240 241 240 0
36.960000 2.200000 22.440000 240 241 240 0
37.180000 2.200000 25.300000 240 241 240 0
0.000000 2.420000 33.660000 240 241 240 0
0.220000 2.420000 32.340000 240 241 240 0
0.440000 2.420000 29.480000 240 241 240 0
0.660000 2.420000 26.840000 240 241 240 0
0.880000 2.420000 26.840000 240 241 240 0
1.100000 2.420000 32.340000 240 241 240 0
1.320000 2.420000 36.520000 240 241 240 0
1.540000 2.420000 29.480000 240 241 240 0
1.760000 2.420000 19.800000 240 241 240 0
1.980000 2.420000 22.660000 240 241 240 0
2.200000 2.420000 26.840000 240 241 240 0
2.420000 2.420000 28.160000 240 241 240 0
2.640000 2.420000 26.840000 240 241 240 0
2.860000 2.420000 17.160000 240 241 240 0
3.080000 2.420000 12.980000 240 241 240 0
3.300000 2.420000 15.620000 240 241 240 0
3.520000 2.420000 12.980000 240 241 240 0
3.740000 2.420000 8.800000 240 241 240 0
3.960000 2.420000 17.160000 240 241 240 0
4.180000 2.420000 25.300000 240 241 240 0
4.400000 2.420000 22.660000 240 241 240 0
4.620000 2.420000 17.160000 240 241 240 0
4.840000 2.420000 10.120000 240 241 240 0
5.060000 2.420000 8.800000 239 240 239 0
5.280000 2.420000 18.480000 237 241 239 0
5.500000 2.420000 31.020000 235 239 237 0
5.720000 2.420000 26.840000 208 246 246 0
5.940000 2.420000 10.120000 203 241 241 0
6.160000 2.420000 4.620000 222 224 231 0
6.380000 2.420000 7.260000 197 199 206 0
6.600000 2.420000 7.260000 202 199 201 0
6.820000 2.420000 7.260000 202 199 201 0
7.040000 2.420000 5.940000 201 198 200 0
7.260000 2.420000 5.940000 200 197 199 0
7.480000 2.420000 7.260000 202 200 200 0
7.700000 2.420000 7.260000 200 198 198 0
7.920000 2.420000 7.260000 198 197 198 0
8.140000 2.420000 7.260000 198 197 198 0
8.360000 2.420000 5.940000 201 196 198 0
8.580000 2.420000 5.940000 201 196 198 0
8.800000 2.420000 7.260000 200 198 198 0
9.020000 2.420000 7.260000 200 198 198 0
9.240000 2.420000 7.260000 202 197 198 0
9.460000 2.420000 5.940000 201 196 197 0
9.680000 2.420000 5.940000 200 197 199 0
9.900000 2.420000 7.260000 199 196 198 0
10.120000 2.420000 7.260000 203 198 200 0
10.340000 2.420000 5.940000 202 197 199 0
10.560000 2.420000 5.940000 203 198 199 0
10.780000 2.420000 7.260000 203 198 199 0
11.000000 2.420000 7.260000 205 199 198 0
11.220000 2.420000 7.260000 206 200 199 0
11.440000 2.420000 7.260000 205 200 199 0
11.660000 2.420000 7.260000 206 201 200 0
11.880000 2.420000 7.260000 209 202 204 0
12.100000 2.420000 7.260000 211 204 206 0
12.320000 2.420000 7.260000 213 207 206 0
12.540000 2.420000 5.940000 209 203 202 0
12.760000 2.420000 5.940000 206 200 199 0
12.980000 2.420000 5.940000 207 201 200 0
13.200000 2.420000 5.940000 210 204 203 0
13.420000 2.420000 7.260000 211 205 204 0
13.640000 2.420000 7.260000 215 204 203 0
13.860000 2.420000 7.260000 213 202 201 0
14.080000 2.420000 7.260000 211 200 199 0
14.300000 2.420000 7.260000 211 200 199 0
14.520000 2.420000 7.260000 211 199 194 0
14.740000 2.420000 5.940000 210 198 193 0
14.960000 2.420000 5.940000 209 194 192 0
15.180000 2.420000 7.260000 210 195 193 0
15.400000 2.420000 5.940000 208 194 189 0
15.620000 2.420000 5.940000 209 195 190 0
15.840000 2.420000 5.940000 206 194 189 0
16.060000 2.420000 5.940000 205 193 188 0
16.280000 2.420000 5.940000 204 192 187 0
16.500000 2.420000 5.940000 205 193 188 0
16.720000 2.420000 5.940000 205 193 188 0
16.940000 2.420000 5.940000 205 193 188 0
17.160000 2.420000 5.940000 204 190 185 0
17.380000 2.420000 5.940000 204 190 185 0
17.600000 2.420000 5.940000 204 190 185 0
17.820000 2.420000 5.940000 203 189 184 0
18.040000 2.420000 5.940000 202 188 183 0
18.260000 2.420000 5.940000 202 188 183 0
18.480000 2.420000 5.940000 202 187 185 0
18.700000 2.420000 5.940000 202 187 185 0
18.920000 2.420000 7.260000 203 188 186 0
19.140000 2.420000 7.260000 202 187 185 0
19.360000 2.420000 5.940000 205 191 186 0
19.580000 2.420000 5.940000 206 192 187 0
19.800000 2.420000 5.940000 205 193 190 0
20.020000 2.420000 5.940000 206 194 191 0
20.240000 2.420000 5.940000 207 197 191 0
20.460000 2.420000 5.940000 209 199 193 0
20.680000 2.420000 5.940000 210 204 201 0
20.900000 2.420000 5.940000 214 208 205 0
21.120000 2.420000 5.940000 215 213 209 0
21.340000 2.420000 5.940000 220 218 214 0
21.560000 2.420000 5.940000 223 224 223 0
21.780000 2.420000 7.260000 231 232 231 0
22.000000 2.420000 7.260000 236 237 236 0
22.220000 2.420000 5.940000 239 240 239 0
22.440000 2.420000 5.940000 240 241 240 0
22.660000 2.420000 4.620000 240 241 240 0
22.880000 2.420000 4.620000 240 241 240 0
23.100000 2.420000 4.620000 240 241 240 0
23.320000 2.420000 4.620000 240 241 240 0
23.540000 2.420000 4.620000 240 241 240 0
23.760000 2.420000 4.620000 240 241 240 0
23.980000 2.420000 4.620000 240 241 240 0
24.200000 2.420000 4.620000 240 241 240 0
24.420000 2.420000 4.620000 240 241 240 0
24.640000 2.420000 4.620000 238 242 240 0
24.860000 2.420000 5.940000 238 242 240 0
25.080000 2.420000 5.940000 236 239 239 0
25.300000 2.420000 5.940000 236 239 239 0
25.520000 2.420000 5.940000 235 239 237 0
25.740000 2.420000 5.940000 235 239 237 0
25.960000 2.420000 5.940000 235 239 237 0
26.180000 2.420000 5.940000 235 239 237 0
26.400000 2.420000 5.940000 236 239 239 0
26.620000 2.420000 5.940000 235 238 238 0
26.840000 2.420000 5.940000 235 238 238 0
27.060000 2.420000 5.940000 235 238 238 0
27.280000 2.420000 5.940000 236 240 238 0
27.500000 2.420000 5.940000 236 240 238 0
27.720000 2.420000 5.940000 236 240 238 0
27.940000 2.420000 5.940000 236 240 238 0
28.160000 2.420000 5.940000 236 240 238 0
28.380000 2.420000 5.940000 236 240 238 0
28.600000 2.420000 5.940000 237 241 239 0
28.820000 2.420000 5.940000 238 242 240 0
29.040000 2.420000 5.940000 240 241 240 0
29.260000 2.420000 5.940000 240 241 240 0
29.480000 2.420000 5.940000 240 241 240 0
29.700000 2.420000 5.940000 240 241 240 0
29.920000 2.420000 5.940000 240 241 240 0
30.140000 2.420000 4.620000 240 241 240 0
30.360000 2.420000 4.620000 240 241 240 0
30.580000 2.420000 3.080000 240 241 240 0
30.800000 2.420000 3.300000 240 241 240 0
31.020000 2.420000 4.620000 240 241 240 0
31.240000 2.420000 3.080000 240 241 240 0
31.460000 2.420000 3.080000 240 241 240 0
31.680000 2.420000 1.760000 240 241 240 0
31.900000 2.420000 1.760000 240 241 240 0
32.120000 2.420000 1.980000 240 241 240 0
32.340000 2.420000 1.980000 240 241 240 0
32.560000 2.420000 1.980000 240 241 240 0
32.780000 2.420000 3.300000 240 241 240 0
33.000000 2.420000 3.300000 240 241 240 0
33.220000 2.420000 3.300000 240 241 240 0
33.440000 2.420000 3.300000 240 241 240 0
33.660000 2.420000 4.620000 240 241 240 0
33.880000 2.420000 3.300000 240 241 240 0
34.100000 2.420000 3.300000 240 241 240 0
34.320000 2.420000 1.760000 240 241 240 0
34.540000 2.420000 1.980000 240 241 240 0
34.760000 2.420000 1.980000 240 241 240 0
34.980000 2.420000 0.660000 240 241 240 0
35.200000 2.420000 1.980000 240 241 240 0
35.420000 2.420000 12.980000 240 241 240 0
35.640000 2.420000 22.880000 240 241 240 0
35.860000 2.420000 17.160000 240 241 240 0
36.080000 2.420000 5.940000 240 241 240 0
36.300000 2.420000 1.760000 240 241 240 0
36.520000 2.420000 0.220000 240 241 240 0
36.740000 2.420000 8.800000 240 241 240 0
36.960000 2.420000 15.840000 240 241 240 0
37.180000 2.420000 14.520000 240 241 240 0
0.000000 2.640000 35.200000 238 242 240 0
0.220000 2.640000 35.200000 238 242 240 0
0.440000 2.640000 35.200000 238 241 241 0
0.660000 2.640000 33.660000 238 241 241 0
0.880000 2.640000 33.660000 238 242 240 0
1.100000 2.640000 34.980000 238 242 240 0
1.320000 2.640000 37.840000 238 242 240 0
1.540000 2.640000 32.340000 238 242 240 0
1.760000 2.640000 25.300000 238 242 240 0
1.980000 2.640000 31.020000 238 242 240 0
2.200000 2.640000 35.200000 238 241 241 0
2.420000 2.640000 33.660000 238 241 241 0
2.640000 2.640000 31.020000 238 242 240 0
2.860000 2.640000 28.160000 238 242 240 0
3.080000 2.640000 28.160000 238 242 240 0
3.300000 2.640000 29.700000 238 242 240 0
3.520000 2.640000 25.520000 238 242 240 0
3.740000 2.640000 20.020000 238 242 240 0
3.960000 2.640000 26.840000 240 241 240 0
4.180000 2.640000 33.660000 240 241 240 0
4.400000 2.640000 34.980000 240 241 240 0
4.620000 2.640000 29.480000 239 240 239 0
4.840000 2.640000 22.660000 237 241 239 0
5.060000 2.640000 23.980000 237 241 239 0
5.280000 2.640000 32.340000 229 244 242 0
5.500000 2.640000 37.840000 226 241 239 0
5.720000 2.640000 30.800000 202 246 244 0
5.940000 2.640000 11.440000 199 243 241 0
6.160000 2.640000 4.620000 221 225 232 0
6.380000 2.640000 5.940000 196 200 207 0
6.600000 2.640000 7.260000 201 199 199 0
6.820000 2.640000 7.260000 200 198 198 0
7.040000 2.640000 7.260000 203 196 198 0
7.260000 2.640000 7.260000 202 195 197 0
7.480000 2.640000 7.260000 202 196 195 0
7.700000 2.640000 5.940000 202 196 195 0
7.920000 2.640000 5.940000 201 196 198 0
8.140000 2.640000 5.940000 200 195 197 0
8.360000 2.640000 5.940000 200 195 196 0
8.580000 2.640000 5.940000 201 196 197 0
8.800000 2.640000 5.940000 201 194 196 0
9.020000 2.640000 7.260000 202 195 197 0
9.240000 2.640000 7.260000 201 195 194 0
9.460000 2.640000 5.940000 201 195 194 0
9.680000 2.640000 5.940000 201 196 197 0
9.900000 2.640000 7.260000 201 196 197 0
10.120000 2.640000 7.260000 201 196 197 0
10.340000 2.640000 5.940000 201 196 197 0
10.560000 2.640000 5.940000 202 195 197 0
10.780000 2.640000 5.940000 202 195 197 0
11.000000 2.640000 5.940000 203 197 196 0
11.220000 2.640000 5.940000 203 197 196 0
11.440000 2.640000 7.260000 203 196 198 0
11.660000 2.640000 7.260000 205 198 200 0
11.880000 2.640000 7.260000 205 200 199 0
12.100000 2.640000 7.260000 205 200 199 0
12.320000 2.640000 7.260000 208 199 199 0
12.540000 2.640000 7.260000 204 195 195 0
12.760000 2.640000 5.940000 204 186 179 0
12.980000 2.640000 5.940000 205 187 180 0
13.200000 2.640000 7.260000 209 191 186 0
13.420000 2.640000 7.260000 209 191 186 0
13.640000 2.640000 7.260000 213 193 187 0
13.860000 2.640000 7.260000 213 193 187 0
14.080000 2.640000 7.260000 213 192 184 0
14.300000 2.640000 5.940000 211 190 182 0
14.520000 2.640000 5.940000 207 188 179 0
14.740000 2.640000 5.940000 208 189 180 0
14.960000 2.640000 5.940000 206 187 178 0
15.180000 2.640000 5.940000 206 187 178 0
15.400000 2.640000 5.720000 205 184 176 0
15.620000 2.640000 5.720000 205 184 176 0
15.840000 2.640000 5.940000 206 185 175 0
16.060000 2.640000 5.940000 204 183 173 0
16.280000 2.640000 5.940000 203 184 175 0
16.500000 2.640000 5.940000 203 184 175 0
16.720000 2.640000 5.940000 202 183 174 0
16.940000 2.640000 5.940000 203 184 175 0
17.160000 2.640000 5.940000 202 181 175 0
17.380000 2.640000 5.940000 202 181 175 0
17.600000 2.640000 5.940000 202 181 173 0
17.820000 2.640000 5.940000 200 179 171 0
18.040000 2.640000 5.940000 201 180 172 0
18.260000 2.640000 5.940000 200 179 171 0
18.480000 2.640000 4.400000 200 181 172 0
18.700000 2.640000 4.400000 201 182 173 0
18.920000 2.640000 5.940000 200 179 171 0
19.140000 2.640000 7.260000 201 180 172 0
19.360000 2.640000 5.940000 202 181 171 0
19.580000 2.640000 5.940000 200 179 169 0
19.800000 2.640000 5.940000 203 182 174 0
20.020000 2.640000 5.940000 206 185 177 0
20.240000 2.640000 5.940000 206 188 179 0
20.460000 2.640000 5.940000 207 189 180 0
20.680000 2.640000 5.940000 205 194 185 0
20.900000 2.640000 5.940000 209 198 189 0
21.120000 2.640000 5.940000 212 200 197 0
21.340000 2.640000 5.940000 215 203 200 0
21.560000 2.640000 5.940000 219 208 207 0
21.780000 2.640000 5.940000 223 212 211 0
22.000000 2.640000 5.940000 230 221 221 0
22.220000 2.640000 5.940000 236 227 227 0
22.440000 2.640000 5.940000 236 234 232 0
22.660000 2.640000 4.620000 240 238 236 0
22.880000 2.640000 4.620000 240 241 240 0
23.100000 2.640000 4.620000 240 241 240 0
23.320000 2.640000 4.620000 240 241 240 0
23.540000 2.640000 4.620000 240 241 240 0
23.760000 2.640000 4.620000 240 241 240 0
23.980000 2.640000 4.620000 240 241 240 0
24.200000 2.640000 4.620000 240 241 240 0
24.420000 2.640000 4.620000 240 241 240 0
24.640000 2.640000 4.620000 240 241 240 0
24.860000 2.640000 5.940000 240 241 240 0
25.080000 2.640000 5.940000 237 238 237 0
25.300000 2.640000 5.940000 238 239 238 0
25.520000 2.640000 5.940000 237 238 238 0
25.740000 2.640000 5.940000 237 238 238 0
25.960000 2.640000 5.940000 236 237 236 0
26.180000 2.640000 5.940000 237 238 237 0
26.400000 2.640000 5.940000 237 238 237 0
26.620000 2.640000 5.940000 237 238 237 0
26.840000 2.640000 5.940000 237 238 238 0
27.060000 2.640000 5.940000 237 238 238 0
27.280000 2.640000 5.940000 238 239 238 0
27.500000 2.640000 5.940000 238 239 238 0
27.720000 2.640000 5.940000 238 239 238 0
27.940000 2.640000 5.940000 238 239 238 0
28.160000 2.640000 5.940000 238 239 238 0
28.380000 2.640000 5.940000 238 239 238 0
28.600000 2.640000 5.940000 238 239 239 0
28.820000 2.640000 5.940000 239 240 240 0
29.040000 2.640000 5.940000 240 241 240 0
29.260000 2.640000 5.940000 240 241 240 0
29.480000 2.640000 5.940000 240 241 240 0
29.700000 2.640000 5.940000 240 241 240 0
29.920000 2.640000 5.940000 240 241 240 0
30.140000 2.640000 4.620000 240 241 240 0
30.360000 2.640000 4.400000 240 241 241 0
30.580000 2.640000 3.080000 240 241 241 0
30.800000 2.640000 3.300000 240 241 240 0
31.020000 2.640000 3.080000 240 241 240 0
31.240000 2.640000 3.080000 240 241 240 0
31.460000 2.640000 3.080000 240 241 240 0
31.680000 2.640000 1.760000 240 241 240 0
31.900000 2.640000 1.980000 240 241 240 0
32.120000 2.640000 0.660000 240 241 240 0
32.340000 2.640000 0.660000 240 241 240 0
32.560000 2.640000 1.980000 240 241 240 0
32.780000 2.640000 3.300000 240 241 240 0
33.000000 2.640000 3.300000 240 241 240 0
33.220000 2.640000 1.760000 240 241 240 0
33.440000 2.640000 4.620000 240 241 240 0
33.660000 2.640000 7.480000 240 241 240 0
33.880000 2.640000 5.940000 240 241 240 0
34.100000 2.640000 1.760000 240 241 240 0
34.320000 2.640000 1.980000 240 241 240 0
34.540000 2.640000 1.980000 240 241 240 0
34.760000 2.640000 1.980000 240 241 240 0
34.980000 2.640000 0.880000 240 241 240 0
35.420000 2.640000 7.700000 240 241 240 0
35.640000 2.640000 17.160000 240 241 240 0
35.860000 2.640000 12.980000 240 241 240 0
36.080000 2.640000 3.300000 240 241 240 0
36.300000 2.640000 1.760000 240 241 240 0
36.520000 2.640000 0.440000 240 241 240 0
36.740000 2.640000 3.300000 240 241 240 0
36.960000 2.640000 4.840000 240 241 240 0
37.180000 2.640000 3.520000 240 241 240 0
0.000000 2.860000 37.840000 238 242 240 0
0.220000 2.860000 37.840000 238 242 240 0
0.440000 2.860000 36.520000 238 241 241 0
0.660000 2.860000 36.520000 238 241 241 0
0.880000 2.860000 34.980000 238 242 240 0
1.100000 2.860000 36.520000 238 242 240 0
1.320000 2.860000 37.840000 238 242 240 0
1.540000 2.860000 36.300000 238 242 240 0
1.760000 2.860000 33.660000 238 242 240 0
1.980000 2.860000 34.980000 238 242 240 0
2.200000 2.860000 36.520000 237 240 240 0
2.420000 2.860000 35.200000 238 241 241 0
2.640000 2.860000 33.660000 238 242 240 0
2.860000 2.860000 33.660000 238 242 240 0
3.080000 2.860000 35.200000 238 242 240 0
3.300000 2.860000 36.520000 238 242 240 0
3.520000 2.860000 35.200000 238 242 240 0
3.740000 2.860000 32.340000 238 242 240 0
3.960000 2.860000 34.980000 239 240 239 0
4.180000 2.860000 37.840000 239 240 239 0
4.400000 2.860000 37.840000 239 240 239 0
4.620000 2.860000 36.300000 239 240 239 0
4.840000 2.860000 33.660000 237 241 239 0
5.060000 2.860000 36.520000 236 240 238 0
5.280000 2.860000 39.160000 228 243 241 0
5.500000 2.860000 40.700000 225 240 238 0
5.720000 2.860000 32.340000 201 245 243 0
5.940000 2.860000 15.620000 197 241 239 0
6.160000 2.860000 5.940000 221 225 232 0
6.380000 2.860000 5.940000 193 197 204 0
6.600000 2.860000 7.260000 200 198 198 0
6.820000 2.860000 7.260000 199 197 197 0
7.040000 2.860000 7.260000 202 195 197 0
7.260000 2.860000 7.260000 200 193 195 0
7.480000 2.860000 5.940000 201 195 194 0
7.700000 2.860000 5.940000 200 194 193 0
7.920000 2.860000 5.940000 199 194 196 0
8.140000 2.860000 5.940000 198 193 195 0
8.360000 2.860000 5.940000 198 193 194 0
8.580000 2.860000 5.940000 199 194 195 0
8.800000 2.860000 5.940000 200 193 195 0
9.020000 2.860000 5.940000 199 192 194 0
9.240000 2.860000 5.940000 200 194 193 0
9.460000 2.860000 7.260000 200 194 193 0
9.680000 2.860000 7.260000 199 194 195 0
9.900000 2.860000 7.260000 199 194 195 0
10.120000 2.860000 7.260000 199 194 195 0
10.340000 2.860000 5.940000 199 194 195 0
10.560000 2.860000 5.940000 199 192 194 0
10.780000 2.860000 5.940000 200 193 195 0
11.000000 2.860000 5.940000 200 194 193 0
11.220000 2.860000 5.940000 200 194 193 0
11.440000 2.860000 7.260000 201 194 196 0
11.660000 2.860000 7.260000 201 194 196 0
11.880000 2.860000 7.260000 202 197 196 0
12.100000 2.860000 7.260000 200 195 194 0
12.320000 2.860000 7.260000 202 193 193 0
12.540000 2.860000 5.940000 198 189 189 0
12.760000 2.860000 5.940000 198 180 173 0
12.980000 2.860000 5.940000 198 180 173 0
13.200000 2.860000 5.940000 199 181 176 0
13.420000 2.860000 7.260000 200 182 177 0
13.640000 2.860000 7.260000 202 182 176 0
13.860000 2.860000 7.260000 201 181 175 0
14.080000 2.860000 5.940000 203 182 174 0
14.300000 2.860000 4.400000 202 181 173 0
14.520000 2.860000 5.940000 199 180 171 0
14.740000 2.860000 5.940000 199 180 171 0
14.960000 2.860000 5.940000 198 179 170 0
15.180000 2.860000 5.940000 198 179 170 0
15.400000 2.860000 5.720000 198 177 169 0
15.620000 2.860000 5.720000 198 177 169 0
15.840000 2.860000 5.940000 196 175 165 0
16.060000 2.860000 5.940000 196 175 165 0
16.280000 2.860000 5.940000 196 177 168 0
16.500000 2.860000 5.940000 195 176 167 0
16.720000 2.860000 5.940000 195 176 167 0
16.940000 2.860000 5.940000 195 176 167 0
17.160000 2.860000 5.940000 196 175 169 0
17.380000 2.860000 5.940000 194 173 167 0
17.600000 2.860000 5.940000 195 174 166 0
17.820000 2.860000 5.940000 192 171 163 0
18.040000 2.860000 5.940000 193 172 164 0
18.260000 2.860000 5.940000 195 174 166 0
18.480000 2.860000 4.400000 194 175 166 0
18.700000 2.860000 4.400000 194 175 166 0
18.920000 2.860000 5.940000 193 172 164 0
19.140000 2.860000 5.940000 195 174 166 0
19.360000 2.860000 5.940000 196 175 165 0
19.580000 2.860000 5.940000 197 176 166 0
19.800000 2.860000 5.940000 196 175 167 0
20.020000 2.860000 5.940000 197 176 168 0
20.240000 2.860000 5.940000 198 180 171 0
20.460000 2.860000 5.940000 199 181 172 0
20.680000 2.860000 5.940000 197 186 177 0
20.900000 2.860000 5.940000 200 189 180 0
21.120000 2.860000 4.400000 201 189 186 0
21.340000 2.860000 4.400000 206 194 191 0
21.560000 2.860000 4.620000 210 199 198 0
21.780000 2.860000 5.940000 214 203 202 0
22.000000 2.860000 5.940000 217 208 208 0
22.220000 2.860000 5.940000 222 213 213 0
22.440000 2.860000 5.940000 223 221 219 0
22.660000 2.860000 5.940000 230 228 226 0
22.880000 2.860000 4.620000 235 236 235 0
23.100000 2.860000 4.620000 238 239 238 0
23.320000 2.860000 4.620000 240 241 240 0
23.540000 2.860000 4.620000 240 241 240 0
23.760000 2.860000 4.620000 240 241 240 0
23.980000 2.860000 4.620000 240 241 240 0
24.200000 2.860000 4.620000 240 241 240 0
24.420000 2.860000 4.620000 240 241 240 0
24.640000 2.860000 4.620000 240 241 240 0
24.860000 2.860000 5.940000 240 241 240 0
25.080000 2.860000 5.940000 237 238 237 0
25.300000 2.860000 5.940000 237 238 237 0
25.520000 2.860000 5.940000 237 238 238 0
25.740000 2.860000 5.940000 236 237 237 0
25.960000 2.860000 5.940000 236 237 236 0
26.180000 2.860000 5.940000 236 237 236 0
26.400000 2.860000 5.940000 237 238 237 0
26.620000 2.860000 5.940000 237 238 237 0
26.840000 2.860000 5.940000 237 238 238 0
27.060000 2.860000 5.940000 237 238 238 0
27.280000 2.860000 4.400000 237 238 237 0
27.500000 2.860000 4.400000 238 239 238 0
27.720000 2.860000 4.400000 237 238 237 0
27.940000 2.860000 4.400000 238 239 238 0
28.160000 2.860000 5.940000 238 239 238 0
28.380000 2.860000 5.940000 238 239 238 0
28.600000 2.860000 5.940000 238 239 239 0
28.820000 2.860000 4.400000 239 240 240 0
29.040000 2.860000 4.400000 239 240 239 0
29.260000 2.860000 4.400000 239 240 239 0
29.480000 2.860000 4.400000 239 240 239 0
29.700000 2.860000 4.400000 239 240 239 0
29.920000 2.860000 4.400000 239 240 239 0
30.140000 2.860000 4.400000 239 240 239 0
30.360000 2.860000 4.400000 240 241 241 0
30.580000 2.860000 4.400000 240 241 241 0
30.800000 2.860000 4.620000 240 241 240 0
31.020000 2.860000 3.080000 240 241 240 0
31.240000 2.860000 3.080000 240 241 240 0
31.460000 2.860000 3.080000 240 241 240 0
31.680000 2.860000 3.080000 240 241 240 0
31.900000 2.860000 3.300000 240 241 240 0
32.120000 2.860000 3.300000 240 241 240 0
32.340000 2.860000 1.760000 240 241 240 0
32.560000 2.860000 3.080000 240 241 240 0
32.780000 2.860000 3.080000 240 241 240 0
33.000000 2.860000 3.080000 240 241 240 0
33.220000 2.860000 1.760000 240 241 240 0
33.440000 2.860000 7.260000 240 241 240 0
33.660000 2.860000 11.440000 240 241 240 0
33.880000 2.860000 7.480000 240 241 240 0
34.100000 2.860000 1.760000 240 241 240 0
34.320000 2.860000 1.760000 240 241 240 0
34.540000 2.860000 1.980000 240 241 240 0
34.760000 2.860000 1.980000 240 241 240 0
34.980000 2.860000 0.660000 240 241 240 0
35.420000 2.860000 2.200000 240 241 240 0
35.640000 2.860000 5.940000 240 241 240 0
35.860000 2.860000 3.300000 240 241 240 0
36.080000 2.860000 0.660000 240 241 240 0
36.300000 2.860000 0.660000 240 241 240 0
36.520000 2.860000 0.440000 240 241 240 0
36.740000 2.860000 0.440000 240 241 240 0
0.000000 3.080000 37.840000 230 245 245 0
0.220000 3.080000 37.840000 229 244 244 0
0.440000 3.080000 37.840000 229 244 244 0
0.660000 3.080000 36.520000 229 244 244 0
0.880000 3.080000 36.300000 230 244 242 0
1.100000 3.080000 36.300000 230 244 242 0
1.320000 3.080000 37.840000 230 244 242 0
1.540000 3.080000 37.840000 230 244 242 0
1.760000 3.080000 39.160000 227 245 244 0
1.980000 3.080000 37.840000 227 245 244 0
2.200000 3.080000 36.520000 230 244 242 0
2.420000 3.080000 36.520000 230 244 242 0
2.640000 3.080000 36.520000 232 243 242 0
2.860000 3.080000 34.980000 232 243 242 0
3.080000 3.080000 35.200000 232 243 242 0
3.300000 3.080000 36.520000 232 243 242 0
3.520000 3.080000 36.520000 233 242 242 0
3.740000 3.080000 36.520000 233 242 242 0
3.960000 3.080000 36.520000 232 243 242 0
4.180000 3.080000 36.520000 232 243 242 0
4.400000 3.080000 36.520000 230 244 242 0
4.620000 3.080000 37.840000 229 243 241 0
4.840000 3.080000 37.840000 226 244 241 0
5.060000 3.080000 37.840000 225 243 240 0
5.280000 3.080000 37.840000 216 245 244 0
5.500000 3.080000 39.160000 214 243 242 0
5.720000 3.080000 36.300000 195 246 245 0
5.940000 3.080000 25.300000 191 242 241 0
6.160000 3.080000 10.120000 213 226 237 0
6.380000 3.080000 4.400000 184 197 208 0
6.600000 3.080000 7.260000 200 195 196 0
6.820000 3.080000 7.260000 200 195 196 0
7.040000 3.080000 7.260000 199 192 194 0
7.260000 3.080000 5.940000 200 193 195 0
7.480000 3.080000 5.940000 202 193 195 0
7.700000 3.080000 5.940000 201 192 194 0
7.920000 3.080000 7.260000 199 192 194 0
8.140000 3.080000 5.940000 198 191 193 0
8.360000 3.080000 5.940000 198 191 193 0
8.580000 3.080000 5.940000 199 192 194 0
8.800000 3.080000 5.940000 198 191 193 0
9.020000 3.080000 5.940000 198 191 193 0
9.240000 3.080000 5.940000 200 191 193 0
9.460000 3.080000 5.940000 200 191 193 0
9.680000 3.080000 5.940000 200 191 193 0
9.900000 3.080000 7.260000 201 192 194 0
10.120000 3.080000 7.260000 200 191 193 0
10.340000 3.080000 5.940000 200 191 193 0
10.560000 3.080000 5.940000 200 191 191 0
10.780000 3.080000 5.940000 200 191 191 0
11.000000 3.080000 5.940000 200 191 193 0
11.220000 3.080000 5.940000 200 191 193 0
11.440000 3.080000 7.260000 201 190 193 0
11.660000 3.080000 5.940000 201 190 193 0
11.880000 3.080000 5.940000 201 192 192 0
12.100000 3.080000 5.940000 200 191 191 0
12.320000 3.080000 5.940000 206 186 183 0
12.540000 3.080000 5.940000 199 179 176 0
12.760000 3.080000 5.940000 195 171 166 0
12.980000 3.080000 5.940000 194 170 165 0
13.200000 3.080000 5.940000 200 172 166 0
13.420000 3.080000 5.940000 199 171 165 0
13.640000 3.080000 5.940000 200 172 166 0
13.860000 3.080000 5.940000 201 173 167 0
14.080000 3.080000 4.400000 198 172 168 0
14.300000 3.080000 4.620000 196 170 166 0
14.520000 3.080000 4.620000 197 172 163 0
14.740000 3.080000 4.620000 198 173 164 0
14.960000 3.080000 4.620000 199 171 165 0
15.180000 3.080000 5.940000 198 170 164 0
15.400000 3.080000 5.940000 198 170 164 0
15.620000 3.080000 5.940000 197 169 163 0
15.840000 3.080000 5.940000 195 169 163 0
16.060000 3.080000 5.940000 193 167 161 0
16.280000 3.080000 7.260000 195 169 163 0
16.500000 3.080000 5.940000 193 167 161 0
16.720000 3.080000 5.940000 193 167 161 0
16.940000 3.080000 5.940000 193 167 161 0
17.160000 3.080000 5.940000 194 168 162 0
17.380000 3.080000 5.940000 193 167 161 0
17.600000 3.080000 5.940000 194 168 162 0
17.820000 3.080000 5.940000 193 167 161 0
18.040000 3.080000 4.400000 195 167 159 0
18.260000 3.080000 5.940000 194 166 158 0
18.480000 3.080000 4.620000 192 166 160 0
18.700000 3.080000 4.400000 191 165 159 0
18.920000 3.080000 5.940000 192 166 160 0
19.140000 3.080000 5.940000 193 167 161 0
19.360000 3.080000 5.940000 194 168 162 0
19.580000 3.080000 5.940000 196 170 164 0
19.800000 3.080000 4.400000 197 169 161 0
20.020000 3.080000 4.400000 197 169 161 0
20.240000 3.080000 5.940000 194 170 163 0
20.460000 3.080000 5.940000 197 173 166 0
20.680000 3.080000 5.940000 199 175 170 0
20.900000 3.080000 4.400000 201 177 172 0
21.120000 3.080000 4.400000 203 182 176 0
21.340000 3.080000 4.400000 204 183 177 0
21.560000 3.080000 5.940000 203 189 181 0
21.780000 3.080000 5.940000 209 195 187 0
22.000000 3.080000 5.940000 212 196 191 0
22.220000 3.080000 4.400000 217 201 196 0
22.440000 3.080000 5.940000 217 206 205 0
22.660000 3.080000 5.940000 223 212 211 0
22.880000 3.080000 4.620000 229 216 218 0
23.100000 3.080000 4.400000 235 222 224 0
23.320000 3.080000 4.400000 237 231 230 0
23.540000 3.080000 4.620000 242 236 235 0
23.760000 3.080000 4.620000 241 239 239 0
23.980000 3.080000 4.400000 242 240 240 0
24.200000 3.080000 4.400000 238 241 241 0
24.420000 3.080000 4.400000 238 241 241 0
24.640000 3.080000 4.400000 238 241 241 0
24.860000 3.080000 5.940000 238 241 241 0
25.080000 3.080000 5.940000 237 238 237 0
25.300000 3.080000 5.940000 237 238 237 0
25.520000 3.080000 5.940000 239 236 238 0
25.740000 3.080000 4.400000 238 235 237 0
25.960000 3.080000 5.940000 243 234 236 0
26.180000 3.080000 5.940000 243 234 236 0
26.400000 3.080000 5.940000 247 231 236 0
26.620000 3.080000 5.940000 245 229 234 0
26.840000 3.080000 5.940000 247 225 232 0
27.060000 3.080000 5.940000 245 223 230 0
27.280000 3.080000 5.940000 250 220 227 0
27.500000 3.080000 5.940000 247 217 224 0
27.720000 3.080000 4.400000 246 214 220 0
27.940000 3.080000 4.400000 244 212 218 0
28.160000 3.080000 4.400000 241 211 214 0
28.380000 3.080000 4.400000 238 208 211 0
28.600000 3.080000 4.400000 239 206 210 0
28.820000 3.080000 4.400000 236 203 207 0
29.040000 3.080000 4.400000 235 199 204 0
29.260000 3.080000 4.400000 234 198 203 0
29.480000 3.080000 4.400000 231 199 205 0
29.700000 3.080000 4.400000 230 198 204 0
29.920000 3.080000 4.400000 228 198 201 0
30.140000 3.080000 4.400000 227 197 200 0
30.360000 3.080000 4.400000 230 198 204 0
30.580000 3.080000 4.400000 233 201 207 0
30.800000 3.080000 4.400000 235 203 209 0
31.020000 3.080000 4.400000 237 205 211 0
31.240000 3.080000 4.400000 237 205 211 0
31.460000 3.080000 4.400000 239 207 213 0
31.680000 3.080000 4.400000 239 209 212 0
31.900000 3.080000 4.400000 241 211 214 0
32.120000 3.080000 4.400000 244 212 218 0
32.340000 3.080000 4.400000 247 215 221 0
32.560000 3.080000 4.400000 246 219 221 0
32.780000 3.080000 4.400000 250 223 225 0
33.000000 3.080000 4.400000 249 230 231 0
33.220000 3.080000 3.080000 253 234 235 0
33.440000 3.080000 4.620000 248 237 240 0
33.660000 3.080000 7.260000 248 237 240 0
33.880000 3.080000 5.940000 240 241 240 0
34.100000 3.080000 3.080000 240 241 240 0
34.320000 3.080000 3.300000 240 241 240 0
34.540000 3.080000 4.620000 240 241 240 0
34.760000 3.080000 5.940000 240 241 240 0
34.980000 3.080000 3.300000 240 241 240 0
35.200000 3.080000 0.660000 240 241 240 0
35.420000 3.080000 1.760000 240 241 240 0
35.640000 3.080000 1.540000 240 241 240 0
35.860000 3.080000 1.760000 240 241 240 0
36.080000 3.080000 0.660000 240 241 240 0
36.300000 3.080000 0.880000 240 241 240 0
36.520000 3.080000 0.440000 240 241 240 0
36.740000 3.080000 1.760000 240 241 240 0
36.960000 3.080000 0.880000 240 241 240 0
0.000000 3.300000 34.980000 226 241 241 0
0.220000 3.300000 34.980000 225 240 240 0
0.440000 3.300000 32.120000 225 240 240 0
0.660000 3.300000 27.940000 225 240 240 0
0.880000 3.300000 29.480000 227 241 239 0
1.100000 3.300000 34.980000 228 242 240 0
1.320000 3.300000 39.160000 228 242 240 0
1.540000 3.300000 39.160000 228 242 240 0
1.760000 3.300000 39.160000 225 243 242 0
1.980000 3.300000 37.840000 223 241 240 0
2.200000 3.300000 37.840000 228 242 240 0
2.420000 3.300000 37.840000 228 242 240 0
2.640000 3.300000 36.300000 230 241 240 0
2.860000 3.300000 36.300000 231 242 241 0
3.080000 3.300000 36.520000 232 243 242 0
3.300000 3.300000 36.520000 231 242 241 0
3.520000 3.300000 36.520000 232 241 241 0
3.740000 3.300000 36.520000 233 242 242 0
3.960000 3.300000 36.520000 232 243 242 0
4.180000 3.300000 36.520000 231 242 241 0
4.400000 3.300000 36.520000 227 241 239 0
4.620000 3.300000 36.520000 226 240 238 0
4.840000 3.300000 37.840000 223 241 238 0
5.060000 3.300000 37.840000 222 240 237 0
5.280000 3.300000 37.840000 213 242 241 0
5.500000 3.300000 37.840000 211 240 239 0
5.720000 3.300000 39.160000 193 244 243 0
5.940000 3.300000 30.800000 190 241 240 0
6.160000 3.300000 12.760000 212 225 236 0
6.380000 3.300000 4.400000 184 197 208 0
6.600000 3.300000 5.940000 199 194 195 0
6.820000 3.300000 7.260000 198 193 194 0
7.040000 3.300000 7.260000 198 191 193 0
7.260000 3.300000 5.940000 197 190 192 0
7.480000 3.300000 5.940000 200 191 193 0
7.700000 3.300000 5.940000 199 190 192 0
7.920000 3.300000 5.940000 197 190 192 0
8.140000 3.300000 5.940000 196 189 191 0
8.360000 3.300000 5.940000 197 190 192 0
8.580000 3.300000 5.940000 198 191 193 0
8.800000 3.300000 5.940000 197 190 192 0
9.020000 3.300000 5.940000 197 190 192 0
9.240000 3.300000 5.940000 199 190 192 0
9.460000 3.300000 5.940000 199 190 192 0
9.680000 3.300000 5.940000 199 190 192 0
9.900000 3.300000 7.260000 199 190 192 0
10.120000 3.300000 7.260000 199 190 192 0
10.340000 3.300000 5.940000 198 189 191 0
10.560000 3.300000 5.940000 199 190 190 0
10.780000 3.300000 5.940000 197 188 188 0
11.000000 3.300000 5.720000 198 189 191 0
11.220000 3.300000 5.720000 197 188 190 0
11.440000 3.300000 5.940000 197 186 189 0
11.660000 3.300000 5.940000 196 185 188 0
11.880000 3.300000 5.940000 195 186 186 0
12.100000 3.300000 5.940000 196 187 187 0
12.320000 3.300000 5.940000 200 180 177 0
12.540000 3.300000 5.940000 194 174 171 0
12.760000 3.300000 4.400000 192 168 163 0
12.980000 3.300000 4.400000 189 165 160 0
13.200000 3.300000 5.940000 193 165 159 0
13.420000 3.300000 4.400000 194 166 160 0
13.640000 3.300000 4.400000 196 168 162 0
13.860000 3.300000 5.940000 194 166 160 0
14.080000 3.300000 5.940000 192 166 162 0
14.300000 3.300000 4.400000 193 167 163 0
14.520000 3.300000 4.620000 192 167 158 0
14.740000 3.300000 4.620000 193 168 159 0
14.960000 3.300000 4.400000 194 166 160 0
15.180000 3.300000 4.400000 193 165 159 0
15.400000 3.300000 5.940000 191 163 157 0
15.620000 3.300000 5.940000 192 164 158 0
15.840000 3.300000 5.940000 191 165 159 0
16.060000 3.300000 5.940000 190 164 158 0
16.280000 3.300000 7.260000 189 163 157 0
16.500000 3.300000 5.940000 190 164 158 0
16.720000 3.300000 5.940000 190 164 158 0
16.940000 3.300000 5.940000 190 164 158 0
17.160000 3.300000 5.940000 189 163 157 0
17.380000 3.300000 5.940000 190 164 158 0
17.600000 3.300000 4.400000 191 165 159 0
17.820000 3.300000 4.400000 191 165 159 0
18.040000 3.300000 4.400000 192 164 156 0
18.260000 3.300000 4.400000 191 163 155 0
18.480000 3.300000 4.620000 189 163 157 0
18.700000 3.300000 4.400000 187 161 155 0
18.920000 3.300000 5.940000 188 162 156 0
19.140000 3.300000 5.940000 188 162 156 0
19.360000 3.300000 4.400000 188 162 156 0
19.580000 3.300000 4.400000 188 162 156 0
19.800000 3.300000 4.400000 191 163 155 0
20.020000 3.300000 4.400000 193 165 157 0
20.240000 3.300000 4.400000 190 166 159 0
20.460000 3.300000 5.940000 192 168 161 0
20.680000 3.300000 5.940000 194 170 165 0
20.900000 3.300000 4.400000 195 171 166 0
21.120000 3.300000 4.400000 195 174 168 0
21.340000 3.300000 4.400000 198 177 171 0
21.560000 3.300000 5.940000 196 182 174 0
21.780000 3.300000 5.940000 199 185 177 0
22.000000 3.300000 5.940000 206 190 185 0
22.220000 3.300000 4.400000 207 191 186 0
22.440000 3.300000 5.940000 207 196 195 0
22.660000 3.300000 5.940000 213 202 201 0
22.880000 3.300000 4.400000 217 204 206 0
23.100000 3.300000 4.400000 220 207 209 0
23.320000 3.300000 4.400000 223 217 216 0
23.540000 3.300000 4.400000 227 221 220 0
23.760000 3.300000 4.400000 229 227 227 0
23.980000 3.300000 5.940000 235 233 233 0
24.200000 3.300000 5.940000 232 235 235 0
24.420000 3.300000 4.400000 234 237 237 0
24.640000 3.300000 4.400000 234 237 237 0
24.860000 3.300000 4.400000 232 235 235 0
25.080000 3.300000 5.940000 229 230 229 0
25.300000 3.300000 4.400000 226 227 226 0
25.520000 3.300000 4.400000 227 224 226 0
25.740000 3.300000 4.400000 220 217 219 0
25.960000 3.300000 4.400000 223 214 216 0
26.180000 3.300000 5.940000 216 207 209 0
26.400000 3.300000 4.400000 219 203 208 0
26.620000 3.300000 5.940000 214 198 203 0
26.840000 3.300000 5.940000 215 193 200 0
27.060000 3.300000 5.940000 212 190 197 0
27.280000 3.300000 5.940000 212 182 189 0
27.500000 3.300000 4.400000 209 179 186 0
27.720000 3.300000 4.620000 203 171 177 0
27.940000 3.300000 4.400000 202 170 176 0
28.160000 3.300000 4.400000 202 172 175 0
28.380000 3.300000 4.400000 204 174 177 0
28.600000 3.300000 4.400000 204 171 175 0
28.820000 3.300000 4.620000 203 170 174 0
29.040000 3.300000 4.620000 203 167 172 0
29.260000 3.300000 4.400000 205 169 174 0
29.480000 3.300000 4.400000 204 172 178 0
29.700000 3.300000 4.400000 205 173 179 0
29.920000 3.300000 4.400000 206 176 179 0
30.140000 3.300000 4.400000 208 178 181 0
30.360000 3.300000 4.400000 209 177 183 0
30.580000 3.300000 4.400000 210 178 184 0
30.800000 3.300000 4.400000 210 178 184 0
31.020000 3.300000 4.400000 209 177 183 0
31.240000 3.300000 4.400000 209 177 183 0
31.460000 3.300000 5.940000 208 176 182 0
31.680000 3.300000 4.400000 207 177 180 0
31.900000 3.300000 4.400000 209 179 182 0
32.120000 3.300000 4.400000 208 176 182 0
32.340000 3.300000 4.400000 209 177 183 0
32.560000 3.300000 5.940000 209 182 184 0
32.780000 3.300000 4.400000 211 184 186 0
33.000000 3.300000 4.620000 208 189 190 0
33.220000 3.300000 4.620000 210 191 192 0
33.440000 3.300000 3.080000 209 198 201 0
33.660000 3.300000 4.400000 222 211 214 0
33.880000 3.300000 4.620000 228 229 228 0
34.100000 3.300000 4.620000 238 239 238 0
34.320000 3.300000 3.080000 240 241 240 0
34.540000 3.300000 7.260000 240 241 240 0
34.760000 3.300000 11.440000 240 241 240 0
34.980000 3.300000 5.940000 240 241 240 0
35.200000 3.300000 1.760000 240 241 240 0
35.420000 3.300000 2.860000 240 241 240 0
35.640000 3.300000 3.080000 240 241 240 0
35.860000 3.300000 1.980000 240 241 240 0
36.080000 3.300000 0.660000 240 241 240 0
36.300000 3.300000 0.660000 240 241 240 0
36.520000 3.300000 1.760000 240 241 240 0
36.740000 3.300000 1.760000 240 241 240 0
36.960000 3.300000 1.980000 240 241 240 0
37.180000 3.300000 2.200000 240 241 240 0
0.000000 3.520000 21.120000 208 241 241 0
0.220000 3.520000 21.120000 208 241 241 0
0.440000 3.520000 15.620000 208 241 241 0
0.660000 3.520000 10.120000 209 242 242 0
0.880000 3.520000 15.620000 210 243 243 0
1.100000 3.520000 25.300000 209 242 242 0
1.320000 3.520000 30.800000 209 244 243 0
1.540000 3.520000 30.800000 208 243 242 0
1.760000 3.520000 30.800000 209 242 242 0
1.980000 3.520000 32.120000 209 242 242 0
2.200000 3.520000 36.300000 210 243 243 0
2.420000 3.520000 39.160000 209 242 242 0
2.640000 3.520000 37.620000 210 243 243 0
2.860000 3.520000 34.980000 212 245 245 0
3.080000 3.520000 33.660000 212 247 246 0
3.300000 3.520000 34.980000 211 246 245 0
3.520000 3.520000 37.620000 214 245 243 0
3.740000 3.520000 37.620000 215 246 244 0
3.960000 3.520000 37.620000 212 245 245 0
4.180000 3.520000 36.300000 211 244 244 0
4.400000 3.520000 36.300000 207 245 243 0
4.620000 3.520000 37.620000 206 244 242 0
4.840000 3.520000 37.620000 204 244 241 0
5.060000 3.520000 37.620000 204 244 241 0
5.280000 3.520000 37.620000 197 245 244 0
5.500000 3.520000 37.620000 195 243 242 0
5.720000 3.520000 36.300000 183 245 245 0
5.940000 3.520000 25.300000 180 242 242 0
6.160000 3.520000 10.120000 208 225 238 0
6.380000 3.520000 4.400000 185 202 215 0
6.600000 3.520000 5.940000 199 190 192 0
6.820000 3.520000 5.940000 200 191 193 0
7.040000 3.520000 7.260000 197 190 192 0
7.260000 3.520000 5.940000 196 189 191 0
7.480000 3.520000 5.940000 199 188 187 0
7.700000 3.520000 5.940000 199 188 187 0
7.920000 3.520000 5.940000 199 188 189 0
8.140000 3.520000 4.400000 197 186 187 0
8.360000 3.520000 5.940000 197 188 190 0
8.580000 3.520000 5.940000 197 188 190 0
8.800000 3.520000 5.940000 197 188 188 0
9.020000 3.520000 5.940000 199 190 190 0
9.240000 3.520000 7.260000 199 188 187 0
9.460000 3.520000 5.720000 199 188 187 0
9.680000 3.520000 5.940000 199 188 187 0
9.900000 3.520000 5.940000 200 189 188 0
10.120000 3.520000 7.260000 198 187 188 0
10.340000 3.520000 5.940000 198 187 188 0
10.560000 3.520000 5.940000 197 188 188 0
10.780000 3.520000 5.940000 196 187 187 0
11.000000 3.520000 5.940000 198 187 186 0
11.220000 3.520000 5.720000 196 185 184 0
11.440000 3.520000 5.720000 198 185 187 0
11.660000 3.520000 5.940000 195 182 184 0
11.880000 3.520000 5.940000 195 183 182 0
12.100000 3.520000 5.940000 194 182 181 0
12.320000 3.520000 5.940000 193 177 175 0
12.540000 3.520000 4.400000 189 173 171 0
12.760000 3.520000 4.400000 193 165 159 0
12.980000 3.520000 5.940000 189 161 155 0
13.200000 3.520000 5.940000 187 162 153 0
13.420000 3.520000 4.400000 186 161 152 0
13.640000 3.520000 4.400000 187 162 153 0
13.860000 3.520000 4.400000 189 164 155 0
14.080000 3.520000 5.940000 190 162 156 0
14.300000 3.520000 5.940000 189 161 155 0
14.520000 3.520000 5.940000 191 161 154 0
14.740000 3.520000 4.400000 192 162 155 0
14.960000 3.520000 4.400000 186 161 152 0
15.180000 3.520000 4.400000 186 161 152 0
15.400000 3.520000 4.400000 186 161 152 0
15.620000 3.520000 4.400000 186 161 152 0
15.840000 3.520000 5.940000 188 160 152 0
16.060000 3.520000 5.940000 189 161 153 0
16.280000 3.520000 5.940000 187 159 151 0
16.500000 3.520000 5.940000 189 161 153 0
16.720000 3.520000 5.940000 187 162 153 0
16.940000 3.520000 5.940000 186 161 152 0
17.160000 3.520000 5.940000 184 161 151 0
17.380000 3.520000 5.940000 184 161 151 0
17.600000 3.520000 5.940000 188 160 152 0
17.820000 3.520000 4.400000 188 160 152 0
18.040000 3.520000 4.400000 188 158 151 0
18.260000 3.520000 4.620000 189 159 152 0
18.480000 3.520000 4.620000 185 160 151 0
18.700000 3.520000 4.400000 185 160 151 0
18.920000 3.520000 4.400000 186 161 151 0
19.140000 3.520000 4.400000 185 160 150 0
19.360000 3.520000 4.400000 188 160 152 0
19.580000 3.520000 4.400000 188 160 152 0
19.800000 3.520000 4.400000 190 162 153 0
20.020000 3.520000 4.400000 190 162 153 0
20.240000 3.520000 4.400000 188 163 153 0
20.460000 3.520000 4.400000 190 165 155 0
20.680000 3.520000 5.940000 189 166 156 0
20.900000 3.520000 5.940000 191 168 158 0
21.120000 3.520000 5.940000 196 168 159 0
21.340000 3.520000 4.400000 196 168 159 0
21.560000 3.520000 5.940000 199 171 163 0
21.780000 3.520000 5.940000 202 174 166 0
22.000000 3.520000 5.940000 200 177 180 0
22.220000 3.520000 4.400000 203 180 183 0
22.440000 3.520000 4.400000 204 185 184 0
22.660000 3.520000 4.400000 208 189 188 0
22.880000 3.520000 4.400000 209 195 190 0
23.100000 3.520000 4.400000 214 200 195 0
23.320000 3.520000 4.400000 222 201 205 0
23.540000 3.520000 4.400000 226 205 209 0
23.760000 3.520000 4.400000 228 205 208 0
23.980000 3.520000 4.400000 228 205 208 0
24.200000 3.520000 4.400000 236 200 207 0
24.420000 3.520000 4.620000 232 196 203 0
24.640000 3.520000 3.080000 232 191 202 0
24.860000 3.520000 4.400000 231 190 201 0
25.080000 3.520000 4.400000 227 180 191 0
25.300000 3.520000 4.400000 223 176 187 0
25.520000 3.520000 3.080000 214 169 184 0
25.740000 3.520000 3.080000 208 163 178 0
25.960000 3.520000 4.400000 204 162 169 0
26.180000 3.520000 4.400000 205 163 170 0
26.400000 3.520000 4.400000 205 161 169 0
26.620000 3.520000 4.400000 201 157 165 0
26.840000 3.520000 4.400000 203 157 165 0
27.060000 3.520000 4.400000 201 155 163 0
27.280000 3.520000 4.400000 201 159 164 0
27.500000 3.520000 4.620000 203 161 166 0
27.720000 3.520000 4.400000 203 163 169 0
27.940000 3.520000 4.400000 204 164 170 0
28.160000 3.520000 4.400000 207 164 168 0
28.380000 3.520000 4.400000 208 165 169 0
28.600000 3.520000 4.400000 204 167 169 0
28.820000 3.520000 4.620000 205 168 170 0
29.040000 3.520000 3.080000 208 167 170 0
29.260000 3.520000 4.400000 208 167 170 0
29.480000 3.520000 4.400000 206 171 172 0
29.700000 3.520000 4.400000 210 175 176 0
29.920000 3.520000 4.400000 209 177 177 0
30.140000 3.520000 4.400000 212 180 180 0
30.360000 3.520000 4.400000 215 180 182 0
30.580000 3.520000 4.400000 217 182 184 0
30.800000 3.520000 4.400000 217 182 183 0
31.020000 3.520000 4.400000 217 182 183 0
31.240000 3.520000 4.400000 216 181 182 0
31.460000 3.520000 4.400000 215 180 181 0
31.680000 3.520000 4.400000 214 179 181 0
31.900000 3.520000 4.400000 214 179 181 0
32.120000 3.520000 4.400000 215 182 184 0
32.340000 3.520000 4.400000 214 181 183 0
32.560000 3.520000 4.400000 216 181 182 0
32.780000 3.520000 4.400000 216 181 182 0
33.000000 3.520000 4.400000 217 185 185 0
33.220000 3.520000 4.400000 217 185 185 0
33.440000 3.520000 4.400000 214 181 183 0
33.660000 3.520000 4.400000 211 178 180 0
33.880000 3.520000 4.400000 211 180 181 0
34.100000 3.520000 3.080000 218 187 188 0
34.320000 3.520000 3.080000 225 211 221 0
34.540000 3.520000 5.940000 245 231 241 0
34.760000 3.520000 7.260000 240 241 240 0
34.980000 3.520000 4.620000 240 241 240 0
35.200000 3.520000 1.760000 240 241 240 0
35.420000 3.520000 2.860000 240 241 240 0
35.640000 3.520000 2.860000 240 241 240 0
35.860000 3.520000 3.080000 240 241 240 0
36.080000 3.520000 3.080000 240 241 240 0
36.300000 3.520000 1.760000 240 241 240 0
36.520000 3.520000 3.080000 240 241 240 0
36.740000 3.520000 1.980000 240 241 240 0
36.960000 3.520000 1.980000 240 241 240 0
37.180000 3.520000 3.300000 240 241 240 0
0.000000 3.740000 7.260000 206 239 239 0
0.220000 3.740000 7.260000 207 240 240 0
0.440000 3.740000 4.400000 207 240 240 0
0.660000 3.740000 3.080000 208 241 241 0
0.880000 3.740000 5.940000 207 240 240 0
1.100000 3.740000 9.900000 207 240 240 0
1.320000 3.740000 12.760000 206 241 240 0
1.540000 3.740000 12.760000 206 241 240 0
1.760000 3.740000 12.760000 208 241 241 0
1.980000 3.740000 16.940000 208 241 241 0
2.200000 3.740000 25.300000 207 240 240 0
2.420000 3.740000 30.800000 207 240 240 0
2.640000 3.740000 30.800000 207 240 240 0
2.860000 3.740000 25.080000 208 241 241 0
3.080000 3.740000 19.580000 207 242 241 0
3.300000 3.740000 26.620000 206 241 240 0
3.520000 3.740000 36.300000 210 241 239 0
3.740000 3.740000 38.940000 210 241 239 0
3.960000 3.740000 36.300000 208 241 241 0
4.180000 3.740000 33.440000 206 239 239 0
4.400000 3.740000 36.080000 202 240 238 0
4.620000 3.740000 38.940000 201 239 237 0
4.840000 3.740000 38.940000 201 241 238 0
5.060000 3.740000 36.300000 200 240 237 0
5.280000 3.740000 30.580000 194 242 241 0
5.500000 3.740000 29.260000 193 241 240 0
5.720000 3.740000 25.300000 180 242 242 0
5.940000 3.740000 14.080000 178 240 240 0
6.160000 3.740000 5.940000 207 224 237 0
6.380000 3.740000 4.400000 183 200 213 0
6.600000 3.740000 5.720000 196 187 189 0
6.820000 3.740000 5.940000 197 188 190 0
7.040000 3.740000 5.940000 195 188 190 0
7.260000 3.740000 5.940000 195 188 190 0
7.480000 3.740000 5.940000 198 187 186 0
7.700000 3.740000 5.940000 196 185 184 0
7.920000 3.740000 4.400000 196 185 186 0
8.140000 3.740000 4.400000 196 185 186 0
8.360000 3.740000 5.940000 196 187 189 0
8.580000 3.740000 5.940000 196 187 189 0
8.800000 3.740000 5.940000 197 188 188 0
9.020000 3.740000 5.940000 197 188 188 0
9.240000 3.740000 5.720000 198 187 186 0
9.460000 3.740000 5.720000 197 186 185 0
9.680000 3.740000 5.940000 197 186 185 0
9.900000 3.740000 5.940000 197 186 185 0
10.120000 3.740000 5.940000 197 186 187 0
10.340000 3.740000 5.940000 195 184 185 0
10.560000 3.740000 5.940000 196 187 187 0
10.780000 3.740000 5.940000 195 186 186 0
11.000000 3.740000 5.940000 195 184 183 0
11.220000 3.740000 5.940000 195 184 183 0
11.440000 3.740000 5.940000 195 182 184 0
11.660000 3.740000 5.940000 193 180 182 0
11.880000 3.740000 5.940000 193 181 180 0
12.100000 3.740000 5.940000 191 179 178 0
12.320000 3.740000 5.940000 190 174 172 0
12.540000 3.740000 4.400000 185 169 167 0
12.760000 3.740000 4.400000 189 161 155 0
12.980000 3.740000 4.400000 187 159 153 0
13.200000 3.740000 4.400000 184 159 150 0
13.420000 3.740000 4.400000 183 158 149 0
13.640000 3.740000 4.400000 181 156 147 0
13.860000 3.740000 4.400000 184 159 150 0
14.080000 3.740000 4.400000 185 157 151 0
14.300000 3.740000 5.720000 185 157 151 0
14.520000 3.740000 5.720000 187 157 150 0
14.740000 3.740000 5.720000 188 158 151 0
14.960000 3.740000 4.400000 183 158 149 0
15.180000 3.740000 4.400000 182 157 148 0
15.400000 3.740000 4.400000 181 156 147 0
15.620000 3.740000 4.400000 182 157 148 0
