ply
format ascii 1.0
element vertex 1161
property float x
property float y
property float z
property uchar red
property uchar green
property uchar blue
property uchar alpha
end_header
34.540000 0.880000 18.920000 220 200 196 0
34.760000 0.880000 19.030000 220 199 191 0
34.980000 0.880000 19.690000 216 195 187 0
35.200000 0.880000 20.350000 217 185 181 0
35.420000 0.880000 15.400000 208 176 172 0
35.640000 0.880000 4.950000 206 172 168 0
35.860000 0.880000 0.220000 209 175 171 0
36.080000 0.880000 0.220000 205 181 176 0
36.300000 0.880000 0.990000 210 186 181 0
36.520000 0.880000 0.990000 210 189 183 0
36.740000 0.880000 0.990000 212 191 185 0
36.960000 0.880000 1.760000 215 189 187 0
37.180000 0.880000 1.760000 213 187 185 0
0.000000 1.100000 7.810000 183 95 86 0
0.220000 1.100000 7.810000 182 94 85 0
0.440000 1.100000 7.810000 181 94 82 0
0.660000 1.100000 7.810000 181 94 82 0
0.880000 1.100000 8.470000 179 91 82 0
1.100000 1.100000 9.130000 178 90 81 0
1.320000 1.100000 9.020000 178 90 81 0
1.540000 1.100000 9.020000 178 90 81 0
1.760000 1.100000 9.680000 177 89 80 0
1.980000 1.100000 9.790000 176 88 79 0
2.200000 1.100000 9.790000 176 87 78 0
2.420000 1.100000 9.790000 178 89 80 0
2.640000 1.100000 9.790000 176 87 76 0
2.860000 1.100000 9.790000 177 88 77 0
3.080000 1.100000 9.790000 178 89 78 0
3.300000 1.100000 9.900000 178 89 78 0
3.520000 1.100000 10.560000 177 89 80 0
3.740000 1.100000 10.560000 179 91 82 0
3.960000 1.100000 10.560000 181 92 81 0
4.180000 1.100000 10.560000 180 91 80 0
4.400000 1.100000 10.670000 178 89 78 0
4.620000 1.100000 10.670000 178 89 78 0
4.840000 1.100000 10.670000 178 89 78 0
5.060000 1.100000 10.670000 177 88 77 0
5.280000 1.100000 10.670000 175 86 75 0
5.500000 1.100000 10.670000 174 85 74 0
5.720000 1.100000 10.780000 173 84 73 0
5.940000 1.100000 10.670000 172 83 72 0
6.160000 1.100000 10.670000 171 82 71 0
6.380000 1.100000 10.670000 171 82 71 0
6.600000 1.100000 10.560000 169 80 69 0
6.820000 1.100000 10.560000 167 78 67 0
7.040000 1.100000 10.560000 167 76 66 0
7.260000 1.100000 10.560000 165 74 64 0
7.480000 1.100000 10.560000 164 73 65 0
7.700000 1.100000 10.560000 162 71 63 0
7.920000 1.100000 10.560000 162 71 63 0
8.140000 1.100000 10.560000 160 69 61 0
8.360000 1.100000 10.560000 161 67 60 0
8.580000 1.100000 10.560000 160 66 59 0
8.800000 1.100000 10.560000 158 67 59 0
9.020000 1.100000 10.560000 158 67 59 0
9.240000 1.100000 10.560000 159 65 60 0
9.460000 1.100000 10.560000 158 64 59 0
9.680000 1.100000 10.560000 157 66 60 0
9.900000 1.100000 9.900000 156 65 59 0
10.120000 1.100000 9.900000 157 63 58 0
10.340000 1.100000 9.130000 156 62 57 0
10.560000 1.100000 9.900000 155 61 56 0
10.780000 1.100000 9.790000 154 60 55 0
11.000000 1.100000 9.130000 152 61 55 0
11.220000 1.100000 9.130000 152 61 55 0
11.440000 1.100000 9.130000 151 60 54 0
11.660000 1.100000 8.470000 152 61 55 0
11.880000 1.100000 7.040000 151 60 54 0
12.100000 1.100000 6.380000 153 62 56 0
12.320000 1.100000 5.720000 154 63 57 0
12.540000 1.100000 3.630000 154 63 57 0
12.760000 1.100000 6.380000 154 63 57 0
12.980000 1.100000 13.310000 154 63 57 0
13.200000 1.100000 17.380000 155 63 59 0
13.420000 1.100000 17.380000 154 62 58 0
13.640000 1.100000 14.630000 154 63 57 0
13.860000 1.100000 9.130000 153 62 56 0
14.080000 1.100000 8.470000 154 63 57 0
14.300000 1.100000 8.470000 155 64 58 0
14.520000 1.100000 4.950000 156 64 60 0
14.740000 1.100000 6.380000 156 64 60 0
14.960000 1.100000 13.310000 155 65 60 0
15.180000 1.100000 16.720000 157 67 62 0
15.400000 1.100000 17.380000 157 67 61 0
15.620000 1.100000 17.380000 158 68 62 0
15.840000 1.100000 18.150000 157 69 62 0
16.060000 1.100000 13.970000 158 70 63 0
16.280000 1.100000 9.790000 155 74 65 0
16.500000 1.100000 8.470000 158 77 68 0
16.720000 1.100000 4.950000 159 80 71 0
16.940000 1.100000 7.810000 163 84 75 0
17.160000 1.100000 16.060000 160 85 75 0
17.380000 1.100000 16.720000 165 90 80 0
17.600000 1.100000 8.470000 165 92 81 0
17.820000 1.100000 7.810000 166 93 82 0
18.040000 1.100000 9.130000 167 94 83 0
18.260000 1.100000 4.290000 167 94 83 0
18.480000 1.100000 0.880000 167 92 82 0
18.700000 1.100000 0.110000 166 91 81 0
18.920000 1.100000 0.110000 165 90 80 0
19.140000 1.100000 0.110000 166 91 81 0
19.360000 1.100000 0.110000 167 92 82 0
19.580000 1.100000 0.110000 168 93 83 0
19.800000 1.100000 0.110000 167 94 83 0
20.020000 1.100000 0.110000 167 94 83 0
20.240000 1.100000 0.110000 167 94 83 0
20.460000 1.100000 0.110000 168 95 84 0
20.680000 1.100000 1.540000 156 103 84 0
20.900000 1.100000 2.970000 161 108 89 0
21.120000 1.100000 1.540000 155 125 112 0
21.340000 1.100000 0.110000 162 132 119 0
21.560000 1.100000 1.540000 162 138 123 0
21.780000 1.100000 4.950000 169 145 130 0
22.000000 1.100000 10.450000 175 156 137 0
22.220000 1.100000 14.630000 176 157 138 0
22.440000 1.100000 17.380000 182 156 138 0
22.660000 1.100000 17.380000 180 154 136 0
22.880000 1.100000 16.720000 188 157 132 0
23.100000 1.100000 15.400000 191 160 135 0
23.320000 1.100000 14.740000 190 159 136 0
23.540000 1.100000 14.850000 191 160 137 0
23.760000 1.100000 14.740000 194 166 137 0
23.980000 1.100000 14.630000 198 170 141 0
24.200000 1.100000 15.290000 200 173 141 0
24.420000 1.100000 15.180000 202 175 143 0
24.640000 1.100000 15.180000 200 170 139 0
24.860000 1.100000 15.180000 202 172 141 0
25.080000 1.100000 15.180000 199 171 142 0
25.300000 1.100000 15.290000 200 172 143 0
25.520000 1.100000 15.290000 207 179 150 0
25.740000 1.100000 15.290000 207 179 150 0
25.960000 1.100000 15.290000 206 175 149 0
26.180000 1.100000 15.290000 198 167 141 0
26.400000 1.100000 15.290000 192 159 139 0
26.620000 1.100000 15.290000 187 154 134 0
26.840000 1.100000 15.290000 185 153 137 0
27.060000 1.100000 15.290000 183 151 135 0
27.280000 1.100000 15.290000 182 152 137 0
27.500000 1.100000 15.290000 184 154 139 0
27.720000 1.100000 15.290000 185 155 139 0
27.940000 1.100000 15.290000 186 156 140 0
28.160000 1.100000 15.290000 190 158 142 0
28.380000 1.100000 15.290000 192 160 144 0
28.600000 1.100000 15.290000 193 161 145 0
28.820000 1.100000 15.400000 195 163 147 0
29.040000 1.100000 15.400000 194 164 148 0
29.260000 1.100000 15.400000 196 166 150 0
29.480000 1.100000 15.400000 197 168 149 0
29.700000 1.100000 15.400000 199 170 151 0
29.920000 1.100000 15.400000 201 172 153 0
30.140000 1.100000 15.400000 202 173 154 0
30.360000 1.100000 15.400000 202 178 161 0
30.580000 1.100000 15.510000 206 182 165 0
30.800000 1.100000 15.510000 205 185 173 0
31.020000 1.100000 15.510000 209 189 177 0
31.240000 1.100000 15.510000 211 191 185 0
31.460000 1.100000 16.170000 215 195 189 0
31.680000 1.100000 16.280000 217 197 191 0
31.900000 1.100000 16.280000 222 202 196 0
32.120000 1.100000 16.280000 224 204 198 0
32.340000 1.100000 16.280000 226 206 200 0
32.560000 1.100000 16.390000 227 207 201 0
32.780000 1.100000 16.390000 228 208 202 0
33.000000 1.100000 16.390000 226 206 202 0
33.220000 1.100000 17.160000 223 203 199 0
33.440000 1.100000 17.710000 220 200 194 0
33.660000 1.100000 18.150000 220 200 194 0
33.880000 1.100000 18.150000 220 200 196 0
34.100000 1.100000 18.150000 220 200 196 0
34.320000 1.100000 18.920000 221 201 195 0
34.540000 1.100000 18.920000 221 201 195 0
34.760000 1.100000 19.030000 220 200 194 0
34.980000 1.100000 19.800000 217 197 191 0
35.200000 1.100000 19.800000 216 188 182 0
35.420000 1.100000 15.510000 213 185 179 0
35.640000 1.100000 5.060000 208 176 172 0
35.860000 1.100000 0.220000 208 176 172 0
36.080000 1.100000 0.990000 209 183 181 0
36.300000 1.100000 0.990000 212 186 184 0
36.520000 1.100000 0.990000 213 187 183 0
36.740000 1.100000 1.100000 213 187 183 0
36.960000 1.100000 1.760000 223 183 179 0
37.180000 1.100000 1.760000 219 179 175 0
0.000000 1.320000 7.810000 183 95 86 0
0.220000 1.320000 7.810000 183 95 86 0
0.440000 1.320000 7.810000 180 93 81 0
0.660000 1.320000 7.810000 180 93 81 0
0.880000 1.320000 8.470000 179 91 82 0
1.100000 1.320000 8.470000 178 90 81 0
1.320000 1.320000 9.130000 177 89 80 0
1.540000 1.320000 9.130000 177 89 80 0
1.760000 1.320000 9.130000 177 89 80 0
1.980000 1.320000 9.790000 175 87 78 0
2.200000 1.320000 9.790000 176 87 78 0
2.420000 1.320000 9.790000 176 87 78 0
2.640000 1.320000 9.790000 176 87 76 0
2.860000 1.320000 9.790000 175 86 75 0
3.080000 1.320000 9.790000 177 88 77 0
3.300000 1.320000 9.900000 178 89 78 0
3.520000 1.320000 9.900000 178 90 81 0
3.740000 1.320000 9.900000 180 92 83 0
3.960000 1.320000 10.560000 181 92 81 0
4.180000 1.320000 10.560000 180 91 80 0
4.400000 1.320000 10.670000 179 90 79 0
4.620000 1.320000 10.670000 179 90 79 0
4.840000 1.320000 10.670000 178 89 78 0
5.060000 1.320000 10.670000 176 87 76 0
5.280000 1.320000 10.670000 176 87 76 0
5.500000 1.320000 10.670000 173 84 73 0
5.720000 1.320000 10.670000 172 83 72 0
5.940000 1.320000 10.670000 171 82 71 0
6.160000 1.320000 10.670000 170 81 70 0
6.380000 1.320000 10.560000 169 80 69 0
6.600000 1.320000 10.560000 167 78 67 0
6.820000 1.320000 9.900000 166 77 66 0
7.040000 1.320000 10.560000 166 75 65 0
7.260000 1.320000 10.560000 164 73 63 0
7.480000 1.320000 10.560000 163 72 64 0
7.700000 1.320000 10.560000 162 71 63 0
7.920000 1.320000 10.560000 159 68 60 0
8.140000 1.320000 10.560000 160 69 61 0
8.360000 1.320000 10.560000 160 66 59 0
8.580000 1.320000 10.560000 159 65 58 0
8.800000 1.320000 10.560000 157 66 58 0
9.020000 1.320000 10.560000 158 67 59 0
9.240000 1.320000 10.560000 159 65 60 0
9.460000 1.320000 10.560000 158 64 59 0
9.680000 1.320000 10.560000 154 63 57 0
9.900000 1.320000 10.560000 153 62 56 0
10.120000 1.320000 9.900000 155 61 56 0
10.340000 1.320000 9.130000 155 61 56 0
10.560000 1.320000 9.130000 154 60 55 0
10.780000 1.320000 9.130000 153 59 54 0
11.000000 1.320000 9.130000 152 61 55 0
11.220000 1.320000 9.130000 151 60 54 0
11.440000 1.320000 9.130000 151 60 54 0
11.660000 1.320000 8.470000 153 62 56 0
11.880000 1.320000 7.040000 152 61 55 0
12.100000 1.320000 5.720000 153 62 56 0
12.320000 1.320000 4.950000 153 62 56 0
12.540000 1.320000 4.950000 154 63 57 0
12.760000 1.320000 11.220000 154 63 57 0
12.980000 1.320000 16.720000 155 64 58 0
13.200000 1.320000 18.040000 154 62 58 0
13.420000 1.320000 16.720000 154 62 58 0
13.640000 1.320000 16.060000 155 64 58 0
13.860000 1.320000 14.630000 153 62 56 0
14.080000 1.320000 12.540000 154 63 57 0
14.300000 1.320000 9.130000 155 64 58 0
14.520000 1.320000 5.610000 156 64 60 0
14.740000 1.320000 7.700000 156 64 60 0
14.960000 1.320000 13.310000 156 66 61 0
15.180000 1.320000 16.720000 156 66 61 0
15.400000 1.320000 13.970000 157 67 61 0
15.620000 1.320000 10.560000 158 68 62 0
15.840000 1.320000 11.880000 158 70 63 0
16.060000 1.320000 12.540000 159 71 64 0
16.280000 1.320000 15.400000 157 76 67 0
16.500000 1.320000 14.630000 161 80 71 0
16.720000 1.320000 11.220000 162 83 74 0
16.940000 1.320000 13.970000 163 84 75 0
17.160000 1.320000 18.810000 162 87 77 0
17.380000 1.320000 15.400000 166 91 81 0
17.600000 1.320000 4.950000 166 93 82 0
17.820000 1.320000 1.540000 166 93 82 0
18.040000 1.320000 2.970000 165 92 81 0
18.260000 1.320000 2.200000 165 92 81 0
18.480000 1.320000 0.880000 165 90 80 0
18.700000 1.320000 0.110000 165 90 80 0
18.920000 1.320000 0.110000 166 91 81 0
19.140000 1.320000 0.110000 165 90 80 0
19.360000 1.320000 0.110000 166 91 81 0
19.580000 1.320000 0.110000 168 93 83 0
19.800000 1.320000 0.110000 166 93 82 0
20.020000 1.320000 0.110000 167 94 83 0
20.240000 1.320000 0.110000 167 94 83 0
20.460000 1.320000 0.110000 169 96 85 0
20.680000 1.320000 2.970000 164 111 92 0
20.900000 1.320000 5.720000 173 120 101 0
21.120000 1.320000 2.970000 164 134 121 0
21.340000 1.320000 0.110000 171 141 128 0
21.560000 1.320000 0.110000 176 152 137 0
21.780000 1.320000 3.630000 183 159 144 0
22.000000 1.320000 12.540000 183 164 145 0
22.220000 1.320000 17.380000 179 160 141 0
22.440000 1.320000 16.720000 181 155 137 0
22.660000 1.320000 16.060000 180 154 136 0
22.880000 1.320000 15.510000 187 156 131 0
23.100000 1.320000 14.300000 191 160 135 0
23.320000 1.320000 14.410000 191 160 137 0
23.540000 1.320000 14.300000 194 163 140 0
23.760000 1.320000 14.190000 197 169 140 0
23.980000 1.320000 14.190000 200 172 143 0
24.200000 1.320000 14.740000 202 175 143 0
24.420000 1.320000 15.290000 205 178 146 0
24.640000 1.320000 15.180000 206 176 145 0
24.860000 1.320000 15.180000 203 173 142 0
25.080000 1.320000 15.180000 200 172 143 0
25.300000 1.320000 15.180000 209 181 152 0
25.520000 1.320000 15.290000 212 184 155 0
25.740000 1.320000 15.290000 211 183 154 0
25.960000 1.320000 15.290000 209 178 152 0
26.180000 1.320000 15.290000 199 168 142 0
26.400000 1.320000 15.290000 189 156 136 0
26.620000 1.320000 15.290000 185 152 132 0
26.840000 1.320000 15.290000 184 152 136 0
27.060000 1.320000 15.290000 184 152 136 0
27.280000 1.320000 15.290000 184 154 139 0
27.500000 1.320000 15.290000 185 155 140 0
27.720000 1.320000 15.290000 186 156 140 0
27.940000 1.320000 15.290000 187 157 141 0
28.160000 1.320000 15.290000 190 158 142 0
28.380000 1.320000 15.290000 192 160 144 0
28.600000 1.320000 15.290000 193 161 145 0
28.820000 1.320000 15.290000 195 163 147 0
29.040000 1.320000 15.400000 195 165 149 0
29.260000 1.320000 15.400000 197 167 151 0
29.480000 1.320000 15.400000 197 168 149 0
29.700000 1.320000 15.400000 200 171 152 0
29.920000 1.320000 15.400000 202 173 154 0
30.140000 1.320000 15.400000 204 175 156 0
30.360000 1.320000 15.400000 203 179 162 0
30.580000 1.320000 15.400000 208 184 167 0
30.800000 1.320000 15.510000 208 188 176 0
31.020000 1.320000 15.510000 211 191 179 0
31.240000 1.320000 15.510000 214 194 188 0
31.460000 1.320000 16.170000 217 197 191 0
31.680000 1.320000 16.280000 221 201 195 0
31.900000 1.320000 16.280000 224 204 198 0
32.120000 1.320000 16.280000 226 206 200 0
32.340000 1.320000 16.280000 227 207 201 0
32.560000 1.320000 16.280000 229 209 203 0
32.780000 1.320000 16.390000 228 208 202 0
33.000000 1.320000 16.390000 224 204 200 0
33.220000 1.320000 17.050000 223 203 199 0
33.440000 1.320000 17.600000 220 200 194 0
33.660000 1.320000 18.150000 220 200 194 0
33.880000 1.320000 18.150000 220 200 196 0
34.100000 1.320000 18.150000 220 200 196 0
34.320000 1.320000 18.260000 220 200 194 0
34.540000 1.320000 19.030000 221 201 195 0
34.760000 1.320000 19.030000 222 202 196 0
34.980000 1.320000 19.800000 220 200 194 0
35.200000 1.320000 19.800000 223 195 189 0
35.420000 1.320000 14.850000 215 187 181 0
35.640000 1.320000 5.170000 212 180 176 0
35.860000 1.320000 0.220000 211 179 175 0
36.080000 1.320000 0.990000 209 183 181 0
36.300000 1.320000 0.990000 211 185 183 0
36.520000 1.320000 0.990000 212 186 182 0
36.740000 1.320000 1.100000 211 185 181 0
36.960000 1.320000 1.100000 217 177 173 0
37.180000 1.320000 1.100000 208 168 164 0
0.000000 1.540000 7.810000 183 95 86 0
0.220000 1.540000 7.810000 182 94 85 0
0.440000 1.540000 7.810000 181 93 84 0
0.660000 1.540000 7.810000 179 91 82 0
0.880000 1.540000 8.580000 180 92 83 0
1.100000 1.540000 8.470000 178 90 81 0
1.320000 1.540000 8.470000 178 89 78 0
1.540000 1.540000 8.580000 178 89 78 0
1.760000 1.540000 9.130000 177 88 79 0
1.980000 1.540000 9.790000 176 87 78 0
2.200000 1.540000 9.790000 176 87 78 0
2.420000 1.540000 9.790000 175 86 77 0
2.640000 1.540000 9.790000 174 87 75 0
2.860000 1.540000 9.790000 175 88 76 0
3.080000 1.540000 9.790000 178 91 79 0
3.300000 1.540000 9.790000 179 92 80 0
3.520000 1.540000 9.900000 181 94 82 0
3.740000 1.540000 9.900000 184 97 85 0
3.960000 1.540000 9.900000 185 100 77 0
4.180000 1.540000 10.560000 185 100 77 0
4.400000 1.540000 10.560000 185 97 80 0
4.620000 1.540000 10.670000 184 96 79 0
4.840000 1.540000 10.670000 182 93 80 0
5.060000 1.540000 10.670000 179 90 77 0
5.280000 1.540000 10.670000 175 86 77 0
5.500000 1.540000 10.670000 173 84 75 0
5.720000 1.540000 10.670000 173 84 75 0
5.940000 1.540000 10.670000 171 82 73 0
6.160000 1.540000 10.670000 170 81 70 0
6.380000 1.540000 10.560000 169 80 69 0
6.600000 1.540000 10.560000 169 78 70 0
6.820000 1.540000 10.560000 167 76 68 0
7.040000 1.540000 10.560000 165 74 66 0
7.260000 1.540000 10.560000 162 71 63 0
7.480000 1.540000 10.560000 163 72 64 0
7.700000 1.540000 10.560000 162 71 63 0
7.920000 1.540000 10.560000 160 69 63 0
8.140000 1.540000 10.560000 158 67 61 0
8.360000 1.540000 10.560000 157 66 60 0
8.580000 1.540000 10.560000 156 65 59 0
8.800000 1.540000 10.560000 156 65 57 0
9.020000 1.540000 9.790000 156 65 57 0
9.240000 1.540000 9.790000 157 66 58 0
9.460000 1.540000 9.900000 156 65 57 0
9.680000 1.540000 10.560000 157 63 58 0
9.900000 1.540000 10.560000 155 61 56 0
10.120000 1.540000 9.900000 153 62 56 0
10.340000 1.540000 9.130000 152 61 55 0
10.560000 1.540000 9.130000 151 60 54 0
10.780000 1.540000 8.470000 151 60 54 0
11.000000 1.540000 8.470000 151 60 54 0
11.220000 1.540000 8.470000 152 61 55 0
11.440000 1.540000 8.470000 152 61 55 0
11.660000 1.540000 7.810000 153 62 56 0
11.880000 1.540000 7.810000 152 60 56 0
12.100000 1.540000 7.040000 154 62 58 0
12.320000 1.540000 6.380000 154 63 57 0
12.540000 1.540000 7.040000 154 63 57 0
12.760000 1.540000 11.880000 154 63 57 0
12.980000 1.540000 15.290000 155 64 58 0
13.200000 1.540000 15.950000 154 63 57 0
13.420000 1.540000 16.060000 154 63 57 0
13.640000 1.540000 17.380000 155 63 59 0
13.860000 1.540000 16.720000 154 62 58 0
14.080000 1.540000 12.540000 156 65 59 0
14.300000 1.540000 9.130000 156 65 59 0
14.520000 1.540000 11.880000 155 65 59 0
14.740000 1.540000 11.880000 157 67 61 0
14.960000 1.540000 9.790000 157 67 62 0
15.180000 1.540000 9.790000 156 66 61 0
15.400000 1.540000 6.380000 156 66 61 0
15.620000 1.540000 2.860000 158 68 63 0
15.840000 1.540000 6.380000 156 73 62 0
16.060000 1.540000 12.650000 159 76 65 0
16.280000 1.540000 16.060000 155 80 70 0
16.500000 1.540000 17.490000 159 84 74 0
16.720000 1.540000 17.490000 160 87 76 0
16.940000 1.540000 18.810000 163 90 79 0
17.160000 1.540000 18.810000 166 93 82 0
17.380000 1.540000 12.540000 166 93 82 0
17.600000 1.540000 4.290000 166 93 82 0
17.820000 1.540000 1.540000 168 95 84 0
18.040000 1.540000 2.970000 165 92 81 0
18.260000 1.540000 2.200000 165 92 81 0
18.480000 1.540000 0.880000 164 91 80 0
18.700000 1.540000 0.880000 164 91 80 0
18.920000 1.540000 0.110000 166 91 80 0
19.140000 1.540000 1.540000 166 91 80 0
19.360000 1.540000 2.970000 166 91 81 0
19.580000 1.540000 1.540000 167 92 82 0
19.800000 1.540000 0.110000 166 93 82 0
20.020000 1.540000 0.110000 166 93 82 0
20.240000 1.540000 0.110000 155 101 86 0
20.460000 1.540000 1.540000 162 108 93 0
20.680000 1.540000 4.290000 157 127 111 0
20.900000 1.540000 4.290000 165 135 119 0
21.120000 1.540000 1.540000 166 146 130 0
21.340000 1.540000 0.110000 174 154 138 0
21.560000 1.540000 1.540000 181 164 151 0
21.780000 1.540000 7.040000 183 166 153 0
22.000000 1.540000 14.630000 183 161 145 0
22.220000 1.540000 16.720000 181 159 143 0
22.440000 1.540000 15.400000 180 154 137 0
22.660000 1.540000 14.960000 179 153 136 0
22.880000 1.540000 14.410000 183 154 135 0
23.100000 1.540000 13.750000 187 158 139 0
23.320000 1.540000 13.860000 191 159 139 0
23.540000 1.540000 13.750000 195 163 143 0
23.760000 1.540000 13.750000 196 167 144 0
23.980000 1.540000 13.750000 198 169 146 0
24.200000 1.540000 14.300000 206 173 153 0
24.420000 1.540000 14.740000 207 174 154 0
24.640000 1.540000 15.290000 203 174 155 0
24.860000 1.540000 15.180000 199 170 151 0
25.080000 1.540000 15.180000 200 171 150 0
25.300000 1.540000 15.180000 208 179 158 0
25.520000 1.540000 15.180000 211 182 159 0
25.740000 1.540000 15.180000 208 179 156 0
25.960000 1.540000 15.180000 208 175 155 0
26.180000 1.540000 15.180000 197 164 144 0
26.400000 1.540000 15.290000 186 157 138 0
26.620000 1.540000 15.290000 182 153 134 0
26.840000 1.540000 15.290000 182 153 132 0
27.060000 1.540000 15.290000 183 154 133 0
27.280000 1.540000 15.290000 184 154 138 0
27.500000 1.540000 15.290000 185 155 139 0
27.720000 1.540000 15.290000 189 157 139 0
27.940000 1.540000 15.290000 189 157 139 0
28.160000 1.540000 15.290000 190 161 142 0
28.380000 1.540000 15.290000 192 163 144 0
28.600000 1.540000 15.290000 195 166 147 0
28.820000 1.540000 15.290000 195 166 147 0
29.040000 1.540000 15.290000 196 166 150 0
29.260000 1.540000 15.400000 196 166 150 0
29.480000 1.540000 15.400000 197 171 154 0
29.700000 1.540000 15.400000 198 172 155 0
29.920000 1.540000 15.400000 199 175 160 0
30.140000 1.540000 15.400000 201 177 162 0
30.360000 1.540000 15.400000 201 181 167 0
30.580000 1.540000 15.400000 205 185 171 0
30.800000 1.540000 15.510000 207 189 180 0
31.020000 1.540000 15.510000 212 194 185 0
31.240000 1.540000 15.510000 217 197 191 0
31.460000 1.540000 16.170000 220 200 194 0
31.680000 1.540000 16.170000 224 204 198 0
31.900000 1.540000 16.280000 225 205 199 0
32.120000 1.540000 16.280000 226 206 200 0
32.340000 1.540000 16.280000 227 207 201 0
32.560000 1.540000 16.280000 229 209 203 0
32.780000 1.540000 16.390000 227 207 201 0
33.000000 1.540000 16.390000 223 203 197 0
33.220000 1.540000 17.050000 222 202 196 0
33.440000 1.540000 18.150000 219 199 193 0
33.660000 1.540000 18.150000 220 200 194 0
33.880000 1.540000 18.150000 220 200 194 0
34.100000 1.540000 18.260000 220 200 194 0
34.320000 1.540000 18.260000 220 200 194 0
34.540000 1.540000 19.030000 221 201 195 0
34.760000 1.540000 19.030000 222 202 198 0
34.980000 1.540000 19.030000 222 202 198 0
35.200000 1.540000 19.800000 222 201 195 0
35.420000 1.540000 14.960000 213 192 186 0
35.640000 1.540000 5.170000 212 186 180 0
35.860000 1.540000 0.330000 209 183 177 0
36.080000 1.540000 0.990000 211 182 179 0
36.300000 1.540000 0.990000 213 184 181 0
36.520000 1.540000 1.100000 219 180 172 0
36.740000 1.540000 1.100000 217 178 170 0
36.960000 1.540000 1.100000 232 163 161 0
37.180000 1.540000 1.210000 216 147 145 0
0.000000 1.760000 7.810000 184 96 87 0
0.220000 1.760000 7.810000 183 95 86 0
0.440000 1.760000 7.810000 181 93 84 0
0.660000 1.760000 7.810000 180 92 83 0
0.880000 1.760000 7.920000 180 92 83 0
1.100000 1.760000 8.580000 179 91 82 0
1.320000 1.760000 7.920000 178 89 78 0
1.540000 1.760000 8.030000 177 88 77 0
1.760000 1.760000 9.130000 176 87 78 0
1.980000 1.760000 9.020000 176 87 78 0
2.200000 1.760000 9.680000 176 87 78 0
2.420000 1.760000 9.790000 176 87 78 0
2.640000 1.760000 9.790000 175 88 76 0
2.860000 1.760000 9.790000 176 89 77 0
3.080000 1.760000 9.790000 178 91 79 0
3.300000 1.760000 9.790000 179 92 80 0
3.520000 1.760000 9.790000 183 96 84 0
3.740000 1.760000 9.900000 189 102 90 0
3.960000 1.760000 9.900000 192 107 84 0
4.180000 1.760000 9.900000 194 109 86 0
4.400000 1.760000 9.900000 198 110 93 0
4.620000 1.760000 9.900000 199 111 94 0
4.840000 1.760000 10.670000 194 105 92 0
5.060000 1.760000 10.670000 188 99 86 0
5.280000 1.760000 10.670000 183 94 85 0
5.500000 1.760000 10.670000 176 87 78 0
5.720000 1.760000 10.670000 173 84 75 0
5.940000 1.760000 10.670000 171 82 73 0
6.160000 1.760000 10.670000 169 80 69 0
6.380000 1.760000 10.670000 168 79 68 0
6.600000 1.760000 10.560000 168 77 69 0
6.820000 1.760000 10.560000 165 74 66 0
7.040000 1.760000 9.900000 164 73 65 0
7.260000 1.760000 10.560000 163 72 64 0
7.480000 1.760000 10.560000 164 73 65 0
7.700000 1.760000 10.560000 161 70 62 0
7.920000 1.760000 10.560000 160 69 63 0
8.140000 1.760000 10.560000 159 68 62 0
8.360000 1.760000 10.560000 156 65 59 0
8.580000 1.760000 9.900000 157 66 60 0
8.800000 1.760000 9.900000 156 65 57 0
9.020000 1.760000 9.790000 156 65 57 0
9.240000 1.760000 9.790000 156 65 57 0
9.460000 1.760000 9.900000 156 65 57 0
9.680000 1.760000 9.900000 156 62 57 0
9.900000 1.760000 9.900000 156 62 57 0
10.120000 1.760000 9.790000 153 62 56 0
10.340000 1.760000 9.130000 152 61 55 0
10.560000 1.760000 9.130000 152 61 55 0
10.780000 1.760000 8.470000 151 60 54 0
11.000000 1.760000 8.470000 152 61 55 0
11.220000 1.760000 7.810000 152 61 55 0
11.440000 1.760000 6.380000 152 61 55 0
11.660000 1.760000 5.720000 153 62 56 0
11.880000 1.760000 7.700000 154 62 58 0
12.100000 1.760000 8.470000 154 62 58 0
12.320000 1.760000 7.700000 155 64 58 0
12.540000 1.760000 9.130000 154 63 57 0
12.760000 1.760000 11.220000 154 63 57 0
12.980000 1.760000 13.970000 154 63 57 0
13.200000 1.760000 15.290000 154 63 57 0
13.420000 1.760000 15.290000 154 63 57 0
13.640000 1.760000 13.970000 155 63 59 0
13.860000 1.760000 11.880000 155 63 59 0
14.080000 1.760000 7.700000 155 64 58 0
14.300000 1.760000 7.040000 157 66 60 0
14.520000 1.760000 14.630000 156 66 60 0
14.740000 1.760000 14.630000 156 66 60 0
14.960000 1.760000 6.380000 157 67 62 0
15.180000 1.760000 2.860000 157 67 62 0
15.400000 1.760000 2.200000 157 67 62 0
15.620000 1.760000 0.880000 158 68 63 0
15.840000 1.760000 4.950000 158 75 64 0
16.060000 1.760000 12.540000 161 78 67 0
16.280000 1.760000 13.310000 158 83 73 0
16.500000 1.760000 13.310000 162 87 77 0
16.720000 1.760000 15.400000 163 90 79 0
16.940000 1.760000 16.720000 165 92 81 0
17.160000 1.760000 15.400000 166 93 82 0
17.380000 1.760000 7.810000 166 93 82 0
17.600000 1.760000 1.540000 167 94 83 0
17.820000 1.760000 2.970000 166 93 82 0
18.040000 1.760000 5.720000 166 93 82 0
18.260000 1.760000 3.630000 165 92 81 0
18.480000 1.760000 0.880000 166 93 82 0
18.700000 1.760000 0.880000 165 92 81 0
18.920000 1.760000 0.110000 166 91 80 0
19.140000 1.760000 2.970000 166 91 80 0
19.360000 1.760000 5.720000 167 92 82 0
19.580000 1.760000 2.970000 167 92 82 0
19.800000 1.760000 0.110000 166 93 82 0
20.020000 1.760000 0.110000 169 96 85 0
20.240000 1.760000 0.110000 161 107 92 0
20.460000 1.760000 2.860000 172 118 103 0
20.680000 1.760000 5.720000 166 136 120 0
20.900000 1.760000 2.970000 173 143 127 0
21.120000 1.760000 1.540000 174 154 138 0
21.340000 1.760000 3.630000 180 160 144 0
21.560000 1.760000 7.040000 181 164 151 0
21.780000 1.760000 11.880000 181 164 151 0
22.000000 1.760000 16.060000 183 161 145 0
22.220000 1.760000 15.510000 180 158 142 0
22.440000 1.760000 14.300000 178 152 135 0
22.660000 1.760000 13.750000 175 149 132 0
22.880000 1.760000 13.750000 176 147 128 0
23.100000 1.760000 13.750000 181 152 133 0
23.320000 1.760000 13.750000 185 153 133 0
23.540000 1.760000 13.750000 190 158 138 0
23.760000 1.760000 13.750000 189 160 137 0
23.980000 1.760000 13.750000 193 164 141 0
24.200000 1.760000 13.750000 199 166 146 0
24.420000 1.760000 14.300000 198 165 145 0
24.640000 1.760000 14.740000 193 164 145 0
24.860000 1.760000 14.740000 193 164 145 0
25.080000 1.760000 14.630000 196 167 146 0
25.300000 1.760000 15.290000 201 172 151 0
25.520000 1.760000 15.180000 202 173 150 0
25.740000 1.760000 15.180000 203 174 151 0
25.960000 1.760000 15.180000 201 168 148 0
26.180000 1.760000 15.180000 192 159 139 0
26.400000 1.760000 15.180000 184 155 136 0
26.620000 1.760000 15.180000 182 153 134 0
26.840000 1.760000 15.290000 182 153 132 0
27.060000 1.760000 15.290000 184 155 134 0
27.280000 1.760000 15.290000 185 155 139 0
27.500000 1.760000 15.290000 186 156 140 0
27.720000 1.760000 15.290000 189 157 139 0
27.940000 1.760000 15.290000 191 159 141 0
28.160000 1.760000 15.290000 190 161 142 0
28.380000 1.760000 15.290000 192 163 144 0
28.600000 1.760000 15.290000 193 164 145 0
28.820000 1.760000 15.290000 196 167 148 0
29.040000 1.760000 15.290000 197 167 151 0
29.260000 1.760000 15.400000 198 168 152 0
29.480000 1.760000 15.400000 198 172 155 0
29.700000 1.760000 15.400000 199 173 156 0
29.920000 1.760000 15.400000 200 176 161 0
30.140000 1.760000 15.400000 204 180 165 0
30.360000 1.760000 15.400000 204 184 170 0
30.580000 1.760000 15.400000 207 187 173 0
30.800000 1.760000 15.400000 210 192 183 0
31.020000 1.760000 15.510000 215 197 188 0
31.240000 1.760000 15.510000 219 199 193 0
31.460000 1.760000 16.170000 223 203 197 0
31.680000 1.760000 16.170000 224 204 198 0
31.900000 1.760000 16.280000 227 207 201 0
32.120000 1.760000 16.280000 228 208 202 0
32.340000 1.760000 16.280000 229 209 203 0
32.560000 1.760000 16.280000 229 209 203 0
32.780000 1.760000 16.390000 228 208 202 0
33.000000 1.760000 17.050000 224 204 198 0
33.220000 1.760000 17.050000 222 202 196 0
33.440000 1.760000 18.260000 220 200 194 0
33.660000 1.760000 18.150000 219 199 193 0
33.880000 1.760000 18.150000 219 199 193 0
34.100000 1.760000 18.260000 221 201 195 0
34.320000 1.760000 18.920000 221 201 195 0
34.540000 1.760000 19.030000 223 203 197 0
34.760000 1.760000 19.030000 224 204 200 0
34.980000 1.760000 19.140000 224 204 200 0
35.200000 1.760000 19.800000 224 203 197 0
35.420000 1.760000 14.960000 218 197 191 0
35.640000 1.760000 5.170000 216 190 184 0
35.860000 1.760000 0.330000 211 185 179 0
36.080000 1.760000 0.990000 211 182 179 0
36.300000 1.760000 1.100000 210 181 178 0
36.520000 1.760000 1.100000 216 177 169 0
36.740000 1.760000 1.100000 212 173 165 0
36.960000 1.760000 1.870000 218 149 147 0
37.180000 1.760000 1.870000 204 135 133 0
0.000000 1.980000 7.810000 186 101 91 0
0.220000 1.980000 7.810000 181 96 86 0
0.440000 1.980000 7.810000 182 94 85 0
0.660000 1.980000 7.810000 181 93 84 0
0.880000 1.980000 7.920000 181 93 84 0
1.100000 1.980000 7.920000 180 92 83 0
1.320000 1.980000 8.030000 179 90 79 0
1.540000 1.980000 8.030000 178 89 78 0
1.760000 1.980000 8.580000 177 88 79 0
1.980000 1.980000 9.020000 177 88 79 0
2.200000 1.980000 9.020000 177 88 79 0
2.420000 1.980000 9.680000 177 88 79 0
2.640000 1.980000 9.790000 175 87 78 0
2.860000 1.980000 9.790000 176 88 79 0
3.080000 1.980000 9.790000 178 89 78 0
3.300000 1.980000 9.790000 181 92 81 0
3.520000 1.980000 9.790000 183 101 84 0
3.740000 1.980000 9.790000 190 108 91 0
3.960000 1.980000 9.900000 192 109 86 0
4.180000 1.980000 9.900000 197 114 91 0
4.400000 1.980000 9.900000 197 123 93 0
4.620000 1.980000 9.900000 196 122 92 0
4.840000 1.980000 9.900000 199 121 93 0
5.060000 1.980000 9.900000 196 118 90 0
5.280000 1.980000 9.900000 192 111 87 0
5.500000 1.980000 10.670000 182 101 77 0
5.720000 1.980000 10.670000 176 87 78 0
5.940000 1.980000 10.670000 171 82 73 0
6.160000 1.980000 10.670000 169 78 70 0
6.380000 1.980000 10.670000 169 78 70 0
6.600000 1.980000 9.900000 167 76 66 0
6.820000 1.980000 9.900000 164 73 63 0
7.040000 1.980000 9.900000 164 73 65 0
7.260000 1.980000 9.900000 164 73 65 0
7.480000 1.980000 9.900000 163 72 64 0
7.700000 1.980000 9.900000 160 69 61 0
7.920000 1.980000 9.900000 160 69 61 0
8.140000 1.980000 9.900000 158 67 59 0
8.360000 1.980000 9.900000 156 65 57 0
8.580000 1.980000 9.900000 156 65 57 0
8.800000 1.980000 9.900000 156 65 57 0
9.020000 1.980000 9.130000 156 65 57 0
9.240000 1.980000 9.130000 155 64 58 0
9.460000 1.980000 9.130000 154 63 57 0
9.680000 1.980000 9.130000 154 63 55 0
9.900000 1.980000 9.130000 154 63 55 0
10.120000 1.980000 9.130000 154 63 55 0
10.340000 1.980000 9.130000 153 62 54 0
10.560000 1.980000 8.470000 153 62 56 0
10.780000 1.980000 7.810000 152 61 55 0
11.000000 1.980000 7.700000 153 62 56 0
11.220000 1.980000 7.700000 153 62 56 0
11.440000 1.980000 6.380000 153 62 54 0
11.660000 1.980000 6.380000 153 62 54 0
11.880000 1.980000 7.700000 154 63 57 0
12.100000 1.980000 9.130000 154 63 57 0
12.320000 1.980000 9.130000 154 64 58 0
12.540000 1.980000 10.560000 153 63 57 0
12.760000 1.980000 12.540000 155 64 58 0
12.980000 1.980000 13.970000 155 64 58 0
13.200000 1.980000 13.970000 153 63 57 0
13.420000 1.980000 11.880000 154 64 58 0
13.640000 1.980000 7.700000 155 64 58 0
13.860000 1.980000 6.380000 155 64 58 0
14.080000 1.980000 6.380000 156 66 60 0
14.300000 1.980000 6.380000 155 65 59 0
14.520000 1.980000 11.220000 156 66 60 0
14.740000 1.980000 11.220000 157 67 61 0
14.960000 1.980000 3.630000 156 66 60 0
15.180000 1.980000 0.880000 157 67 61 0
15.400000 1.980000 1.540000 157 69 62 0
15.620000 1.980000 2.200000 160 72 65 0
15.840000 1.980000 7.700000 156 79 68 0
16.060000 1.980000 14.630000 161 84 73 0
16.280000 1.980000 13.310000 158 88 76 0
16.500000 1.980000 7.040000 162 92 80 0
16.720000 1.980000 4.950000 164 93 84 0
16.940000 1.980000 7.810000 165 94 85 0
17.160000 1.980000 9.130000 167 94 83 0
17.380000 1.980000 4.290000 166 93 82 0
17.600000 1.980000 0.880000 166 93 82 0
17.820000 1.980000 2.200000 165 92 81 0
18.040000 1.980000 3.630000 164 94 82 0
18.260000 1.980000 2.200000 164 94 82 0
18.480000 1.980000 0.880000 166 92 84 0
18.700000 1.980000 0.880000 165 91 83 0
18.920000 1.980000 0.110000 165 92 81 0
19.140000 1.980000 1.540000 165 92 81 0
19.360000 1.980000 2.970000 166 93 82 0
19.580000 1.980000 2.200000 166 93 82 0
19.800000 1.980000 0.110000 162 97 86 0
20.020000 1.980000 0.110000 165 100 89 0
20.240000 1.980000 0.880000 152 122 106 0
20.460000 1.980000 2.200000 165 135 119 0
20.680000 1.980000 3.630000 168 142 125 0
20.900000 1.980000 2.200000 176 150 133 0
21.120000 1.980000 4.290000 175 157 142 0
21.340000 1.980000 11.110000 176 158 143 0
21.560000 1.980000 15.290000 184 160 147 0
21.780000 1.980000 16.060000 181 157 144 0
22.000000 1.980000 15.620000 183 155 139 0
22.220000 1.980000 14.300000 180 152 136 0
22.440000 1.980000 13.750000 175 147 131 0
22.660000 1.980000 13.750000 173 145 129 0
22.880000 1.980000 13.090000 173 145 128 0
23.100000 1.980000 13.090000 173 145 128 0
23.320000 1.980000 13.750000 174 146 129 0
23.540000 1.980000 13.750000 176 148 131 0
23.760000 1.980000 13.750000 179 149 133 0
23.980000 1.980000 13.750000 178 148 132 0
24.200000 1.980000 13.750000 181 153 137 0
24.420000 1.980000 13.750000 178 150 134 0
24.640000 1.980000 13.640000 179 149 133 0
24.860000 1.980000 14.300000 179 149 133 0
25.080000 1.980000 14.300000 181 152 133 0
25.300000 1.980000 14.740000 189 160 141 0
25.520000 1.980000 14.740000 197 168 149 0
25.740000 1.980000 14.630000 196 167 148 0
25.960000 1.980000 14.520000 190 160 144 0
26.180000 1.980000 15.180000 186 156 140 0
26.400000 1.980000 15.180000 183 155 138 0
26.620000 1.980000 15.180000 182 154 137 0
26.840000 1.980000 15.180000 181 153 134 0
27.060000 1.980000 15.290000 182 154 135 0
27.280000 1.980000 15.290000 184 155 136 0
27.500000 1.980000 15.290000 185 156 137 0
27.720000 1.980000 15.290000 186 158 141 0
27.940000 1.980000 15.290000 187 159 142 0
28.160000 1.980000 15.290000 190 160 144 0
28.380000 1.980000 15.290000 193 163 147 0
28.600000 1.980000 15.290000 196 166 150 0
28.820000 1.980000 15.290000 196 166 150 0
29.040000 1.980000 15.290000 196 168 151 0
29.260000 1.980000 15.290000 198 170 153 0
29.480000 1.980000 15.400000 198 172 154 0
29.700000 1.980000 15.400000 201 175 157 0
29.920000 1.980000 15.400000 200 178 162 0
30.140000 1.980000 15.400000 202 180 164 0
30.360000 1.980000 15.400000 205 184 176 0
30.580000 1.980000 15.400000 209 188 180 0
30.800000 1.980000 15.400000 213 195 188 0
31.020000 1.980000 15.510000 217 199 192 0
31.240000 1.980000 15.510000 221 201 195 0
31.460000 1.980000 16.170000 223 203 197 0
31.680000 1.980000 16.170000 226 206 200 0
31.900000 1.980000 16.280000 227 207 201 0
32.120000 1.980000 16.280000 229 209 203 0
32.340000 1.980000 16.280000 229 209 203 0
32.560000 1.980000 16.280000 228 208 202 0
32.780000 1.980000 16.280000 228 208 202 0
33.000000 1.980000 17.050000 224 204 198 0
33.220000 1.980000 17.050000 220 200 194 0
33.440000 1.980000 18.260000 219 199 193 0
33.660000 1.980000 18.150000 219 199 193 0
33.880000 1.980000 18.260000 220 200 196 0
34.100000 1.980000 18.260000 220 200 196 0
34.320000 1.980000 19.030000 222 202 196 0
34.540000 1.980000 19.030000 223 203 197 0
34.760000 1.980000 19.030000 224 204 198 0
34.980000 1.980000 19.140000 225 205 199 0
35.200000 1.980000 19.800000 224 204 198 0
35.420000 1.980000 14.960000 220 200 194 0
35.640000 1.980000 5.280000 217 188 185 0
35.860000 1.980000 0.330000 213 184 181 0
36.080000 1.980000 1.100000 216 178 172 0
36.300000 1.980000 1.100000 214 176 170 0
36.520000 1.980000 1.100000 222 168 165 0
36.740000 1.980000 1.210000 215 161 158 0
36.960000 1.980000 1.870000 224 135 132 0
37.180000 1.980000 1.870000 209 120 117 0
0.000000 2.200000 7.810000 188 103 93 0
0.220000 2.200000 7.810000 183 98 88 0
0.440000 2.200000 7.810000 183 95 86 0
0.660000 2.200000 7.810000 182 94 85 0
0.880000 2.200000 7.920000 182 94 85 0
1.100000 2.200000 7.920000 181 93 84 0
1.320000 2.200000 8.030000 181 92 81 0
1.540000 2.200000 8.140000 180 91 80 0
1.760000 2.200000 8.030000 178 89 80 0
1.980000 2.200000 8.470000 177 88 79 0
2.200000 2.200000 9.020000 177 88 79 0
2.420000 2.200000 9.020000 176 87 78 0
2.640000 2.200000 9.790000 175 87 78 0
2.860000 2.200000 9.790000 175 87 78 0
3.080000 2.200000 9.790000 177 88 77 0
3.300000 2.200000 9.790000 180 91 80 0
3.520000 2.200000 9.790000 182 100 83 0
3.740000 2.200000 9.790000 188 106 89 0
3.960000 2.200000 9.790000 193 110 87 0
4.180000 2.200000 9.900000 197 114 91 0
4.400000 2.200000 9.900000 196 122 92 0
4.620000 2.200000 9.900000 203 129 99 0
4.840000 2.200000 9.900000 205 127 99 0
5.060000 2.200000 9.900000 201 123 95 0
5.280000 2.200000 9.900000 197 116 92 0
5.500000 2.200000 9.900000 192 111 87 0
5.720000 2.200000 10.010000 188 99 90 0
5.940000 2.200000 10.670000 173 84 75 0
6.160000 2.200000 10.010000 169 78 70 0
6.380000 2.200000 10.010000 167 76 68 0
6.600000 2.200000 9.900000 166 75 65 0
6.820000 2.200000 9.900000 164 73 63 0
7.040000 2.200000 9.900000 163 72 64 0
7.260000 2.200000 9.900000 161 70 62 0
7.480000 2.200000 9.900000 161 70 62 0
7.700000 2.200000 9.900000 160 69 61 0
7.920000 2.200000 9.900000 160 69 61 0
8.140000 2.200000 9.900000 158 67 59 0
8.360000 2.200000 9.900000 156 65 57 0
8.580000 2.200000 9.130000 156 65 57 0
8.800000 2.200000 9.130000 155 64 56 0
9.020000 2.200000 9.130000 155 64 56 0
9.240000 2.200000 9.130000 155 64 58 0
9.460000 2.200000 9.130000 154 63 57 0
9.680000 2.200000 9.130000 154 63 55 0
9.900000 2.200000 9.130000 153 62 54 0
10.120000 2.200000 9.130000 154 63 55 0
10.340000 2.200000 9.130000 154 63 55 0
10.560000 2.200000 8.470000 154 63 57 0
10.780000 2.200000 7.810000 154 63 57 0
11.000000 2.200000 7.810000 154 63 57 0
11.220000 2.200000 7.810000 154 63 57 0
11.440000 2.200000 7.040000 154 63 55 0
11.660000 2.200000 7.040000 154 63 55 0
11.880000 2.200000 8.470000 153 62 56 0
12.100000 2.200000 9.130000 154 63 57 0
12.320000 2.200000 9.130000 153 63 57 0
12.540000 2.200000 10.450000 152 62 56 0
12.760000 2.200000 12.540000 154 63 57 0
12.980000 2.200000 12.540000 155 64 58 0
13.200000 2.200000 11.880000 154 64 58 0
13.420000 2.200000 9.790000 156 66 60 0
13.640000 2.200000 6.380000 155 64 58 0
13.860000 2.200000 4.290000 155 64 58 0
14.080000 2.200000 4.290000 155 65 59 0
14.300000 2.200000 4.290000 155 65 59 0
14.520000 2.200000 4.290000 156 66 60 0
14.740000 2.200000 4.290000 156 66 60 0
14.960000 2.200000 1.540000 157 67 61 0
15.180000 2.200000 1.540000 157 67 61 0
15.400000 2.200000 4.290000 159 71 64 0
15.620000 2.200000 7.700000 162 74 67 0
15.840000 2.200000 13.310000 158 81 70 0
16.060000 2.200000 17.380000 162 85 74 0
16.280000 2.200000 15.400000 162 92 80 0
16.500000 2.200000 7.040000 164 94 82 0
16.720000 2.200000 1.540000 166 95 86 0
16.940000 2.200000 2.200000 165 94 85 0
17.160000 2.200000 4.290000 168 95 84 0
17.380000 2.200000 2.970000 167 94 83 0
17.600000 2.200000 0.880000 167 94 83 0
17.820000 2.200000 1.540000 167 94 83 0
18.040000 2.200000 1.540000 165 95 83 0
18.260000 2.200000 0.880000 165 95 83 0
18.480000 2.200000 0.880000 167 93 85 0
18.700000 2.200000 0.110000 165 91 83 0
18.920000 2.200000 0.880000 166 93 82 0
19.140000 2.200000 0.880000 167 94 83 0
19.360000 2.200000 0.880000 166 93 82 0
19.580000 2.200000 0.110000 168 95 84 0
19.800000 2.200000 0.110000 164 99 88 0
20.020000 2.200000 0.880000 172 107 96 0
20.240000 2.200000 0.880000 160 130 114 0
20.460000 2.200000 0.880000 167 137 121 0
20.680000 2.200000 0.770000 170 144 127 0
20.900000 2.200000 0.770000 175 149 132 0
21.120000 2.200000 4.950000 171 153 138 0
21.340000 2.200000 13.970000 175 157 142 0
21.560000 2.200000 17.490000 181 157 144 0
21.780000 2.200000 15.510000 178 154 141 0
22.000000 2.200000 14.300000 177 149 133 0
22.220000 2.200000 13.750000 175 147 131 0
22.440000 2.200000 13.090000 172 144 128 0
22.660000 2.200000 13.090000 171 143 127 0
22.880000 2.200000 13.090000 171 143 126 0
23.100000 2.200000 13.090000 172 144 127 0
23.320000 2.200000 13.090000 171 143 126 0
23.540000 2.200000 13.090000 173 145 128 0
23.760000 2.200000 13.090000 173 143 127 0
23.980000 2.200000 13.090000 174 144 128 0
24.200000 2.200000 13.750000 173 145 129 0
24.420000 2.200000 13.750000 171 143 127 0
24.640000 2.200000 13.860000 174 144 128 0
24.860000 2.200000 13.860000 175 145 129 0
25.080000 2.200000 13.750000 177 148 129 0
25.300000 2.200000 13.640000 180 151 132 0
25.520000 2.200000 13.640000 183 154 135 0
25.740000 2.200000 14.300000 186 157 138 0
25.960000 2.200000 14.080000 185 155 139 0
26.180000 2.200000 14.630000 184 154 138 0
26.400000 2.200000 14.520000 183 155 138 0
26.620000 2.200000 15.180000 182 154 137 0
26.840000 2.200000 15.180000 181 153 134 0
27.060000 2.200000 15.180000 183 155 136 0
27.280000 2.200000 15.290000 185 156 137 0
27.500000 2.200000 15.290000 185 156 137 0
27.720000 2.200000 15.290000 184 156 139 0
27.940000 2.200000 15.290000 188 160 143 0
28.160000 2.200000 15.290000 190 160 144 0
28.380000 2.200000 15.290000 193 163 147 0
28.600000 2.200000 15.290000 195 165 149 0
28.820000 2.200000 15.290000 196 166 150 0
29.040000 2.200000 15.290000 197 169 152 0
29.260000 2.200000 15.290000 199 171 154 0
29.480000 2.200000 15.400000 198 172 154 0
29.700000 2.200000 15.400000 201 175 157 0
29.920000 2.200000 15.400000 202 180 164 0
30.140000 2.200000 15.400000 205 183 167 0
30.360000 2.200000 15.400000 206 185 177 0
30.580000 2.200000 15.400000 210 189 181 0
30.800000 2.200000 15.400000 214 196 189 0
31.020000 2.200000 15.510000 218 200 193 0
31.240000 2.200000 15.510000 223 203 197 0
31.460000 2.200000 16.170000 224 204 198 0
31.680000 2.200000 16.170000 227 207 201 0
31.900000 2.200000 16.170000 228 208 202 0
32.120000 2.200000 16.280000 230 210 204 0
32.340000 2.200000 16.280000 230 210 204 0
32.560000 2.200000 16.280000 230 210 204 0
32.780000 2.200000 16.280000 227 207 201 0
33.000000 2.200000 17.050000 225 205 199 0
33.220000 2.200000 16.940000 220 200 194 0
33.440000 2.200000 18.260000 218 198 192 0
33.660000 2.200000 18.150000 218 198 192 0
33.880000 2.200000 18.260000 220 200 196 0
34.100000 2.200000 18.260000 221 201 197 0
34.320000 2.200000 19.030000 222 202 196 0
34.540000 2.200000 19.030000 224 204 198 0
34.760000 2.200000 19.030000 224 204 198 0
34.980000 2.200000 19.140000 226 206 200 0
35.200000 2.200000 19.800000 225 205 199 0
35.420000 2.200000 14.960000 222 202 196 0
35.640000 2.200000 4.620000 219 190 187 0
35.860000 2.200000 0.440000 212 183 180 0
36.080000 2.200000 1.100000 214 176 170 0
36.300000 2.200000 1.100000 211 173 167 0
36.520000 2.200000 1.210000 217 163 160 0
36.740000 2.200000 1.870000 205 151 148 0
36.960000 2.200000 2.530000 214 125 122 0
37.180000 2.200000 2.530000 201 112 109 0
0.000000 2.420000 7.810000 189 101 92 0
0.220000 2.420000 7.810000 186 98 89 0
0.440000 2.420000 7.810000 185 96 87 0
0.660000 2.420000 7.920000 184 95 86 0
0.880000 2.420000 7.920000 184 95 86 0
1.100000 2.420000 7.920000 183 94 85 0
1.320000 2.420000 8.030000 182 94 85 0
1.540000 2.420000 7.480000 182 94 85 0
1.760000 2.420000 7.480000 181 92 83 0
1.980000 2.420000 8.030000 178 89 80 0
2.200000 2.420000 8.470000 177 88 79 0
2.420000 2.420000 9.020000 175 86 77 0
2.640000 2.420000 9.020000 175 86 77 0
2.860000 2.420000 9.790000 175 86 77 0
3.080000 2.420000 9.790000 176 86 80 0
3.300000 2.420000 9.790000 177 87 81 0
3.520000 2.420000 9.790000 180 91 82 0
3.740000 2.420000 9.790000 184 95 86 0
3.960000 2.420000 9.790000 187 100 86 0
4.180000 2.420000 9.900000 195 108 94 0
4.400000 2.420000 9.900000 198 113 90 0
4.620000 2.420000 9.900000 201 116 93 0
4.840000 2.420000 9.900000 205 119 99 0
5.060000 2.420000 9.900000 205 119 99 0
5.280000 2.420000 9.900000 201 118 95 0
5.500000 2.420000 9.900000 195 112 89 0
5.720000 2.420000 9.900000 193 107 91 0
5.940000 2.420000 10.010000 180 94 78 0
6.160000 2.420000 10.010000 171 81 68 0
6.380000 2.420000 10.010000 168 78 65 0
6.600000 2.420000 9.900000 167 73 66 0
6.820000 2.420000 9.900000 166 72 65 0
7.040000 2.420000 9.900000 165 70 63 0
7.260000 2.420000 9.900000 164 69 62 0
7.480000 2.420000 9.130000 162 68 61 0
7.700000 2.420000 9.130000 162 68 61 0
7.920000 2.420000 9.900000 161 67 60 0
8.140000 2.420000 9.900000 159 65 58 0
8.360000 2.420000 9.130000 159 65 60 0
8.580000 2.420000 9.130000 158 64 59 0
8.800000 2.420000 9.130000 158 64 57 0
9.020000 2.420000 9.130000 158 64 57 0
9.240000 2.420000 9.130000 157 63 56 0
9.460000 2.420000 9.130000 156 62 55 0
9.680000 2.420000 9.130000 155 61 54 0
9.900000 2.420000 9.130000 155 61 54 0
10.120000 2.420000 8.470000 156 62 57 0
10.340000 2.420000 8.470000 156 62 57 0
10.560000 2.420000 8.470000 156 62 55 0
10.780000 2.420000 8.470000 155 61 54 0
11.000000 2.420000 7.810000 155 61 54 0
11.220000 2.420000 7.810000 155 61 54 0
11.440000 2.420000 7.040000 153 62 54 0
11.660000 2.420000 7.810000 153 62 54 0
11.880000 2.420000 9.130000 156 62 57 0
12.100000 2.420000 8.470000 156 62 57 0
12.320000 2.420000 7.040000 154 63 55 0
12.540000 2.420000 10.450000 155 64 56 0
12.760000 2.420000 11.880000 155 64 56 0
12.980000 2.420000 11.880000 154 63 55 0
13.200000 2.420000 11.880000 155 65 59 0
13.420000 2.420000 9.900000 154 64 58 0
13.640000 2.420000 7.040000 157 66 60 0
13.860000 2.420000 5.720000 156 65 59 0
14.080000 2.420000 5.720000 154 64 58 0
14.300000 2.420000 4.290000 156 66 60 0
14.520000 2.420000 2.200000 157 66 58 0
14.740000 2.420000 1.540000 156 65 57 0
14.960000 2.420000 1.540000 155 70 62 0
15.180000 2.420000 4.290000 156 71 63 0
15.400000 2.420000 9.790000 155 77 62 0
15.620000 2.420000 15.400000 159 81 66 0
15.840000 2.420000 17.490000 157 87 75 0
16.060000 2.420000 17.490000 162 92 80 0
16.280000 2.420000 15.400000 167 94 83 0
16.500000 2.420000 10.560000 167 94 83 0
16.720000 2.420000 5.720000 166 96 84 0
16.940000 2.420000 2.970000 166 96 84 0
17.160000 2.420000 2.200000 165 96 84 0
17.380000 2.420000 1.540000 163 94 82 0
17.600000 2.420000 1.540000 165 95 83 0
17.820000 2.420000 1.540000 166 96 84 0
18.040000 2.420000 1.540000 168 95 84 0
18.260000 2.420000 1.540000 169 96 85 0
18.480000 2.420000 1.540000 166 96 84 0
18.700000 2.420000 0.880000 165 95 83 0
18.920000 2.420000 0.880000 164 96 82 0
19.140000 2.420000 0.880000 164 96 82 0
19.360000 2.420000 0.880000 163 99 85 0
19.580000 2.420000 0.880000 166 102 88 0
19.800000 2.420000 0.880000 152 112 97 0
20.020000 2.420000 0.880000 162 122 107 0
20.240000 2.420000 0.880000 161 134 120 0
20.460000 2.420000 2.200000 168 141 127 0
20.680000 2.420000 4.290000 173 146 132 0
20.900000 2.420000 4.290000 175 148 134 0
21.120000 2.420000 7.810000 175 148 134 0
21.340000 2.420000 13.420000 177 150 136 0
21.560000 2.420000 15.620000 173 150 137 0
21.780000 2.420000 14.300000 172 149 136 0
22.000000 2.420000 13.640000 172 145 131 0
22.220000 2.420000 13.750000 170 143 129 0
22.440000 2.420000 13.090000 169 142 128 0
22.660000 2.420000 13.090000 168 141 127 0
22.880000 2.420000 13.090000 168 142 125 0
23.100000 2.420000 13.090000 169 143 126 0
23.320000 2.420000 13.090000 167 143 128 0
23.540000 2.420000 13.090000 166 142 127 0
23.760000 2.420000 13.090000 168 141 127 0
23.980000 2.420000 13.090000 168 141 127 0
24.200000 2.420000 13.750000 169 142 128 0
24.420000 2.420000 13.750000 171 144 130 0
24.640000 2.420000 13.750000 172 144 128 0
24.860000 2.420000 13.750000 174 146 130 0
25.080000 2.420000 13.860000 174 147 133 0
25.300000 2.420000 13.860000 176 149 135 0
25.520000 2.420000 13.090000 177 150 136 0
25.740000 2.420000 13.750000 178 151 137 0
25.960000 2.420000 13.640000 180 152 136 0
26.180000 2.420000 14.190000 181 153 137 0
26.400000 2.420000 14.630000 183 153 138 0
26.620000 2.420000 15.180000 183 153 138 0
26.840000 2.420000 15.180000 183 153 138 0
27.060000 2.420000 15.180000 183 153 138 0
27.280000 2.420000 15.180000 184 154 141 0
27.500000 2.420000 15.290000 185 155 142 0
27.720000 2.420000 15.290000 185 157 141 0
27.940000 2.420000 15.290000 188 160 144 0
