ply
format ascii 1.0
element vertex 1103
property float x
property float y
property float z
property uchar red
property uchar green
property uchar blue
property uchar alpha
end_header
26.620000 34.760000 31.460000 238 203 192 0
26.840000 34.760000 31.680000 237 204 194 0
27.060000 34.760000 31.680000 237 204 194 0
27.280000 34.760000 33.000000 237 204 192 0
27.500000 34.760000 32.780000 236 203 191 0
27.720000 34.760000 34.980000 237 203 189 0
27.940000 34.760000 36.080000 237 203 189 0
28.160000 34.760000 36.080000 235 202 190 0
28.380000 34.760000 36.080000 234 201 189 0
28.600000 34.760000 36.080000 232 199 187 0
28.820000 34.760000 36.080000 230 197 185 0
29.040000 34.760000 37.620000 224 194 181 0
29.260000 34.760000 37.620000 218 188 175 0
29.480000 34.760000 37.620000 218 181 167 0
29.700000 34.760000 37.620000 209 172 158 0
29.920000 34.760000 37.840000 199 165 150 0
30.140000 34.760000 37.840000 195 161 146 0
30.360000 34.760000 37.840000 195 160 149 0
30.580000 34.760000 37.840000 197 162 151 0
30.800000 34.760000 37.840000 200 163 152 0
31.020000 34.760000 37.840000 201 164 153 0
31.240000 34.760000 37.840000 204 171 157 0
31.460000 34.760000 38.060000 207 174 160 0
31.680000 34.760000 38.060000 214 184 171 0
31.900000 34.760000 38.060000 220 190 177 0
32.120000 34.760000 38.060000 223 192 182 0
32.340000 34.760000 39.600000 223 192 182 0
32.560000 34.760000 39.600000 221 192 181 0
32.780000 34.760000 32.780000 222 193 182 0
33.000000 34.760000 14.520000 222 193 180 0
33.220000 34.760000 3.080000 223 194 181 0
33.440000 34.760000 0.220000 223 194 183 0
33.660000 34.760000 0.440000 225 196 185 0
33.880000 34.760000 0.440000 225 197 188 0
34.100000 34.760000 1.980000 229 201 192 0
34.320000 34.760000 2.200000 232 203 190 0
34.540000 34.760000 2.200000 233 204 191 0
34.760000 34.760000 2.420000 235 202 188 0
34.980000 34.760000 2.420000 235 202 188 0
35.200000 34.760000 2.640000 232 203 192 0
35.420000 34.760000 3.960000 232 203 192 0
35.640000 34.760000 5.060000 232 209 199 0
35.860000 34.760000 7.260000 237 214 204 0
36.080000 34.760000 7.040000 241 212 199 0
36.300000 34.760000 7.040000 235 206 193 0
36.520000 34.760000 8.580000 226 194 178 0
36.740000 34.760000 8.580000 215 183 167 0
36.960000 34.760000 8.800000 202 172 157 0
37.180000 34.760000 8.800000 176 146 131 0
0.000000 34.980000 10.560000 93 128 117 0
0.220000 34.980000 10.560000 91 126 115 0
0.440000 34.980000 11.880000 91 124 112 0
0.660000 34.980000 11.880000 88 121 109 0
0.880000 34.980000 11.880000 85 118 106 0
1.100000 34.980000 11.880000 83 116 104 0
1.320000 34.980000 11.880000 81 117 104 0
1.540000 34.980000 11.880000 83 119 106 0
1.760000 34.980000 10.560000 86 121 110 0
1.980000 34.980000 10.560000 88 123 112 0
2.200000 34.980000 10.560000 91 127 114 0
2.420000 34.980000 11.880000 93 129 116 0
2.640000 34.980000 11.880000 92 129 116 0
2.860000 34.980000 11.880000 93 130 117 0
3.080000 34.980000 11.880000 91 127 114 0
3.300000 34.980000 11.880000 89 125 112 0
3.520000 34.980000 11.880000 87 120 108 0
3.740000 34.980000 11.880000 86 119 107 0
3.960000 34.980000 11.880000 86 119 107 0
4.180000 34.980000 11.880000 87 120 108 0
4.400000 34.980000 11.880000 85 122 109 0
4.620000 34.980000 11.880000 88 125 112 0
4.840000 34.980000 11.880000 88 130 115 0
5.060000 34.980000 12.100000 91 133 118 0
5.280000 34.980000 12.100000 90 137 122 0
5.500000 34.980000 12.100000 92 139 124 0
5.720000 34.980000 12.100000 90 142 127 0
5.940000 34.980000 12.100000 93 145 130 0
6.160000 34.980000 12.100000 94 148 130 0
6.380000 34.980000 12.100000 95 149 131 0
6.600000 34.980000 12.100000 96 149 134 0
6.820000 34.980000 12.100000 96 149 134 0
7.040000 34.980000 12.320000 97 151 133 0
7.260000 34.980000 12.320000 99 153 135 0
7.480000 34.980000 12.320000 97 153 135 0
7.700000 34.980000 12.320000 99 155 137 0
7.920000 34.980000 12.320000 99 155 137 0
8.140000 34.980000 12.320000 99 155 137 0
8.360000 34.980000 12.320000 98 156 139 0
8.580000 34.980000 13.200000 98 156 139 0
8.800000 34.980000 14.080000 101 159 140 0
9.020000 34.980000 15.180000 100 158 139 0
9.240000 34.980000 15.180000 101 159 142 0
9.460000 34.980000 15.400000 101 159 142 0
9.680000 34.980000 15.400000 104 162 143 0
9.900000 34.980000 15.400000 103 161 142 0
10.120000 34.980000 15.400000 103 164 144 0
10.340000 34.980000 15.400000 103 164 144 0
10.560000 34.980000 15.400000 103 163 146 0
10.780000 34.980000 15.620000 104 164 147 0
11.000000 34.980000 15.620000 106 164 147 0
11.220000 34.980000 15.620000 108 166 149 0
11.440000 34.980000 15.620000 106 166 149 0
11.660000 34.980000 15.620000 107 167 150 0
11.880000 34.980000 15.620000 107 167 150 0
12.100000 34.980000 15.840000 107 167 150 0
12.320000 34.980000 15.840000 105 169 153 0
12.540000 34.980000 15.840000 105 169 153 0
12.760000 34.980000 15.840000 109 171 155 0
12.980000 34.980000 15.840000 110 172 156 0
13.200000 34.980000 16.060000 109 171 153 0
13.420000 34.980000 16.060000 110 172 154 0
13.640000 34.980000 17.380000 109 171 155 0
13.860000 34.980000 17.380000 110 172 156 0
14.080000 34.980000 17.600000 108 172 156 0
14.300000 34.980000 17.600000 109 173 157 0
14.520000 34.980000 17.600000 109 173 157 0
14.740000 34.980000 17.600000 111 175 159 0
14.960000 34.980000 17.600000 111 175 159 0
15.180000 34.980000 17.820000 112 176 160 0
15.400000 34.980000 17.820000 111 175 159 0
15.620000 34.980000 17.820000 111 175 159 0
15.840000 34.980000 19.360000 111 175 159 0
16.060000 34.980000 18.920000 113 177 161 0
16.280000 34.980000 21.120000 111 175 159 0
16.500000 34.980000 22.220000 112 176 160 0
16.720000 34.980000 22.220000 112 176 160 0
16.940000 34.980000 22.220000 112 176 160 0
17.160000 34.980000 22.220000 111 175 161 0
17.380000 34.980000 23.760000 111 175 161 0
17.600000 34.980000 23.760000 111 175 159 0
17.820000 34.980000 23.980000 111 175 159 0
18.040000 34.980000 23.980000 111 175 159 0
18.260000 34.980000 23.980000 110 174 158 0
18.480000 34.980000 23.980000 111 175 159 0
18.700000 34.980000 23.980000 110 174 158 0
18.920000 34.980000 24.200000 109 173 157 0
19.140000 34.980000 24.200000 106 170 154 0
19.360000 34.980000 24.200000 107 169 151 0
19.580000 34.980000 24.200000 107 169 151 0
19.800000 34.980000 24.420000 109 165 147 0
20.020000 34.980000 24.420000 106 162 144 0
20.240000 34.980000 25.960000 102 163 143 0
20.460000 34.980000 25.960000 98 159 139 0
20.680000 34.980000 25.960000 97 150 137 0
20.900000 34.980000 25.960000 92 145 132 0
21.120000 34.980000 25.960000 91 137 121 0
21.340000 34.980000 27.060000 87 133 117 0
21.560000 34.980000 28.160000 89 120 110 0
21.780000 34.980000 29.260000 84 115 105 0
22.000000 34.980000 29.260000 87 110 99 0
22.220000 34.980000 29.260000 85 108 97 0
22.440000 34.980000 29.260000 92 107 97 0
22.660000 34.980000 29.480000 93 108 98 0
22.880000 34.980000 29.480000 101 107 100 0
23.100000 34.980000 29.480000 104 110 103 0
23.320000 34.980000 29.480000 101 110 102 0
23.540000 34.980000 29.480000 101 110 102 0
23.760000 34.980000 29.480000 102 112 106 0
23.980000 34.980000 29.480000 107 117 111 0
24.200000 34.980000 29.480000 123 125 119 0
24.420000 34.980000 29.700000 138 140 134 0
24.640000 34.980000 29.700000 167 151 146 0
24.860000 34.980000 29.700000 180 164 159 0
25.080000 34.980000 29.700000 205 177 168 0
25.300000 34.980000 31.240000 217 189 180 0
25.520000 34.980000 31.240000 226 202 189 0
25.740000 34.980000 31.240000 229 205 192 0
25.960000 34.980000 31.240000 237 204 192 0
26.180000 34.980000 31.460000 237 204 192 0
26.400000 34.980000 31.460000 237 203 189 0
26.620000 34.980000 31.460000 238 204 190 0
26.840000 34.980000 31.460000 238 203 192 0
27.060000 34.980000 31.680000 239 204 193 0
27.280000 34.980000 33.000000 238 203 194 0
27.500000 34.980000 32.780000 238 203 194 0
27.720000 34.980000 34.980000 236 203 191 0
27.940000 34.980000 36.080000 236 203 191 0
28.160000 34.980000 36.080000 235 201 187 0
28.380000 34.980000 36.080000 235 201 187 0
28.600000 34.980000 36.080000 233 200 190 0
28.820000 34.980000 37.620000 231 198 188 0
29.040000 34.980000 37.620000 230 193 179 0
29.260000 34.980000 37.620000 221 184 170 0
29.480000 34.980000 37.620000 210 172 158 0
29.700000 34.980000 36.300000 199 161 147 0
29.920000 34.980000 36.300000 195 155 142 0
30.140000 34.980000 37.840000 197 157 144 0
30.360000 34.980000 37.840000 193 159 145 0
30.580000 34.980000 37.840000 194 160 146 0
30.800000 34.980000 37.840000 197 162 151 0
31.020000 34.980000 37.840000 199 164 153 0
31.240000 34.980000 37.840000 205 171 157 0
31.460000 34.980000 37.840000 208 174 160 0
31.680000 34.980000 38.060000 209 179 166 0
31.900000 34.980000 38.060000 215 185 172 0
32.120000 34.980000 38.060000 218 191 179 0
32.340000 34.980000 38.060000 222 195 183 0
32.560000 34.980000 39.600000 223 196 182 0
32.780000 34.980000 36.960000 223 196 182 0
33.000000 34.980000 24.420000 224 194 179 0
33.220000 34.980000 7.480000 223 193 178 0
33.440000 34.980000 0.220000 222 193 182 0
33.660000 34.980000 0.440000 222 193 182 0
33.880000 34.980000 0.440000 224 197 185 0
34.100000 34.980000 1.980000 225 198 186 0
34.320000 34.980000 2.200000 231 202 189 0
34.540000 34.980000 2.200000 232 203 190 0
34.760000 34.980000 2.420000 232 203 190 0
34.980000 34.980000 2.420000 231 202 189 0
35.200000 34.980000 2.640000 233 201 185 0
35.420000 34.980000 3.960000 234 202 186 0
35.640000 34.980000 5.060000 236 204 188 0
35.860000 34.980000 5.940000 239 207 191 0
36.080000 34.980000 7.040000 226 198 182 0
36.300000 34.980000 7.040000 207 179 163 0
36.520000 34.980000 8.580000 172 164 148 0
36.740000 34.980000 8.580000 152 144 128 0
36.960000 34.980000 8.580000 108 130 113 0
37.180000 34.980000 8.800000 96 118 101 0
0.000000 35.200000 10.340000 94 129 118 0
0.220000 35.200000 10.340000 91 126 115 0
0.440000 35.200000 10.560000 90 123 111 0
0.660000 35.200000 11.880000 88 121 109 0
0.880000 35.200000 11.880000 84 117 105 0
1.100000 35.200000 11.660000 84 117 105 0
1.320000 35.200000 11.660000 84 120 107 0
1.540000 35.200000 10.340000 87 123 110 0
1.760000 35.200000 10.560000 88 123 112 0
1.980000 35.200000 10.560000 90 125 114 0
2.200000 35.200000 10.560000 91 127 114 0
2.420000 35.200000 11.880000 94 130 117 0
2.640000 35.200000 11.880000 93 130 117 0
2.860000 35.200000 11.880000 92 129 116 0
3.080000 35.200000 11.880000 91 127 114 0
3.300000 35.200000 11.880000 86 122 109 0
3.520000 35.200000 11.880000 86 119 107 0
3.740000 35.200000 11.880000 86 119 107 0
3.960000 35.200000 12.100000 86 119 107 0
4.180000 35.200000 12.100000 88 121 109 0
4.400000 35.200000 11.880000 87 124 111 0
4.620000 35.200000 11.880000 90 127 114 0
4.840000 35.200000 11.880000 91 133 118 0
5.060000 35.200000 11.880000 94 136 121 0
5.280000 35.200000 12.100000 91 138 123 0
5.500000 35.200000 12.100000 93 140 125 0
5.720000 35.200000 12.100000 92 144 129 0
5.940000 35.200000 12.100000 93 145 130 0
6.160000 35.200000 12.100000 94 148 130 0
6.380000 35.200000 12.100000 96 150 132 0
6.600000 35.200000 12.100000 96 149 134 0
6.820000 35.200000 12.100000 97 150 135 0
7.040000 35.200000 12.100000 98 152 134 0
7.260000 35.200000 12.320000 99 153 135 0
7.480000 35.200000 12.320000 99 155 137 0
7.700000 35.200000 12.320000 99 155 137 0
7.920000 35.200000 12.320000 98 154 136 0
8.140000 35.200000 12.320000 98 154 136 0
8.360000 35.200000 12.320000 99 157 140 0
8.580000 35.200000 12.100000 99 157 140 0
8.800000 35.200000 14.080000 101 159 140 0
9.020000 35.200000 15.180000 101 159 140 0
9.240000 35.200000 15.180000 101 159 142 0
9.460000 35.200000 15.400000 102 160 143 0
9.680000 35.200000 15.400000 102 160 141 0
9.900000 35.200000 15.400000 102 160 141 0
10.120000 35.200000 15.400000 102 163 143 0
10.340000 35.200000 15.400000 103 164 144 0
10.560000 35.200000 15.400000 103 163 146 0
10.780000 35.200000 15.620000 104 164 147 0
11.000000 35.200000 15.620000 107 165 148 0
11.220000 35.200000 15.620000 107 165 148 0
11.440000 35.200000 15.620000 106 166 149 0
11.660000 35.200000 15.620000 106 166 149 0
11.880000 35.200000 15.620000 107 167 150 0
12.100000 35.200000 15.840000 108 168 151 0
12.320000 35.200000 15.840000 106 170 154 0
12.540000 35.200000 15.840000 107 171 155 0
12.760000 35.200000 15.840000 109 171 155 0
12.980000 35.200000 15.840000 111 173 157 0
13.200000 35.200000 16.060000 112 174 156 0
13.420000 35.200000 16.060000 110 172 154 0
13.640000 35.200000 16.060000 111 173 157 0
13.860000 35.200000 17.380000 111 173 157 0
14.080000 35.200000 17.600000 109 173 157 0
14.300000 35.200000 17.600000 109 173 157 0
14.520000 35.200000 17.600000 109 173 157 0
14.740000 35.200000 17.600000 111 175 159 0
14.960000 35.200000 17.600000 112 176 160 0
15.180000 35.200000 17.820000 112 176 160 0
15.400000 35.200000 17.820000 112 176 160 0
15.620000 35.200000 17.820000 113 177 161 0
15.840000 35.200000 17.820000 112 176 160 0
16.060000 35.200000 19.140000 112 176 160 0
16.280000 35.200000 21.340000 113 177 161 0
16.500000 35.200000 22.220000 114 178 162 0
16.720000 35.200000 22.220000 115 179 163 0
16.940000 35.200000 22.220000 115 179 163 0
17.160000 35.200000 22.220000 114 178 164 0
17.380000 35.200000 22.440000 115 179 165 0
17.600000 35.200000 23.760000 113 177 161 0
17.820000 35.200000 23.760000 114 178 162 0
18.040000 35.200000 23.980000 113 177 161 0
18.260000 35.200000 23.980000 114 178 162 0
18.480000 35.200000 23.980000 113 177 161 0
18.700000 35.200000 23.980000 113 177 161 0
18.920000 35.200000 24.200000 113 177 161 0
19.140000 35.200000 24.200000 112 176 160 0
19.360000 35.200000 24.200000 113 175 157 0
19.580000 35.200000 24.200000 113 175 157 0
19.800000 35.200000 24.420000 115 171 153 0
20.020000 35.200000 24.420000 115 171 153 0
20.240000 35.200000 24.420000 109 170 150 0
20.460000 35.200000 24.420000 108 169 149 0
20.680000 35.200000 25.960000 110 163 150 0
20.900000 35.200000 25.960000 106 159 146 0
21.120000 35.200000 25.960000 107 153 137 0
21.340000 35.200000 25.960000 105 151 135 0
21.560000 35.200000 27.280000 107 138 128 0
21.780000 35.200000 28.160000 102 133 123 0
22.000000 35.200000 29.260000 105 128 117 0
22.220000 35.200000 29.260000 100 123 112 0
22.440000 35.200000 29.260000 101 116 106 0
22.660000 35.200000 29.260000 100 115 105 0
22.880000 35.200000 29.480000 105 111 104 0
23.100000 35.200000 29.480000 104 110 103 0
23.320000 35.200000 29.480000 102 111 103 0
23.540000 35.200000 29.480000 103 112 104 0
23.760000 35.200000 29.480000 103 113 107 0
23.980000 35.200000 29.480000 105 115 109 0
24.200000 35.200000 29.700000 114 116 110 0
24.420000 35.200000 29.700000 116 118 112 0
24.640000 35.200000 29.700000 138 122 117 0
24.860000 35.200000 31.020000 151 135 130 0
25.080000 35.200000 31.240000 176 148 139 0
25.300000 35.200000 31.240000 195 167 158 0
25.520000 35.200000 31.240000 207 183 170 0
25.740000 35.200000 31.240000 218 194 181 0
25.960000 35.200000 31.240000 230 197 185 0
26.180000 35.200000 31.460000 235 202 190 0
26.400000 35.200000 31.460000 236 202 188 0
26.620000 35.200000 31.460000 237 203 189 0
26.840000 35.200000 31.460000 236 201 190 0
27.060000 35.200000 33.000000 237 202 191 0
27.280000 35.200000 33.000000 237 202 193 0
27.500000 35.200000 33.000000 237 202 193 0
27.720000 35.200000 34.100000 235 202 190 0
27.940000 35.200000 34.760000 235 202 190 0
28.160000 35.200000 36.080000 235 201 187 0
28.380000 35.200000 36.080000 234 200 186 0
28.600000 35.200000 36.080000 231 198 188 0
28.820000 35.200000 36.080000 231 198 188 0
29.040000 35.200000 37.620000 226 189 175 0
29.260000 35.200000 36.300000 214 177 163 0
29.480000 35.200000 36.300000 201 163 149 0
29.700000 35.200000 36.300000 195 157 143 0
29.920000 35.200000 36.300000 194 154 141 0
30.140000 35.200000 36.300000 195 155 142 0
30.360000 35.200000 37.840000 193 159 145 0
30.580000 35.200000 37.840000 195 161 147 0
30.800000 35.200000 37.840000 198 163 152 0
31.020000 35.200000 37.840000 201 166 155 0
31.240000 35.200000 37.840000 204 170 156 0
31.460000 35.200000 37.840000 208 174 160 0
31.680000 35.200000 38.060000 211 181 168 0
31.900000 35.200000 38.060000 219 189 176 0
32.120000 35.200000 38.060000 223 196 184 0
32.340000 35.200000 38.060000 227 200 188 0
32.560000 35.200000 39.600000 228 201 187 0
32.780000 35.200000 39.600000 226 199 185 0
33.000000 35.200000 32.780000 224 194 179 0
33.220000 35.200000 14.520000 224 194 179 0
33.440000 35.200000 3.080000 220 191 180 0
33.660000 35.200000 0.220000 222 193 182 0
33.880000 35.200000 0.440000 221 194 182 0
34.100000 35.200000 1.980000 223 196 184 0
34.320000 35.200000 1.980000 228 199 186 0
34.540000 35.200000 2.200000 230 201 188 0
34.760000 35.200000 2.420000 230 201 188 0
34.980000 35.200000 2.420000 230 201 188 0
35.200000 35.200000 2.420000 229 197 181 0
35.420000 35.200000 3.960000 219 187 171 0
35.640000 35.200000 3.740000 208 176 160 0
35.860000 35.200000 6.160000 193 161 145 0
36.080000 35.200000 7.260000 173 145 129 0
36.300000 35.200000 7.260000 158 130 114 0
36.520000 35.200000 7.260000 135 127 111 0
36.740000 35.200000 7.260000 132 124 108 0
36.960000 35.200000 8.580000 116 138 121 0
37.180000 35.200000 8.580000 119 141 124 0
0.000000 35.420000 10.340000 93 130 117 0
0.220000 35.420000 10.340000 91 128 115 0
0.440000 35.420000 10.340000 90 126 113 0
0.660000 35.420000 10.340000 86 122 109 0
0.880000 35.420000 10.340000 85 118 106 0
1.100000 35.420000 10.340000 87 120 108 0
1.320000 35.420000 10.340000 86 121 110 0
1.540000 35.420000 10.340000 87 122 111 0
1.760000 35.420000 10.560000 89 125 112 0
1.980000 35.420000 10.560000 91 127 114 0
2.200000 35.420000 10.560000 90 127 114 0
2.420000 35.420000 10.560000 91 128 115 0
2.640000 35.420000 10.560000 92 128 115 0
2.860000 35.420000 11.880000 91 127 114 0
3.080000 35.420000 11.880000 89 124 113 0
3.300000 35.420000 11.880000 85 120 109 0
3.520000 35.420000 11.880000 84 120 107 0
3.740000 35.420000 11.880000 84 120 107 0
3.960000 35.420000 11.880000 84 121 108 0
4.180000 35.420000 11.880000 86 123 110 0
4.400000 35.420000 11.880000 85 128 114 0
4.620000 35.420000 11.880000 89 132 118 0
4.840000 35.420000 11.880000 89 136 121 0
5.060000 35.420000 11.880000 91 138 123 0
5.280000 35.420000 11.880000 91 141 125 0
5.500000 35.420000 12.100000 91 141 125 0
5.720000 35.420000 12.100000 92 144 129 0
5.940000 35.420000 12.100000 93 145 130 0
6.160000 35.420000 12.100000 94 147 132 0
6.380000 35.420000 12.100000 95 148 133 0
6.600000 35.420000 12.100000 93 151 134 0
6.820000 35.420000 12.100000 94 152 135 0
7.040000 35.420000 12.100000 97 153 137 0
7.260000 35.420000 12.320000 97 153 137 0
7.480000 35.420000 12.320000 99 155 139 0
7.700000 35.420000 12.320000 99 155 139 0
7.920000 35.420000 12.320000 100 156 138 0
8.140000 35.420000 12.320000 101 157 139 0
8.360000 35.420000 12.320000 98 159 139 0
8.580000 35.420000 12.100000 97 158 138 0
8.800000 35.420000 14.080000 101 157 141 0
9.020000 35.420000 15.180000 102 158 142 0
9.240000 35.420000 15.180000 102 160 143 0
9.460000 35.420000 15.400000 102 160 143 0
9.680000 35.420000 15.400000 103 161 142 0
9.900000 35.420000 15.400000 103 161 142 0
10.120000 35.420000 15.400000 100 160 143 0
10.340000 35.420000 15.400000 101 161 144 0
10.560000 35.420000 15.400000 103 163 146 0
10.780000 35.420000 15.620000 103 163 146 0
11.000000 35.420000 15.620000 105 165 148 0
11.220000 35.420000 15.620000 105 165 148 0
11.440000 35.420000 15.620000 104 166 148 0
11.660000 35.420000 15.620000 105 167 149 0
11.880000 35.420000 15.620000 104 170 153 0
12.100000 35.420000 15.620000 106 172 155 0
12.320000 35.420000 15.840000 107 169 151 0
12.540000 35.420000 15.840000 109 171 153 0
12.760000 35.420000 15.840000 108 172 156 0
12.980000 35.420000 15.840000 109 173 157 0
13.200000 35.420000 15.840000 109 174 155 0
13.420000 35.420000 16.060000 108 173 154 0
13.640000 35.420000 16.060000 108 174 157 0
13.860000 35.420000 16.060000 108 174 157 0
14.080000 35.420000 17.380000 110 174 158 0
14.300000 35.420000 17.600000 110 174 158 0
14.520000 35.420000 17.600000 111 175 159 0
14.740000 35.420000 17.600000 112 176 160 0
14.960000 35.420000 17.600000 113 177 161 0
15.180000 35.420000 17.600000 111 175 159 0
15.400000 35.420000 17.820000 111 177 160 0
15.620000 35.420000 17.820000 112 178 161 0
15.840000 35.420000 17.820000 113 177 161 0
16.060000 35.420000 19.140000 114 178 162 0
16.280000 35.420000 20.240000 113 179 162 0
16.500000 35.420000 21.120000 113 179 162 0
16.720000 35.420000 22.220000 117 181 165 0
16.940000 35.420000 22.220000 117 181 165 0
17.160000 35.420000 22.220000 115 181 164 0
17.380000 35.420000 22.440000 115 181 164 0
17.600000 35.420000 22.440000 115 181 166 0
17.820000 35.420000 23.760000 115 181 166 0
18.040000 35.420000 23.980000 114 180 163 0
18.260000 35.420000 23.980000 114 180 163 0
18.480000 35.420000 23.980000 115 179 163 0
18.700000 35.420000 23.980000 116 180 164 0
18.920000 35.420000 23.980000 115 181 164 0
19.140000 35.420000 24.200000 114 180 163 0
19.360000 35.420000 24.200000 115 179 163 0
19.580000 35.420000 24.200000 114 178 162 0
19.800000 35.420000 24.200000 113 179 162 0
20.020000 35.420000 24.420000 111 177 160 0
20.240000 35.420000 24.420000 110 174 158 0
20.460000 35.420000 24.420000 110 174 158 0
20.680000 35.420000 25.960000 107 172 151 0
20.900000 35.420000 25.960000 106 171 150 0
21.120000 35.420000 25.960000 109 167 150 0
21.340000 35.420000 26.180000 107 165 148 0
21.560000 35.420000 25.960000 102 162 145 0
21.780000 35.420000 27.060000 97 157 140 0
22.000000 35.420000 28.160000 100 157 135 0
22.220000 35.420000 29.260000 92 149 127 0
22.440000 35.420000 29.260000 92 142 126 0
22.660000 35.420000 29.260000 91 141 125 0
22.880000 35.420000 29.260000 96 133 123 0
23.100000 35.420000 29.480000 92 129 119 0
23.320000 35.420000 29.480000 93 122 112 0
23.540000 35.420000 29.480000 93 122 112 0
23.760000 35.420000 29.480000 101 118 107 0
23.980000 35.420000 29.700000 103 120 109 0
24.200000 35.420000 29.700000 111 117 112 0
24.420000 35.420000 29.700000 113 119 114 0
24.640000 35.420000 29.700000 116 121 112 0
24.860000 35.420000 31.240000 120 125 116 0
25.080000 35.420000 31.240000 131 131 118 0
25.300000 35.420000 31.240000 145 145 132 0
25.520000 35.420000 31.240000 171 152 143 0
25.740000 35.420000 31.240000 185 166 157 0
25.960000 35.420000 31.240000 200 177 166 0
26.180000 35.420000 31.460000 214 191 180 0
26.400000 35.420000 31.460000 217 199 184 0
26.620000 35.420000 31.460000 221 203 188 0
26.840000 35.420000 31.460000 230 202 186 0
27.060000 35.420000 33.000000 230 202 186 0
27.280000 35.420000 33.000000 233 200 188 0
27.500000 35.420000 33.000000 234 201 189 0
27.720000 35.420000 34.100000 234 201 189 0
27.940000 35.420000 34.980000 233 200 188 0
28.160000 35.420000 36.080000 231 201 186 0
28.380000 35.420000 36.080000 231 201 186 0
28.600000 35.420000 36.080000 229 201 185 0
28.820000 35.420000 36.080000 226 198 182 0
29.040000 35.420000 36.300000 222 186 169 0
29.260000 35.420000 36.300000 208 172 155 0
29.480000 35.420000 36.300000 192 159 145 0
29.700000 35.420000 36.300000 187 154 140 0
29.920000 35.420000 36.300000 186 156 140 0
30.140000 35.420000 36.300000 189 159 143 0
30.360000 35.420000 37.840000 193 160 146 0
30.580000 35.420000 37.840000 197 164 150 0
30.800000 35.420000 37.840000 196 167 156 0
31.020000 35.420000 37.840000 200 171 160 0
31.240000 35.420000 37.840000 201 178 165 0
31.460000 35.420000 37.840000 206 183 170 0
31.680000 35.420000 37.840000 214 191 181 0
31.900000 35.420000 38.060000 221 198 188 0
32.120000 35.420000 38.060000 225 201 194 0
32.340000 35.420000 38.060000 227 203 196 0
32.560000 35.420000 38.280000 229 205 192 0
32.780000 35.420000 39.600000 227 203 190 0
33.000000 35.420000 36.960000 224 200 187 0
33.220000 35.420000 24.420000 221 197 184 0
33.440000 35.420000 7.480000 217 192 183 0
33.660000 35.420000 0.220000 217 192 183 0
33.880000 35.420000 0.220000 221 193 184 0
34.100000 35.420000 0.440000 222 194 185 0
34.320000 35.420000 1.980000 219 196 183 0
34.540000 35.420000 2.200000 222 199 186 0
34.760000 35.420000 2.200000 227 195 177 0
34.980000 35.420000 2.420000 221 189 171 0
35.200000 35.420000 2.420000 182 169 155 0
35.420000 35.420000 3.960000 155 142 128 0
35.640000 35.420000 3.960000 127 133 116 0
35.860000 35.420000 5.060000 130 136 119 0
36.080000 35.420000 4.840000 124 145 123 0
36.300000 35.420000 6.160000 129 150 128 0
36.520000 35.420000 6.160000 123 156 134 0
36.740000 35.420000 6.160000 127 160 138 0
36.960000 35.420000 7.260000 127 164 144 0
37.180000 35.420000 7.260000 128 165 145 0
0.000000 35.640000 10.340000 93 130 117 0
0.220000 35.640000 10.340000 92 129 116 0
0.440000 35.640000 10.340000 90 126 113 0
0.660000 35.640000 10.340000 85 121 108 0
0.880000 35.640000 10.340000 86 119 107 0
1.100000 35.640000 10.340000 87 120 108 0
1.320000 35.640000 10.340000 87 122 111 0
1.540000 35.640000 10.340000 89 124 113 0
1.760000 35.640000 10.560000 91 127 114 0
1.980000 35.640000 10.560000 92 128 115 0
2.200000 35.640000 10.560000 91 128 115 0
2.420000 35.640000 10.560000 89 126 113 0
2.640000 35.640000 10.560000 91 127 114 0
2.860000 35.640000 11.880000 89 125 112 0
3.080000 35.640000 11.880000 87 122 111 0
3.300000 35.640000 11.880000 85 120 109 0
3.520000 35.640000 11.880000 84 120 107 0
3.740000 35.640000 11.880000 86 122 109 0
3.960000 35.640000 11.880000 86 123 110 0
4.180000 35.640000 11.880000 88 125 112 0
4.400000 35.640000 11.880000 88 131 117 0
4.620000 35.640000 11.880000 91 134 120 0
4.840000 35.640000 11.880000 91 138 123 0
5.060000 35.640000 11.880000 91 138 123 0
5.280000 35.640000 11.880000 91 141 125 0
5.500000 35.640000 11.880000 93 143 127 0
5.720000 35.640000 12.100000 92 144 129 0
5.940000 35.640000 12.100000 93 145 130 0
6.160000 35.640000 12.100000 95 148 133 0
6.380000 35.640000 12.100000 95 148 133 0
6.600000 35.640000 12.100000 91 149 132 0
6.820000 35.640000 12.100000 94 152 135 0
7.040000 35.640000 12.100000 96 152 136 0
7.260000 35.640000 12.100000 98 154 138 0
7.480000 35.640000 12.320000 99 155 139 0
7.700000 35.640000 12.320000 98 154 138 0
7.920000 35.640000 12.320000 99 155 137 0
8.140000 35.640000 12.320000 100 156 138 0
8.360000 35.640000 12.320000 98 159 139 0
8.580000 35.640000 12.100000 98 159 139 0
8.800000 35.640000 14.300000 102 158 142 0
9.020000 35.640000 15.400000 101 157 141 0
9.240000 35.640000 15.180000 102 160 143 0
9.460000 35.640000 15.400000 101 159 142 0
9.680000 35.640000 15.400000 102 160 141 0
9.900000 35.640000 15.400000 103 161 142 0
10.120000 35.640000 15.400000 102 162 145 0
10.340000 35.640000 15.400000 100 160 143 0
10.560000 35.640000 15.400000 103 163 146 0
10.780000 35.640000 15.400000 104 164 147 0
11.000000 35.640000 15.620000 105 165 148 0
11.220000 35.640000 15.620000 105 165 148 0
11.440000 35.640000 15.620000 105 167 149 0
11.660000 35.640000 15.620000 105 167 149 0
11.880000 35.640000 15.620000 103 169 152 0
12.100000 35.640000 15.620000 105 171 154 0
12.320000 35.640000 15.840000 109 171 153 0
12.540000 35.640000 15.840000 110 172 154 0
12.760000 35.640000 15.840000 108 172 156 0
12.980000 35.640000 15.840000 109 173 157 0
13.200000 35.640000 15.840000 109 174 155 0
13.420000 35.640000 16.060000 109 174 155 0
13.640000 35.640000 16.060000 108 174 157 0
13.860000 35.640000 16.060000 108 174 157 0
14.080000 35.640000 16.060000 110 174 158 0
14.300000 35.640000 17.600000 112 176 160 0
14.520000 35.640000 17.600000 112 176 160 0
14.740000 35.640000 17.600000 113 177 161 0
14.960000 35.640000 17.600000 112 176 160 0
15.180000 35.640000 17.600000 113 177 161 0
15.400000 35.640000 17.820000 112 178 161 0
15.620000 35.640000 17.820000 112 178 161 0
15.840000 35.640000 17.820000 115 179 163 0
16.060000 35.640000 17.820000 114 178 162 0
16.280000 35.640000 19.140000 113 179 162 0
16.500000 35.640000 21.340000 114 180 163 0
16.720000 35.640000 22.220000 116 180 164 0
16.940000 35.640000 22.220000 117 181 165 0
17.160000 35.640000 22.220000 115 181 164 0
17.380000 35.640000 22.220000 116 182 165 0
17.600000 35.640000 22.440000 116 182 167 0
17.820000 35.640000 22.440000 115 181 166 0
18.040000 35.640000 23.760000 116 182 165 0
18.260000 35.640000 23.980000 116 182 165 0
18.480000 35.640000 23.980000 116 180 164 0
18.700000 35.640000 23.980000 117 181 165 0
18.920000 35.640000 23.980000 117 183 166 0
19.140000 35.640000 24.200000 116 182 165 0
19.360000 35.640000 24.200000 117 181 165 0
19.580000 35.640000 24.200000 116 180 164 0
19.800000 35.640000 24.200000 115 181 164 0
20.020000 35.640000 24.420000 114 180 163 0
20.240000 35.640000 24.420000 115 179 163 0
20.460000 35.640000 24.420000 113 177 161 0
20.680000 35.640000 24.420000 113 178 157 0
20.900000 35.640000 25.960000 111 176 155 0
21.120000 35.640000 25.960000 115 173 156 0
21.340000 35.640000 25.960000 114 172 155 0
21.560000 35.640000 26.180000 111 171 154 0
21.780000 35.640000 26.180000 108 168 151 0
22.000000 35.640000 27.280000 109 166 144 0
22.220000 35.640000 28.160000 105 162 140 0
22.440000 35.640000 29.260000 105 155 139 0
22.660000 35.640000 29.260000 103 153 137 0
22.880000 35.640000 29.260000 110 147 137 0
23.100000 35.640000 29.260000 107 144 134 0
23.320000 35.640000 29.480000 107 136 126 0
23.540000 35.640000 29.480000 105 134 124 0
23.760000 35.640000 29.480000 110 127 116 0
23.980000 35.640000 29.700000 108 125 114 0
24.200000 35.640000 29.700000 115 121 116 0
24.420000 35.640000 29.700000 114 120 115 0
24.640000 35.640000 31.240000 117 122 113 0
24.860000 35.640000 31.240000 118 123 114 0
25.080000 35.640000 31.240000 125 125 112 0
25.300000 35.640000 31.240000 130 130 117 0
25.520000 35.640000 31.240000 147 128 119 0
25.740000 35.640000 31.240000 156 137 128 0
25.960000 35.640000 31.460000 173 150 139 0
26.180000 35.640000 31.460000 183 160 149 0
26.400000 35.640000 31.460000 192 174 159 0
26.620000 35.640000 31.460000 200 182 167 0
26.840000 35.640000 31.460000 215 187 171 0
27.060000 35.640000 31.680000 221 193 177 0
27.280000 35.640000 33.000000 231 198 186 0
27.500000 35.640000 33.000000 231 198 186 0
27.720000 35.640000 34.100000 232 199 187 0
27.940000 35.640000 34.980000 233 200 188 0
28.160000 35.640000 36.080000 231 201 186 0
28.380000 35.640000 36.080000 230 200 185 0
28.600000 35.640000 36.080000 227 199 183 0
28.820000 35.640000 36.080000 222 194 178 0
29.040000 35.640000 36.080000 218 182 165 0
29.260000 35.640000 36.300000 203 167 150 0
29.480000 35.640000 36.300000 189 156 142 0
29.700000 35.640000 36.300000 187 154 140 0
29.920000 35.640000 36.300000 186 156 140 0
30.140000 35.640000 36.300000 189 159 143 0
30.360000 35.640000 37.620000 193 160 146 0
30.580000 35.640000 37.840000 197 164 150 0
30.800000 35.640000 37.840000 199 170 159 0
31.020000 35.640000 37.840000 202 173 162 0
31.240000 35.640000 37.840000 204 181 168 0
31.460000 35.640000 37.840000 215 192 179 0
31.680000 35.640000 37.840000 217 194 184 0
31.900000 35.640000 38.060000 222 199 189 0
32.120000 35.640000 38.060000 224 200 193 0
32.340000 35.640000 38.060000 226 202 195 0
32.560000 35.640000 38.280000 229 205 192 0
32.780000 35.640000 39.600000 229 205 192 0
33.000000 35.640000 39.820000 223 199 186 0
33.220000 35.640000 30.140000 219 195 182 0
33.440000 35.640000 9.020000 217 192 183 0
33.660000 35.640000 0.440000 219 194 185 0
33.880000 35.640000 0.220000 223 195 186 0
34.100000 35.640000 0.440000 223 195 186 0
34.320000 35.640000 1.980000 217 194 181 0
34.540000 35.640000 1.980000 216 193 180 0
34.760000 35.640000 2.200000 214 182 164 0
34.980000 35.640000 2.200000 185 153 135 0
35.200000 35.640000 2.420000 142 129 115 0
35.420000 35.640000 3.740000 137 124 110 0
35.640000 35.640000 3.740000 132 138 121 0
35.860000 35.640000 3.960000 140 146 129 0
36.080000 35.640000 3.740000 135 156 134 0
36.300000 35.640000 5.060000 138 159 137 0
36.520000 35.640000 5.280000 131 164 142 0
36.740000 35.640000 5.060000 132 165 143 0
36.960000 35.640000 5.060000 127 164 144 0
37.180000 35.640000 5.060000 129 166 146 0
0.000000 35.860000 10.340000 94 134 120 0
0.220000 35.860000 10.340000 93 133 119 0
0.440000 35.860000 10.340000 91 126 115 0
0.660000 35.860000 10.340000 85 120 109 0
0.880000 35.860000 11.660000 84 120 107 0
1.100000 35.860000 10.340000 84 120 107 0
1.320000 35.860000 10.340000 87 124 111 0
1.540000 35.860000 10.340000 89 126 113 0
1.760000 35.860000 10.340000 89 129 115 0
1.980000 35.860000 10.340000 89 129 115 0
2.200000 35.860000 10.340000 91 128 116 0
2.420000 35.860000 10.340000 90 127 115 0
2.640000 35.860000 10.560000 89 125 112 0
2.860000 35.860000 11.880000 88 124 111 0
3.080000 35.860000 11.880000 87 122 111 0
3.300000 35.860000 11.880000 84 119 108 0
3.520000 35.860000 11.880000 84 121 108 0
3.740000 35.860000 11.880000 86 123 110 0
3.960000 35.860000 11.880000 87 127 114 0
4.180000 35.860000 11.880000 89 129 116 0
4.400000 35.860000 11.880000 86 136 120 0
4.620000 35.860000 11.880000 86 136 120 0
4.840000 35.860000 11.880000 89 139 123 0
5.060000 35.860000 11.880000 90 140 124 0
5.280000 35.860000 11.880000 90 142 127 0
5.500000 35.860000 11.880000 92 144 129 0
5.720000 35.860000 12.100000 94 147 132 0
5.940000 35.860000 12.100000 96 149 134 0
6.160000 35.860000 12.100000 92 150 133 0
6.380000 35.860000 12.100000 92 150 133 0
6.600000 35.860000 12.100000 94 150 132 0
6.820000 35.860000 12.100000 95 151 133 0
7.040000 35.860000 12.100000 97 155 138 0
7.260000 35.860000 12.100000 97 155 138 0
7.480000 35.860000 12.320000 97 155 136 0
7.700000 35.860000 12.320000 97 155 136 0
7.920000 35.860000 12.320000 98 156 137 0
8.140000 35.860000 12.320000 99 157 138 0
8.360000 35.860000 12.320000 100 158 139 0
8.580000 35.860000 12.320000 100 158 139 0
8.800000 35.860000 13.200000 101 159 142 0
9.020000 35.860000 14.080000 101 159 142 0
9.240000 35.860000 15.180000 100 160 143 0
9.460000 35.860000 15.180000 101 161 144 0
9.680000 35.860000 15.400000 100 161 141 0
9.900000 35.860000 15.400000 101 162 142 0
10.120000 35.860000 15.400000 102 162 145 0
10.340000 35.860000 15.400000 103 163 146 0
10.560000 35.860000 15.400000 102 164 146 0
10.780000 35.860000 15.400000 103 165 147 0
11.000000 35.860000 15.620000 102 166 150 0
11.220000 35.860000 15.620000 103 167 151 0
11.440000 35.860000 15.620000 107 169 153 0
11.660000 35.860000 15.620000 106 168 152 0
11.880000 35.860000 15.620000 107 169 151 0
12.100000 35.860000 15.620000 107 169 151 0
12.320000 35.860000 15.840000 106 171 152 0
12.540000 35.860000 15.840000 107 172 153 0
12.760000 35.860000 15.840000 109 173 157 0
12.980000 35.860000 15.840000 109 173 157 0
13.200000 35.860000 15.840000 109 173 157 0
13.420000 35.860000 16.060000 109 173 157 0
13.640000 35.860000 16.060000 110 174 158 0
13.860000 35.860000 16.060000 109 173 157 0
14.080000 35.860000 16.060000 111 176 157 0
14.300000 35.860000 17.600000 112 177 158 0
14.520000 35.860000 17.600000 111 177 160 0
14.740000 35.860000 17.600000 112 178 161 0
14.960000 35.860000 17.600000 110 177 157 0
15.180000 35.860000 17.600000 112 179 159 0
15.400000 35.860000 17.820000 114 178 162 0
15.620000 35.860000 17.820000 115 179 163 0
15.840000 35.860000 17.820000 115 179 163 0
16.060000 35.860000 17.820000 115 179 163 0
16.280000 35.860000 19.140000 115 181 164 0
16.500000 35.860000 20.240000 115 181 164 0
16.720000 35.860000 21.120000 116 182 165 0
16.940000 35.860000 22.220000 117 183 166 0
17.160000 35.860000 22.220000 117 183 166 0
17.380000 35.860000 22.220000 117 183 166 0
17.600000 35.860000 22.440000 117 181 165 0
17.820000 35.860000 22.440000 118 182 166 0
18.040000 35.860000 23.760000 116 182 165 0
18.260000 35.860000 23.980000 116 182 165 0
18.480000 35.860000 23.980000 117 183 166 0
18.700000 35.860000 23.980000 118 184 167 0
18.920000 35.860000 23.980000 119 183 167 0
19.140000 35.860000 23.980000 118 182 166 0
19.360000 35.860000 24.200000 119 183 167 0
19.580000 35.860000 24.200000 118 182 166 0
19.800000 35.860000 24.200000 117 183 168 0
20.020000 35.860000 24.200000 116 182 167 0
20.240000 35.860000 24.420000 115 181 164 0
20.460000 35.860000 24.420000 114 180 163 0
20.680000 35.860000 24.420000 114 180 165 0
20.900000 35.860000 25.960000 114 180 165 0
21.120000 35.860000 25.960000 114 178 162 0
21.340000 35.860000 25.960000 113 177 161 0
21.560000 35.860000 25.960000 111 177 160 0
21.780000 35.860000 26.180000 109 175 158 0
22.000000 35.860000 26.180000 109 173 159 0
22.220000 35.860000 27.280000 108 172 158 0
22.440000 35.860000 28.160000 106 170 154 0
22.660000 35.860000 29.260000 105 169 153 0
22.880000 35.860000 29.260000 104 168 152 0
23.100000 35.860000 29.260000 100 164 148 0
23.320000 35.860000 29.260000 102 163 143 0
23.540000 35.860000 29.480000 98 159 139 0
23.760000 35.860000 29.480000 102 156 137 0
23.980000 35.860000 29.480000 97 151 132 0
24.200000 35.860000 29.700000 102 146 126 0
24.420000 35.860000 29.700000 100 144 124 0
24.640000 35.860000 31.020000 106 136 121 0
24.860000 35.860000 31.240000 106 136 121 0
25.080000 35.860000 31.240000 116 133 122 0
25.300000 35.860000 31.240000 117 134 123 0
25.520000 35.860000 31.240000 127 133 116 0
25.740000 35.860000 31.460000 128 134 117 0
25.960000 35.860000 31.460000 141 134 119 0
26.180000 35.860000 31.460000 148 141 126 0
26.400000 35.860000 31.460000 164 147 135 0
26.620000 35.860000 31.460000 173 156 144 0
26.840000 35.860000 31.460000 186 166 154 0
27.060000 35.860000 31.680000 193 173 161 0
27.280000 35.860000 33.000000 207 181 164 0
27.500000 35.860000 33.000000 217 191 174 0
27.720000 35.860000 34.100000 220 197 178 0
27.940000 35.860000 34.980000 223 200 181 0
28.160000 35.860000 36.080000 222 199 186 0
28.380000 35.860000 36.080000 223 200 187 0
28.600000 35.860000 36.080000 222 198 185 0
28.820000 35.860000 36.080000 219 195 182 0
29.040000 35.860000 36.080000 211 183 166 0
29.260000 35.860000 36.080000 199 171 154 0
29.480000 35.860000 36.300000 183 158 148 0
29.700000 35.860000 36.300000 180 155 145 0
29.920000 35.860000 36.300000 180 156 143 0
30.140000 35.860000 36.300000 184 160 147 0
30.360000 35.860000 37.620000 185 165 151 0
30.580000 35.860000 37.840000 186 166 152 0
30.800000 35.860000 37.840000 191 169 153 0
31.020000 35.860000 37.840000 196 174 158 0
31.240000 35.860000 37.840000 203 176 162 0
31.460000 35.860000 37.840000 210 183 169 0
31.680000 35.860000 37.840000 213 190 179 0
31.900000 35.860000 38.060000 217 194 183 0
32.120000 35.860000 38.060000 221 198 187 0
32.340000 35.860000 38.060000 225 202 191 0
32.560000 35.860000 38.280000 226 199 187 0
32.780000 35.860000 39.600000 228 201 189 0
33.000000 35.860000 39.820000 222 199 188 0
33.220000 35.860000 30.140000 218 195 184 0
33.440000 35.860000 9.240000 220 196 183 0
33.880000 35.860000 0.220000 220 197 186 0
34.100000 35.860000 0.220000 218 195 184 0
34.320000 35.860000 0.440000 215 191 178 0
34.540000 35.860000 1.980000 208 184 171 0
34.760000 35.860000 1.980000 173 165 149 0
34.980000 35.860000 2.200000 145 137 121 0
35.200000 35.860000 3.740000 115 137 120 0
35.420000 35.860000 3.740000 124 146 129 0
35.640000 35.860000 3.740000 127 156 133 0
35.860000 35.860000 3.740000 130 159 136 0
36.080000 35.860000 3.740000 130 163 141 0
36.300000 35.860000 3.740000 131 164 142 0
36.520000 35.860000 3.740000 127 165 145 0
36.740000 35.860000 3.960000 128 166 146 0
36.960000 35.860000 3.960000 122 170 151 0
37.180000 35.860000 3.960000 122 170 151 0
0.000000 36.080000 10.340000 94 134 120 0
0.220000 36.080000 10.340000 91 131 117 0
0.440000 36.080000 10.340000 89 124 113 0
0.660000 36.080000 10.340000 85 120 109 0
0.880000 36.080000 10.340000 84 120 107 0
1.100000 36.080000 10.340000 86 122 109 0
1.320000 36.080000 10.340000 88 125 112 0
1.540000 36.080000 10.340000 90 127 114 0
1.760000 36.080000 10.340000 89 129 115 0
1.980000 36.080000 10.340000 89 129 115 0
2.200000 36.080000 10.340000 91 128 116 0
2.420000 36.080000 10.340000 89 126 114 0
2.640000 36.080000 10.340000 89 125 112 0
2.860000 36.080000 11.880000 88 124 111 0
3.080000 36.080000 11.880000 87 122 111 0
3.300000 36.080000 11.880000 86 121 110 0
3.520000 36.080000 11.880000 87 124 111 0
3.740000 36.080000 11.880000 89 126 113 0
3.960000 36.080000 10.560000 89 129 116 0
4.180000 36.080000 10.560000 92 132 119 0
4.400000 36.080000 10.560000 87 137 121 0
4.620000 36.080000 10.560000 89 139 123 0
4.840000 36.080000 10.560000 90 140 124 0
5.060000 36.080000 10.560000 91 141 125 0
5.280000 36.080000 10.560000 91 143 128 0
5.500000 36.080000 11.880000 94 146 131 0
5.720000 36.080000 11.880000 96 149 134 0
5.940000 36.080000 10.560000 95 148 133 0
6.160000 36.080000 10.560000 93 151 134 0
6.380000 36.080000 10.560000 93 151 134 0
6.600000 36.080000 10.780000 96 152 134 0
6.820000 36.080000 12.100000 96 152 134 0
7.040000 36.080000 12.100000 96 154 137 0
7.260000 36.080000 12.100000 97 155 138 0
7.480000 36.080000 12.100000 98 156 137 0
7.700000 36.080000 12.320000 98 156 137 0
7.920000 36.080000 12.320000 99 157 138 0
8.140000 36.080000 12.320000 100 158 139 0
8.360000 36.080000 12.320000 100 158 139 0
8.580000 36.080000 12.320000 100 158 139 0
8.800000 36.080000 12.100000 100 158 141 0
9.020000 36.080000 14.300000 101 159 142 0
9.240000 36.080000 15.400000 100 160 143 0
9.460000 36.080000 15.180000 102 162 145 0
9.680000 36.080000 15.400000 101 162 142 0
9.900000 36.080000 15.400000 102 163 143 0
10.120000 36.080000 15.400000 103 163 146 0
10.340000 36.080000 15.400000 104 164 147 0
10.560000 36.080000 15.400000 103 165 147 0
10.780000 36.080000 15.400000 104 166 148 0
11.000000 36.080000 15.620000 104 168 152 0
11.220000 36.080000 15.620000 104 168 152 0
11.440000 36.080000 15.620000 108 170 154 0
11.660000 36.080000 15.620000 108 170 154 0
11.880000 36.080000 15.620000 108 170 152 0
12.100000 36.080000 15.620000 108 170 152 0
12.320000 36.080000 15.840000 107 172 153 0
12.540000 36.080000 15.840000 109 174 155 0
12.760000 36.080000 15.840000 108 172 156 0
12.980000 36.080000 15.840000 110 174 158 0
13.200000 36.080000 15.840000 110 174 158 0
13.420000 36.080000 15.840000 110 174 158 0
13.640000 36.080000 16.060000 110 174 158 0
13.860000 36.080000 16.060000 110 174 158 0
14.080000 36.080000 16.060000 110 175 156 0
14.300000 36.080000 16.060000 112 177 158 0
14.520000 36.080000 17.600000 113 179 162 0
14.740000 36.080000 17.600000 112 178 161 0
14.960000 36.080000 17.600000 113 180 160 0
15.180000 36.080000 17.600000 113 180 160 0
15.400000 36.080000 17.600000 115 179 163 0
15.620000 36.080000 17.820000 116 180 164 0
15.840000 36.080000 17.820000 117 181 165 0
16.060000 36.080000 17.820000 118 182 166 0
16.280000 36.080000 17.820000 116 182 165 0
16.500000 36.080000 18.920000 117 183 166 0
16.720000 36.080000 21.120000 117 183 166 0
16.940000 36.080000 22.220000 117 183 166 0
17.160000 36.080000 22.220000 119 185 168 0
17.380000 36.080000 22.220000 117 183 166 0
17.600000 36.080000 22.220000 118 182 166 0
17.820000 36.080000 22.440000 119 183 167 0
18.040000 36.080000 22.440000 119 185 168 0
18.260000 36.080000 23.760000 118 184 167 0
18.480000 36.080000 23.980000 118 184 167 0
18.700000 36.080000 23.980000 118 184 167 0
18.920000 36.080000 23.980000 120 184 168 0
19.140000 36.080000 23.980000 120 184 168 0
19.360000 36.080000 24.200000 121 185 169 0
19.580000 36.080000 24.200000 120 184 168 0
19.800000 36.080000 24.200000 118 184 169 0
20.020000 36.080000 24.200000 118 184 169 0
20.240000 36.080000 24.420000 118 184 167 0
20.460000 36.080000 24.420000 117 183 166 0
20.680000 36.080000 24.420000 116 182 167 0
20.900000 36.080000 24.420000 115 181 166 0
21.120000 36.080000 25.960000 116 180 164 0
21.340000 36.080000 25.960000 116 180 164 0
21.560000 36.080000 25.960000 115 181 164 0
21.780000 36.080000 26.180000 115 181 164 0
22.000000 36.080000 26.180000 113 177 163 0
22.220000 36.080000 26.180000 114 178 164 0
22.440000 36.080000 27.060000 113 177 161 0
22.660000 36.080000 27.940000 112 176 160 0
22.880000 36.080000 29.040000 110 174 158 0
23.100000 36.080000 29.260000 109 173 157 0
23.320000 36.080000 29.260000 111 172 152 0
23.540000 36.080000 29.260000 110 171 151 0
23.760000 36.080000 29.480000 112 166 147 0
23.980000 36.080000 29.480000 111 165 146 0
24.200000 36.080000 29.480000 116 160 140 0
24.420000 36.080000 29.700000 114 158 138 0
24.640000 36.080000 31.020000 120 150 135 0
24.860000 36.080000 31.240000 118 148 133 0
25.080000 36.080000 31.240000 123 140 129 0
25.300000 36.080000 31.240000 122 139 128 0
25.520000 36.080000 31.240000 130 136 119 0
25.740000 36.080000 31.460000 129 135 118 0
25.960000 36.080000 31.460000 138 131 116 0
26.180000 36.080000 31.460000 140 133 118 0
26.400000 36.080000 31.460000 149 132 120 0
26.620000 36.080000 31.460000 151 134 122 0
26.840000 36.080000 31.680000 159 139 127 0
27.060000 36.080000 31.680000 168 148 136 0
27.280000 36.080000 33.000000 184 158 141 0
27.500000 36.080000 33.000000 194 168 151 0
27.720000 36.080000 34.100000 202 179 160 0
27.940000 36.080000 34.760000 209 186 167 0
28.160000 36.080000 36.080000 208 185 172 0
28.380000 36.080000 36.080000 211 188 175 0
28.600000 36.080000 36.080000 212 188 175 0
28.820000 36.080000 36.080000 212 188 175 0
29.040000 36.080000 36.080000 209 181 164 0
29.260000 36.080000 36.080000 198 170 153 0
29.480000 36.080000 36.300000 183 158 148 0
29.700000 36.080000 36.300000 177 152 142 0
29.920000 36.080000 36.300000 177 153 140 0
30.140000 36.080000 37.620000 177 153 140 0
30.360000 36.080000 37.840000 175 155 141 0
30.580000 36.080000 37.840000 178 158 144 0
30.800000 36.080000 37.840000 182 160 144 0
31.020000 36.080000 37.840000 183 161 145 0
31.240000 36.080000 37.840000 190 163 149 0
31.460000 36.080000 37.840000 196 169 155 0
31.680000 36.080000 38.060000 199 176 165 0
31.900000 36.080000 38.060000 206 183 172 0
32.120000 36.080000 38.060000 212 189 178 0
32.340000 36.080000 38.060000 217 194 183 0
32.560000 36.080000 38.280000 217 190 178 0
32.780000 36.080000 39.600000 218 191 179 0
33.000000 36.080000 39.820000 217 194 183 0
33.220000 36.080000 31.460000 219 196 185 0
33.440000 36.080000 13.640000 221 197 184 0
33.660000 36.080000 3.520000 221 197 184 0
33.880000 36.080000 4.400000 218 195 184 0
34.100000 36.080000 2.860000 211 188 177 0
34.320000 36.080000 0.220000 201 177 164 0
34.540000 36.080000 1.760000 187 163 150 0
34.760000 36.080000 1.980000 154 146 130 0
34.980000 36.080000 1.980000 138 130 114 0
35.200000 36.080000 3.520000 122 144 127 0
35.420000 36.080000 3.520000 129 151 134 0
35.640000 36.080000 3.520000 132 161 138 0
35.860000 36.080000 3.520000 132 161 138 0
36.080000 36.080000 3.740000 131 164 142 0
36.300000 36.080000 3.740000 132 165 143 0
36.520000 36.080000 3.740000 129 167 147 0
36.740000 36.080000 3.740000 129 167 147 0
36.960000 36.080000 3.960000 124 172 153 0
37.180000 36.080000 3.960000 125 173 154 0
0.000000 36.300000 10.120000 96 132 119 0
0.220000 36.300000 10.120000 94 130 117 0
0.440000 36.300000 10.340000 86 123 110 0
0.660000 36.300000 10.340000 85 122 109 0
0.880000 36.300000 10.340000 86 122 109 0
1.100000 36.300000 10.340000 89 125 112 0
1.320000 36.300000 10.340000 89 126 113 0
1.540000 36.300000 10.340000 91 128 115 0
1.760000 36.300000 10.340000 92 129 116 0
1.980000 36.300000 10.340000 91 128 115 0
2.200000 36.300000 10.340000 91 128 115 0
2.420000 36.300000 10.340000 89 126 113 0
2.640000 36.300000 10.340000 89 125 112 0
2.860000 36.300000 11.660000 89 125 112 0
3.080000 36.300000 11.660000 88 124 111 0
3.300000 36.300000 11.660000 88 124 111 0
3.520000 36.300000 11.880000 86 126 112 0
3.740000 36.300000 10.340000 88 128 114 0
3.960000 36.300000 10.340000 88 131 116 0
4.180000 36.300000 10.340000 92 135 120 0
4.400000 36.300000 10.560000 90 140 126 0
4.620000 36.300000 10.560000 91 141 127 0
4.840000 36.300000 10.560000 91 143 128 0
5.060000 36.300000 10.560000 91 143 128 0
5.280000 36.300000 10.560000 92 145 130 0
5.500000 36.300000 10.560000 93 146 131 0
5.720000 36.300000 10.560000 95 149 131 0
5.940000 36.300000 10.560000 97 151 133 0
6.160000 36.300000 10.560000 95 151 135 0
6.380000 36.300000 10.560000 95 151 135 0
6.600000 36.300000 10.780000 96 152 136 0
6.820000 36.300000 10.780000 97 153 137 0
7.040000 36.300000 10.780000 96 154 137 0
7.260000 36.300000 10.780000 97 155 138 0
7.480000 36.300000 12.100000 98 156 137 0
