ply
format ascii 1.0
element vertex 1145
property float x
property float y
property float z
property uchar red
property uchar green
property uchar blue
property uchar alpha
end_header
26.180000 11.000000 10.780000 235 212 199 0
26.400000 11.000000 10.780000 236 213 200 0
26.620000 11.000000 10.780000 238 215 202 0
26.840000 11.000000 10.890000 238 215 202 0
27.060000 11.000000 10.890000 239 216 203 0
27.280000 11.000000 10.890000 238 218 206 0
27.500000 11.000000 11.660000 240 220 208 0
27.720000 11.000000 11.660000 237 231 226 0
27.940000 11.000000 11.660000 240 234 229 0
28.160000 11.000000 11.660000 244 235 223 0
28.380000 11.000000 12.320000 239 230 218 0
28.600000 11.000000 12.870000 242 219 208 0
28.820000 11.000000 13.970000 240 217 206 0
29.040000 11.000000 13.860000 240 217 206 0
29.260000 11.000000 14.630000 239 216 205 0
29.480000 11.000000 14.630000 238 215 202 0
29.700000 11.000000 14.630000 238 215 202 0
29.920000 11.000000 15.400000 238 215 202 0
30.140000 11.000000 15.400000 238 215 202 0
30.360000 11.000000 15.400000 236 213 202 0
30.580000 11.000000 15.510000 234 211 200 0
30.800000 11.000000 15.510000 236 209 197 0
31.020000 11.000000 15.510000 227 200 188 0
31.240000 11.000000 14.850000 242 168 164 0
31.460000 11.000000 12.760000 218 144 140 0
31.680000 11.000000 8.580000 221 112 113 0
31.900000 11.000000 6.490000 213 104 105 0
32.120000 11.000000 5.720000 212 101 103 0
32.340000 11.000000 5.720000 210 99 101 0
32.560000 11.000000 5.720000 209 98 100 0
32.780000 11.000000 6.490000 209 98 100 0
33.000000 11.000000 6.490000 208 97 99 0
33.220000 11.000000 5.940000 209 98 100 0
33.440000 11.000000 5.940000 209 98 100 0
33.660000 11.000000 6.600000 210 99 101 0
33.880000 11.000000 6.600000 210 97 100 0
34.100000 11.000000 7.040000 210 97 100 0
34.320000 11.000000 7.590000 209 96 99 0
34.540000 11.000000 7.700000 207 94 97 0
34.760000 11.000000 7.700000 209 96 99 0
34.980000 11.000000 7.700000 210 97 100 0
35.200000 11.000000 7.700000 209 97 98 0
35.420000 11.000000 7.700000 207 95 96 0
35.640000 11.000000 8.470000 208 96 97 0
35.860000 11.000000 8.470000 208 96 97 0
36.080000 11.000000 8.470000 208 96 97 0
36.300000 11.000000 8.470000 208 96 97 0
36.520000 11.000000 8.470000 209 97 98 0
36.740000 11.000000 8.470000 207 95 96 0
36.960000 11.000000 8.470000 209 97 98 0
37.180000 11.000000 8.580000 209 97 98 0
0.000000 11.220000 1.650000 170 81 70 0
0.220000 11.220000 1.650000 171 82 71 0
0.440000 11.220000 1.650000 171 82 71 0
0.660000 11.220000 1.650000 171 82 71 0
0.880000 11.220000 1.650000 171 80 70 0
1.100000 11.220000 1.650000 170 79 69 0
1.320000 11.220000 1.650000 169 78 68 0
1.540000 11.220000 1.650000 169 78 68 0
1.760000 11.220000 1.650000 168 79 66 0
1.980000 11.220000 1.760000 169 80 67 0
2.200000 11.220000 1.760000 170 81 68 0
2.420000 11.220000 1.760000 170 81 68 0
2.640000 11.220000 1.760000 170 81 70 0
2.860000 11.220000 1.760000 170 81 70 0
3.080000 11.220000 1.760000 171 80 70 0
3.300000 11.220000 1.870000 170 79 69 0
3.520000 11.220000 1.870000 169 78 68 0
3.740000 11.220000 2.420000 170 79 69 0
3.960000 11.220000 2.420000 169 80 67 0
4.180000 11.220000 2.530000 170 81 68 0
4.400000 11.220000 3.080000 170 81 70 0
4.620000 11.220000 3.520000 170 81 70 0
4.840000 11.220000 3.520000 171 82 71 0
5.060000 11.220000 3.520000 171 82 71 0
5.280000 11.220000 3.520000 169 82 70 0
5.500000 11.220000 3.520000 171 84 72 0
5.720000 11.220000 3.520000 171 84 72 0
5.940000 11.220000 3.520000 170 83 71 0
6.160000 11.220000 4.180000 171 84 72 0
6.380000 11.220000 4.290000 171 84 72 0
6.600000 11.220000 4.290000 171 84 72 0
6.820000 11.220000 4.290000 171 84 72 0
7.040000 11.220000 4.290000 169 85 72 0
7.260000 11.220000 4.290000 170 86 73 0
7.480000 11.220000 4.290000 169 86 75 0
7.700000 11.220000 4.290000 170 87 76 0
7.920000 11.220000 4.290000 170 87 76 0
8.140000 11.220000 4.290000 172 89 78 0
8.360000 11.220000 4.290000 171 90 81 0
8.580000 11.220000 4.290000 173 92 83 0
8.800000 11.220000 4.290000 174 94 82 0
9.020000 11.220000 4.400000 174 94 82 0
9.240000 11.220000 4.400000 171 91 79 0
9.460000 11.220000 4.400000 171 91 79 0
9.680000 11.220000 4.400000 172 89 78 0
9.900000 11.220000 4.400000 172 89 78 0
10.120000 11.220000 4.400000 171 90 81 0
10.340000 11.220000 4.400000 171 90 81 0
10.560000 11.220000 4.400000 170 90 78 0
10.780000 11.220000 4.510000 170 90 78 0
11.000000 11.220000 4.510000 170 90 78 0
11.220000 11.220000 4.510000 168 88 76 0
11.440000 11.220000 4.620000 169 89 77 0
11.660000 11.220000 4.620000 169 89 77 0
11.880000 11.220000 4.620000 168 89 79 0
12.100000 11.220000 4.620000 167 88 78 0
12.320000 11.220000 4.730000 167 88 78 0
12.540000 11.220000 4.730000 166 87 77 0
12.760000 11.220000 4.730000 163 86 75 0
12.980000 11.220000 4.730000 163 86 75 0
13.200000 11.220000 4.840000 162 85 74 0
13.420000 11.220000 4.730000 163 86 75 0
13.640000 11.220000 5.830000 161 86 76 0
13.860000 11.220000 6.270000 161 86 76 0
14.080000 11.220000 6.270000 162 87 76 0
14.300000 11.220000 6.270000 162 87 76 0
14.520000 11.220000 6.270000 158 90 76 0
14.740000 11.220000 6.270000 158 90 76 0
14.960000 11.220000 6.270000 153 93 80 0
15.180000 11.220000 6.270000 155 95 82 0
15.400000 11.220000 6.270000 151 97 82 0
15.620000 11.220000 6.270000 153 99 84 0
15.840000 11.220000 6.930000 154 100 85 0
16.060000 11.220000 6.930000 156 102 87 0
16.280000 11.220000 6.930000 152 108 90 0
16.500000 11.220000 6.930000 153 109 91 0
16.720000 11.220000 6.930000 157 113 95 0
16.940000 11.220000 6.930000 160 116 98 0
17.160000 11.220000 6.930000 164 121 100 0
17.380000 11.220000 6.930000 168 125 104 0
17.600000 11.220000 6.930000 172 135 114 0
17.820000 11.220000 6.930000 174 137 116 0
18.040000 11.220000 7.590000 175 143 123 0
18.260000 11.220000 7.590000 180 148 128 0
18.480000 11.220000 7.590000 183 150 130 0
18.700000 11.220000 7.700000 188 155 135 0
18.920000 11.220000 7.700000 189 160 139 0
19.140000 11.220000 7.700000 192 163 142 0
19.360000 11.220000 7.700000 195 166 143 0
19.580000 11.220000 7.700000 198 169 146 0
19.800000 11.220000 7.700000 199 173 153 0
20.020000 11.220000 7.700000 202 176 156 0
20.240000 11.220000 7.700000 204 181 160 0
20.460000 11.220000 7.700000 206 183 162 0
20.680000 11.220000 7.700000 208 187 165 0
20.900000 11.220000 7.810000 211 190 168 0
21.120000 11.220000 7.810000 212 192 176 0
21.340000 11.220000 7.810000 214 194 178 0
21.560000 11.220000 7.810000 215 197 182 0
21.780000 11.220000 8.580000 220 202 187 0
22.000000 11.220000 8.580000 220 202 187 0
22.220000 11.220000 8.580000 223 205 190 0
22.440000 11.220000 8.580000 225 207 192 0
22.660000 11.220000 8.580000 226 208 193 0
22.880000 11.220000 8.580000 228 208 194 0
23.100000 11.220000 9.350000 228 208 194 0
23.320000 11.220000 9.350000 228 208 194 0
23.540000 11.220000 9.350000 227 207 193 0
23.760000 11.220000 10.010000 227 205 189 0
23.980000 11.220000 10.560000 226 204 188 0
24.200000 11.220000 10.560000 224 204 188 0
24.420000 11.220000 10.560000 223 203 187 0
24.640000 11.220000 10.560000 226 203 190 0
24.860000 11.220000 10.670000 228 205 192 0
25.080000 11.220000 10.670000 227 207 193 0
25.300000 11.220000 10.670000 228 208 194 0
25.520000 11.220000 10.670000 231 208 195 0
25.740000 11.220000 10.670000 232 209 196 0
25.960000 11.220000 10.780000 232 212 198 0
26.180000 11.220000 10.780000 233 213 199 0
26.400000 11.220000 10.780000 236 213 200 0
26.620000 11.220000 10.780000 238 215 202 0
26.840000 11.220000 10.890000 237 217 205 0
27.060000 11.220000 10.890000 238 218 206 0
27.280000 11.220000 10.890000 231 224 213 0
27.500000 11.220000 10.890000 240 233 222 0
27.720000 11.220000 11.660000 243 238 229 0
27.940000 11.220000 11.660000 243 238 229 0
28.160000 11.220000 11.660000 246 235 226 0
28.380000 11.220000 12.320000 242 231 222 0
28.600000 11.220000 12.980000 242 222 210 0
28.820000 11.220000 13.310000 238 218 206 0
29.040000 11.220000 13.860000 238 218 206 0
29.260000 11.220000 14.630000 238 218 206 0
29.480000 11.220000 14.630000 239 216 203 0
29.700000 11.220000 14.630000 239 216 203 0
29.920000 11.220000 15.400000 238 215 202 0
30.140000 11.220000 15.400000 237 214 201 0
30.360000 11.220000 15.400000 236 213 202 0
30.580000 11.220000 15.510000 234 211 200 0
30.800000 11.220000 15.510000 243 203 190 0
31.020000 11.220000 14.850000 231 191 178 0
31.240000 11.220000 14.190000 243 157 153 0
31.460000 11.220000 12.100000 221 135 131 0
31.680000 11.220000 7.810000 217 108 109 0
31.900000 11.220000 6.490000 212 103 104 0
32.120000 11.220000 5.720000 212 101 103 0
32.340000 11.220000 5.720000 212 101 103 0
32.560000 11.220000 6.490000 210 99 101 0
32.780000 11.220000 6.490000 209 98 100 0
33.000000 11.220000 6.490000 209 96 99 0
33.220000 11.220000 6.490000 209 96 99 0
33.440000 11.220000 5.940000 210 99 101 0
33.660000 11.220000 6.600000 210 99 101 0
33.880000 11.220000 6.490000 209 96 99 0
34.100000 11.220000 7.040000 209 96 99 0
34.320000 11.220000 7.590000 208 95 98 0
34.540000 11.220000 7.700000 209 96 99 0
34.760000 11.220000 7.700000 209 96 99 0
34.980000 11.220000 7.700000 210 97 100 0
35.200000 11.220000 7.700000 209 96 99 0
35.420000 11.220000 8.360000 208 95 98 0
35.640000 11.220000 8.470000 209 96 99 0
35.860000 11.220000 8.470000 209 96 99 0
36.080000 11.220000 8.470000 208 95 98 0
36.300000 11.220000 8.470000 209 96 99 0
36.520000 11.220000 8.470000 209 96 99 0
36.740000 11.220000 8.470000 209 96 99 0
36.960000 11.220000 8.470000 209 97 98 0
37.180000 11.220000 8.470000 209 97 98 0
0.000000 11.440000 1.650000 170 81 70 0
0.220000 11.440000 1.650000 171 82 71 0
0.440000 11.440000 1.650000 171 82 71 0
0.660000 11.440000 1.650000 170 81 70 0
0.880000 11.440000 1.650000 171 80 70 0
1.100000 11.440000 1.650000 169 78 68 0
1.320000 11.440000 1.650000 168 77 67 0
1.540000 11.440000 1.650000 168 77 67 0
1.760000 11.440000 1.650000 168 79 66 0
1.980000 11.440000 1.650000 169 80 67 0
2.200000 11.440000 1.760000 170 81 68 0
2.420000 11.440000 2.420000 170 81 68 0
2.640000 11.440000 2.420000 169 80 69 0
2.860000 11.440000 1.760000 169 80 69 0
3.080000 11.440000 1.870000 170 79 69 0
3.300000 11.440000 1.870000 169 78 68 0
3.520000 11.440000 1.870000 169 78 68 0
3.740000 11.440000 2.530000 168 77 67 0
3.960000 11.440000 2.420000 168 79 66 0
4.180000 11.440000 2.970000 169 80 67 0
4.400000 11.440000 2.860000 170 81 70 0
4.620000 11.440000 3.520000 170 81 70 0
4.840000 11.440000 3.520000 171 82 71 0
5.060000 11.440000 3.520000 170 81 70 0
5.280000 11.440000 3.520000 171 84 72 0
5.500000 11.440000 3.520000 171 84 72 0
5.720000 11.440000 3.520000 171 84 72 0
5.940000 11.440000 3.520000 171 84 72 0
6.160000 11.440000 4.180000 171 84 72 0
6.380000 11.440000 4.180000 171 84 72 0
6.600000 11.440000 4.290000 171 84 72 0
6.820000 11.440000 4.290000 172 85 73 0
7.040000 11.440000 4.290000 169 85 72 0
7.260000 11.440000 4.290000 169 85 72 0
7.480000 11.440000 4.290000 169 86 75 0
7.700000 11.440000 4.290000 170 87 76 0
7.920000 11.440000 4.290000 170 87 76 0
8.140000 11.440000 4.290000 172 89 78 0
8.360000 11.440000 4.290000 172 91 82 0
8.580000 11.440000 4.290000 172 91 82 0
8.800000 11.440000 4.290000 174 94 82 0
9.020000 11.440000 4.290000 174 94 82 0
9.240000 11.440000 4.400000 171 91 79 0
9.460000 11.440000 4.400000 170 90 78 0
9.680000 11.440000 4.400000 171 88 77 0
9.900000 11.440000 4.400000 172 89 78 0
10.120000 11.440000 4.400000 169 88 79 0
10.340000 11.440000 4.400000 170 89 80 0
10.560000 11.440000 4.400000 169 89 77 0
10.780000 11.440000 4.510000 169 89 77 0
11.000000 11.440000 4.510000 169 89 77 0
11.220000 11.440000 4.510000 169 89 77 0
11.440000 11.440000 4.620000 169 89 77 0
11.660000 11.440000 4.620000 169 89 77 0
11.880000 11.440000 4.620000 167 88 78 0
12.100000 11.440000 4.620000 166 87 77 0
12.320000 11.440000 4.730000 167 88 78 0
12.540000 11.440000 4.730000 165 86 76 0
12.760000 11.440000 4.730000 164 87 76 0
12.980000 11.440000 4.730000 162 85 74 0
13.200000 11.440000 4.840000 163 86 75 0
13.420000 11.440000 4.620000 162 85 74 0
13.640000 11.440000 5.720000 161 86 76 0
13.860000 11.440000 6.270000 161 86 76 0
14.080000 11.440000 6.270000 162 87 76 0
14.300000 11.440000 6.270000 161 86 75 0
14.520000 11.440000 6.270000 157 89 75 0
14.740000 11.440000 6.270000 158 90 76 0
14.960000 11.440000 6.270000 153 93 80 0
15.180000 11.440000 6.270000 153 93 80 0
15.400000 11.440000 6.270000 151 97 82 0
15.620000 11.440000 6.270000 152 98 83 0
15.840000 11.440000 6.930000 152 98 83 0
16.060000 11.440000 6.930000 155 101 86 0
16.280000 11.440000 6.930000 149 105 87 0
16.500000 11.440000 6.930000 152 108 90 0
16.720000 11.440000 6.930000 154 110 92 0
16.940000 11.440000 6.930000 158 114 96 0
17.160000 11.440000 6.930000 161 118 97 0
17.380000 11.440000 6.930000 165 122 101 0
17.600000 11.440000 6.930000 168 131 110 0
17.820000 11.440000 6.930000 174 137 116 0
18.040000 11.440000 7.590000 174 142 122 0
18.260000 11.440000 7.590000 179 147 127 0
18.480000 11.440000 7.700000 183 150 130 0
18.700000 11.440000 7.700000 187 154 134 0
18.920000 11.440000 7.700000 186 157 136 0
19.140000 11.440000 7.700000 190 161 140 0
19.360000 11.440000 7.700000 194 165 142 0
19.580000 11.440000 7.700000 196 167 144 0
19.800000 11.440000 7.700000 198 172 152 0
20.020000 11.440000 7.700000 201 175 155 0
20.240000 11.440000 7.700000 202 179 158 0
20.460000 11.440000 7.700000 205 182 161 0
20.680000 11.440000 7.700000 208 187 165 0
20.900000 11.440000 7.810000 209 188 166 0
21.120000 11.440000 7.810000 210 190 174 0
21.340000 11.440000 7.810000 215 195 179 0
21.560000 11.440000 7.810000 215 197 182 0
21.780000 11.440000 8.580000 216 198 183 0
22.000000 11.440000 8.580000 219 201 186 0
22.220000 11.440000 8.580000 221 203 188 0
22.440000 11.440000 8.580000 223 205 190 0
22.660000 11.440000 8.580000 224 206 191 0
22.880000 11.440000 8.580000 226 206 192 0
23.100000 11.440000 9.350000 226 206 192 0
23.320000 11.440000 9.350000 226 206 192 0
23.540000 11.440000 10.010000 225 205 191 0
23.760000 11.440000 9.900000 226 204 188 0
23.980000 11.440000 10.560000 226 204 188 0
24.200000 11.440000 10.560000 224 204 188 0
24.420000 11.440000 10.560000 223 203 187 0
24.640000 11.440000 10.560000 226 203 190 0
24.860000 11.440000 10.670000 228 205 192 0
25.080000 11.440000 10.670000 226 206 192 0
25.300000 11.440000 10.670000 228 208 194 0
25.520000 11.440000 10.670000 230 207 194 0
25.740000 11.440000 10.670000 232 209 196 0
25.960000 11.440000 10.780000 231 211 197 0
26.180000 11.440000 10.780000 232 212 198 0
26.400000 11.440000 10.780000 236 213 200 0
26.620000 11.440000 10.780000 237 214 201 0
26.840000 11.440000 10.890000 236 216 204 0
27.060000 11.440000 10.890000 237 217 205 0
27.280000 11.440000 10.890000 231 224 213 0
27.500000 11.440000 10.890000 241 234 223 0
27.720000 11.440000 11.660000 241 236 227 0
27.940000 11.440000 11.660000 240 235 226 0
28.160000 11.440000 11.660000 245 234 225 0
28.380000 11.440000 12.320000 238 227 218 0
28.600000 11.440000 12.870000 240 220 208 0
28.820000 11.440000 13.970000 239 219 207 0
29.040000 11.440000 13.860000 238 218 206 0
29.260000 11.440000 14.630000 237 217 205 0
29.480000 11.440000 14.630000 239 216 203 0
29.700000 11.440000 14.630000 238 215 202 0
29.920000 11.440000 15.400000 238 215 202 0
30.140000 11.440000 15.400000 237 214 201 0
30.360000 11.440000 15.400000 235 212 201 0
30.580000 11.440000 15.510000 233 210 199 0
30.800000 11.440000 15.510000 240 200 187 0
31.020000 11.440000 14.850000 225 185 172 0
31.240000 11.440000 13.420000 234 148 144 0
31.460000 11.440000 10.670000 210 124 120 0
31.680000 11.440000 7.150000 214 105 106 0
31.900000 11.440000 5.720000 212 103 104 0
32.120000 11.440000 5.720000 212 101 103 0
32.340000 11.440000 5.720000 211 100 102 0
32.560000 11.440000 6.490000 210 99 101 0
32.780000 11.440000 6.490000 209 98 100 0
33.000000 11.440000 6.490000 210 97 100 0
33.220000 11.440000 6.490000 210 97 100 0
33.440000 11.440000 6.600000 208 97 99 0
33.660000 11.440000 6.050000 210 99 101 0
33.880000 11.440000 6.600000 211 98 101 0
34.100000 11.440000 7.040000 209 96 99 0
34.320000 11.440000 7.590000 210 97 100 0
34.540000 11.440000 7.700000 209 96 99 0
34.760000 11.440000 7.700000 209 96 99 0
34.980000 11.440000 7.700000 209 96 99 0
35.200000 11.440000 7.700000 209 96 99 0
35.420000 11.440000 8.360000 209 96 99 0
35.640000 11.440000 8.470000 208 95 98 0
35.860000 11.440000 8.470000 209 96 99 0
36.080000 11.440000 8.470000 207 94 97 0
36.300000 11.440000 8.470000 208 95 98 0
36.520000 11.440000 8.470000 209 96 99 0
36.740000 11.440000 8.470000 208 95 98 0
36.960000 11.440000 8.470000 209 97 98 0
37.180000 11.440000 8.470000 210 98 99 0
0.000000 11.660000 1.650000 171 80 70 0
0.220000 11.660000 1.650000 172 81 71 0
0.440000 11.660000 1.650000 171 81 68 0
0.660000 11.660000 1.650000 169 79 66 0
0.880000 11.660000 1.650000 169 79 66 0
1.100000 11.660000 1.650000 169 79 66 0
1.320000 11.660000 1.650000 168 77 67 0
1.540000 11.660000 1.650000 168 77 67 0
1.760000 11.660000 1.650000 169 78 68 0
1.980000 11.660000 1.650000 169 78 68 0
2.200000 11.660000 1.760000 170 80 67 0
2.420000 11.660000 2.420000 171 81 68 0
2.640000 11.660000 2.420000 169 79 66 0
2.860000 11.660000 1.760000 169 79 66 0
3.080000 11.660000 1.870000 168 77 67 0
3.300000 11.660000 1.870000 168 77 67 0
3.520000 11.660000 1.870000 169 78 68 0
3.740000 11.660000 2.530000 169 78 68 0
3.960000 11.660000 2.970000 168 79 66 0
4.180000 11.660000 3.520000 170 81 68 0
4.400000 11.660000 3.520000 169 80 69 0
4.620000 11.660000 3.520000 169 80 69 0
4.840000 11.660000 3.520000 170 81 70 0
5.060000 11.660000 3.520000 171 82 71 0
5.280000 11.660000 3.520000 171 82 71 0
5.500000 11.660000 3.520000 172 83 72 0
5.720000 11.660000 3.520000 171 84 72 0
5.940000 11.660000 3.520000 171 84 72 0
6.160000 11.660000 3.520000 172 83 72 0
6.380000 11.660000 4.180000 172 83 72 0
6.600000 11.660000 4.290000 172 85 73 0
6.820000 11.660000 4.290000 171 84 72 0
7.040000 11.660000 4.290000 171 83 74 0
7.260000 11.660000 4.290000 172 84 75 0
7.480000 11.660000 4.290000 170 86 73 0
7.700000 11.660000 4.290000 170 86 73 0
7.920000 11.660000 4.290000 170 87 76 0
8.140000 11.660000 4.290000 172 89 78 0
8.360000 11.660000 4.290000 173 90 79 0
8.580000 11.660000 4.290000 174 91 80 0
8.800000 11.660000 4.290000 175 92 83 0
9.020000 11.660000 4.290000 174 91 82 0
9.240000 11.660000 4.400000 172 89 78 0
9.460000 11.660000 4.400000 171 88 77 0
9.680000 11.660000 4.400000 172 87 77 0
9.900000 11.660000 4.400000 172 87 77 0
10.120000 11.660000 4.400000 171 88 77 0
10.340000 11.660000 4.400000 169 86 75 0
10.560000 11.660000 4.400000 168 88 76 0
10.780000 11.660000 4.510000 169 89 77 0
11.000000 11.660000 4.510000 169 88 79 0
11.220000 11.660000 4.510000 169 88 79 0
11.440000 11.660000 4.620000 171 88 77 0
11.660000 11.660000 4.620000 169 86 75 0
11.880000 11.660000 4.620000 167 86 77 0
12.100000 11.660000 4.620000 168 87 78 0
12.320000 11.660000 4.730000 167 86 77 0
12.540000 11.660000 4.730000 167 86 77 0
12.760000 11.660000 4.730000 167 86 77 0
12.980000 11.660000 4.730000 166 85 76 0
13.200000 11.660000 4.840000 166 87 77 0
13.420000 11.660000 4.620000 164 85 75 0
13.640000 11.660000 5.720000 164 85 75 0
13.860000 11.660000 6.270000 163 84 74 0
14.080000 11.660000 6.270000 163 86 75 0
14.300000 11.660000 6.270000 163 86 75 0
14.520000 11.660000 6.270000 160 85 74 0
14.740000 11.660000 6.270000 162 87 76 0
14.960000 11.660000 6.270000 158 90 76 0
15.180000 11.660000 6.270000 160 92 78 0
15.400000 11.660000 6.270000 154 94 81 0
15.620000 11.660000 6.270000 156 96 83 0
15.840000 11.660000 7.040000 149 99 85 0
16.060000 11.660000 7.040000 150 100 86 0
16.280000 11.660000 7.040000 156 102 87 0
16.500000 11.660000 6.930000 158 104 89 0
16.720000 11.660000 6.930000 152 108 90 0
16.940000 11.660000 6.930000 156 112 94 0
17.160000 11.660000 6.930000 157 118 100 0
17.380000 11.660000 6.930000 162 123 105 0
17.600000 11.660000 6.930000 163 130 110 0
17.820000 11.660000 6.930000 169 136 116 0
18.040000 11.660000 7.590000 176 140 119 0
18.260000 11.660000 7.700000 181 145 124 0
18.480000 11.660000 7.700000 183 147 128 0
18.700000 11.660000 7.700000 187 151 132 0
18.920000 11.660000 7.700000 188 155 131 0
19.140000 11.660000 7.700000 191 158 134 0
19.360000 11.660000 7.700000 196 165 142 0
19.580000 11.660000 7.700000 196 165 142 0
19.800000 11.660000 7.700000 198 169 146 0
20.020000 11.660000 7.700000 203 174 151 0
20.240000 11.660000 7.700000 202 175 151 0
20.460000 11.660000 7.700000 207 180 156 0
20.680000 11.660000 7.810000 206 184 158 0
20.900000 11.660000 7.810000 209 187 161 0
21.120000 11.660000 7.810000 212 189 166 0
21.340000 11.660000 7.810000 214 191 168 0
21.560000 11.660000 8.580000 215 196 177 0
21.780000 11.660000 8.580000 216 197 178 0
22.000000 11.660000 8.580000 220 200 184 0
22.220000 11.660000 8.580000 222 202 186 0
22.440000 11.660000 8.580000 223 203 187 0
22.660000 11.660000 8.580000 224 204 188 0
22.880000 11.660000 9.350000 225 205 189 0
23.100000 11.660000 9.350000 225 205 189 0
23.320000 11.660000 9.350000 225 205 191 0
23.540000 11.660000 10.010000 225 205 191 0
23.760000 11.660000 10.560000 226 203 190 0
23.980000 11.660000 10.560000 226 203 190 0
24.200000 11.660000 10.560000 226 204 188 0
24.420000 11.660000 10.560000 227 205 189 0
24.640000 11.660000 10.560000 227 205 189 0
24.860000 11.660000 10.670000 227 205 189 0
25.080000 11.660000 10.670000 229 206 193 0
25.300000 11.660000 10.670000 230 207 194 0
25.520000 11.660000 10.670000 231 208 195 0
25.740000 11.660000 10.670000 232 209 196 0
25.960000 11.660000 10.780000 232 209 196 0
26.180000 11.660000 10.780000 233 210 197 0
26.400000 11.660000 10.780000 233 210 197 0
26.620000 11.660000 10.780000 234 211 198 0
26.840000 11.660000 10.890000 236 213 202 0
27.060000 11.660000 10.890000 239 216 205 0
27.280000 11.660000 10.890000 240 217 206 0
27.500000 11.660000 10.890000 245 222 211 0
27.720000 11.660000 11.660000 252 232 220 0
27.940000 11.660000 11.660000 253 233 221 0
28.160000 11.660000 11.660000 251 228 215 0
28.380000 11.660000 12.210000 243 220 207 0
28.600000 11.660000 13.420000 241 218 207 0
28.820000 11.660000 13.970000 240 217 206 0
29.040000 11.660000 13.860000 239 216 205 0
29.260000 11.660000 14.630000 238 215 204 0
29.480000 11.660000 14.630000 237 214 203 0
29.700000 11.660000 14.630000 237 214 203 0
29.920000 11.660000 15.400000 237 213 200 0
30.140000 11.660000 15.400000 236 212 199 0
30.360000 11.660000 15.400000 235 210 200 0
30.580000 11.660000 15.510000 230 205 195 0
30.800000 11.660000 14.850000 249 184 177 0
31.020000 11.660000 14.080000 231 166 159 0
31.240000 11.660000 12.760000 237 132 131 0
31.460000 11.660000 9.240000 218 113 112 0
31.680000 11.660000 6.380000 212 101 102 0
31.900000 11.660000 5.720000 212 101 102 0
32.120000 11.660000 5.720000 211 100 102 0
32.340000 11.660000 5.720000 211 100 102 0
32.560000 11.660000 6.490000 211 98 101 0
32.780000 11.660000 6.490000 210 97 100 0
33.000000 11.660000 6.490000 210 97 100 0
33.220000 11.660000 6.490000 210 97 100 0
33.440000 11.660000 6.490000 210 99 100 0
33.660000 11.660000 6.600000 211 100 101 0
33.880000 11.660000 6.600000 210 99 101 0
34.100000 11.660000 7.040000 210 99 101 0
34.320000 11.660000 7.590000 210 97 100 0
34.540000 11.660000 7.700000 209 96 99 0
34.760000 11.660000 7.700000 208 95 98 0
34.980000 11.660000 7.700000 209 96 99 0
35.200000 11.660000 7.700000 209 97 98 0
35.420000 11.660000 8.360000 210 98 99 0
35.640000 11.660000 8.470000 209 97 98 0
35.860000 11.660000 8.470000 208 96 97 0
36.080000 11.660000 8.470000 208 96 97 0
36.300000 11.660000 8.470000 208 96 97 0
36.520000 11.660000 8.470000 209 96 99 0
36.740000 11.660000 8.470000 209 96 99 0
36.960000 11.660000 8.470000 209 97 98 0
37.180000 11.660000 8.470000 208 96 97 0
0.000000 11.880000 1.650000 169 78 68 0
0.220000 11.880000 1.650000 171 80 70 0
0.440000 11.880000 1.650000 170 80 67 0
0.660000 11.880000 1.650000 169 79 66 0
0.880000 11.880000 1.650000 169 79 66 0
1.100000 11.880000 1.650000 169 79 66 0
1.320000 11.880000 1.650000 168 77 67 0
1.540000 11.880000 1.650000 167 76 66 0
1.760000 11.880000 1.650000 169 78 68 0
1.980000 11.880000 1.650000 169 78 68 0
2.200000 11.880000 1.760000 169 79 66 0
2.420000 11.880000 1.760000 169 79 66 0
2.640000 11.880000 1.760000 168 78 65 0
2.860000 11.880000 1.760000 168 78 65 0
3.080000 11.880000 1.870000 167 76 66 0
3.300000 11.880000 1.870000 169 78 68 0
3.520000 11.880000 1.870000 168 77 67 0
3.740000 11.880000 2.530000 168 77 67 0
3.960000 11.880000 2.970000 169 80 67 0
4.180000 11.880000 3.520000 170 81 68 0
4.400000 11.880000 3.520000 169 80 69 0
4.620000 11.880000 3.520000 169 80 69 0
4.840000 11.880000 3.520000 170 81 70 0
5.060000 11.880000 3.520000 170 81 70 0
5.280000 11.880000 3.520000 170 81 70 0
5.500000 11.880000 3.520000 170 81 70 0
5.720000 11.880000 3.520000 169 82 70 0
5.940000 11.880000 3.520000 171 84 72 0
6.160000 11.880000 3.520000 172 83 72 0
6.380000 11.880000 4.290000 172 83 72 0
6.600000 11.880000 4.290000 172 85 73 0
6.820000 11.880000 4.290000 172 85 73 0
7.040000 11.880000 4.290000 171 83 74 0
7.260000 11.880000 4.290000 172 84 75 0
7.480000 11.880000 4.290000 170 86 73 0
7.700000 11.880000 4.290000 169 85 72 0
7.920000 11.880000 4.290000 170 87 76 0
8.140000 11.880000 4.290000 171 88 77 0
8.360000 11.880000 4.290000 173 90 79 0
8.580000 11.880000 4.290000 174 91 80 0
8.800000 11.880000 4.290000 173 90 81 0
9.020000 11.880000 4.290000 173 90 81 0
9.240000 11.880000 4.400000 172 89 78 0
9.460000 11.880000 4.400000 170 87 76 0
9.680000 11.880000 4.400000 170 85 75 0
9.900000 11.880000 4.400000 171 86 76 0
10.120000 11.880000 4.400000 170 87 76 0
10.340000 11.880000 4.400000 169 86 75 0
10.560000 11.880000 4.400000 168 88 76 0
10.780000 11.880000 4.400000 168 88 76 0
11.000000 11.880000 4.510000 168 87 78 0
11.220000 11.880000 4.510000 168 87 78 0
11.440000 11.880000 4.510000 170 87 76 0
11.660000 11.880000 4.620000 169 86 75 0
11.880000 11.880000 4.620000 167 86 77 0
12.100000 11.880000 4.620000 166 85 76 0
12.320000 11.880000 4.730000 168 87 78 0
12.540000 11.880000 4.730000 168 87 78 0
12.760000 11.880000 4.730000 166 85 76 0
12.980000 11.880000 4.730000 166 85 76 0
13.200000 11.880000 4.730000 165 86 76 0
13.420000 11.880000 5.280000 164 85 75 0
13.640000 11.880000 5.610000 163 84 74 0
13.860000 11.880000 6.270000 164 85 75 0
14.080000 11.880000 6.270000 162 85 74 0
14.300000 11.880000 6.270000 162 85 74 0
14.520000 11.880000 6.270000 159 84 73 0
14.740000 11.880000 6.270000 159 84 73 0
14.960000 11.880000 6.270000 157 89 75 0
15.180000 11.880000 6.270000 159 91 77 0
15.400000 11.880000 6.270000 153 93 80 0
15.620000 11.880000 6.270000 153 93 80 0
15.840000 11.880000 7.040000 148 98 84 0
16.060000 11.880000 7.040000 149 99 85 0
16.280000 11.880000 7.040000 154 100 85 0
16.500000 11.880000 7.040000 156 102 87 0
16.720000 11.880000 7.040000 151 107 89 0
16.940000 11.880000 6.930000 154 110 92 0
17.160000 11.880000 6.930000 154 115 97 0
17.380000 11.880000 6.930000 160 121 103 0
17.600000 11.880000 6.930000 161 128 108 0
17.820000 11.880000 7.700000 168 135 115 0
18.040000 11.880000 7.700000 173 137 116 0
18.260000 11.880000 7.700000 179 143 122 0
18.480000 11.880000 7.700000 181 145 126 0
18.700000 11.880000 7.700000 184 148 129 0
18.920000 11.880000 7.700000 186 153 129 0
19.140000 11.880000 7.700000 189 156 132 0
19.360000 11.880000 7.700000 191 160 137 0
19.580000 11.880000 7.700000 195 164 141 0
19.800000 11.880000 7.700000 196 167 144 0
20.020000 11.880000 7.700000 198 169 146 0
20.240000 11.880000 7.700000 200 173 149 0
20.460000 11.880000 7.810000 203 176 152 0
20.680000 11.880000 7.810000 203 181 155 0
20.900000 11.880000 7.810000 206 184 158 0
21.120000 11.880000 7.810000 209 186 163 0
21.340000 11.880000 7.810000 211 188 165 0
21.560000 11.880000 8.580000 214 195 176 0
21.780000 11.880000 8.580000 216 197 178 0
22.000000 11.880000 8.580000 217 197 181 0
22.220000 11.880000 8.580000 220 200 184 0
22.440000 11.880000 8.580000 222 202 186 0
22.660000 11.880000 8.580000 223 203 187 0
22.880000 11.880000 9.350000 223 203 187 0
23.100000 11.880000 9.350000 223 203 187 0
23.320000 11.880000 10.010000 224 204 190 0
23.540000 11.880000 9.900000 223 203 189 0
23.760000 11.880000 10.560000 226 203 190 0
23.980000 11.880000 10.560000 226 203 190 0
24.200000 11.880000 10.560000 227 205 189 0
24.420000 11.880000 10.560000 227 205 189 0
24.640000 11.880000 10.560000 227 205 189 0
24.860000 11.880000 10.670000 227 205 189 0
25.080000 11.880000 10.670000 228 205 192 0
25.300000 11.880000 10.670000 230 207 194 0
25.520000 11.880000 10.670000 230 207 194 0
25.740000 11.880000 10.670000 231 208 195 0
25.960000 11.880000 10.780000 232 209 196 0
26.180000 11.880000 10.780000 232 209 196 0
26.400000 11.880000 10.780000 234 211 198 0
26.620000 11.880000 10.780000 235 212 199 0
26.840000 11.880000 10.890000 235 212 201 0
27.060000 11.880000 10.890000 236 213 202 0
27.280000 11.880000 10.890000 237 214 203 0
27.500000 11.880000 11.660000 240 217 206 0
27.720000 11.880000 11.660000 240 220 208 0
27.940000 11.880000 11.660000 239 219 207 0
28.160000 11.880000 11.660000 240 217 204 0
28.380000 11.880000 12.210000 239 216 203 0
28.600000 11.880000 13.310000 240 217 206 0
28.820000 11.880000 13.860000 239 216 205 0
29.040000 11.880000 13.860000 239 216 205 0
29.260000 11.880000 14.630000 238 215 204 0
29.480000 11.880000 14.630000 237 214 203 0
29.700000 11.880000 14.630000 236 213 202 0
29.920000 11.880000 14.630000 236 212 199 0
30.140000 11.880000 15.400000 235 211 198 0
30.360000 11.880000 15.400000 231 206 196 0
30.580000 11.880000 14.740000 227 202 192 0
30.800000 11.880000 14.740000 239 174 167 0
31.020000 11.880000 13.420000 218 153 146 0
31.240000 11.880000 11.330000 226 121 120 0
31.460000 11.880000 7.810000 213 108 107 0
31.680000 11.880000 6.380000 211 100 101 0
31.900000 11.880000 5.720000 211 100 101 0
32.120000 11.880000 5.720000 210 99 101 0
32.340000 11.880000 6.380000 210 99 101 0
32.560000 11.880000 6.490000 211 98 101 0
32.780000 11.880000 6.490000 210 97 100 0
33.000000 11.880000 6.490000 210 97 100 0
33.220000 11.880000 6.490000 210 97 100 0
33.440000 11.880000 7.040000 208 97 98 0
33.660000 11.880000 7.150000 209 98 99 0
33.880000 11.880000 7.150000 208 97 99 0
34.100000 11.880000 7.040000 209 98 100 0
34.320000 11.880000 7.590000 209 96 99 0
34.540000 11.880000 7.700000 208 95 98 0
34.760000 11.880000 7.700000 208 95 98 0
34.980000 11.880000 7.700000 209 96 99 0
35.200000 11.880000 7.700000 209 97 98 0
35.420000 11.880000 8.360000 209 97 98 0
35.640000 11.880000 8.470000 208 96 97 0
35.860000 11.880000 8.470000 209 97 98 0
36.080000 11.880000 8.470000 208 96 97 0
36.300000 11.880000 8.470000 208 96 97 0
36.520000 11.880000 8.470000 208 95 98 0
36.740000 11.880000 8.470000 207 94 97 0
36.960000 11.880000 8.470000 208 96 97 0
37.180000 11.880000 8.470000 208 96 97 0
0.000000 12.100000 1.650000 170 80 67 0
0.220000 12.100000 1.650000 171 81 68 0
0.440000 12.100000 1.650000 170 80 67 0
0.660000 12.100000 1.650000 168 78 65 0
0.880000 12.100000 1.650000 169 79 66 0
1.100000 12.100000 1.650000 169 79 66 0
1.320000 12.100000 1.650000 168 78 65 0
1.540000 12.100000 1.650000 168 78 65 0
1.760000 12.100000 1.650000 168 78 65 0
1.980000 12.100000 1.650000 169 79 66 0
2.200000 12.100000 1.760000 168 78 65 0
2.420000 12.100000 1.760000 168 78 65 0
2.640000 12.100000 1.760000 169 78 68 0
2.860000 12.100000 1.760000 168 77 67 0
3.080000 12.100000 1.870000 168 78 65 0
3.300000 12.100000 1.870000 169 79 66 0
3.520000 12.100000 1.870000 169 80 67 0
3.740000 12.100000 2.420000 169 80 67 0
3.960000 12.100000 2.860000 169 80 69 0
4.180000 12.100000 3.520000 170 81 70 0
4.400000 12.100000 3.520000 171 80 70 0
4.620000 12.100000 3.520000 170 79 69 0
4.840000 12.100000 3.520000 170 81 70 0
5.060000 12.100000 3.520000 168 79 68 0
5.280000 12.100000 3.520000 170 81 70 0
5.500000 12.100000 3.520000 169 80 69 0
5.720000 12.100000 3.520000 170 81 70 0
5.940000 12.100000 3.520000 171 82 71 0
6.160000 12.100000 3.520000 171 84 72 0
6.380000 12.100000 3.520000 171 84 72 0
6.600000 12.100000 4.290000 171 84 72 0
6.820000 12.100000 4.290000 172 85 73 0
7.040000 12.100000 4.290000 172 85 73 0
7.260000 12.100000 4.290000 171 84 72 0
7.480000 12.100000 4.290000 171 84 72 0
7.700000 12.100000 4.290000 172 85 73 0
7.920000 12.100000 4.290000 170 85 75 0
8.140000 12.100000 4.290000 171 86 76 0
8.360000 12.100000 4.290000 173 88 78 0
8.580000 12.100000 4.290000 173 88 78 0
8.800000 12.100000 4.290000 170 89 80 0
9.020000 12.100000 4.290000 170 89 80 0
9.240000 12.100000 4.290000 173 90 79 0
9.460000 12.100000 4.400000 170 87 76 0
9.680000 12.100000 4.400000 171 88 77 0
9.900000 12.100000 4.400000 170 87 76 0
10.120000 12.100000 4.400000 169 86 75 0
10.340000 12.100000 4.400000 170 87 76 0
10.560000 12.100000 4.400000 170 87 78 0
10.780000 12.100000 4.400000 169 86 77 0
11.000000 12.100000 4.400000 167 87 75 0
11.220000 12.100000 4.510000 167 87 75 0
11.440000 12.100000 4.510000 167 87 75 0
11.660000 12.100000 4.620000 167 87 75 0
11.880000 12.100000 4.620000 169 86 75 0
12.100000 12.100000 4.730000 169 86 75 0
12.320000 12.100000 4.730000 168 88 76 0
12.540000 12.100000 4.730000 168 88 76 0
12.760000 12.100000 4.730000 169 88 79 0
12.980000 12.100000 4.840000 169 88 79 0
13.200000 12.100000 4.730000 166 87 77 0
13.420000 12.100000 5.170000 165 86 76 0
13.640000 12.100000 5.610000 166 85 76 0
13.860000 12.100000 6.270000 164 83 74 0
14.080000 12.100000 6.270000 163 84 75 0
14.300000 12.100000 6.270000 162 83 74 0
14.520000 12.100000 6.270000 161 84 73 0
14.740000 12.100000 6.270000 162 85 74 0
14.960000 12.100000 6.270000 161 86 75 0
15.180000 12.100000 6.270000 161 86 75 0
15.400000 12.100000 6.270000 159 89 76 0
15.620000 12.100000 6.270000 160 90 77 0
15.840000 12.100000 7.040000 156 93 81 0
16.060000 12.100000 7.040000 156 93 81 0
16.280000 12.100000 7.040000 157 97 82 0
16.500000 12.100000 7.040000 158 98 83 0
16.720000 12.100000 7.040000 156 102 85 0
16.940000 12.100000 7.040000 158 104 87 0
17.160000 12.100000 6.930000 160 111 92 0
17.380000 12.100000 6.930000 164 115 96 0
17.600000 12.100000 7.700000 166 122 104 0
17.820000 12.100000 7.700000 171 127 109 0
18.040000 12.100000 7.700000 173 134 112 0
18.260000 12.100000 7.700000 177 138 116 0
18.480000 12.100000 7.700000 178 142 123 0
18.700000 12.100000 7.700000 182 146 127 0
18.920000 12.100000 7.700000 186 150 129 0
19.140000 12.100000 7.700000 189 153 132 0
19.360000 12.100000 7.700000 191 155 134 0
19.580000 12.100000 7.700000 196 160 139 0
19.800000 12.100000 7.700000 197 166 143 0
20.020000 12.100000 7.700000 198 167 144 0
20.240000 12.100000 7.810000 200 171 150 0
20.460000 12.100000 7.810000 203 174 153 0
20.680000 12.100000 7.810000 204 179 154 0
20.900000 12.100000 7.810000 208 183 158 0
21.120000 12.100000 7.810000 210 185 162 0
21.340000 12.100000 8.580000 212 187 164 0
21.560000 12.100000 8.580000 211 190 168 0
21.780000 12.100000 8.580000 215 194 172 0
22.000000 12.100000 8.580000 219 197 179 0
22.220000 12.100000 8.580000 220 198 180 0
22.440000 12.100000 8.580000 219 199 183 0
22.660000 12.100000 9.350000 221 201 185 0
22.880000 12.100000 9.350000 224 202 186 0
23.100000 12.100000 9.350000 224 202 186 0
23.320000 12.100000 10.010000 225 202 189 0
23.540000 12.100000 10.560000 226 203 190 0
23.760000 12.100000 10.560000 227 204 191 0
23.980000 12.100000 10.560000 227 204 191 0
24.200000 12.100000 10.560000 227 204 191 0
24.420000 12.100000 10.560000 227 204 191 0
24.640000 12.100000 10.560000 227 204 191 0
24.860000 12.100000 10.670000 228 205 192 0
25.080000 12.100000 10.670000 228 205 192 0
25.300000 12.100000 10.670000 230 207 194 0
25.520000 12.100000 10.670000 231 208 195 0
25.740000 12.100000 10.670000 232 209 196 0
25.960000 12.100000 10.780000 232 209 196 0
26.180000 12.100000 10.780000 231 208 195 0
26.400000 12.100000 10.780000 232 209 196 0
26.620000 12.100000 10.780000 233 210 197 0
26.840000 12.100000 10.890000 234 211 198 0
27.060000 12.100000 10.890000 235 212 199 0
27.280000 12.100000 11.660000 235 212 201 0
27.500000 12.100000 11.660000 237 214 203 0
27.720000 12.100000 11.660000 237 214 201 0
27.940000 12.100000 11.660000 238 215 202 0
28.160000 12.100000 12.430000 238 215 204 0
28.380000 12.100000 12.210000 239 216 205 0
28.600000 12.100000 13.310000 239 216 203 0
28.820000 12.100000 13.860000 238 215 202 0
29.040000 12.100000 13.860000 238 215 202 0
29.260000 12.100000 14.630000 238 215 202 0
29.480000 12.100000 14.630000 236 213 200 0
29.700000 12.100000 14.630000 235 212 199 0
29.920000 12.100000 14.630000 235 211 198 0
30.140000 12.100000 14.740000 233 209 196 0
30.360000 12.100000 14.740000 247 196 187 0
30.580000 12.100000 14.740000 235 184 175 0
30.800000 12.100000 14.080000 245 157 148 0
31.020000 12.100000 12.650000 223 135 126 0
31.240000 12.100000 9.240000 220 111 111 0
31.460000 12.100000 6.380000 212 103 103 0
31.680000 12.100000 5.720000 210 99 101 0
31.900000 12.100000 5.720000 211 100 102 0
32.120000 12.100000 5.720000 210 99 100 0
32.340000 12.100000 6.380000 209 98 99 0
32.560000 12.100000 6.490000 209 98 99 0
32.780000 12.100000 6.490000 209 98 99 0
33.000000 12.100000 6.490000 208 97 99 0
33.220000 12.100000 6.490000 209 98 100 0
33.440000 12.100000 7.150000 209 97 98 0
33.660000 12.100000 7.040000 210 98 99 0
33.880000 12.100000 7.150000 209 97 98 0
34.100000 12.100000 7.040000 208 96 97 0
34.320000 12.100000 7.700000 210 98 99 0
34.540000 12.100000 7.700000 209 97 98 0
34.760000 12.100000 7.700000 208 95 98 0
34.980000 12.100000 7.700000 208 95 98 0
35.200000 12.100000 7.700000 208 96 97 0
35.420000 12.100000 7.700000 209 97 98 0
35.640000 12.100000 8.470000 209 97 98 0
35.860000 12.100000 8.470000 209 97 98 0
36.080000 12.100000 8.470000 208 96 97 0
36.300000 12.100000 8.470000 208 96 97 0
36.520000 12.100000 8.470000 208 96 97 0
36.740000 12.100000 8.470000 208 96 97 0
36.960000 12.100000 8.470000 210 95 97 0
37.180000 12.100000 8.470000 212 97 99 0
0.000000 12.320000 1.650000 171 81 68 0
0.220000 12.320000 1.650000 170 80 67 0
0.440000 12.320000 1.650000 169 79 66 0
0.660000 12.320000 1.650000 170 80 67 0
0.880000 12.320000 1.650000 169 79 66 0
1.100000 12.320000 1.650000 169 79 66 0
1.320000 12.320000 1.650000 169 79 66 0
1.540000 12.320000 1.650000 169 79 66 0
1.760000 12.320000 1.650000 169 79 66 0
1.980000 12.320000 1.650000 168 78 65 0
2.200000 12.320000 1.760000 168 78 65 0
2.420000 12.320000 1.760000 168 78 65 0
2.640000 12.320000 1.760000 169 78 68 0
2.860000 12.320000 1.760000 168 77 67 0
3.080000 12.320000 2.420000 169 79 66 0
3.300000 12.320000 2.530000 169 79 66 0
3.520000 12.320000 2.420000 168 79 66 0
3.740000 12.320000 2.970000 168 79 66 0
3.960000 12.320000 2.860000 169 80 69 0
4.180000 12.320000 3.520000 170 81 70 0
4.400000 12.320000 3.520000 171 80 70 0
4.620000 12.320000 3.520000 171 80 70 0
4.840000 12.320000 3.520000 168 79 68 0
5.060000 12.320000 3.520000 169 80 69 0
5.280000 12.320000 3.520000 168 79 68 0
5.500000 12.320000 3.520000 169 80 69 0
5.720000 12.320000 3.520000 170 81 70 0
5.940000 12.320000 3.520000 170 81 70 0
6.160000 12.320000 3.520000 171 84 72 0
6.380000 12.320000 4.290000 170 83 71 0
6.600000 12.320000 4.290000 171 84 72 0
6.820000 12.320000 4.290000 172 85 73 0
7.040000 12.320000 4.290000 171 84 72 0
7.260000 12.320000 4.290000 171 84 72 0
7.480000 12.320000 4.290000 170 83 71 0
7.700000 12.320000 4.290000 171 84 72 0
7.920000 12.320000 4.290000 170 85 75 0
8.140000 12.320000 4.290000 171 86 76 0
8.360000 12.320000 4.290000 172 87 77 0
8.580000 12.320000 4.290000 173 88 78 0
8.800000 12.320000 4.290000 171 90 81 0
9.020000 12.320000 4.290000 171 90 81 0
9.240000 12.320000 4.290000 172 89 78 0
9.460000 12.320000 4.400000 171 88 77 0
9.680000 12.320000 4.400000 170 87 76 0
9.900000 12.320000 4.400000 170 87 76 0
10.120000 12.320000 4.400000 169 86 75 0
10.340000 12.320000 4.400000 170 87 76 0
10.560000 12.320000 5.060000 170 87 78 0
10.780000 12.320000 5.060000 169 86 77 0
11.000000 12.320000 5.170000 167 87 75 0
11.220000 12.320000 4.510000 168 88 76 0
11.440000 12.320000 4.510000 168 88 76 0
11.660000 12.320000 4.510000 168 88 76 0
11.880000 12.320000 4.620000 170 87 76 0
12.100000 12.320000 4.730000 173 90 79 0
12.320000 12.320000 4.730000 174 94 82 0
12.540000 12.320000 4.730000 174 94 82 0
12.760000 12.320000 4.730000 173 92 83 0
12.980000 12.320000 4.730000 174 93 84 0
13.200000 12.320000 4.730000 169 90 80 0
13.420000 12.320000 5.280000 166 87 77 0
13.640000 12.320000 5.720000 166 85 76 0
13.860000 12.320000 6.270000 165 84 75 0
14.080000 12.320000 6.270000 162 83 74 0
14.300000 12.320000 6.270000 163 84 75 0
14.520000 12.320000 6.270000 161 84 73 0
14.740000 12.320000 6.270000 162 85 74 0
14.960000 12.320000 6.270000 161 86 75 0
15.180000 12.320000 6.270000 161 86 75 0
15.400000 12.320000 6.270000 158 88 75 0
15.620000 12.320000 6.270000 159 89 76 0
15.840000 12.320000 7.040000 154 91 79 0
16.060000 12.320000 7.040000 156 93 81 0
16.280000 12.320000 7.040000 155 95 80 0
16.500000 12.320000 7.040000 157 97 82 0
16.720000 12.320000 7.040000 155 101 84 0
16.940000 12.320000 7.040000 157 103 86 0
17.160000 12.320000 7.040000 156 107 88 0
17.380000 12.320000 7.040000 161 112 93 0
17.600000 12.320000 7.700000 163 119 101 0
17.820000 12.320000 7.700000 168 124 106 0
18.040000 12.320000 7.700000 168 129 107 0
18.260000 12.320000 7.700000 171 132 110 0
18.480000 12.320000 7.700000 175 139 120 0
18.700000 12.320000 7.700000 178 142 123 0
18.920000 12.320000 7.700000 183 147 126 0
19.140000 12.320000 7.700000 187 151 130 0
19.360000 12.320000 7.700000 190 154 133 0
19.580000 12.320000 7.700000 193 157 136 0
19.800000 12.320000 7.700000 196 165 142 0
20.020000 12.320000 7.810000 197 166 143 0
20.240000 12.320000 7.810000 198 169 148 0
20.460000 12.320000 7.810000 201 172 151 0
20.680000 12.320000 7.810000 201 176 151 0
20.900000 12.320000 7.810000 205 180 155 0
21.120000 12.320000 7.810000 208 183 160 0
21.340000 12.320000 8.580000 211 186 163 0
21.560000 12.320000 8.580000 209 188 166 0
21.780000 12.320000 8.580000 213 192 170 0
22.000000 12.320000 8.580000 217 195 177 0
22.220000 12.320000 8.580000 219 197 179 0
22.440000 12.320000 8.580000 218 198 182 0
22.660000 12.320000 9.350000 220 200 184 0
22.880000 12.320000 9.350000 223 201 185 0
23.100000 12.320000 9.460000 225 203 187 0
23.320000 12.320000 10.010000 227 204 191 0
23.540000 12.320000 10.560000 229 206 193 0
23.760000 12.320000 10.450000 228 205 192 0
23.980000 12.320000 10.560000 228 205 192 0
24.200000 12.320000 10.560000 228 205 192 0
24.420000 12.320000 10.560000 227 204 191 0
24.640000 12.320000 10.560000 228 205 192 0
24.860000 12.320000 10.670000 229 206 193 0
25.080000 12.320000 10.670000 229 206 193 0
25.300000 12.320000 10.670000 229 206 193 0
25.520000 12.320000 10.670000 230 207 194 0
25.740000 12.320000 10.670000 231 208 195 0
25.960000 12.320000 10.780000 231 208 195 0
26.180000 12.320000 10.780000 231 208 195 0
26.400000 12.320000 10.780000 232 209 196 0
26.620000 12.320000 10.890000 233 210 197 0
26.840000 12.320000 10.890000 234 211 198 0
27.060000 12.320000 10.890000 234 211 198 0
27.280000 12.320000 11.660000 235 212 201 0
27.500000 12.320000 11.660000 236 213 202 0
27.720000 12.320000 11.660000 236 213 200 0
27.940000 12.320000 11.660000 237 214 201 0
28.160000 12.320000 11.660000 237 214 203 0
28.380000 12.320000 12.210000 238 215 204 0
28.600000 12.320000 13.310000 237 214 201 0
28.820000 12.320000 13.860000 238 215 202 0
29.040000 12.320000 13.970000 237 214 201 0
29.260000 12.320000 14.630000 235 212 199 0
29.480000 12.320000 14.630000 234 211 198 0
29.700000 12.320000 14.630000 234 211 198 0
29.920000 12.320000 14.630000 233 209 196 0
30.140000 12.320000 14.740000 228 204 191 0
30.360000 12.320000 14.740000 240 189 180 0
30.580000 12.320000 14.740000 223 172 163 0
30.800000 12.320000 13.420000 230 142 133 0
31.020000 12.320000 10.560000 212 124 115 0
31.240000 12.320000 7.150000 213 104 104 0
31.460000 12.320000 5.720000 211 102 102 0
31.680000 12.320000 5.720000 211 100 102 0
31.900000 12.320000 5.720000 210 99 101 0
32.120000 12.320000 5.720000 210 99 100 0
32.340000 12.320000 6.380000 210 99 100 0
32.560000 12.320000 6.490000 209 98 99 0
32.780000 12.320000 6.490000 209 98 99 0
33.000000 12.320000 6.490000 209 98 100 0
33.220000 12.320000 6.490000 209 98 100 0
33.440000 12.320000 6.380000 209 97 98 0
33.660000 12.320000 7.040000 209 97 98 0
33.880000 12.320000 7.040000 210 98 99 0
34.100000 12.320000 7.700000 208 96 97 0
34.320000 12.320000 7.700000 209 97 98 0
34.540000 12.320000 7.700000 208 96 97 0
34.760000 12.320000 7.700000 210 97 100 0
34.980000 12.320000 7.700000 209 96 99 0
35.200000 12.320000 7.700000 208 96 97 0
35.420000 12.320000 7.700000 209 97 98 0
35.640000 12.320000 8.470000 208 96 97 0
35.860000 12.320000 8.470000 209 97 98 0
36.080000 12.320000 8.470000 208 96 97 0
36.300000 12.320000 8.470000 208 96 97 0
36.520000 12.320000 8.470000 208 96 97 0
36.740000 12.320000 8.470000 210 98 99 0
36.960000 12.320000 8.470000 210 95 97 0
37.180000 12.320000 8.470000 211 96 98 0
0.000000 12.540000 1.650000 170 80 67 0
0.220000 12.540000 1.650000 170 80 67 0
0.440000 12.540000 1.650000 170 81 68 0
0.660000 12.540000 1.650000 169 80 67 0
0.880000 12.540000 1.650000 169 78 68 0
1.100000 12.540000 1.650000 170 79 69 0
1.320000 12.540000 1.650000 170 80 67 0
1.540000 12.540000 1.650000 170 80 67 0
1.760000 12.540000 1.650000 168 79 66 0
1.980000 12.540000 1.650000 168 79 66 0
2.200000 12.540000 1.650000 169 79 66 0
2.420000 12.540000 1.760000 169 79 66 0
2.640000 12.540000 1.760000 169 78 68 0
2.860000 12.540000 2.420000 169 78 68 0
3.080000 12.540000 2.420000 168 79 66 0
3.300000 12.540000 2.420000 168 79 66 0
3.520000 12.540000 2.970000 168 79 66 0
3.740000 12.540000 2.860000 169 80 67 0
3.960000 12.540000 3.520000 170 81 68 0
4.180000 12.540000 3.520000 170 81 68 0
4.400000 12.540000 3.520000 170 81 70 0
4.620000 12.540000 3.520000 170 81 70 0
4.840000 12.540000 3.520000 169 80 67 0
5.060000 12.540000 3.520000 169 80 67 0
5.280000 12.540000 3.520000 168 81 67 0
5.500000 12.540000 3.520000 169 82 68 0
5.720000 12.540000 3.520000 171 82 71 0
5.940000 12.540000 3.520000 170 81 70 0
6.160000 12.540000 3.520000 170 83 71 0
6.380000 12.540000 4.180000 170 83 71 0
6.600000 12.540000 4.290000 172 85 73 0
6.820000 12.540000 4.290000 171 84 72 0
7.040000 12.540000 4.290000 172 85 73 0
7.260000 12.540000 4.290000 171 84 72 0
7.480000 12.540000 4.290000 171 84 72 0
7.700000 12.540000 4.290000 170 83 71 0
7.920000 12.540000 4.290000 170 83 71 0
8.140000 12.540000 4.290000 171 84 72 0
8.360000 12.540000 4.290000 171 87 74 0
8.580000 12.540000 4.290000 173 89 76 0
8.800000 12.540000 4.290000 172 89 78 0
9.020000 12.540000 4.290000 172 89 78 0
9.240000 12.540000 4.290000 172 89 78 0
9.460000 12.540000 4.400000 172 89 78 0
9.680000 12.540000 4.400000 170 87 76 0
9.900000 12.540000 4.400000 170 87 76 0
10.120000 12.540000 4.400000 169 86 75 0
10.340000 12.540000 4.400000 169 86 75 0
10.560000 12.540000 5.060000 168 88 76 0
10.780000 12.540000 5.060000 168 88 76 0
11.000000 12.540000 5.060000 168 87 78 0
11.220000 12.540000 5.170000 169 88 79 0
11.440000 12.540000 5.170000 170 90 78 0
11.660000 12.540000 5.170000 171 91 79 0
11.880000 12.540000 4.620000 174 94 82 0
12.100000 12.540000 4.730000 174 94 82 0
12.320000 12.540000 4.730000 170 96 80 0
12.540000 12.540000 4.730000 172 98 82 0
12.760000 12.540000 4.730000 175 101 83 0
12.980000 12.540000 4.730000 174 100 82 0
13.200000 12.540000 4.840000 174 95 85 0
13.420000 12.540000 4.730000 170 91 81 0
13.640000 12.540000 5.170000 167 88 78 0
13.860000 12.540000 6.380000 165 86 76 0
14.080000 12.540000 6.270000 163 84 74 0
14.300000 12.540000 6.270000 162 83 73 0
14.520000 12.540000 6.270000 161 84 73 0
14.740000 12.540000 6.270000 161 84 73 0
14.960000 12.540000 6.270000 162 85 74 0
15.180000 12.540000 6.270000 162 85 74 0
15.400000 12.540000 6.270000 160 85 74 0
15.620000 12.540000 6.380000 161 86 75 0
15.840000 12.540000 7.040000 160 87 75 0
16.060000 12.540000 7.040000 161 88 76 0
