ply
format ascii 1.0
element vertex 1112
property float x
property float y
property float z
property uchar red
property uchar green
property uchar blue
property uchar alpha
end_header
37.180000 10.560000 7.260000 179 100 101 0
0.000000 10.780000 9.900000 142 116 110 0
0.220000 10.780000 8.580000 142 116 110 0
0.440000 10.780000 8.580000 140 115 106 0
0.660000 10.780000 7.260000 139 114 105 0
0.880000 10.780000 8.800000 139 116 106 0
1.100000 10.780000 8.580000 139 116 106 0
1.320000 10.780000 10.120000 140 112 106 0
1.540000 10.780000 10.120000 140 112 106 0
1.760000 10.780000 10.120000 139 113 107 0
1.980000 10.780000 8.800000 142 116 110 0
2.200000 10.780000 7.260000 152 121 121 0
2.420000 10.780000 7.260000 161 130 130 0
2.640000 10.780000 7.260000 170 140 145 0
2.860000 10.780000 8.580000 176 146 151 0
3.080000 10.780000 7.260000 182 142 146 0
3.300000 10.780000 5.940000 182 142 146 0
3.520000 10.780000 5.940000 184 141 145 0
3.740000 10.780000 5.940000 183 140 144 0
3.960000 10.780000 4.620000 184 139 137 0
4.180000 10.780000 4.400000 184 139 137 0
4.400000 10.780000 4.400000 194 140 133 0
4.620000 10.780000 4.400000 197 143 136 0
4.840000 10.780000 3.080000 202 147 137 0
5.060000 10.780000 1.760000 202 147 137 0
5.280000 10.780000 5.940000 203 145 136 0
5.500000 10.780000 14.300000 202 144 135 0
5.720000 10.780000 18.260000 204 143 135 0
5.940000 10.780000 25.300000 204 143 135 0
6.160000 10.780000 25.300000 202 143 132 0
6.380000 10.780000 19.800000 201 142 131 0
6.600000 10.780000 26.620000 204 141 129 0
6.820000 10.780000 36.300000 203 140 128 0
7.040000 10.780000 39.160000 203 143 130 0
7.260000 10.780000 39.160000 203 143 130 0
7.480000 10.780000 39.160000 205 142 130 0
7.700000 10.780000 37.620000 203 140 128 0
7.920000 10.780000 36.300000 204 139 128 0
8.140000 10.780000 36.300000 203 138 127 0
8.360000 10.780000 36.300000 204 137 124 0
8.580000 10.780000 34.980000 204 137 124 0
8.800000 10.780000 34.980000 202 135 122 0
9.020000 10.780000 34.980000 201 134 121 0
9.240000 10.780000 34.980000 199 135 121 0
9.460000 10.780000 33.660000 201 137 123 0
9.680000 10.780000 33.660000 203 136 122 0
9.900000 10.780000 33.660000 203 136 122 0
10.120000 10.780000 33.660000 204 135 123 0
10.340000 10.780000 33.660000 203 134 122 0
10.560000 10.780000 33.440000 202 135 121 0
10.780000 10.780000 33.660000 203 136 122 0
11.000000 10.780000 33.660000 202 138 124 0
11.220000 10.780000 32.120000 202 138 124 0
11.440000 10.780000 32.120000 205 138 125 0
11.660000 10.780000 32.120000 206 139 126 0
11.880000 10.780000 32.120000 206 142 128 0
12.100000 10.780000 32.120000 207 143 129 0
12.320000 10.780000 32.120000 207 147 132 0
12.540000 10.780000 32.120000 209 149 134 0
12.760000 10.780000 32.120000 209 149 133 0
12.980000 10.780000 32.120000 209 149 133 0
13.200000 10.780000 32.120000 210 147 133 0
13.420000 10.780000 32.120000 206 143 129 0
13.640000 10.780000 32.120000 205 130 120 0
13.860000 10.780000 32.120000 198 123 113 0
14.080000 10.780000 32.120000 196 118 111 0
14.300000 10.780000 32.340000 195 117 110 0
14.520000 10.780000 32.340000 193 115 108 0
14.740000 10.780000 32.340000 193 115 108 0
14.960000 10.780000 32.560000 192 114 109 0
15.180000 10.780000 33.880000 192 114 109 0
15.400000 10.780000 34.100000 193 115 110 0
15.620000 10.780000 34.100000 191 113 108 0
15.840000 10.780000 35.420000 192 114 109 0
16.060000 10.780000 36.300000 192 114 109 0
16.280000 10.780000 37.400000 191 113 108 0
16.500000 10.780000 37.400000 192 114 109 0
16.720000 10.780000 38.940000 188 112 109 0
16.940000 10.780000 38.940000 190 114 111 0
17.160000 10.780000 39.160000 190 114 111 0
17.380000 10.780000 39.160000 190 114 111 0
17.600000 10.780000 39.160000 191 112 110 0
17.820000 10.780000 39.160000 191 112 110 0
18.040000 10.780000 40.700000 191 112 110 0
18.260000 10.780000 40.700000 191 112 110 0
18.480000 10.780000 40.920000 189 113 112 0
18.700000 10.780000 40.920000 190 114 113 0
18.920000 10.780000 41.140000 189 113 112 0
19.140000 10.780000 41.140000 189 113 112 0
19.360000 10.780000 33.000000 189 114 116 0
19.580000 10.780000 14.740000 189 114 116 0
19.800000 10.780000 1.760000 189 112 113 0
20.020000 10.780000 0.220000 189 112 113 0
20.240000 10.780000 0.220000 189 112 115 0
20.460000 10.780000 0.220000 188 111 114 0
20.680000 10.780000 0.220000 187 112 114 0
20.900000 10.780000 1.540000 187 112 114 0
21.120000 10.780000 1.760000 185 112 116 0
21.340000 10.780000 1.760000 185 112 116 0
21.560000 10.780000 1.760000 187 111 116 0
21.780000 10.780000 1.760000 188 112 117 0
22.000000 10.780000 1.760000 186 110 117 0
22.220000 10.780000 1.760000 187 111 118 0
22.440000 10.780000 1.760000 185 112 118 0
22.660000 10.780000 1.760000 185 112 118 0
22.880000 10.780000 1.760000 184 112 119 0
23.100000 10.780000 3.300000 185 113 120 0
23.320000 10.780000 3.300000 186 112 120 0
23.540000 10.780000 3.300000 186 112 120 0
23.760000 10.780000 3.520000 186 114 123 0
23.980000 10.780000 3.300000 185 113 122 0
24.200000 10.780000 4.400000 184 113 124 0
24.420000 10.780000 5.720000 184 113 124 0
24.640000 10.780000 5.720000 182 112 120 0
24.860000 10.780000 5.720000 183 113 121 0
25.080000 10.780000 5.720000 181 110 123 0
25.300000 10.780000 5.720000 183 112 125 0
25.520000 10.780000 7.260000 183 112 123 0
25.740000 10.780000 7.260000 184 113 124 0
25.960000 10.780000 7.260000 183 115 127 0
26.180000 10.780000 7.260000 184 116 128 0
26.400000 10.780000 7.260000 182 117 136 0
26.620000 10.780000 7.260000 182 117 136 0
26.840000 10.780000 7.480000 183 116 131 0
27.060000 10.780000 7.260000 182 115 130 0
27.280000 10.780000 7.260000 182 114 124 0
27.500000 10.780000 8.580000 182 114 124 0
27.720000 10.780000 8.580000 178 115 129 0
27.940000 10.780000 8.580000 179 116 130 0
28.160000 10.780000 8.580000 179 114 131 0
28.380000 10.780000 9.900000 182 117 134 0
28.600000 10.780000 9.900000 183 115 133 0
28.820000 10.780000 8.580000 182 114 132 0
29.040000 10.780000 8.580000 174 118 138 0
29.260000 10.780000 8.580000 178 122 142 0
29.480000 10.780000 8.580000 179 125 146 0
29.700000 10.780000 8.580000 178 124 145 0
29.920000 10.780000 8.580000 184 120 139 0
30.140000 10.780000 7.260000 181 117 136 0
30.360000 10.780000 7.260000 182 117 136 0
30.580000 10.780000 7.260000 182 117 136 0
30.800000 10.780000 7.260000 178 120 140 0
31.020000 10.780000 7.260000 180 122 142 0
31.240000 10.780000 7.260000 183 121 139 0
31.460000 10.780000 7.260000 182 120 138 0
31.680000 10.780000 7.260000 181 114 129 0
31.900000 10.780000 7.260000 179 112 127 0
32.120000 10.780000 8.580000 179 112 125 0
32.340000 10.780000 8.580000 177 110 123 0
32.560000 10.780000 8.580000 180 109 122 0
32.780000 10.780000 8.580000 178 107 120 0
33.000000 10.780000 8.580000 183 107 115 0
33.220000 10.780000 8.580000 181 105 113 0
33.440000 10.780000 8.580000 179 103 108 0
33.660000 10.780000 7.260000 179 103 108 0
33.880000 10.780000 8.580000 179 103 108 0
34.100000 10.780000 7.260000 177 101 106 0
34.320000 10.780000 7.260000 180 99 101 0
34.540000 10.780000 7.260000 181 100 102 0
34.760000 10.780000 7.260000 178 98 102 0
34.980000 10.780000 7.260000 179 99 103 0
35.200000 10.780000 7.260000 179 98 100 0
35.420000 10.780000 5.720000 179 98 100 0
35.640000 10.780000 5.720000 175 100 102 0
35.860000 10.780000 5.940000 173 98 100 0
36.080000 10.780000 5.940000 178 98 102 0
36.300000 10.780000 5.940000 179 99 103 0
36.520000 10.780000 5.940000 178 99 100 0
36.740000 10.780000 7.260000 177 98 99 0
36.960000 10.780000 7.260000 177 98 99 0
37.180000 10.780000 7.260000 177 98 99 0
0.000000 11.000000 9.900000 143 117 111 0
0.220000 11.000000 8.580000 141 115 109 0
0.440000 11.000000 8.580000 140 115 106 0
0.660000 11.000000 8.580000 140 115 106 0
0.880000 11.000000 8.580000 141 113 107 0
1.100000 11.000000 8.580000 141 113 107 0
1.320000 11.000000 10.120000 139 113 107 0
1.540000 11.000000 10.120000 139 113 107 0
1.760000 11.000000 10.120000 141 115 111 0
1.980000 11.000000 8.800000 149 123 119 0
2.200000 11.000000 7.260000 159 132 134 0
2.420000 11.000000 7.260000 168 141 143 0
2.640000 11.000000 7.260000 184 143 146 0
2.860000 11.000000 7.260000 183 142 145 0
3.080000 11.000000 7.260000 183 140 142 0
3.300000 11.000000 5.940000 181 138 140 0
3.520000 11.000000 4.620000 190 137 140 0
3.740000 11.000000 3.080000 188 135 138 0
3.960000 11.000000 1.760000 190 135 127 0
4.180000 11.000000 1.760000 191 136 128 0
4.400000 11.000000 3.080000 195 140 132 0
4.620000 11.000000 5.940000 197 142 134 0
4.840000 11.000000 11.440000 202 144 135 0
5.060000 11.000000 10.120000 202 144 135 0
5.280000 11.000000 5.940000 204 144 131 0
5.500000 11.000000 11.440000 202 142 129 0
5.720000 11.000000 26.620000 201 140 130 0
5.940000 11.000000 37.620000 200 139 129 0
6.160000 11.000000 36.300000 204 139 128 0
6.380000 11.000000 33.660000 202 137 126 0
6.600000 11.000000 34.980000 204 137 126 0
6.820000 11.000000 37.620000 203 136 125 0
7.040000 11.000000 37.840000 202 137 126 0
7.260000 11.000000 37.840000 203 138 127 0
7.480000 11.000000 37.620000 204 137 126 0
7.700000 11.000000 36.300000 204 137 126 0
7.920000 11.000000 34.980000 204 135 123 0
8.140000 11.000000 34.980000 205 136 124 0
8.360000 11.000000 34.980000 203 134 122 0
8.580000 11.000000 34.980000 202 133 121 0
8.800000 11.000000 33.660000 202 132 120 0
9.020000 11.000000 33.660000 201 131 119 0
9.240000 11.000000 33.660000 202 132 120 0
9.460000 11.000000 33.660000 202 132 120 0
9.680000 11.000000 33.660000 204 131 120 0
9.900000 11.000000 33.660000 205 132 121 0
10.120000 11.000000 33.660000 202 132 120 0
10.340000 11.000000 33.660000 202 132 120 0
10.560000 11.000000 32.120000 201 131 119 0
10.780000 11.000000 32.120000 202 132 120 0
11.000000 11.000000 32.120000 203 133 121 0
11.220000 11.000000 32.120000 203 133 121 0
11.440000 11.000000 32.120000 205 135 123 0
11.660000 11.000000 32.120000 206 136 124 0
11.880000 11.000000 32.120000 206 136 124 0
12.100000 11.000000 32.120000 207 137 125 0
12.320000 11.000000 32.120000 210 140 128 0
12.540000 11.000000 32.120000 210 140 128 0
12.760000 11.000000 32.120000 210 142 128 0
12.980000 11.000000 32.120000 210 142 128 0
13.200000 11.000000 32.120000 214 139 129 0
13.420000 11.000000 32.120000 207 132 122 0
13.640000 11.000000 32.120000 203 125 120 0
13.860000 11.000000 32.120000 195 117 112 0
14.080000 11.000000 32.120000 192 116 111 0
14.300000 11.000000 32.340000 191 115 110 0
14.520000 11.000000 32.340000 191 113 108 0
14.740000 11.000000 32.340000 192 114 109 0
14.960000 11.000000 32.560000 193 115 108 0
15.180000 11.000000 33.880000 191 113 106 0
15.400000 11.000000 34.100000 191 113 108 0
15.620000 11.000000 34.100000 191 113 108 0
15.840000 11.000000 34.100000 191 112 110 0
16.060000 11.000000 35.200000 191 112 110 0
16.280000 11.000000 37.620000 191 112 110 0
16.500000 11.000000 37.400000 191 112 110 0
16.720000 11.000000 38.940000 192 112 108 0
16.940000 11.000000 38.940000 191 111 107 0
17.160000 11.000000 39.160000 190 111 109 0
17.380000 11.000000 39.160000 191 112 110 0
17.600000 11.000000 39.160000 189 113 112 0
17.820000 11.000000 39.160000 189 113 112 0
18.040000 11.000000 39.380000 192 113 113 0
18.260000 11.000000 40.700000 191 112 112 0
18.480000 11.000000 40.920000 190 111 111 0
18.700000 11.000000 40.920000 189 110 110 0
18.920000 11.000000 41.140000 190 111 109 0
19.140000 11.000000 39.820000 190 111 109 0
19.360000 11.000000 37.180000 189 113 112 0
19.580000 11.000000 24.640000 189 113 112 0
19.800000 11.000000 6.380000 189 112 113 0
20.020000 11.000000 0.440000 189 112 113 0
20.240000 11.000000 0.220000 190 111 112 0
20.460000 11.000000 0.220000 190 111 112 0
20.680000 11.000000 0.220000 189 110 111 0
20.900000 11.000000 0.220000 189 110 111 0
21.120000 11.000000 0.220000 187 110 113 0
21.340000 11.000000 0.220000 187 110 113 0
21.560000 11.000000 1.760000 187 110 113 0
21.780000 11.000000 1.760000 187 110 113 0
22.000000 11.000000 1.760000 186 110 115 0
22.220000 11.000000 1.760000 186 110 115 0
22.440000 11.000000 1.760000 188 111 116 0
22.660000 11.000000 1.760000 187 110 115 0
22.880000 11.000000 1.980000 187 111 118 0
23.100000 11.000000 1.980000 186 110 117 0
23.320000 11.000000 1.980000 186 110 117 0
23.540000 11.000000 2.200000 187 111 118 0
23.760000 11.000000 2.200000 185 111 119 0
23.980000 11.000000 2.200000 185 111 119 0
24.200000 11.000000 3.520000 187 111 118 0
24.420000 11.000000 4.400000 187 111 118 0
24.640000 11.000000 5.720000 183 110 116 0
24.860000 11.000000 5.720000 183 110 116 0
25.080000 11.000000 5.720000 183 109 117 0
25.300000 11.000000 5.720000 183 109 117 0
25.520000 11.000000 7.260000 183 111 120 0
25.740000 11.000000 7.260000 183 111 120 0
25.960000 11.000000 7.260000 183 111 118 0
26.180000 11.000000 7.260000 184 112 119 0
26.400000 11.000000 7.260000 183 113 121 0
26.620000 11.000000 7.480000 184 114 122 0
26.840000 11.000000 7.480000 184 111 123 0
27.060000 11.000000 7.480000 183 110 122 0
27.280000 11.000000 8.800000 182 111 122 0
27.500000 11.000000 8.800000 180 109 120 0
27.720000 11.000000 8.580000 183 109 119 0
27.940000 11.000000 8.580000 185 111 121 0
28.160000 11.000000 9.900000 182 112 120 0
28.380000 11.000000 9.900000 183 113 121 0
28.600000 11.000000 9.900000 184 111 125 0
28.820000 11.000000 9.900000 183 110 124 0
29.040000 11.000000 8.580000 183 112 123 0
29.260000 11.000000 8.580000 184 113 124 0
29.480000 11.000000 8.580000 184 113 124 0
29.700000 11.000000 8.580000 182 111 122 0
29.920000 11.000000 8.580000 182 113 127 0
30.140000 11.000000 8.580000 183 114 128 0
30.360000 11.000000 8.580000 183 111 126 0
30.580000 11.000000 8.580000 183 111 126 0
30.800000 11.000000 8.580000 184 113 124 0
31.020000 11.000000 8.580000 186 115 126 0
31.240000 11.000000 8.580000 186 112 124 0
31.460000 11.000000 7.260000 184 110 122 0
31.680000 11.000000 7.260000 187 107 115 0
31.900000 11.000000 7.260000 184 104 112 0
32.120000 11.000000 8.580000 179 103 111 0
32.340000 11.000000 8.580000 179 103 111 0
32.560000 11.000000 8.580000 180 102 110 0
32.780000 11.000000 7.260000 180 102 110 0
33.000000 11.000000 7.260000 182 102 108 0
33.220000 11.000000 7.260000 181 101 107 0
33.440000 11.000000 8.800000 179 99 103 0
33.660000 11.000000 8.580000 179 99 103 0
33.880000 11.000000 8.580000 179 99 103 0
34.100000 11.000000 7.260000 178 98 102 0
34.320000 11.000000 7.260000 180 97 102 0
34.540000 11.000000 7.260000 179 96 101 0
34.760000 11.000000 5.940000 178 97 98 0
34.980000 11.000000 7.260000 178 97 98 0
35.200000 11.000000 7.260000 178 97 99 0
35.420000 11.000000 5.940000 178 97 99 0
35.640000 11.000000 5.940000 176 96 100 0
35.860000 11.000000 5.940000 178 98 102 0
36.080000 11.000000 5.940000 179 96 101 0
36.300000 11.000000 5.940000 179 96 101 0
36.520000 11.000000 7.260000 177 97 101 0
36.740000 11.000000 7.260000 177 97 101 0
36.960000 11.000000 7.260000 175 94 95 0
37.180000 11.000000 7.260000 177 96 97 0
0.000000 11.220000 9.900000 141 115 109 0
0.220000 11.220000 8.580000 142 116 110 0
0.440000 11.220000 8.580000 140 115 106 0
0.660000 11.220000 8.580000 139 114 105 0
0.880000 11.220000 9.900000 141 113 107 0
1.100000 11.220000 8.580000 141 113 107 0
1.320000 11.220000 10.120000 139 113 107 0
1.540000 11.220000 10.120000 139 113 107 0
1.760000 11.220000 10.120000 149 123 119 0
1.980000 11.220000 8.800000 158 132 128 0
2.200000 11.220000 7.260000 168 141 143 0
2.420000 11.220000 7.260000 174 147 149 0
2.640000 11.220000 7.260000 184 143 146 0
2.860000 11.220000 7.260000 181 140 143 0
3.080000 11.220000 7.260000 181 138 140 0
3.300000 11.220000 4.620000 180 137 139 0
3.520000 11.220000 3.080000 187 134 137 0
3.740000 11.220000 1.760000 186 133 136 0
3.960000 11.220000 1.760000 188 133 125 0
4.180000 11.220000 1.760000 192 137 129 0
4.400000 11.220000 3.080000 194 139 131 0
4.620000 11.220000 14.300000 197 142 134 0
4.840000 11.220000 25.300000 198 140 131 0
5.060000 11.220000 21.120000 199 141 132 0
5.280000 11.220000 12.980000 200 140 127 0
5.500000 11.220000 15.620000 200 140 127 0
5.720000 11.220000 30.800000 199 138 128 0
5.940000 11.220000 37.620000 198 137 127 0
6.160000 11.220000 37.840000 200 135 124 0
6.380000 11.220000 36.300000 199 134 123 0
6.600000 11.220000 36.300000 200 133 122 0
6.820000 11.220000 36.300000 200 133 122 0
7.040000 11.220000 36.300000 200 135 124 0
7.260000 11.220000 36.300000 201 136 125 0
7.480000 11.220000 34.980000 202 135 124 0
7.700000 11.220000 34.980000 200 133 122 0
7.920000 11.220000 34.980000 201 132 120 0
8.140000 11.220000 33.660000 201 132 120 0
8.360000 11.220000 33.660000 201 132 120 0
8.580000 11.220000 33.660000 199 130 118 0
8.800000 11.220000 33.660000 199 129 117 0
9.020000 11.220000 33.660000 198 128 116 0
9.240000 11.220000 33.660000 198 128 116 0
9.460000 11.220000 33.660000 198 128 116 0
9.680000 11.220000 32.340000 201 128 117 0
9.900000 11.220000 32.120000 200 127 116 0
10.120000 11.220000 32.120000 198 128 116 0
10.340000 11.220000 32.120000 199 129 117 0
10.560000 11.220000 32.120000 199 129 117 0
10.780000 11.220000 32.120000 200 130 118 0
11.000000 11.220000 32.120000 200 130 118 0
11.220000 11.220000 32.120000 201 131 119 0
11.440000 11.220000 32.120000 202 132 120 0
11.660000 11.220000 32.120000 203 133 121 0
11.880000 11.220000 32.120000 203 133 121 0
12.100000 11.220000 32.120000 204 134 122 0
12.320000 11.220000 32.120000 206 136 124 0
12.540000 11.220000 32.120000 206 136 124 0
12.760000 11.220000 32.120000 208 140 126 0
12.980000 11.220000 32.120000 205 137 123 0
13.200000 11.220000 32.120000 206 131 121 0
13.420000 11.220000 30.800000 199 124 114 0
13.640000 11.220000 30.800000 197 119 114 0
13.860000 11.220000 32.120000 193 115 110 0
14.080000 11.220000 32.120000 190 114 109 0
14.300000 11.220000 32.340000 189 113 108 0
14.520000 11.220000 32.340000 191 113 108 0
14.740000 11.220000 32.340000 190 112 107 0
14.960000 11.220000 32.560000 191 113 106 0
15.180000 11.220000 33.880000 190 112 105 0
15.400000 11.220000 34.100000 191 113 108 0
15.620000 11.220000 34.100000 190 112 107 0
15.840000 11.220000 34.100000 189 110 108 0
16.060000 11.220000 36.520000 191 112 110 0
16.280000 11.220000 37.400000 190 111 109 0
16.500000 11.220000 37.400000 191 112 110 0
16.720000 11.220000 38.940000 191 111 107 0
16.940000 11.220000 38.940000 191 111 107 0
17.160000 11.220000 39.160000 190 111 109 0
17.380000 11.220000 39.160000 191 112 110 0
17.600000 11.220000 39.160000 188 112 111 0
17.820000 11.220000 39.160000 190 114 113 0
18.040000 11.220000 39.380000 191 112 112 0
18.260000 11.220000 39.380000 189 110 110 0
18.480000 11.220000 40.920000 189 110 110 0
18.700000 11.220000 40.920000 188 109 109 0
18.920000 11.220000 41.140000 189 110 108 0
19.140000 11.220000 39.820000 190 111 109 0
19.360000 11.220000 39.820000 188 112 111 0
19.580000 11.220000 30.360000 188 112 111 0
19.800000 11.220000 9.240000 188 111 112 0
20.240000 11.220000 0.220000 190 111 112 0
20.460000 11.220000 0.220000 189 110 111 0
20.680000 11.220000 0.220000 189 110 111 0
20.900000 11.220000 0.220000 188 109 110 0
21.120000 11.220000 0.220000 186 109 112 0
21.340000 11.220000 0.220000 186 109 112 0
21.560000 11.220000 1.540000 187 110 113 0
21.780000 11.220000 1.760000 185 108 111 0
22.000000 11.220000 1.760000 185 109 114 0
22.220000 11.220000 1.760000 185 109 114 0
22.440000 11.220000 1.760000 186 109 114 0
22.660000 11.220000 1.760000 186 109 114 0
22.880000 11.220000 1.980000 185 109 116 0
23.100000 11.220000 1.980000 185 109 116 0
23.320000 11.220000 1.980000 186 110 117 0
23.540000 11.220000 2.200000 186 110 117 0
23.760000 11.220000 2.420000 184 110 118 0
23.980000 11.220000 2.420000 184 110 118 0
24.200000 11.220000 3.520000 184 108 115 0
24.420000 11.220000 4.400000 185 109 116 0
24.640000 11.220000 5.720000 182 109 115 0
24.860000 11.220000 5.720000 181 108 114 0
25.080000 11.220000 5.720000 182 108 116 0
25.300000 11.220000 5.720000 182 108 116 0
25.520000 11.220000 7.260000 181 109 118 0
25.740000 11.220000 7.260000 181 109 118 0
25.960000 11.220000 7.260000 181 109 116 0
26.180000 11.220000 7.260000 181 109 116 0
26.400000 11.220000 8.800000 180 110 118 0
26.620000 11.220000 8.800000 181 111 119 0
26.840000 11.220000 7.480000 182 109 121 0
27.060000 11.220000 8.800000 181 108 120 0
27.280000 11.220000 8.800000 179 108 119 0
27.500000 11.220000 7.480000 180 109 120 0
27.720000 11.220000 8.800000 180 106 116 0
27.940000 11.220000 8.580000 180 106 116 0
28.160000 11.220000 9.900000 179 109 117 0
28.380000 11.220000 9.900000 179 109 117 0
28.600000 11.220000 9.900000 180 107 121 0
28.820000 11.220000 9.900000 180 107 121 0
29.040000 11.220000 9.900000 179 108 119 0
29.260000 11.220000 9.900000 180 109 120 0
29.480000 11.220000 9.900000 180 109 120 0
29.700000 11.220000 9.900000 180 109 120 0
29.920000 11.220000 8.580000 178 109 123 0
30.140000 11.220000 8.580000 179 110 124 0
30.360000 11.220000 8.580000 179 107 122 0
30.580000 11.220000 8.580000 177 105 120 0
30.800000 11.220000 8.580000 179 108 119 0
31.020000 11.220000 8.580000 177 106 117 0
31.240000 11.220000 8.580000 180 106 118 0
31.460000 11.220000 7.260000 178 104 116 0
31.680000 11.220000 7.260000 180 100 108 0
31.900000 11.220000 7.260000 179 99 107 0
32.120000 11.220000 8.580000 176 100 108 0
32.340000 11.220000 8.580000 176 100 108 0
32.560000 11.220000 7.260000 178 100 108 0
32.780000 11.220000 7.260000 178 100 108 0
33.000000 11.220000 5.940000 179 99 105 0
33.220000 11.220000 5.940000 178 98 104 0
33.440000 11.220000 7.260000 177 97 101 0
33.660000 11.220000 8.580000 178 98 102 0
33.880000 11.220000 8.580000 176 96 100 0
34.100000 11.220000 7.260000 177 97 101 0
34.320000 11.220000 7.260000 178 95 100 0
34.540000 11.220000 7.260000 178 95 100 0
34.760000 11.220000 5.940000 177 96 97 0
34.980000 11.220000 5.940000 176 95 96 0
35.200000 11.220000 5.940000 177 96 98 0
35.420000 11.220000 5.940000 177 96 98 0
35.640000 11.220000 5.940000 175 95 99 0
35.860000 11.220000 5.940000 175 95 99 0
36.080000 11.220000 5.940000 177 94 99 0
36.300000 11.220000 7.260000 177 94 99 0
36.520000 11.220000 7.260000 175 95 99 0
36.740000 11.220000 5.720000 176 96 100 0
36.960000 11.220000 5.940000 176 95 96 0
37.180000 11.220000 5.940000 175 94 95 0
0.000000 11.440000 8.580000 141 115 109 0
0.220000 11.440000 8.580000 140 114 108 0
0.440000 11.440000 8.580000 140 114 108 0
0.660000 11.440000 9.900000 139 113 107 0
0.880000 11.440000 9.900000 141 113 107 0
1.100000 11.440000 8.580000 142 114 108 0
1.320000 11.440000 8.580000 140 114 110 0
1.540000 11.440000 8.580000 148 122 118 0
1.760000 11.440000 8.800000 159 129 132 0
1.980000 11.440000 7.260000 172 142 145 0
2.200000 11.440000 5.940000 183 144 144 0
2.420000 11.440000 7.260000 182 143 143 0
2.640000 11.440000 7.260000 185 138 143 0
2.860000 11.440000 5.940000 183 136 141 0
3.080000 11.440000 5.940000 181 136 134 0
3.300000 11.440000 7.260000 179 134 132 0
3.520000 11.440000 10.120000 187 131 129 0
3.740000 11.440000 8.800000 184 128 126 0
3.960000 11.440000 5.940000 193 130 120 0
4.180000 11.440000 7.260000 197 134 124 0
4.400000 11.440000 11.440000 195 136 125 0
4.620000 11.440000 19.800000 197 138 127 0
4.840000 11.440000 22.660000 198 137 127 0
5.060000 11.440000 19.800000 198 137 127 0
5.280000 11.440000 23.980000 203 133 128 0
5.500000 11.440000 30.800000 202 132 127 0
5.720000 11.440000 34.980000 201 133 125 0
5.940000 11.440000 36.300000 200 132 124 0
6.160000 11.440000 36.300000 200 131 121 0
6.380000 11.440000 36.520000 199 130 120 0
6.600000 11.440000 34.980000 200 129 120 0
6.820000 11.440000 34.980000 200 129 120 0
7.040000 11.440000 34.980000 200 129 122 0
7.260000 11.440000 34.980000 198 127 120 0
7.480000 11.440000 33.660000 203 128 120 0
7.700000 11.440000 33.660000 200 125 117 0
7.920000 11.440000 33.660000 202 127 117 0
8.140000 11.440000 33.660000 202 127 117 0
8.360000 11.440000 33.660000 203 128 118 0
8.580000 11.440000 33.660000 200 125 115 0
8.800000 11.440000 32.340000 199 124 116 0
9.020000 11.440000 32.340000 199 124 116 0
9.240000 11.440000 32.340000 199 124 116 0
9.460000 11.440000 32.340000 200 125 117 0
9.680000 11.440000 32.340000 199 124 114 0
9.900000 11.440000 32.120000 199 124 114 0
10.120000 11.440000 32.120000 199 124 114 0
10.340000 11.440000 32.120000 200 125 115 0
10.560000 11.440000 32.120000 200 125 115 0
10.780000 11.440000 32.120000 199 124 114 0
11.000000 11.440000 32.120000 201 126 116 0
11.220000 11.440000 30.800000 202 127 117 0
11.440000 11.440000 30.800000 201 126 116 0
11.660000 11.440000 30.800000 203 128 118 0
11.880000 11.440000 30.800000 203 130 119 0
12.100000 11.440000 30.800000 204 131 120 0
12.320000 11.440000 30.800000 204 131 119 0
12.540000 11.440000 30.800000 206 133 121 0
12.760000 11.440000 30.800000 208 133 123 0
12.980000 11.440000 30.580000 206 131 121 0
13.200000 11.440000 30.580000 201 123 116 0
13.420000 11.440000 30.580000 197 119 112 0
13.640000 11.440000 30.800000 192 114 109 0
13.860000 11.440000 30.800000 192 114 109 0
14.080000 11.440000 32.120000 191 113 108 0
14.300000 11.440000 32.340000 191 113 108 0
14.520000 11.440000 32.340000 190 112 107 0
14.740000 11.440000 32.340000 189 111 106 0
14.960000 11.440000 32.560000 191 111 105 0
15.180000 11.440000 33.880000 191 111 105 0
15.400000 11.440000 34.100000 189 111 106 0
15.620000 11.440000 34.100000 190 112 107 0
15.840000 11.440000 34.100000 190 110 106 0
16.060000 11.440000 36.520000 191 111 107 0
16.280000 11.440000 37.400000 190 110 106 0
16.500000 11.440000 37.400000 190 110 106 0
16.720000 11.440000 37.620000 191 111 107 0
16.940000 11.440000 38.940000 190 110 106 0
17.160000 11.440000 39.160000 190 112 107 0
17.380000 11.440000 39.160000 190 112 107 0
17.600000 11.440000 39.160000 190 110 108 0
17.820000 11.440000 39.160000 192 112 110 0
18.040000 11.440000 39.380000 190 110 108 0
18.260000 11.440000 39.380000 190 110 108 0
18.480000 11.440000 39.380000 188 109 107 0
18.700000 11.440000 39.600000 188 109 107 0
18.920000 11.440000 39.600000 190 111 109 0
19.140000 11.440000 39.820000 189 110 108 0
19.360000 11.440000 39.820000 190 110 108 0
19.580000 11.440000 31.680000 191 111 109 0
19.800000 11.440000 13.420000 189 110 110 0
20.020000 11.440000 1.760000 189 110 110 0
20.240000 11.440000 0.220000 189 110 110 0
20.460000 11.440000 0.220000 188 109 109 0
20.680000 11.440000 0.220000 187 108 108 0
20.900000 11.440000 0.220000 187 108 108 0
21.120000 11.440000 0.220000 187 108 108 0
21.340000 11.440000 0.220000 188 109 109 0
21.560000 11.440000 0.220000 188 109 110 0
21.780000 11.440000 1.760000 188 109 110 0
22.000000 11.440000 1.760000 187 106 108 0
22.220000 11.440000 1.760000 188 107 109 0
22.440000 11.440000 1.760000 186 107 108 0
22.660000 11.440000 1.760000 188 109 110 0
22.880000 11.440000 1.980000 187 107 111 0
23.100000 11.440000 1.980000 187 107 111 0
23.320000 11.440000 1.980000 186 109 114 0
23.540000 11.440000 2.200000 186 109 114 0
23.760000 11.440000 2.200000 186 109 114 0
23.980000 11.440000 2.420000 186 109 114 0
24.200000 11.440000 3.740000 185 108 111 0
24.420000 11.440000 4.620000 183 106 109 0
24.640000 11.440000 5.720000 184 107 110 0
24.860000 11.440000 5.720000 184 107 110 0
25.080000 11.440000 5.720000 186 106 112 0
25.300000 11.440000 5.720000 184 104 110 0
25.520000 11.440000 7.260000 184 107 112 0
25.740000 11.440000 7.260000 185 108 113 0
25.960000 11.440000 7.260000 183 107 112 0
26.180000 11.440000 7.260000 182 106 111 0
26.400000 11.440000 8.800000 182 105 110 0
26.620000 11.440000 8.800000 182 105 110 0
26.840000 11.440000 8.800000 183 107 115 0
27.060000 11.440000 9.020000 183 107 115 0
27.280000 11.440000 7.480000 183 106 111 0
27.500000 11.440000 7.700000 183 106 111 0
27.720000 11.440000 9.020000 180 104 111 0
27.940000 11.440000 8.800000 181 105 112 0
28.160000 11.440000 9.900000 181 103 111 0
28.380000 11.440000 9.900000 183 105 113 0
28.600000 11.440000 9.900000 182 106 114 0
28.820000 11.440000 9.900000 180 104 112 0
29.040000 11.440000 9.900000 181 105 112 0
29.260000 11.440000 9.900000 182 106 113 0
29.480000 11.440000 9.900000 181 105 113 0
29.700000 11.440000 9.900000 181 105 113 0
29.920000 11.440000 9.900000 181 103 111 0
30.140000 11.440000 8.580000 181 103 111 0
30.360000 11.440000 8.580000 182 102 108 0
30.580000 11.440000 8.580000 181 101 107 0
30.800000 11.440000 8.580000 181 101 105 0
31.020000 11.440000 8.580000 181 101 105 0
31.240000 11.440000 8.580000 180 100 108 0
31.460000 11.440000 7.260000 179 99 107 0
31.680000 11.440000 7.260000 177 97 103 0
31.900000 11.440000 7.260000 179 99 105 0
32.120000 11.440000 8.580000 180 99 103 0
32.340000 11.440000 8.580000 180 99 103 0
32.560000 11.440000 8.580000 178 98 102 0
32.780000 11.440000 7.260000 177 97 101 0
33.000000 11.440000 5.940000 178 97 99 0
33.220000 11.440000 5.940000 178 97 99 0
33.440000 11.440000 7.260000 177 96 100 0
33.660000 11.440000 7.260000 176 95 99 0
33.880000 11.440000 7.260000 176 95 97 0
34.100000 11.440000 7.260000 177 96 98 0
34.320000 11.440000 7.260000 176 95 96 0
34.540000 11.440000 7.260000 176 95 96 0
34.760000 11.440000 5.940000 175 94 96 0
34.980000 11.440000 5.940000 175 94 96 0
35.200000 11.440000 5.940000 176 93 96 0
35.420000 11.440000 5.940000 178 95 98 0
35.640000 11.440000 5.940000 176 94 95 0
35.860000 11.440000 7.260000 177 95 96 0
36.080000 11.440000 7.260000 175 94 95 0
36.300000 11.440000 7.260000 174 93 94 0
36.520000 11.440000 7.260000 174 93 95 0
36.740000 11.440000 5.720000 175 94 96 0
36.960000 11.440000 5.940000 176 94 95 0
37.180000 11.440000 5.940000 175 93 94 0
0.000000 11.660000 8.800000 140 114 108 0
0.220000 11.660000 8.580000 140 114 108 0
0.440000 11.660000 8.580000 139 113 107 0
0.660000 11.660000 9.900000 141 115 109 0
0.880000 11.660000 8.580000 142 114 108 0
1.100000 11.660000 8.580000 143 115 109 0
1.320000 11.660000 8.580000 144 118 114 0
1.540000 11.660000 7.260000 154 128 124 0
1.760000 11.660000 7.260000 169 139 142 0
1.980000 11.660000 5.940000 174 144 147 0
2.200000 11.660000 5.940000 181 142 142 0
2.420000 11.660000 5.940000 179 140 140 0
2.640000 11.660000 4.620000 181 134 139 0
2.860000 11.660000 3.300000 180 133 138 0
3.080000 11.660000 5.940000 178 133 131 0
3.300000 11.660000 14.300000 175 130 128 0
3.520000 11.660000 21.120000 183 127 125 0
3.740000 11.660000 22.660000 183 127 125 0
3.960000 11.660000 19.800000 191 128 118 0
4.180000 11.660000 23.980000 194 131 121 0
4.400000 11.660000 25.300000 193 134 123 0
4.620000 11.660000 21.120000 194 135 124 0
4.840000 11.660000 15.620000 196 135 125 0
5.060000 11.660000 19.800000 197 136 126 0
5.280000 11.660000 30.800000 200 130 125 0
5.500000 11.660000 36.520000 199 129 124 0
5.720000 11.660000 36.520000 197 129 121 0
5.940000 11.660000 36.300000 197 129 121 0
6.160000 11.660000 34.980000 197 128 118 0
6.380000 11.660000 35.200000 197 128 118 0
6.600000 11.660000 33.660000 197 126 117 0
6.820000 11.660000 33.660000 198 127 118 0
7.040000 11.660000 33.660000 196 125 118 0
7.260000 11.660000 33.660000 196 125 118 0
7.480000 11.660000 33.660000 197 122 114 0
7.700000 11.660000 33.660000 197 122 114 0
7.920000 11.660000 33.660000 199 124 114 0
8.140000 11.660000 32.340000 198 123 113 0
8.360000 11.660000 32.340000 198 123 113 0
8.580000 11.660000 32.120000 197 122 112 0
8.800000 11.660000 32.340000 197 122 114 0
9.020000 11.660000 32.340000 196 121 113 0
9.240000 11.660000 32.340000 196 121 113 0
9.460000 11.660000 32.340000 197 122 114 0
9.680000 11.660000 32.340000 198 123 113 0
9.900000 11.660000 30.800000 197 122 112 0
10.120000 11.660000 30.800000 197 122 112 0
10.340000 11.660000 30.800000 197 122 112 0
10.560000 11.660000 30.800000 198 123 113 0
10.780000 11.660000 30.800000 199 124 114 0
11.000000 11.660000 30.800000 199 124 114 0
11.220000 11.660000 30.800000 201 126 116 0
11.440000 11.660000 30.800000 199 124 114 0
11.660000 11.660000 30.800000 200 125 115 0
11.880000 11.660000 30.800000 201 128 117 0
12.100000 11.660000 30.800000 202 129 118 0
12.320000 11.660000 30.580000 203 130 118 0
12.540000 11.660000 30.580000 204 131 119 0
12.760000 11.660000 30.580000 204 129 119 0
12.980000 11.660000 30.580000 200 125 115 0
13.200000 11.660000 30.580000 198 120 113 0
13.420000 11.660000 30.580000 193 115 108 0
13.640000 11.660000 30.580000 191 113 108 0
13.860000 11.660000 32.120000 190 112 107 0
14.080000 11.660000 32.120000 190 112 107 0
14.300000 11.660000 32.120000 190 112 107 0
14.520000 11.660000 32.340000 190 112 107 0
14.740000 11.660000 32.340000 190 112 107 0
14.960000 11.660000 32.560000 191 111 105 0
15.180000 11.660000 33.880000 190 110 104 0
15.400000 11.660000 34.100000 188 110 105 0
15.620000 11.660000 34.100000 188 110 105 0
15.840000 11.660000 34.100000 189 109 105 0
16.060000 11.660000 35.200000 189 109 105 0
16.280000 11.660000 37.620000 189 109 105 0
16.500000 11.660000 37.400000 190 110 106 0
16.720000 11.660000 37.620000 190 110 106 0
16.940000 11.660000 38.940000 190 110 106 0
17.160000 11.660000 39.160000 189 111 106 0
17.380000 11.660000 39.160000 189 111 106 0
17.600000 11.660000 39.160000 189 109 107 0
17.820000 11.660000 39.160000 190 110 108 0
18.040000 11.660000 39.380000 190 110 108 0
18.260000 11.660000 39.380000 189 109 107 0
18.480000 11.660000 39.380000 188 109 107 0
18.700000 11.660000 39.600000 188 109 107 0
18.920000 11.660000 39.600000 189 110 108 0
19.140000 11.660000 41.140000 190 111 109 0
19.360000 11.660000 39.820000 190 110 108 0
19.580000 11.660000 37.180000 190 110 108 0
19.800000 11.660000 24.420000 189 110 110 0
20.020000 11.660000 7.260000 189 110 110 0
20.240000 11.660000 0.220000 188 109 109 0
20.460000 11.660000 0.220000 187 108 108 0
20.680000 11.660000 0.220000 187 108 108 0
20.900000 11.660000 0.220000 187 108 108 0
21.120000 11.660000 0.220000 187 108 108 0
21.340000 11.660000 0.220000 187 108 108 0
21.560000 11.660000 0.220000 186 107 108 0
21.780000 11.660000 0.220000 187 108 109 0
22.000000 11.660000 1.760000 187 106 108 0
22.220000 11.660000 1.760000 186 105 107 0
22.440000 11.660000 1.760000 186 107 108 0
22.660000 11.660000 1.760000 185 106 107 0
22.880000 11.660000 1.980000 186 106 110 0
23.100000 11.660000 1.980000 185 105 109 0
23.320000 11.660000 1.980000 184 107 112 0
23.540000 11.660000 2.200000 184 107 112 0
23.760000 11.660000 2.200000 184 107 112 0
23.980000 11.660000 2.420000 183 106 111 0
24.200000 11.660000 2.420000 183 106 109 0
24.420000 11.660000 3.520000 183 106 109 0
24.640000 11.660000 4.400000 182 105 108 0
24.860000 11.660000 5.720000 182 105 108 0
25.080000 11.660000 5.720000 184 104 110 0
25.300000 11.660000 5.720000 183 103 109 0
25.520000 11.660000 7.260000 182 105 110 0
25.740000 11.660000 7.260000 182 105 110 0
25.960000 11.660000 7.260000 181 105 110 0
26.180000 11.660000 7.260000 181 105 110 0
26.400000 11.660000 8.800000 181 104 109 0
26.620000 11.660000 8.800000 182 105 110 0
26.840000 11.660000 9.020000 181 105 113 0
27.060000 11.660000 9.020000 181 105 113 0
27.280000 11.660000 7.700000 180 103 108 0
27.500000 11.660000 9.240000 180 103 108 0
27.720000 11.660000 9.240000 179 103 110 0
27.940000 11.660000 7.920000 179 103 110 0
28.160000 11.660000 9.020000 180 102 110 0
28.380000 11.660000 10.120000 180 102 110 0
28.600000 11.660000 11.220000 179 103 111 0
28.820000 11.660000 9.900000 178 102 110 0
29.040000 11.660000 9.900000 178 102 109 0
29.260000 11.660000 9.900000 177 101 108 0
29.480000 11.660000 9.900000 179 103 111 0
29.700000 11.660000 9.900000 178 102 110 0
29.920000 11.660000 8.580000 179 101 109 0
30.140000 11.660000 8.580000 178 100 108 0
30.360000 11.660000 8.580000 179 99 105 0
30.580000 11.660000 7.260000 177 97 103 0
30.800000 11.660000 8.580000 178 98 102 0
31.020000 11.660000 8.580000 177 97 101 0
31.240000 11.660000 8.580000 178 98 106 0
31.460000 11.660000 7.260000 178 98 106 0
31.680000 11.660000 7.260000 176 96 102 0
31.900000 11.660000 5.940000 175 95 101 0
32.120000 11.660000 7.260000 177 96 100 0
32.340000 11.660000 8.580000 178 97 101 0
32.560000 11.660000 8.580000 175 95 99 0
32.780000 11.660000 7.260000 175 95 99 0
33.000000 11.660000 7.260000 176 95 97 0
33.220000 11.660000 7.260000 175 94 96 0
33.440000 11.660000 7.260000 175 94 98 0
33.660000 11.660000 5.940000 174 93 97 0
33.880000 11.660000 5.940000 175 94 96 0
34.100000 11.660000 5.940000 175 94 96 0
34.320000 11.660000 5.940000 175 94 95 0
34.540000 11.660000 5.940000 174 93 94 0
34.760000 11.660000 5.940000 174 93 95 0
34.980000 11.660000 5.940000 174 93 95 0
35.200000 11.660000 5.720000 175 92 95 0
35.420000 11.660000 5.720000 176 93 96 0
35.640000 11.660000 5.940000 176 94 95 0
35.860000 11.660000 7.260000 175 93 94 0
36.080000 11.660000 7.260000 173 92 93 0
36.300000 11.660000 7.260000 173 92 93 0
36.520000 11.660000 7.260000 173 92 94 0
36.740000 11.660000 5.940000 174 93 95 0
36.960000 11.660000 5.940000 173 91 92 0
37.180000 11.660000 5.940000 174 92 93 0
0.000000 11.880000 8.800000 140 115 106 0
0.220000 11.880000 8.800000 140 115 106 0
0.440000 11.880000 8.580000 140 114 108 0
0.660000 11.880000 8.580000 139 113 107 0
0.880000 11.880000 8.580000 140 114 108 0
1.100000 11.880000 7.260000 143 117 111 0
1.320000 11.880000 7.260000 155 126 125 0
1.540000 11.880000 5.940000 161 132 131 0
1.760000 11.880000 5.940000 179 138 139 0
1.980000 11.880000 5.940000 179 138 139 0
2.200000 11.880000 5.940000 181 135 133 0
2.420000 11.880000 4.620000 181 135 133 0
2.640000 11.880000 1.760000 179 134 132 0
2.860000 11.880000 0.440000 177 132 130 0
3.080000 11.880000 5.940000 187 127 124 0
3.300000 11.880000 16.940000 183 123 120 0
3.520000 11.880000 25.300000 185 123 119 0
3.740000 11.880000 32.340000 188 126 122 0
3.960000 11.880000 33.660000 188 127 121 0
4.180000 11.880000 34.980000 192 131 125 0
4.400000 11.880000 34.980000 194 131 121 0
4.620000 11.880000 29.480000 195 132 122 0
4.840000 11.880000 26.840000 199 131 125 0
5.060000 11.880000 29.480000 199 131 125 0
5.280000 11.880000 34.980000 198 127 120 0
5.500000 11.880000 36.520000 198 127 120 0
5.720000 11.880000 34.980000 196 127 117 0
5.940000 11.880000 34.980000 195 126 116 0
6.160000 11.880000 34.980000 197 123 115 0
6.380000 11.880000 33.660000 198 124 116 0
6.600000 11.880000 33.660000 197 122 114 0
6.820000 11.880000 32.340000 196 121 113 0
7.040000 11.880000 32.340000 195 120 112 0
7.260000 11.880000 32.340000 196 121 113 0
7.480000 11.880000 32.340000 198 120 111 0
7.700000 11.880000 32.340000 197 119 110 0
7.920000 11.880000 32.340000 196 121 111 0
8.140000 11.880000 32.340000 195 120 110 0
8.360000 11.880000 32.340000 197 119 110 0
8.580000 11.880000 32.120000 197 119 110 0
8.800000 11.880000 32.340000 197 119 110 0
9.020000 11.880000 32.340000 197 119 110 0
9.240000 11.880000 31.020000 197 119 110 0
9.460000 11.880000 30.800000 197 119 110 0
9.680000 11.880000 30.800000 198 120 111 0
9.900000 11.880000 30.800000 198 120 111 0
10.120000 11.880000 30.800000 197 119 110 0
10.340000 11.880000 30.800000 198 120 111 0
10.560000 11.880000 30.800000 198 120 111 0
10.780000 11.880000 30.800000 200 122 113 0
11.000000 11.880000 30.800000 201 123 114 0
11.220000 11.880000 30.800000 200 122 113 0
11.440000 11.880000 30.580000 198 123 113 0
11.660000 11.880000 30.580000 199 124 114 0
11.880000 11.880000 30.580000 199 124 114 0
12.100000 11.880000 30.580000 201 126 116 0
12.320000 11.880000 30.580000 204 126 119 0
12.540000 11.880000 30.580000 203 125 118 0
12.760000 11.880000 30.580000 203 123 117 0
12.980000 11.880000 30.580000 197 117 111 0
13.200000 11.880000 30.580000 193 113 107 0
13.420000 11.880000 30.580000 192 112 106 0
13.640000 11.880000 30.580000 190 110 104 0
13.860000 11.880000 30.800000 190 110 104 0
14.080000 11.880000 32.120000 191 111 107 0
14.300000 11.880000 32.120000 190 110 106 0
14.520000 11.880000 32.340000 189 111 106 0
14.740000 11.880000 32.340000 190 112 107 0
14.960000 11.880000 32.340000 190 110 104 0
15.180000 11.880000 32.560000 190 110 104 0
15.400000 11.880000 33.880000 190 110 106 0
15.620000 11.880000 34.100000 189 109 105 0
15.840000 11.880000 34.100000 189 109 105 0
16.060000 11.880000 35.200000 188 108 104 0
16.280000 11.880000 36.300000 188 108 104 0
16.500000 11.880000 37.620000 188 108 104 0
16.720000 11.880000 37.620000 189 107 104 0
16.940000 11.880000 38.940000 191 109 106 0
17.160000 11.880000 39.160000 188 108 104 0
17.380000 11.880000 39.160000 190 110 106 0
17.600000 11.880000 39.160000 189 109 105 0
17.820000 11.880000 39.160000 188 108 104 0
18.040000 11.880000 39.380000 189 109 105 0
18.260000 11.880000 39.380000 188 108 104 0
18.480000 11.880000 39.380000 188 108 104 0
18.700000 11.880000 39.600000 188 108 104 0
18.920000 11.880000 39.600000 189 109 107 0
19.140000 11.880000 41.140000 190 110 108 0
19.360000 11.880000 41.140000 190 110 108 0
19.580000 11.880000 39.820000 187 107 105 0
19.800000 11.880000 32.780000 190 108 105 0
20.020000 11.880000 15.620000 188 106 103 0
20.240000 11.880000 2.860000 187 107 105 0
20.460000 11.880000 0.220000 187 107 105 0
20.680000 11.880000 0.220000 187 106 107 0
20.900000 11.880000 0.220000 186 105 106 0
21.120000 11.880000 0.220000 186 105 106 0
21.340000 11.880000 0.220000 186 105 106 0
21.560000 11.880000 0.220000 187 106 107 0
21.780000 11.880000 0.220000 187 106 107 0
22.000000 11.880000 0.220000 186 106 104 0
22.220000 11.880000 0.440000 185 105 103 0
22.440000 11.880000 1.760000 185 104 106 0
22.660000 11.880000 1.760000 185 104 106 0
22.880000 11.880000 1.980000 184 104 108 0
23.100000 11.880000 1.980000 184 104 108 0
23.320000 11.880000 1.980000 185 104 106 0
23.540000 11.880000 2.200000 186 105 107 0
23.760000 11.880000 2.200000 185 104 105 0
23.980000 11.880000 2.420000 184 103 104 0
24.200000 11.880000 2.640000 182 102 106 0
24.420000 11.880000 3.740000 181 101 105 0
24.640000 11.880000 4.620000 183 103 107 0
24.860000 11.880000 5.720000 183 103 107 0
25.080000 11.880000 5.720000 182 102 106 0
25.300000 11.880000 5.720000 183 103 107 0
25.520000 11.880000 7.260000 184 105 106 0
25.740000 11.880000 7.260000 183 104 105 0
25.960000 11.880000 7.260000 183 103 109 0
26.180000 11.880000 7.480000 182 102 108 0
26.400000 11.880000 8.800000 182 102 108 0
26.620000 11.880000 8.800000 182 102 108 0
26.840000 11.880000 9.020000 182 102 106 0
27.060000 11.880000 9.020000 181 101 105 0
27.280000 11.880000 9.020000 181 101 105 0
27.500000 11.880000 9.240000 181 101 105 0
27.720000 11.880000 9.240000 181 101 107 0
27.940000 11.880000 7.920000 182 102 108 0
28.160000 11.880000 7.920000 181 101 107 0
28.380000 11.880000 10.120000 181 101 107 0
28.600000 11.880000 11.220000 182 101 105 0
28.820000 11.880000 11.220000 180 99 103 0
29.040000 11.880000 11.220000 179 98 102 0
29.260000 11.880000 11.220000 180 99 103 0
29.480000 11.880000 9.900000 177 96 100 0
29.700000 11.880000 10.120000 179 98 102 0
29.920000 11.880000 8.580000 178 97 101 0
30.140000 11.880000 8.580000 178 97 101 0
30.360000 11.880000 7.260000 177 96 100 0
30.580000 11.880000 7.260000 176 95 99 0
30.800000 11.880000 7.260000 176 95 97 0
31.020000 11.880000 7.260000 177 96 98 0
31.240000 11.880000 7.260000 178 95 98 0
31.460000 11.880000 5.940000 178 95 98 0
31.680000 11.880000 5.940000 175 94 96 0
31.900000 11.880000 5.940000 174 93 95 0
32.120000 11.880000 5.940000 174 93 95 0
32.340000 11.880000 7.260000 174 93 95 0
32.560000 11.880000 8.580000 175 94 96 0
32.780000 11.880000 7.260000 174 93 95 0
33.000000 11.880000 7.260000 174 93 95 0
33.220000 11.880000 7.260000 175 94 96 0
33.440000 11.880000 5.940000 173 92 93 0
33.660000 11.880000 5.940000 173 92 93 0
33.880000 11.880000 4.620000 174 93 94 0
34.100000 11.880000 5.940000 173 92 93 0
34.320000 11.880000 7.260000 174 92 93 0
34.540000 11.880000 7.260000 174 92 93 0
34.760000 11.880000 5.940000 173 91 92 0
34.980000 11.880000 5.940000 173 91 92 0
35.200000 11.880000 4.400000 173 92 93 0
35.420000 11.880000 5.720000 174 93 94 0
35.640000 11.880000 5.940000 174 93 94 0
35.860000 11.880000 7.260000 173 92 93 0
36.080000 11.880000 5.940000 172 91 92 0
36.300000 11.880000 7.260000 173 92 93 0
36.520000 11.880000 5.940000 173 92 93 0
36.740000 11.880000 5.940000 172 91 92 0
36.960000 11.880000 5.940000 172 92 90 0
37.180000 11.880000 5.940000 172 92 90 0
0.000000 12.100000 8.580000 140 115 106 0
0.220000 12.100000 8.580000 140 115 106 0
0.440000 12.100000 8.580000 140 114 108 0
0.660000 12.100000 8.580000 140 114 108 0
0.880000 12.100000 8.580000 143 117 111 0
1.100000 12.100000 8.580000 151 125 119 0
1.320000 12.100000 7.260000 161 132 131 0
1.540000 12.100000 7.260000 167 138 137 0
1.760000 12.100000 5.940000 175 134 135 0
1.980000 12.100000 5.940000 175 134 135 0
2.200000 12.100000 4.620000 176 130 128 0
2.420000 12.100000 3.300000 177 131 129 0
2.640000 12.100000 0.440000 176 131 129 0
2.860000 12.100000 0.440000 174 129 127 0
3.080000 12.100000 3.080000 185 125 122 0
3.300000 12.100000 12.760000 184 124 121 0
3.520000 12.100000 26.620000 184 122 118 0
3.740000 12.100000 36.520000 186 124 120 0
3.960000 12.100000 36.520000 188 127 121 0
4.180000 12.100000 32.340000 191 130 124 0
4.400000 12.100000 33.660000 193 130 120 0
4.620000 12.100000 34.980000 193 130 120 0
4.840000 12.100000 34.980000 195 127 121 0
5.060000 12.100000 34.980000 194 126 120 0
5.280000 12.100000 34.980000 197 126 119 0
5.500000 12.100000 34.980000 196 125 118 0
5.720000 12.100000 33.660000 193 124 114 0
5.940000 12.100000 33.660000 193 124 114 0
6.160000 12.100000 33.660000 195 121 113 0
6.380000 12.100000 32.340000 196 122 114 0
6.600000 12.100000 32.340000 196 121 113 0
6.820000 12.100000 32.340000 194 119 111 0
7.040000 12.100000 32.340000 195 120 112 0
7.260000 12.100000 32.340000 194 119 111 0
7.480000 12.100000 32.340000 197 119 110 0
7.700000 12.100000 32.340000 196 118 109 0
7.920000 12.100000 32.340000 193 118 108 0
8.140000 12.100000 32.340000 194 119 109 0
8.360000 12.100000 32.340000 195 117 108 0
8.580000 12.100000 32.340000 195 117 108 0
8.800000 12.100000 30.800000 196 118 109 0
9.020000 12.100000 30.800000 196 118 109 0
9.240000 12.100000 30.800000 197 119 110 0
9.460000 12.100000 30.800000 196 118 109 0
9.680000 12.100000 30.800000 196 118 109 0
9.900000 12.100000 30.800000 196 118 109 0
10.120000 12.100000 30.800000 196 118 109 0
10.340000 12.100000 30.800000 196 118 109 0
10.560000 12.100000 30.800000 198 120 111 0
10.780000 12.100000 30.800000 198 120 111 0
11.000000 12.100000 30.800000 199 121 112 0
11.220000 12.100000 30.800000 200 122 113 0
11.440000 12.100000 30.580000 197 122 112 0
11.660000 12.100000 30.580000 198 123 113 0
11.880000 12.100000 30.580000 198 123 113 0
12.100000 12.100000 30.580000 198 123 113 0
12.320000 12.100000 30.580000 202 124 117 0
12.540000 12.100000 30.580000 200 122 115 0
12.760000 12.100000 30.580000 198 118 112 0
12.980000 12.100000 30.580000 193 113 107 0
13.200000 12.100000 30.580000 191 111 105 0
13.420000 12.100000 30.580000 191 111 105 0
13.640000 12.100000 30.580000 190 110 104 0
13.860000 12.100000 30.800000 190 110 104 0
14.080000 12.100000 30.800000 190 110 106 0
14.300000 12.100000 32.340000 190 110 106 0
14.520000 12.100000 32.340000 189 111 106 0
14.740000 12.100000 32.340000 189 111 106 0
14.960000 12.100000 32.340000 188 108 102 0
15.180000 12.100000 32.560000 188 108 102 0
15.400000 12.100000 33.880000 188 108 104 0
15.620000 12.100000 34.100000 188 108 104 0
15.840000 12.100000 34.100000 188 108 104 0
16.060000 12.100000 35.420000 187 107 103 0
16.280000 12.100000 36.300000 188 108 104 0
16.500000 12.100000 37.400000 188 108 104 0
16.720000 12.100000 37.620000 189 107 104 0
16.940000 12.100000 38.940000 189 107 104 0
17.160000 12.100000 39.160000 189 109 105 0
17.380000 12.100000 39.160000 188 108 104 0
17.600000 12.100000 39.160000 188 108 104 0
17.820000 12.100000 39.160000 188 108 104 0
18.040000 12.100000 39.380000 187 107 103 0
18.260000 12.100000 39.380000 187 107 103 0
18.480000 12.100000 39.380000 187 107 103 0
18.700000 12.100000 39.600000 188 108 104 0
18.920000 12.100000 39.600000 188 108 106 0
19.140000 12.100000 41.140000 189 109 107 0
19.360000 12.100000 41.140000 188 108 106 0
19.580000 12.100000 39.820000 188 108 106 0
19.800000 12.100000 35.640000 188 106 103 0
20.020000 12.100000 22.660000 187 105 102 0
