ply
format ascii 1.0
element vertex 1157
property float x
property float y
property float z
property uchar red
property uchar green
property uchar blue
property uchar alpha
end_header
25.960000 27.280000 0.660000 169 77 61 0
26.180000 27.280000 0.880000 171 77 64 0
26.400000 27.280000 0.880000 170 76 63 0
26.620000 27.280000 0.880000 171 77 64 0
26.840000 27.280000 0.880000 171 77 64 0
27.060000 27.280000 0.660000 172 78 63 0
27.280000 27.280000 0.880000 173 79 64 0
27.500000 27.280000 0.880000 172 78 63 0
27.720000 27.280000 0.880000 173 79 64 0
27.940000 27.280000 0.660000 173 79 64 0
28.160000 27.280000 2.200000 174 80 65 0
28.380000 27.280000 2.200000 174 80 65 0
28.600000 27.280000 2.200000 175 81 66 0
28.820000 27.280000 1.980000 175 81 66 0
29.040000 27.280000 1.980000 175 81 66 0
29.260000 27.280000 1.980000 176 82 67 0
29.480000 27.280000 1.980000 177 83 68 0
29.700000 27.280000 1.760000 178 84 71 0
29.920000 27.280000 3.080000 177 83 70 0
30.140000 27.280000 3.080000 178 84 69 0
30.360000 27.280000 3.080000 179 85 70 0
30.580000 27.280000 3.080000 178 85 72 0
30.800000 27.280000 3.080000 179 86 73 0
31.020000 27.280000 3.080000 179 86 73 0
31.240000 27.280000 3.080000 181 88 75 0
31.460000 27.280000 3.080000 180 87 74 0
31.680000 27.280000 3.080000 181 88 75 0
31.900000 27.280000 3.080000 181 88 75 0
32.120000 27.280000 3.080000 182 89 76 0
32.340000 27.280000 3.080000 183 90 77 0
32.560000 27.280000 3.080000 183 90 77 0
32.780000 27.280000 3.080000 183 93 79 0
33.000000 27.280000 3.080000 182 92 78 0
33.220000 27.280000 3.080000 184 94 81 0
33.440000 27.280000 3.080000 183 93 80 0
33.660000 27.280000 3.080000 184 94 80 0
33.880000 27.280000 3.080000 184 94 80 0
34.100000 27.280000 3.080000 184 94 80 0
34.320000 27.280000 3.080000 185 95 81 0
34.540000 27.280000 4.400000 185 95 81 0
34.760000 27.280000 4.400000 184 94 80 0
34.980000 27.280000 4.400000 186 93 81 0
35.200000 27.280000 4.400000 187 94 82 0
35.420000 27.280000 4.400000 186 93 80 0
35.640000 27.280000 4.400000 186 93 80 0
35.860000 27.280000 4.400000 186 93 80 0
36.080000 27.280000 4.400000 186 93 80 0
36.300000 27.280000 4.400000 185 92 79 0
36.520000 27.280000 4.400000 185 92 79 0
36.740000 27.280000 4.620000 186 93 81 0
36.960000 27.280000 4.620000 186 93 81 0
37.180000 27.280000 4.620000 187 94 81 0
0.000000 27.500000 5.940000 146 118 92 0
0.220000 27.500000 3.080000 147 116 91 0
0.440000 27.500000 3.080000 147 116 91 0
0.660000 27.500000 3.080000 147 116 91 0
0.880000 27.500000 3.080000 147 116 91 0
1.100000 27.500000 3.080000 146 115 90 0
1.320000 27.500000 4.620000 146 115 90 0
1.540000 27.500000 4.620000 145 114 89 0
1.760000 27.500000 5.940000 145 114 89 0
1.980000 27.500000 5.940000 145 114 89 0
2.200000 27.500000 4.620000 145 114 89 0
2.420000 27.500000 4.620000 144 113 88 0
2.640000 27.500000 3.080000 143 112 87 0
2.860000 27.500000 3.080000 145 112 88 0
3.080000 27.500000 3.080000 145 112 88 0
3.300000 27.500000 4.620000 145 112 88 0
3.520000 27.500000 5.940000 145 112 88 0
3.740000 27.500000 7.260000 144 111 87 0
3.960000 27.500000 5.940000 144 111 87 0
4.180000 27.500000 7.260000 144 111 87 0
4.400000 27.500000 7.260000 144 111 87 0
4.620000 27.500000 5.940000 146 111 87 0
4.840000 27.500000 4.620000 146 111 87 0
5.060000 27.500000 4.620000 144 111 87 0
5.280000 27.500000 4.620000 144 111 87 0
5.500000 27.500000 5.940000 143 110 86 0
5.720000 27.500000 5.940000 144 111 87 0
5.940000 27.500000 4.620000 146 111 87 0
6.160000 27.500000 4.620000 145 110 86 0
6.380000 27.500000 4.620000 145 110 86 0
6.600000 27.500000 4.620000 145 110 86 0
6.820000 27.500000 4.620000 143 108 84 0
7.040000 27.500000 5.940000 144 109 85 0
7.260000 27.500000 5.940000 144 109 85 0
7.480000 27.500000 5.940000 144 109 85 0
7.700000 27.500000 7.260000 144 109 85 0
7.920000 27.500000 7.260000 144 109 85 0
8.140000 27.500000 5.940000 146 109 86 0
8.360000 27.500000 5.940000 145 108 85 0
8.580000 27.500000 5.940000 144 109 85 0
8.800000 27.500000 5.940000 145 110 86 0
9.020000 27.500000 4.620000 143 108 84 0
9.240000 27.500000 5.940000 143 108 84 0
9.460000 27.500000 5.940000 143 108 84 0
9.680000 27.500000 5.940000 141 106 82 0
9.900000 27.500000 4.620000 141 104 81 0
10.120000 27.500000 4.620000 139 102 79 0
10.340000 27.500000 3.080000 139 104 80 0
10.560000 27.500000 3.080000 140 105 81 0
10.780000 27.500000 3.080000 140 105 81 0
11.000000 27.500000 3.300000 141 106 82 0
11.220000 27.500000 4.620000 141 106 82 0
11.440000 27.500000 4.620000 142 107 83 0
11.660000 27.500000 5.940000 141 108 84 0
11.880000 27.500000 5.940000 141 108 84 0
12.100000 27.500000 4.620000 142 109 85 0
12.320000 27.500000 5.940000 143 110 86 0
12.540000 27.500000 5.940000 143 110 86 0
12.760000 27.500000 5.940000 143 110 86 0
12.980000 27.500000 5.940000 143 110 86 0
13.200000 27.500000 5.940000 143 110 86 0
13.420000 27.500000 4.620000 143 112 87 0
13.640000 27.500000 4.620000 143 112 87 0
13.860000 27.500000 4.620000 143 112 87 0
14.080000 27.500000 5.940000 144 113 88 0
14.300000 27.500000 5.940000 144 113 88 0
14.520000 27.500000 5.940000 143 112 87 0
14.740000 27.500000 4.620000 143 112 87 0
14.960000 27.500000 4.620000 143 112 87 0
15.180000 27.500000 4.620000 142 114 88 0
15.400000 27.500000 3.080000 145 117 91 0
15.620000 27.500000 3.080000 144 119 92 0
15.840000 27.500000 3.080000 145 120 93 0
16.060000 27.500000 3.080000 145 120 95 0
16.280000 27.500000 3.080000 145 120 95 0
16.500000 27.500000 1.760000 147 121 94 0
16.720000 27.500000 1.760000 146 120 93 0
16.940000 27.500000 3.080000 151 116 92 0
17.160000 27.500000 15.620000 149 114 90 0
17.380000 27.500000 33.660000 157 104 85 0
17.600000 27.500000 41.800000 156 103 84 0
17.820000 27.500000 41.800000 165 97 79 0
18.040000 27.500000 41.800000 165 97 79 0
18.260000 27.500000 41.800000 165 96 76 0
18.480000 27.500000 41.800000 164 95 75 0
18.700000 27.500000 42.020000 163 94 76 0
18.920000 27.500000 42.020000 163 94 76 0
19.140000 27.500000 42.020000 165 91 73 0
19.360000 27.500000 39.160000 164 90 72 0
19.580000 27.500000 28.160000 166 90 72 0
19.800000 27.500000 19.800000 165 89 71 0
20.020000 27.500000 19.800000 166 87 69 0
20.240000 27.500000 12.980000 165 86 68 0
20.460000 27.500000 1.760000 167 85 68 0
23.100000 27.500000 0.660000 166 78 63 0
23.320000 27.500000 0.660000 167 79 64 0
23.540000 27.500000 0.660000 167 77 63 0
23.760000 27.500000 0.660000 167 77 63 0
23.980000 27.500000 0.660000 167 77 63 0
24.200000 27.500000 0.660000 167 77 63 0
24.420000 27.500000 0.660000 167 77 63 0
24.640000 27.500000 0.660000 167 77 63 0
24.860000 27.500000 0.660000 166 76 62 0
25.080000 27.500000 0.660000 168 78 64 0
25.300000 27.500000 0.660000 170 77 64 0
25.520000 27.500000 0.660000 169 76 63 0
25.740000 27.500000 0.660000 168 75 62 0
25.960000 27.500000 0.660000 169 76 63 0
26.180000 27.500000 0.660000 170 77 64 0
26.400000 27.500000 0.660000 170 77 64 0
26.620000 27.500000 0.660000 169 76 63 0
26.840000 27.500000 0.880000 170 77 64 0
27.060000 27.500000 0.880000 171 77 64 0
27.280000 27.500000 0.880000 172 78 65 0
27.500000 27.500000 0.880000 172 78 65 0
27.720000 27.500000 0.880000 172 78 65 0
27.940000 27.500000 2.200000 173 79 66 0
28.160000 27.500000 2.200000 174 80 67 0
28.380000 27.500000 2.200000 174 80 67 0
28.600000 27.500000 2.200000 174 80 67 0
28.820000 27.500000 2.200000 173 79 66 0
29.040000 27.500000 1.980000 175 81 68 0
29.260000 27.500000 1.980000 175 81 68 0
29.480000 27.500000 1.980000 176 82 69 0
29.700000 27.500000 1.760000 177 83 70 0
29.920000 27.500000 3.080000 177 83 70 0
30.140000 27.500000 3.080000 177 83 70 0
30.360000 27.500000 3.080000 177 83 70 0
30.580000 27.500000 3.080000 178 84 71 0
30.800000 27.500000 3.080000 179 85 72 0
31.020000 27.500000 3.080000 178 85 72 0
31.240000 27.500000 3.080000 179 86 73 0
31.460000 27.500000 3.080000 179 86 73 0
31.680000 27.500000 3.080000 180 87 74 0
31.900000 27.500000 3.080000 179 89 76 0
32.120000 27.500000 3.080000 180 90 77 0
32.340000 27.500000 3.080000 181 91 77 0
32.560000 27.500000 3.080000 180 90 76 0
32.780000 27.500000 3.080000 182 92 79 0
33.000000 27.500000 3.080000 181 91 78 0
33.220000 27.500000 3.080000 182 92 78 0
33.440000 27.500000 3.080000 183 93 79 0
33.660000 27.500000 3.080000 183 93 80 0
33.880000 27.500000 3.080000 183 93 80 0
34.100000 27.500000 3.080000 185 95 82 0
34.320000 27.500000 4.400000 184 94 81 0
34.540000 27.500000 4.400000 184 94 81 0
34.760000 27.500000 4.400000 184 94 81 0
34.980000 27.500000 4.400000 184 94 81 0
35.200000 27.500000 4.400000 184 94 81 0
35.420000 27.500000 4.400000 183 93 80 0
35.640000 27.500000 4.400000 185 95 82 0
35.860000 27.500000 4.400000 185 95 81 0
36.080000 27.500000 4.400000 185 95 81 0
36.300000 27.500000 4.400000 185 92 80 0
36.520000 27.500000 4.400000 186 93 81 0
36.740000 27.500000 4.400000 184 94 80 0
36.960000 27.500000 4.620000 184 94 80 0
37.180000 27.500000 4.620000 186 93 81 0
0.000000 27.720000 11.440000 144 116 90 0
0.220000 27.720000 7.260000 148 117 92 0
0.440000 27.720000 3.080000 145 114 89 0
0.660000 27.720000 4.620000 146 115 90 0
0.880000 27.720000 5.940000 147 116 91 0
1.100000 27.720000 5.940000 146 115 90 0
1.320000 27.720000 7.260000 145 114 89 0
1.540000 27.720000 8.580000 146 115 90 0
1.760000 27.720000 7.260000 145 114 89 0
1.980000 27.720000 5.940000 145 114 89 0
2.200000 27.720000 5.940000 145 114 89 0
2.420000 27.720000 5.940000 144 113 88 0
2.640000 27.720000 4.620000 144 113 88 0
2.860000 27.720000 3.080000 146 113 89 0
3.080000 27.720000 3.080000 145 112 88 0
3.300000 27.720000 5.940000 144 111 87 0
3.520000 27.720000 5.940000 145 112 88 0
3.740000 27.720000 5.940000 144 111 87 0
3.960000 27.720000 5.940000 143 110 86 0
4.180000 27.720000 7.260000 144 111 87 0
4.400000 27.720000 5.940000 143 110 86 0
4.620000 27.720000 4.620000 145 110 86 0
4.840000 27.720000 4.620000 146 111 87 0
5.060000 27.720000 5.940000 144 111 87 0
5.280000 27.720000 5.940000 144 111 87 0
5.500000 27.720000 5.940000 144 111 87 0
5.720000 27.720000 5.940000 143 110 86 0
5.940000 27.720000 5.940000 144 109 85 0
6.160000 27.720000 5.940000 145 110 86 0
6.380000 27.720000 5.940000 144 109 85 0
6.600000 27.720000 4.620000 145 110 86 0
6.820000 27.720000 4.620000 143 108 84 0
7.040000 27.720000 5.940000 144 109 85 0
7.260000 27.720000 5.940000 145 110 86 0
7.480000 27.720000 5.940000 144 109 85 0
7.700000 27.720000 7.260000 144 109 85 0
7.920000 27.720000 7.260000 144 109 85 0
8.140000 27.720000 5.940000 145 108 85 0
8.360000 27.720000 5.940000 145 108 85 0
8.580000 27.720000 5.940000 144 109 85 0
8.800000 27.720000 5.940000 144 109 85 0
9.020000 27.720000 5.940000 143 108 84 0
9.240000 27.720000 5.940000 142 107 83 0
9.460000 27.720000 5.940000 142 107 83 0
9.680000 27.720000 5.940000 142 107 83 0
9.900000 27.720000 4.620000 141 104 81 0
10.120000 27.720000 3.080000 138 101 78 0
10.340000 27.720000 4.620000 138 103 79 0
10.560000 27.720000 4.620000 139 104 80 0
10.780000 27.720000 3.080000 140 105 81 0
11.000000 27.720000 3.080000 140 105 81 0
11.220000 27.720000 4.620000 141 106 82 0
11.440000 27.720000 4.620000 142 107 83 0
11.660000 27.720000 5.940000 141 108 84 0
11.880000 27.720000 5.940000 140 107 83 0
12.100000 27.720000 5.940000 141 108 84 0
12.320000 27.720000 5.940000 142 109 85 0
12.540000 27.720000 5.940000 142 109 85 0
12.760000 27.720000 5.940000 142 109 85 0
12.980000 27.720000 5.940000 143 110 86 0
13.200000 27.720000 5.940000 143 110 86 0
13.420000 27.720000 4.620000 142 111 86 0
13.640000 27.720000 4.620000 143 112 87 0
13.860000 27.720000 4.620000 143 112 87 0
14.080000 27.720000 5.940000 143 112 87 0
14.300000 27.720000 5.940000 143 112 87 0
14.520000 27.720000 4.620000 143 112 87 0
14.740000 27.720000 4.620000 143 112 87 0
14.960000 27.720000 4.620000 143 112 87 0
15.180000 27.720000 4.620000 141 113 87 0
15.400000 27.720000 4.620000 144 116 90 0
15.620000 27.720000 4.620000 143 118 91 0
15.840000 27.720000 4.620000 144 119 92 0
16.060000 27.720000 3.080000 145 120 95 0
16.280000 27.720000 3.080000 145 120 95 0
16.500000 27.720000 1.760000 146 120 93 0
16.720000 27.720000 0.440000 146 120 93 0
16.940000 27.720000 7.260000 151 116 92 0
17.160000 27.720000 26.620000 149 114 90 0
17.380000 27.720000 39.160000 159 106 87 0
17.600000 27.720000 41.800000 155 102 83 0
17.820000 27.720000 41.800000 164 96 78 0
18.040000 27.720000 41.800000 163 95 77 0
18.260000 27.720000 41.800000 165 96 76 0
18.480000 27.720000 41.800000 164 95 75 0
18.700000 27.720000 42.020000 163 94 76 0
18.920000 27.720000 42.020000 162 93 75 0
19.140000 27.720000 42.020000 164 90 72 0
19.360000 27.720000 42.020000 164 90 72 0
19.580000 27.720000 39.160000 164 88 70 0
19.800000 27.720000 36.300000 165 89 71 0
20.020000 27.720000 33.660000 166 87 69 0
20.240000 27.720000 19.800000 166 87 69 0
20.460000 27.720000 7.480000 167 85 68 0
20.680000 27.720000 4.620000 167 85 68 0
20.900000 27.720000 1.760000 167 83 67 0
23.320000 27.720000 0.660000 167 79 64 0
23.540000 27.720000 0.660000 167 77 63 0
23.760000 27.720000 0.660000 167 77 63 0
23.980000 27.720000 0.660000 167 77 63 0
24.200000 27.720000 0.660000 166 76 62 0
24.420000 27.720000 0.660000 166 76 62 0
24.640000 27.720000 0.660000 167 77 63 0
24.860000 27.720000 0.660000 167 77 63 0
25.080000 27.720000 0.660000 168 78 64 0
25.300000 27.720000 0.660000 169 76 63 0
25.520000 27.720000 0.660000 170 77 64 0
25.740000 27.720000 0.660000 168 75 62 0
25.960000 27.720000 0.660000 168 75 62 0
26.180000 27.720000 0.660000 170 77 64 0
26.400000 27.720000 0.660000 169 76 63 0
26.620000 27.720000 0.660000 168 75 62 0
26.840000 27.720000 0.660000 169 76 63 0
27.060000 27.720000 0.880000 171 77 64 0
27.280000 27.720000 0.880000 171 77 64 0
27.500000 27.720000 0.880000 172 78 65 0
27.720000 27.720000 0.880000 173 79 66 0
27.940000 27.720000 2.200000 173 79 66 0
28.160000 27.720000 2.200000 173 79 66 0
28.380000 27.720000 2.200000 174 80 67 0
28.600000 27.720000 2.200000 173 79 66 0
28.820000 27.720000 2.200000 174 80 67 0
29.040000 27.720000 1.980000 174 80 67 0
29.260000 27.720000 1.980000 174 80 67 0
29.480000 27.720000 1.760000 175 81 68 0
29.700000 27.720000 3.080000 176 82 69 0
29.920000 27.720000 3.080000 177 83 70 0
30.140000 27.720000 3.080000 177 83 70 0
30.360000 27.720000 3.080000 178 84 71 0
30.580000 27.720000 3.080000 178 84 71 0
30.800000 27.720000 3.080000 178 84 71 0
31.020000 27.720000 3.080000 179 86 73 0
31.240000 27.720000 3.080000 179 86 73 0
31.460000 27.720000 3.080000 179 86 73 0
31.680000 27.720000 3.080000 180 87 74 0
31.900000 27.720000 3.080000 178 88 75 0
32.120000 27.720000 3.080000 180 90 77 0
32.340000 27.720000 3.080000 180 90 76 0
32.560000 27.720000 3.080000 182 92 78 0
32.780000 27.720000 3.080000 181 91 78 0
33.000000 27.720000 3.080000 182 92 79 0
33.220000 27.720000 3.080000 181 91 77 0
33.440000 27.720000 3.080000 182 92 78 0
33.660000 27.720000 3.080000 183 93 80 0
33.880000 27.720000 3.080000 184 94 81 0
34.100000 27.720000 3.080000 184 94 81 0
34.320000 27.720000 4.400000 184 94 81 0
34.540000 27.720000 4.400000 183 93 80 0
34.760000 27.720000 3.080000 184 94 81 0
34.980000 27.720000 3.080000 184 94 81 0
35.200000 27.720000 4.400000 185 95 82 0
35.420000 27.720000 4.400000 184 94 81 0
35.640000 27.720000 4.400000 185 95 82 0
35.860000 27.720000 4.400000 184 94 80 0
36.080000 27.720000 4.400000 185 95 81 0
36.300000 27.720000 4.400000 185 92 80 0
36.520000 27.720000 4.400000 186 93 81 0
36.740000 27.720000 4.400000 183 93 79 0
36.960000 27.720000 4.620000 184 94 80 0
37.180000 27.720000 4.620000 185 92 80 0
0.000000 27.940000 8.580000 144 116 90 0
0.220000 27.940000 5.940000 148 117 92 0
0.440000 27.940000 3.080000 147 116 91 0
0.660000 27.940000 4.620000 147 116 91 0
0.880000 27.940000 5.940000 146 115 90 0
1.100000 27.940000 5.940000 146 113 89 0
1.320000 27.940000 8.580000 146 113 89 0
1.540000 27.940000 12.760000 145 114 89 0
1.760000 27.940000 8.580000 145 114 89 0
1.980000 27.940000 5.940000 146 115 90 0
2.200000 27.940000 7.260000 145 114 89 0
2.420000 27.940000 5.940000 145 114 89 0
2.640000 27.940000 5.940000 144 113 88 0
2.860000 27.940000 5.940000 146 113 89 0
3.080000 27.940000 4.620000 145 112 88 0
3.300000 27.940000 5.940000 145 112 88 0
3.520000 27.940000 5.940000 145 112 88 0
3.740000 27.940000 5.940000 144 111 87 0
3.960000 27.940000 5.940000 144 111 87 0
4.180000 27.940000 5.940000 144 111 87 0
4.400000 27.940000 5.940000 144 111 87 0
4.620000 27.940000 4.620000 145 109 88 0
4.840000 27.940000 5.940000 145 109 88 0
5.060000 27.940000 5.940000 146 111 87 0
5.280000 27.940000 5.940000 146 111 87 0
5.500000 27.940000 5.940000 146 111 87 0
5.720000 27.940000 5.940000 145 110 86 0
5.940000 27.940000 5.940000 145 110 86 0
6.160000 27.940000 5.940000 144 109 85 0
6.380000 27.940000 5.940000 147 110 87 0
6.600000 27.940000 4.620000 146 109 86 0
6.820000 27.940000 4.620000 146 109 86 0
7.040000 27.940000 5.940000 146 109 86 0
7.260000 27.940000 5.940000 144 109 85 0
7.480000 27.940000 5.940000 144 109 85 0
7.700000 27.940000 7.260000 144 109 85 0
7.920000 27.940000 7.260000 143 108 84 0
8.140000 27.940000 5.940000 145 108 85 0
8.360000 27.940000 5.940000 145 108 85 0
8.580000 27.940000 5.940000 145 108 85 0
8.800000 27.940000 5.940000 144 107 84 0
9.020000 27.940000 5.940000 145 108 85 0
9.240000 27.940000 5.940000 144 107 84 0
9.460000 27.940000 5.940000 143 108 84 0
9.680000 27.940000 4.620000 141 106 82 0
9.900000 27.940000 4.620000 140 103 80 0
10.120000 27.940000 4.620000 139 102 79 0
10.340000 27.940000 4.620000 139 102 79 0
10.560000 27.940000 3.080000 140 103 80 0
10.780000 27.940000 4.620000 141 104 81 0
11.000000 27.940000 4.620000 141 104 81 0
11.220000 27.940000 4.620000 141 106 82 0
11.440000 27.940000 5.940000 141 106 82 0
11.660000 27.940000 5.940000 140 107 85 0
11.880000 27.940000 5.940000 140 107 85 0
12.100000 27.940000 5.940000 141 108 84 0
12.320000 27.940000 5.940000 142 109 85 0
12.540000 27.940000 5.940000 142 109 85 0
12.760000 27.940000 5.940000 143 110 86 0
12.980000 27.940000 4.620000 143 110 86 0
13.200000 27.940000 4.620000 143 110 86 0
13.420000 27.940000 4.620000 143 110 86 0
13.640000 27.940000 4.620000 143 110 86 0
13.860000 27.940000 5.940000 140 111 88 0
14.080000 27.940000 5.940000 141 112 89 0
14.300000 27.940000 4.620000 142 113 90 0
14.520000 27.940000 4.620000 141 112 89 0
14.740000 27.940000 4.620000 143 112 87 0
14.960000 27.940000 4.620000 142 111 86 0
15.180000 27.940000 4.620000 141 114 90 0
15.400000 27.940000 4.620000 143 116 92 0
15.620000 27.940000 4.620000 143 118 93 0
15.840000 27.940000 4.620000 144 119 94 0
16.060000 27.940000 3.080000 146 119 97 0
16.280000 27.940000 3.080000 144 117 95 0
16.500000 27.940000 1.760000 146 117 94 0
16.720000 27.940000 3.080000 146 117 94 0
16.940000 27.940000 15.620000 150 113 90 0
17.160000 27.940000 33.660000 148 111 88 0
17.380000 27.940000 41.800000 164 102 84 0
17.600000 27.940000 41.800000 161 99 81 0
17.820000 27.940000 41.800000 165 97 81 0
18.040000 27.940000 41.800000 164 96 80 0
18.260000 27.940000 41.800000 164 95 75 0
18.480000 27.940000 41.800000 163 94 74 0
18.700000 27.940000 41.800000 165 91 73 0
18.920000 27.940000 41.800000 165 91 73 0
19.140000 27.940000 41.800000 167 89 72 0
19.360000 27.940000 39.160000 167 89 72 0
19.580000 27.940000 36.300000 166 88 70 0
19.800000 27.940000 39.160000 165 87 69 0
20.020000 27.940000 36.300000 166 87 69 0
20.240000 27.940000 22.660000 166 87 69 0
20.460000 27.940000 15.620000 167 85 68 0
20.680000 27.940000 12.980000 167 85 68 0
20.900000 27.940000 4.620000 165 83 66 0
23.320000 27.940000 0.660000 167 77 63 0
23.540000 27.940000 0.660000 170 77 64 0
23.760000 27.940000 0.660000 169 76 63 0
23.980000 27.940000 0.660000 169 75 60 0
24.200000 27.940000 0.660000 169 75 60 0
24.420000 27.940000 0.660000 167 77 63 0
24.640000 27.940000 0.660000 167 77 63 0
24.860000 27.940000 0.660000 170 77 64 0
25.080000 27.940000 0.660000 170 77 64 0
25.300000 27.940000 0.660000 171 77 64 0
25.520000 27.940000 0.660000 170 76 63 0
25.740000 27.940000 0.660000 170 76 61 0
25.960000 27.940000 0.660000 169 75 60 0
26.180000 27.940000 0.660000 169 76 63 0
26.400000 27.940000 0.660000 170 77 64 0
26.620000 27.940000 0.660000 171 77 64 0
26.840000 27.940000 0.660000 170 76 63 0
27.060000 27.940000 0.880000 172 75 63 0
27.280000 27.940000 0.880000 174 77 65 0
27.500000 27.940000 0.880000 173 76 64 0
27.720000 27.940000 0.880000 174 77 65 0
27.940000 27.940000 2.200000 172 78 65 0
28.160000 27.940000 2.200000 173 79 66 0
28.380000 27.940000 2.200000 175 78 64 0
28.600000 27.940000 2.200000 175 78 64 0
28.820000 27.940000 2.200000 176 79 67 0
29.040000 27.940000 1.980000 176 79 67 0
29.260000 27.940000 1.980000 176 79 67 0
29.480000 27.940000 1.980000 177 80 68 0
29.700000 27.940000 1.980000 177 80 68 0
29.920000 27.940000 3.080000 179 82 70 0
30.140000 27.940000 3.080000 179 82 68 0
30.360000 27.940000 3.080000 180 83 69 0
30.580000 27.940000 3.080000 178 84 71 0
30.800000 27.940000 2.860000 178 84 71 0
31.020000 27.940000 3.080000 179 84 73 0
31.240000 27.940000 3.080000 180 85 74 0
31.460000 27.940000 3.080000 180 86 73 0
31.680000 27.940000 3.080000 180 86 73 0
31.900000 27.940000 3.080000 180 87 74 0
32.120000 27.940000 3.080000 182 89 76 0
32.340000 27.940000 3.080000 181 91 78 0
32.560000 27.940000 3.080000 181 91 78 0
32.780000 27.940000 3.080000 183 90 78 0
33.000000 27.940000 3.080000 183 90 78 0
33.220000 27.940000 3.080000 181 91 78 0
33.440000 27.940000 3.080000 183 93 80 0
33.660000 27.940000 3.080000 183 93 80 0
33.880000 27.940000 3.080000 184 94 81 0
34.100000 27.940000 3.080000 184 94 81 0
34.320000 27.940000 4.400000 184 94 81 0
34.540000 27.940000 4.400000 186 93 81 0
34.760000 27.940000 4.400000 186 93 81 0
34.980000 27.940000 4.400000 184 94 81 0
35.200000 27.940000 4.400000 184 94 81 0
35.420000 27.940000 4.400000 185 95 82 0
35.640000 27.940000 4.400000 186 96 83 0
35.860000 27.940000 4.400000 185 95 82 0
36.080000 27.940000 4.400000 185 95 82 0
36.300000 27.940000 4.400000 186 93 81 0
36.520000 27.940000 4.400000 186 93 81 0
36.740000 27.940000 4.400000 183 93 80 0
36.960000 27.940000 4.620000 183 93 80 0
37.180000 27.940000 4.620000 184 91 81 0
0.000000 28.160000 4.620000 145 117 91 0
0.220000 28.160000 4.620000 147 116 91 0
0.440000 28.160000 4.620000 146 115 90 0
0.660000 28.160000 4.620000 146 115 90 0
0.880000 28.160000 5.940000 146 115 90 0
1.100000 28.160000 4.620000 147 114 90 0
1.320000 28.160000 5.940000 147 114 90 0
1.540000 28.160000 8.800000 146 115 90 0
1.760000 28.160000 7.260000 146 115 90 0
1.980000 28.160000 4.620000 145 114 89 0
2.200000 28.160000 5.940000 145 114 89 0
2.420000 28.160000 5.940000 145 114 89 0
2.640000 28.160000 5.940000 145 114 89 0
2.860000 28.160000 5.940000 145 112 88 0
3.080000 28.160000 5.940000 145 112 88 0
3.300000 28.160000 5.940000 145 112 88 0
3.520000 28.160000 7.260000 145 112 88 0
3.740000 28.160000 7.260000 144 111 87 0
3.960000 28.160000 5.940000 144 111 87 0
4.180000 28.160000 5.940000 144 111 87 0
4.400000 28.160000 5.940000 145 112 88 0
4.620000 28.160000 5.940000 146 110 89 0
4.840000 28.160000 5.940000 146 110 89 0
5.060000 28.160000 7.260000 145 110 86 0
5.280000 28.160000 5.940000 145 110 86 0
5.500000 28.160000 5.940000 145 110 86 0
5.720000 28.160000 5.940000 145 110 86 0
5.940000 28.160000 5.940000 144 109 85 0
6.160000 28.160000 5.940000 145 110 86 0
6.380000 28.160000 5.940000 146 109 86 0
6.600000 28.160000 4.620000 145 108 85 0
6.820000 28.160000 4.620000 146 109 86 0
7.040000 28.160000 4.620000 146 109 86 0
7.260000 28.160000 5.940000 145 110 86 0
7.480000 28.160000 5.940000 144 109 85 0
7.700000 28.160000 5.940000 144 109 85 0
7.920000 28.160000 5.940000 144 109 85 0
8.140000 28.160000 5.940000 145 108 85 0
8.360000 28.160000 5.940000 145 108 85 0
8.580000 28.160000 5.940000 144 107 84 0
8.800000 28.160000 5.940000 145 108 85 0
9.020000 28.160000 7.260000 144 107 84 0
9.240000 28.160000 7.260000 144 107 84 0
9.460000 28.160000 5.940000 143 108 84 0
9.680000 28.160000 5.940000 141 106 82 0
9.900000 28.160000 4.620000 141 104 81 0
10.120000 28.160000 4.620000 139 102 79 0
10.340000 28.160000 4.620000 139 102 79 0
10.560000 28.160000 4.620000 140 103 80 0
10.780000 28.160000 5.940000 140 103 80 0
11.000000 28.160000 5.940000 141 104 81 0
11.220000 28.160000 5.940000 141 106 82 0
11.440000 28.160000 5.940000 141 106 82 0
11.660000 28.160000 5.940000 140 107 85 0
11.880000 28.160000 5.940000 141 108 86 0
12.100000 28.160000 5.940000 141 108 84 0
12.320000 28.160000 5.940000 141 108 84 0
12.540000 28.160000 5.940000 142 109 85 0
12.760000 28.160000 5.940000 143 110 86 0
12.980000 28.160000 4.620000 143 110 86 0
13.200000 28.160000 4.620000 143 110 86 0
13.420000 28.160000 4.620000 143 110 86 0
13.640000 28.160000 4.620000 143 110 86 0
13.860000 28.160000 5.940000 141 112 89 0
14.080000 28.160000 5.940000 141 112 89 0
14.300000 28.160000 5.940000 141 112 89 0
14.520000 28.160000 4.620000 140 111 88 0
14.740000 28.160000 4.620000 142 111 86 0
14.960000 28.160000 4.620000 142 111 86 0
15.180000 28.160000 4.620000 140 113 89 0
15.400000 28.160000 4.620000 141 114 90 0
15.620000 28.160000 4.620000 144 119 94 0
15.840000 28.160000 4.620000 144 119 94 0
16.060000 28.160000 3.080000 145 118 96 0
16.280000 28.160000 3.080000 144 117 95 0
16.500000 28.160000 1.760000 146 117 94 0
16.720000 28.160000 8.580000 145 116 93 0
16.940000 28.160000 26.620000 151 114 91 0
17.160000 28.160000 39.160000 150 113 90 0
17.380000 28.160000 41.800000 165 103 85 0
17.600000 28.160000 41.800000 162 100 82 0
17.820000 28.160000 41.800000 166 98 82 0
18.040000 28.160000 41.800000 163 95 79 0
18.260000 28.160000 41.800000 163 94 74 0
18.480000 28.160000 41.800000 164 95 75 0
18.700000 28.160000 41.800000 166 92 74 0
18.920000 28.160000 41.800000 165 91 73 0
19.140000 28.160000 41.800000 168 90 73 0
19.360000 28.160000 36.300000 167 89 72 0
19.580000 28.160000 30.800000 166 88 70 0
19.800000 28.160000 36.300000 167 89 71 0
20.020000 28.160000 39.160000 166 87 69 0
20.240000 28.160000 33.660000 166 87 69 0
20.460000 28.160000 28.160000 168 86 69 0
20.680000 28.160000 18.480000 166 84 67 0
20.900000 28.160000 4.620000 166 84 67 0
23.320000 28.160000 0.660000 168 78 64 0
23.540000 28.160000 0.660000 170 77 64 0
23.760000 28.160000 0.660000 168 75 62 0
23.980000 28.160000 0.660000 170 76 61 0
24.200000 28.160000 0.660000 169 75 60 0
24.420000 28.160000 0.660000 167 77 63 0
24.640000 28.160000 0.660000 168 78 64 0
24.860000 28.160000 0.660000 171 78 65 0
25.080000 28.160000 0.660000 170 77 64 0
25.300000 28.160000 0.660000 170 76 63 0
25.520000 28.160000 0.660000 169 75 62 0
25.740000 28.160000 0.660000 169 75 60 0
25.960000 28.160000 0.660000 169 75 60 0
26.180000 28.160000 0.660000 169 76 63 0
26.400000 28.160000 0.880000 169 76 63 0
26.620000 28.160000 0.660000 172 78 65 0
26.840000 28.160000 0.660000 170 76 63 0
27.060000 28.160000 0.660000 173 76 64 0
27.280000 28.160000 0.880000 173 76 64 0
27.500000 28.160000 0.880000 174 77 65 0
27.720000 28.160000 0.880000 174 77 65 0
27.940000 28.160000 0.880000 173 79 66 0
28.160000 28.160000 0.660000 172 78 65 0
28.380000 28.160000 2.200000 175 78 64 0
28.600000 28.160000 2.200000 175 78 64 0
28.820000 28.160000 2.200000 175 78 66 0
29.040000 28.160000 2.200000 175 78 66 0
29.260000 28.160000 2.200000 177 80 68 0
29.480000 28.160000 2.200000 177 80 68 0
29.700000 28.160000 2.200000 178 81 69 0
29.920000 28.160000 3.080000 179 82 70 0
30.140000 28.160000 3.080000 180 83 69 0
30.360000 28.160000 3.080000 180 83 69 0
30.580000 28.160000 3.080000 178 84 71 0
30.800000 28.160000 3.080000 178 84 71 0
31.020000 28.160000 3.080000 180 85 74 0
31.240000 28.160000 3.080000 179 84 73 0
31.460000 28.160000 3.080000 181 87 74 0
31.680000 28.160000 3.080000 181 87 74 0
31.900000 28.160000 3.080000 181 88 75 0
32.120000 28.160000 3.080000 182 89 76 0
32.340000 28.160000 3.080000 180 90 77 0
32.560000 28.160000 3.080000 181 91 78 0
32.780000 28.160000 3.080000 184 91 79 0
33.000000 28.160000 3.080000 183 90 78 0
33.220000 28.160000 3.080000 182 92 79 0
33.440000 28.160000 3.080000 183 93 80 0
33.660000 28.160000 3.080000 184 94 81 0
33.880000 28.160000 3.080000 184 94 81 0
34.100000 28.160000 3.080000 185 95 82 0
34.320000 28.160000 3.080000 185 95 82 0
34.540000 28.160000 3.080000 186 93 81 0
34.760000 28.160000 4.400000 186 93 81 0
34.980000 28.160000 4.400000 184 94 81 0
35.200000 28.160000 4.400000 184 94 81 0
35.420000 28.160000 4.400000 185 95 82 0
35.640000 28.160000 4.400000 185 95 82 0
35.860000 28.160000 4.400000 186 96 83 0
36.080000 28.160000 4.400000 186 96 83 0
36.300000 28.160000 4.400000 186 93 81 0
36.520000 28.160000 4.400000 186 93 81 0
36.740000 28.160000 4.400000 183 93 80 0
36.960000 28.160000 4.400000 182 92 79 0
37.180000 28.160000 4.620000 183 90 80 0
0.000000 28.380000 1.760000 147 116 91 0
0.220000 28.380000 3.080000 147 116 93 0
0.440000 28.380000 4.620000 147 116 93 0
0.660000 28.380000 4.620000 146 115 90 0
0.880000 28.380000 5.940000 147 116 91 0
1.100000 28.380000 7.260000 146 115 92 0
1.320000 28.380000 4.620000 146 115 92 0
1.540000 28.380000 5.940000 146 115 90 0
1.760000 28.380000 5.940000 145 114 89 0
1.980000 28.380000 4.620000 145 114 89 0
2.200000 28.380000 4.620000 145 114 89 0
2.420000 28.380000 4.620000 145 114 89 0
2.640000 28.380000 5.940000 144 113 88 0
2.860000 28.380000 5.940000 146 113 91 0
3.080000 28.380000 5.940000 145 112 90 0
3.300000 28.380000 5.940000 145 112 88 0
3.520000 28.380000 5.940000 145 112 88 0
3.740000 28.380000 5.940000 145 112 88 0
3.960000 28.380000 5.940000 144 111 87 0
4.180000 28.380000 5.940000 144 111 87 0
4.400000 28.380000 5.940000 144 111 87 0
4.620000 28.380000 5.940000 146 110 89 0
4.840000 28.380000 7.260000 146 110 89 0
5.060000 28.380000 7.260000 146 111 87 0
5.280000 28.380000 5.940000 145 110 86 0
5.500000 28.380000 4.620000 145 110 86 0
5.720000 28.380000 5.940000 145 110 86 0
5.940000 28.380000 5.940000 144 109 85 0
6.160000 28.380000 5.940000 145 110 86 0
6.380000 28.380000 4.620000 145 110 86 0
6.600000 28.380000 4.620000 146 111 87 0
6.820000 28.380000 5.940000 145 110 86 0
7.040000 28.380000 5.940000 146 111 87 0
7.260000 28.380000 5.940000 145 110 86 0
7.480000 28.380000 5.940000 144 109 85 0
7.700000 28.380000 5.940000 144 109 85 0
7.920000 28.380000 7.260000 145 110 86 0
8.140000 28.380000 5.940000 145 108 85 0
8.360000 28.380000 5.940000 145 108 85 0
8.580000 28.380000 4.620000 144 107 84 0
8.800000 28.380000 5.940000 146 109 86 0
9.020000 28.380000 5.940000 144 107 84 0
9.240000 28.380000 5.940000 144 107 84 0
9.460000 28.380000 5.940000 143 106 83 0
9.680000 28.380000 7.260000 142 105 82 0
9.900000 28.380000 5.940000 140 103 80 0
10.120000 28.380000 4.620000 139 102 79 0
10.340000 28.380000 5.940000 139 102 81 0
10.560000 28.380000 5.940000 139 102 81 0
10.780000 28.380000 5.940000 140 103 80 0
11.000000 28.380000 5.940000 140 103 80 0
11.220000 28.380000 5.940000 141 106 82 0
11.440000 28.380000 4.620000 142 107 83 0
11.660000 28.380000 5.940000 139 106 82 0
11.880000 28.380000 5.940000 141 108 84 0
12.100000 28.380000 5.940000 141 108 86 0
12.320000 28.380000 5.940000 142 109 87 0
12.540000 28.380000 5.940000 145 109 88 0
12.760000 28.380000 5.940000 145 109 88 0
12.980000 28.380000 5.940000 144 111 87 0
13.200000 28.380000 5.940000 143 110 86 0
13.420000 28.380000 5.940000 143 112 87 0
13.640000 28.380000 5.940000 142 111 86 0
13.860000 28.380000 5.940000 142 111 88 0
14.080000 28.380000 5.940000 143 112 89 0
14.300000 28.380000 5.940000 142 111 88 0
14.520000 28.380000 4.620000 142 111 88 0
14.740000 28.380000 4.620000 141 110 87 0
14.960000 28.380000 4.620000 141 110 87 0
15.180000 28.380000 4.620000 141 112 89 0
15.400000 28.380000 4.620000 142 113 90 0
15.620000 28.380000 4.620000 144 115 92 0
15.840000 28.380000 4.620000 145 116 93 0
16.060000 28.380000 3.080000 145 116 93 0
16.280000 28.380000 3.080000 145 116 93 0
16.500000 28.380000 1.760000 147 116 93 0
16.720000 28.380000 10.120000 146 115 92 0
16.940000 28.380000 30.800000 154 111 90 0
17.160000 28.380000 41.800000 153 110 89 0
17.380000 28.380000 41.800000 164 100 83 0
17.600000 28.380000 41.800000 162 98 81 0
17.820000 28.380000 41.800000 164 96 78 0
18.040000 28.380000 40.480000 163 95 77 0
18.260000 28.380000 40.480000 167 95 78 0
18.480000 28.380000 40.480000 165 93 76 0
18.700000 28.380000 41.800000 168 92 73 0
18.920000 28.380000 41.800000 167 91 72 0
19.140000 28.380000 41.800000 167 91 73 0
19.360000 28.380000 39.160000 166 90 72 0
19.580000 28.380000 36.300000 167 88 70 0
19.800000 28.380000 39.160000 167 88 70 0
20.020000 28.380000 41.800000 168 86 69 0
20.240000 28.380000 41.800000 168 86 69 0
20.460000 28.380000 39.160000 167 85 68 0
20.680000 28.380000 25.300000 167 85 68 0
20.900000 28.380000 7.260000 169 83 67 0
23.100000 28.380000 0.440000 168 78 64 0
23.320000 28.380000 0.440000 168 78 64 0
23.540000 28.380000 0.660000 168 78 62 0
23.760000 28.380000 0.660000 167 77 61 0
24.200000 28.380000 0.660000 170 77 64 0
24.420000 28.380000 0.660000 169 76 63 0
24.640000 28.380000 0.660000 168 75 62 0
24.860000 28.380000 0.660000 169 76 63 0
25.080000 28.380000 0.660000 170 77 64 0
25.300000 28.380000 0.660000 170 76 61 0
25.520000 28.380000 0.660000 169 75 60 0
25.740000 28.380000 0.660000 170 77 64 0
25.960000 28.380000 0.660000 169 76 63 0
26.180000 28.380000 0.660000 169 76 63 0
26.400000 28.380000 0.880000 169 76 63 0
26.620000 28.380000 0.660000 171 77 64 0
26.840000 28.380000 0.660000 171 77 64 0
27.060000 28.380000 0.660000 172 75 61 0
27.280000 28.380000 0.880000 173 76 62 0
27.500000 28.380000 0.880000 171 77 64 0
27.720000 28.380000 0.880000 172 78 65 0
27.940000 28.380000 0.880000 173 79 66 0
28.160000 28.380000 0.880000 173 79 66 0
28.380000 28.380000 2.200000 172 78 65 0
28.600000 28.380000 2.200000 172 78 65 0
28.820000 28.380000 2.200000 175 78 66 0
29.040000 28.380000 2.200000 176 79 67 0
29.260000 28.380000 0.880000 175 81 68 0
29.480000 28.380000 0.880000 175 81 68 0
29.700000 28.380000 2.200000 175 81 68 0
29.920000 28.380000 3.080000 177 83 70 0
30.140000 28.380000 3.080000 178 84 71 0
30.360000 28.380000 3.080000 178 84 71 0
30.580000 28.380000 3.080000 180 83 71 0
30.800000 28.380000 3.080000 180 83 71 0
31.020000 28.380000 3.080000 178 84 71 0
31.240000 28.380000 3.080000 180 86 73 0
31.460000 28.380000 3.080000 179 86 73 0
31.680000 28.380000 3.080000 180 87 74 0
31.900000 28.380000 3.080000 181 88 76 0
32.120000 28.380000 3.080000 181 88 76 0
32.340000 28.380000 3.080000 182 89 76 0
32.560000 28.380000 3.080000 183 90 77 0
32.780000 28.380000 3.080000 183 90 78 0
33.000000 28.380000 3.080000 184 91 79 0
33.220000 28.380000 3.080000 183 93 80 0
33.440000 28.380000 3.080000 183 93 80 0
33.660000 28.380000 3.080000 184 94 81 0
33.880000 28.380000 3.080000 183 93 80 0
34.100000 28.380000 3.080000 184 94 81 0
34.320000 28.380000 3.080000 185 95 82 0
34.540000 28.380000 3.080000 185 95 82 0
34.760000 28.380000 4.400000 183 93 80 0
34.980000 28.380000 4.400000 184 94 81 0
35.200000 28.380000 4.400000 184 94 81 0
35.420000 28.380000 4.400000 187 94 82 0
35.640000 28.380000 4.400000 187 94 82 0
35.860000 28.380000 4.400000 187 94 82 0
36.080000 28.380000 4.400000 186 93 81 0
36.300000 28.380000 4.400000 186 93 81 0
36.520000 28.380000 4.400000 186 93 81 0
36.740000 28.380000 4.400000 184 91 79 0
36.960000 28.380000 4.400000 183 90 78 0
37.180000 28.380000 4.400000 183 88 77 0
0.000000 28.600000 0.440000 147 116 91 0
0.220000 28.600000 3.080000 147 116 93 0
0.440000 28.600000 4.620000 147 116 93 0
0.660000 28.600000 4.620000 146 115 90 0
0.880000 28.600000 7.260000 147 116 91 0
1.100000 28.600000 11.440000 146 115 92 0
1.320000 28.600000 8.580000 147 116 93 0
1.540000 28.600000 5.940000 146 115 90 0
1.760000 28.600000 5.940000 145 114 89 0
1.980000 28.600000 4.620000 145 114 89 0
2.200000 28.600000 4.620000 145 114 89 0
2.420000 28.600000 4.620000 145 114 89 0
2.640000 28.600000 4.620000 144 113 88 0
2.860000 28.600000 4.620000 145 112 90 0
3.080000 28.600000 5.940000 145 112 90 0
3.300000 28.600000 5.940000 145 112 88 0
3.520000 28.600000 4.620000 145 112 88 0
3.740000 28.600000 4.620000 145 112 88 0
3.960000 28.600000 4.400000 145 112 88 0
4.180000 28.600000 5.940000 145 112 88 0
4.400000 28.600000 5.940000 144 111 87 0
4.620000 28.600000 5.940000 146 110 89 0
4.840000 28.600000 7.260000 146 110 89 0
5.060000 28.600000 7.260000 146 111 87 0
5.280000 28.600000 5.940000 145 110 86 0
5.500000 28.600000 4.620000 145 110 86 0
5.720000 28.600000 5.940000 145 110 86 0
5.940000 28.600000 5.940000 144 109 85 0
6.160000 28.600000 5.940000 145 110 86 0
6.380000 28.600000 4.620000 145 110 86 0
6.600000 28.600000 4.620000 145 110 86 0
6.820000 28.600000 5.940000 144 109 85 0
7.040000 28.600000 5.940000 145 110 86 0
7.260000 28.600000 5.940000 145 110 86 0
7.480000 28.600000 4.620000 145 110 86 0
7.700000 28.600000 5.940000 144 109 85 0
7.920000 28.600000 5.940000 145 110 86 0
8.140000 28.600000 5.940000 145 108 85 0
8.360000 28.600000 5.940000 144 107 84 0
8.580000 28.600000 5.940000 144 107 84 0
8.800000 28.600000 5.940000 145 108 85 0
9.020000 28.600000 5.940000 144 107 84 0
9.240000 28.600000 5.940000 144 107 84 0
9.460000 28.600000 5.940000 143 106 83 0
9.680000 28.600000 5.940000 142 105 82 0
9.900000 28.600000 5.940000 139 102 79 0
10.120000 28.600000 4.620000 139 102 79 0
10.340000 28.600000 5.940000 139 102 81 0
10.560000 28.600000 5.940000 139 102 81 0
10.780000 28.600000 4.620000 139 102 79 0
11.000000 28.600000 4.620000 140 103 80 0
11.220000 28.600000 4.620000 141 106 82 0
11.440000 28.600000 4.620000 141 106 82 0
11.660000 28.600000 4.620000 139 106 82 0
11.880000 28.600000 5.940000 140 107 83 0
12.100000 28.600000 5.940000 141 108 86 0
12.320000 28.600000 5.940000 142 109 87 0
12.540000 28.600000 5.940000 144 108 87 0
12.760000 28.600000 5.940000 144 108 87 0
12.980000 28.600000 5.940000 142 109 85 0
13.200000 28.600000 5.940000 143 110 86 0
13.420000 28.600000 5.940000 142 111 86 0
13.640000 28.600000 5.940000 142 111 86 0
13.860000 28.600000 5.940000 142 111 88 0
14.080000 28.600000 5.940000 142 111 88 0
14.300000 28.600000 4.620000 142 111 88 0
14.520000 28.600000 4.620000 142 111 88 0
14.740000 28.600000 3.080000 141 110 87 0
14.960000 28.600000 3.080000 141 110 87 0
15.180000 28.600000 4.620000 141 112 89 0
15.400000 28.600000 4.620000 141 112 89 0
15.620000 28.600000 4.620000 142 113 90 0
15.840000 28.600000 3.080000 144 115 92 0
16.060000 28.600000 3.080000 145 116 93 0
16.280000 28.600000 1.760000 144 115 92 0
16.500000 28.600000 1.760000 146 115 92 0
16.720000 28.600000 10.120000 146 115 92 0
16.940000 28.600000 30.800000 153 110 89 0
17.160000 28.600000 41.800000 152 109 88 0
17.380000 28.600000 41.800000 164 100 83 0
17.600000 28.600000 40.480000 162 98 81 0
17.820000 28.600000 40.480000 165 97 79 0
18.040000 28.600000 40.480000 163 95 77 0
18.260000 28.600000 40.480000 165 93 76 0
18.480000 28.600000 41.800000 165 93 76 0
18.700000 28.600000 41.800000 168 92 73 0
18.920000 28.600000 41.800000 167 91 72 0
19.140000 28.600000 41.800000 167 91 73 0
19.360000 28.600000 41.800000 166 90 72 0
19.580000 28.600000 41.800000 167 88 70 0
19.800000 28.600000 41.800000 167 88 70 0
20.020000 28.600000 41.800000 168 86 69 0
20.240000 28.600000 41.800000 167 85 68 0
20.460000 28.600000 41.800000 168 86 69 0
20.680000 28.600000 33.660000 167 85 68 0
20.900000 28.600000 18.480000 170 84 68 0
21.120000 28.600000 7.260000 169 83 67 0
21.340000 28.600000 1.760000 168 82 64 0
23.100000 28.600000 0.440000 168 78 64 0
23.320000 28.600000 0.440000 167 77 63 0
23.540000 28.600000 0.440000 168 78 62 0
23.760000 28.600000 0.660000 168 78 62 0
23.980000 28.600000 0.660000 169 76 63 0
24.200000 28.600000 0.660000 168 75 62 0
24.420000 28.600000 0.660000 169 76 63 0
24.640000 28.600000 0.660000 169 76 63 0
24.860000 28.600000 0.660000 170 77 64 0
25.080000 28.600000 0.660000 169 76 63 0
25.300000 28.600000 0.660000 170 76 61 0
25.520000 28.600000 0.660000 170 76 61 0
25.740000 28.600000 0.660000 169 76 63 0
25.960000 28.600000 0.660000 169 76 63 0
26.180000 28.600000 0.660000 169 76 63 0
26.400000 28.600000 0.660000 170 77 64 0
26.620000 28.600000 0.660000 171 77 64 0
26.840000 28.600000 0.660000 171 77 64 0
27.060000 28.600000 0.660000 172 75 61 0
27.280000 28.600000 0.660000 174 77 63 0
27.500000 28.600000 0.660000 172 78 65 0
27.720000 28.600000 0.880000 171 77 64 0
27.940000 28.600000 0.880000 173 79 66 0
28.160000 28.600000 0.880000 173 79 66 0
28.380000 28.600000 0.880000 173 79 66 0
28.600000 28.600000 2.200000 173 79 66 0
28.820000 28.600000 2.200000 175 78 66 0
29.040000 28.600000 2.200000 176 79 67 0
29.260000 28.600000 0.880000 175 81 68 0
29.480000 28.600000 0.880000 176 82 69 0
29.700000 28.600000 2.200000 176 82 69 0
29.920000 28.600000 1.760000 177 83 70 0
30.140000 28.600000 3.080000 178 84 71 0
30.360000 28.600000 3.080000 178 84 71 0
30.580000 28.600000 3.080000 180 83 71 0
30.800000 28.600000 3.080000 180 83 71 0
31.020000 28.600000 2.860000 179 85 72 0
31.240000 28.600000 2.860000 180 86 73 0
31.460000 28.600000 2.860000 179 86 73 0
31.680000 28.600000 3.080000 179 86 73 0
31.900000 28.600000 3.080000 181 88 76 0
32.120000 28.600000 3.080000 181 88 76 0
32.340000 28.600000 3.080000 181 88 75 0
32.560000 28.600000 2.860000 182 89 76 0
32.780000 28.600000 2.860000 183 90 78 0
33.000000 28.600000 2.860000 184 91 79 0
33.220000 28.600000 3.080000 183 93 80 0
33.440000 28.600000 3.080000 183 93 80 0
33.660000 28.600000 3.080000 183 93 80 0
33.880000 28.600000 3.080000 184 94 81 0
34.100000 28.600000 3.080000 184 94 81 0
34.320000 28.600000 3.080000 185 95 82 0
34.540000 28.600000 3.080000 185 95 82 0
34.760000 28.600000 3.080000 185 95 82 0
34.980000 28.600000 4.400000 184 94 81 0
35.200000 28.600000 4.400000 184 94 81 0
35.420000 28.600000 4.400000 186 93 81 0
35.640000 28.600000 4.400000 186 93 81 0
35.860000 28.600000 4.400000 186 93 81 0
36.080000 28.600000 4.400000 185 92 80 0
36.300000 28.600000 4.400000 186 93 81 0
36.520000 28.600000 4.400000 185 92 80 0
36.740000 28.600000 4.400000 184 91 79 0
36.960000 28.600000 4.400000 183 90 78 0
37.180000 28.600000 4.400000 184 89 78 0
0.000000 28.820000 1.760000 146 118 92 0
0.220000 28.820000 3.080000 144 115 92 0
0.440000 28.820000 3.080000 144 115 92 0
0.660000 28.820000 3.080000 147 116 91 0
0.880000 28.820000 4.400000 147 116 91 0
1.100000 28.820000 5.940000 147 116 91 0
1.320000 28.820000 5.940000 146 115 90 0
1.540000 28.820000 4.620000 145 114 91 0
1.760000 28.820000 4.620000 145 114 91 0
1.980000 28.820000 4.620000 145 114 91 0
2.200000 28.820000 4.620000 145 114 91 0
2.420000 28.820000 4.400000 146 113 89 0
2.640000 28.820000 4.400000 146 113 89 0
2.860000 28.820000 4.620000 146 113 89 0
3.080000 28.820000 5.940000 145 112 88 0
3.300000 28.820000 5.940000 145 112 88 0
3.520000 28.820000 4.620000 145 112 88 0
3.740000 28.820000 3.080000 146 113 89 0
3.960000 28.820000 4.400000 144 111 87 0
4.180000 28.820000 4.400000 144 111 87 0
4.400000 28.820000 4.400000 144 111 87 0
4.620000 28.820000 5.940000 146 111 87 0
4.840000 28.820000 7.260000 145 110 86 0
5.060000 28.820000 5.940000 145 110 86 0
5.280000 28.820000 5.940000 146 111 87 0
5.500000 28.820000 5.940000 145 110 86 0
5.720000 28.820000 5.940000 145 110 86 0
5.940000 28.820000 5.940000 145 110 86 0
6.160000 28.820000 4.620000 145 110 86 0
6.380000 28.820000 4.620000 145 110 86 0
6.600000 28.820000 5.940000 145 110 86 0
6.820000 28.820000 5.940000 145 110 86 0
7.040000 28.820000 5.940000 144 109 85 0
7.260000 28.820000 5.940000 144 109 85 0
7.480000 28.820000 4.620000 144 109 85 0
7.700000 28.820000 4.620000 145 110 86 0
7.920000 28.820000 5.940000 145 110 86 0
8.140000 28.820000 5.940000 145 108 85 0
8.360000 28.820000 5.940000 144 107 84 0
8.580000 28.820000 5.940000 143 108 84 0
8.800000 28.820000 4.620000 143 108 84 0
9.020000 28.820000 4.620000 145 108 85 0
9.240000 28.820000 4.620000 144 107 84 0
9.460000 28.820000 5.940000 143 106 83 0
9.680000 28.820000 5.940000 143 106 83 0
9.900000 28.820000 5.940000 140 103 80 0
10.120000 28.820000 4.620000 138 101 78 0
10.340000 28.820000 4.620000 138 103 79 0
10.560000 28.820000 4.620000 138 103 79 0
10.780000 28.820000 4.620000 139 104 80 0
11.000000 28.820000 4.620000 140 105 81 0
11.220000 28.820000 4.620000 141 106 82 0
11.440000 28.820000 4.620000 141 106 82 0
11.660000 28.820000 4.620000 141 106 82 0
11.880000 28.820000 4.620000 143 108 84 0
12.100000 28.820000 5.940000 140 107 83 0
12.320000 28.820000 5.940000 142 109 85 0
12.540000 28.820000 5.940000 142 109 85 0
12.760000 28.820000 5.940000 142 109 85 0
12.980000 28.820000 5.940000 145 110 86 0
13.200000 28.820000 4.620000 144 109 85 0
13.420000 28.820000 4.620000 143 110 86 0
13.640000 28.820000 5.940000 143 110 86 0
13.860000 28.820000 5.940000 140 111 88 0
14.080000 28.820000 4.620000 140 111 88 0
14.300000 28.820000 4.620000 139 111 85 0
14.520000 28.820000 4.620000 140 112 86 0
14.740000 28.820000 3.080000 141 110 85 0
14.960000 28.820000 3.080000 141 110 85 0
15.180000 28.820000 3.080000 140 111 88 0
15.400000 28.820000 3.080000 141 112 89 0
15.620000 28.820000 3.080000 141 114 90 0
15.840000 28.820000 1.760000 142 115 91 0
16.060000 28.820000 1.760000 144 115 92 0
16.280000 28.820000 1.760000 145 116 93 0
16.500000 28.820000 1.760000 147 114 90 0
16.720000 28.820000 10.120000 145 112 88 0
16.940000 28.820000 30.800000 154 108 87 0
17.160000 28.820000 41.800000 154 108 87 0
17.380000 28.820000 40.480000 163 101 85 0
17.600000 28.820000 40.480000 161 99 83 0
17.820000 28.820000 40.480000 165 97 79 0
18.040000 28.820000 40.480000 163 95 77 0
18.260000 28.820000 40.480000 167 93 77 0
18.480000 28.820000 41.800000 166 92 76 0
18.700000 28.820000 41.800000 168 90 73 0
18.920000 28.820000 41.800000 168 90 73 0
19.140000 28.820000 41.800000 167 89 72 0
19.360000 28.820000 41.800000 167 89 72 0
19.580000 28.820000 41.800000 165 89 71 0
19.800000 28.820000 41.800000 165 89 71 0
20.020000 28.820000 41.800000 169 87 71 0
20.240000 28.820000 41.800000 168 86 70 0
20.460000 28.820000 41.800000 166 84 67 0
20.680000 28.820000 39.160000 166 84 67 0
20.900000 28.820000 33.660000 167 83 67 0
21.120000 28.820000 25.300000 167 83 67 0
21.340000 28.820000 15.620000 169 83 67 0
21.560000 28.820000 7.480000 168 82 66 0
21.780000 28.820000 1.760000 169 81 66 0
23.320000 28.820000 0.440000 167 77 63 0
23.540000 28.820000 0.440000 169 76 63 0
23.760000 28.820000 0.660000 170 77 64 0
23.980000 28.820000 0.660000 170 77 64 0
24.200000 28.820000 0.660000 169 76 63 0
24.420000 28.820000 0.660000 169 76 63 0
24.640000 28.820000 0.660000 169 76 63 0
24.860000 28.820000 0.660000 170 77 64 0
25.080000 28.820000 0.660000 169 76 63 0
25.300000 28.820000 0.660000 169 76 63 0
25.520000 28.820000 0.660000 169 76 63 0
25.740000 28.820000 0.660000 171 77 64 0
25.960000 28.820000 0.660000 169 75 62 0
26.180000 28.820000 0.660000 171 77 64 0
26.400000 28.820000 0.660000 171 77 64 0
26.620000 28.820000 0.660000 171 77 64 0
26.840000 28.820000 0.660000 171 77 64 0
27.060000 28.820000 0.660000 172 78 65 0
27.280000 28.820000 0.660000 171 77 64 0
27.500000 28.820000 0.880000 173 79 66 0
27.720000 28.820000 0.880000 172 78 65 0
27.940000 28.820000 0.880000 174 77 65 0
28.160000 28.820000 0.880000 175 78 66 0
28.380000 28.820000 0.880000 175 78 66 0
28.600000 28.820000 2.200000 174 77 65 0
28.820000 28.820000 1.980000 173 79 66 0
29.040000 28.820000 1.980000 175 81 68 0
29.260000 28.820000 0.880000 177 80 68 0
29.480000 28.820000 0.880000 177 80 68 0
29.700000 28.820000 2.200000 178 81 69 0
29.920000 28.820000 1.760000 179 82 70 0
30.140000 28.820000 2.860000 180 83 71 0
30.360000 28.820000 2.860000 179 82 70 0
30.580000 28.820000 2.860000 178 84 71 0
30.800000 28.820000 2.860000 178 84 71 0
31.020000 28.820000 2.860000 178 84 71 0
31.240000 28.820000 2.860000 180 86 73 0
31.460000 28.820000 2.860000 178 85 72 0
31.680000 28.820000 2.860000 179 86 73 0
31.900000 28.820000 2.860000 180 86 73 0
32.120000 28.820000 2.860000 182 88 75 0
32.340000 28.820000 2.860000 182 89 76 0
32.560000 28.820000 2.860000 182 89 76 0
