ply
format ascii 1.0
element vertex 1147
property float x
property float y
property float z
property uchar red
property uchar green
property uchar blue
property uchar alpha
end_header
30.360000 23.760000 29.260000 185 91 84 0
30.580000 23.760000 30.580000 186 92 85 0
30.800000 23.760000 30.580000 187 93 86 0
31.020000 23.760000 30.580000 187 93 86 0
31.240000 23.760000 30.580000 185 94 86 0
31.460000 23.760000 30.800000 186 95 87 0
31.680000 23.760000 30.800000 186 95 89 0
31.900000 23.760000 30.800000 185 94 88 0
32.120000 23.760000 30.800000 184 95 86 0
32.340000 23.760000 30.800000 185 96 87 0
32.560000 23.760000 30.800000 185 95 89 0
32.780000 23.760000 30.800000 185 95 89 0
33.000000 23.760000 30.800000 186 96 90 0
33.220000 23.760000 31.020000 186 96 90 0
33.440000 23.760000 31.020000 186 96 90 0
33.660000 23.760000 32.340000 187 97 91 0
33.880000 23.760000 32.340000 186 98 91 0
34.100000 23.760000 32.340000 187 99 92 0
34.320000 23.760000 32.560000 186 101 94 0
34.540000 23.760000 32.560000 188 103 96 0
34.760000 23.760000 32.560000 188 104 99 0
34.980000 23.760000 32.560000 191 107 102 0
35.200000 23.760000 32.560000 191 126 119 0
35.420000 23.760000 32.560000 196 131 124 0
35.640000 23.760000 32.560000 192 121 122 0
35.860000 23.760000 32.780000 195 124 125 0
36.080000 23.760000 32.780000 199 134 135 0
36.300000 23.760000 32.780000 211 146 147 0
36.520000 23.760000 33.000000 215 163 160 0
36.740000 23.760000 33.000000 225 173 170 0
36.960000 23.760000 33.000000 242 170 168 0
37.180000 23.760000 33.000000 212 140 138 0
0.000000 23.980000 3.080000 181 89 73 0
0.220000 23.980000 3.080000 181 89 73 0
0.440000 23.980000 3.080000 180 90 76 0
0.660000 23.980000 3.080000 181 91 77 0
0.880000 23.980000 3.080000 182 92 78 0
1.100000 23.980000 3.080000 182 92 78 0
1.320000 23.980000 3.080000 182 92 78 0
1.540000 23.980000 3.080000 183 93 79 0
1.760000 23.980000 3.080000 183 93 77 0
1.980000 23.980000 3.080000 184 94 78 0
2.200000 23.980000 3.080000 184 94 80 0
2.420000 23.980000 3.080000 185 95 81 0
2.640000 23.980000 3.080000 185 95 79 0
2.860000 23.980000 3.080000 185 95 79 0
3.080000 23.980000 3.080000 185 95 81 0
3.300000 23.980000 3.080000 186 96 82 0
3.520000 23.980000 3.080000 187 97 81 0
3.740000 23.980000 3.080000 189 99 83 0
3.960000 23.980000 3.080000 188 98 82 0
4.180000 23.980000 4.400000 188 98 82 0
4.400000 23.980000 4.400000 189 99 85 0
4.620000 23.980000 3.080000 188 98 84 0
4.840000 23.980000 3.080000 188 98 82 0
5.060000 23.980000 3.080000 188 98 82 0
5.280000 23.980000 4.620000 189 96 83 0
5.500000 23.980000 4.620000 186 93 80 0
5.720000 23.980000 4.620000 188 94 81 0
5.940000 23.980000 4.620000 187 93 80 0
6.160000 23.980000 4.840000 188 94 81 0
6.380000 23.980000 4.840000 187 93 80 0
6.600000 23.980000 5.060000 187 93 80 0
6.820000 23.980000 5.060000 186 92 79 0
7.040000 23.980000 5.060000 187 93 80 0
7.260000 23.980000 6.160000 185 91 78 0
7.480000 23.980000 7.260000 188 91 79 0
7.700000 23.980000 7.040000 187 90 78 0
7.920000 23.980000 8.580000 186 89 77 0
8.140000 23.980000 8.580000 187 90 78 0
8.360000 23.980000 8.580000 186 89 77 0
8.580000 23.980000 8.580000 185 88 76 0
8.800000 23.980000 8.580000 185 88 76 0
9.020000 23.980000 8.800000 184 87 75 0
9.240000 23.980000 8.800000 185 86 75 0
9.460000 23.980000 8.800000 185 86 75 0
9.680000 23.980000 10.340000 185 87 73 0
9.900000 23.980000 10.340000 184 86 72 0
10.120000 23.980000 10.340000 182 83 72 0
10.340000 23.980000 10.340000 181 82 71 0
10.560000 23.980000 10.560000 181 82 71 0
10.780000 23.980000 10.560000 179 80 69 0
11.000000 23.980000 10.560000 179 78 69 0
11.220000 23.980000 10.780000 179 78 69 0
11.440000 23.980000 10.780000 177 76 67 0
11.660000 23.980000 10.780000 175 74 65 0
11.880000 23.980000 10.780000 174 73 64 0
12.100000 23.980000 11.880000 173 72 63 0
12.320000 23.980000 11.660000 172 73 63 0
12.540000 23.980000 12.760000 172 73 63 0
12.760000 23.980000 13.860000 171 70 61 0
12.980000 23.980000 13.860000 172 71 62 0
13.200000 23.980000 13.860000 170 69 62 0
13.420000 23.980000 14.080000 170 69 62 0
13.640000 23.980000 14.080000 169 68 61 0
13.860000 23.980000 14.080000 168 67 60 0
14.080000 23.980000 14.080000 167 68 60 0
14.300000 23.980000 14.080000 167 68 60 0
14.520000 23.980000 14.080000 168 67 60 0
14.740000 23.980000 14.300000 167 66 59 0
14.960000 23.980000 14.300000 168 67 60 0
15.180000 23.980000 15.620000 165 64 57 0
15.400000 23.980000 15.620000 166 65 58 0
15.620000 23.980000 15.620000 166 65 58 0
15.840000 23.980000 15.620000 166 65 58 0
16.060000 23.980000 15.620000 167 66 59 0
16.280000 23.980000 15.620000 167 66 59 0
16.500000 23.980000 15.620000 167 66 59 0
16.720000 23.980000 15.840000 167 66 59 0
16.940000 23.980000 15.840000 167 66 59 0
17.160000 23.980000 15.840000 167 66 59 0
17.380000 23.980000 15.840000 167 66 59 0
17.600000 23.980000 15.840000 169 68 61 0
17.820000 23.980000 15.840000 169 68 61 0
18.040000 23.980000 16.060000 170 69 62 0
18.260000 23.980000 16.060000 170 69 62 0
18.480000 23.980000 16.060000 170 69 60 0
18.700000 23.980000 17.380000 174 73 64 0
18.920000 23.980000 17.380000 174 73 64 0
19.140000 23.980000 17.380000 175 74 65 0
19.360000 23.980000 17.600000 177 76 67 0
19.580000 23.980000 17.600000 179 78 69 0
19.800000 23.980000 17.600000 182 81 72 0
20.020000 23.980000 17.600000 181 80 71 0
20.240000 23.980000 17.820000 181 80 71 0
20.460000 23.980000 17.820000 181 80 71 0
20.680000 23.980000 17.820000 179 78 69 0
20.900000 23.980000 18.920000 179 78 69 0
21.120000 23.980000 21.120000 179 78 69 0
21.340000 23.980000 20.680000 180 79 70 0
21.560000 23.980000 22.220000 181 80 71 0
21.780000 23.980000 22.220000 180 79 70 0
22.000000 23.980000 22.220000 182 81 72 0
22.220000 23.980000 22.220000 184 83 74 0
22.440000 23.980000 22.220000 184 83 74 0
22.660000 23.980000 22.220000 183 82 73 0
22.880000 23.980000 22.220000 185 84 75 0
23.100000 23.980000 23.760000 184 83 74 0
23.320000 23.980000 23.760000 183 82 73 0
23.540000 23.980000 23.760000 183 82 73 0
23.760000 23.980000 23.760000 182 81 72 0
23.980000 23.980000 23.760000 183 82 73 0
24.200000 23.980000 23.760000 183 82 73 0
24.420000 23.980000 23.980000 184 83 74 0
24.640000 23.980000 23.980000 184 83 74 0
24.860000 23.980000 23.980000 184 83 74 0
25.080000 23.980000 23.980000 184 83 74 0
25.300000 23.980000 23.980000 185 84 75 0
25.520000 23.980000 25.300000 184 83 74 0
25.740000 23.980000 25.300000 184 83 74 0
25.960000 23.980000 25.520000 184 83 74 0
26.180000 23.980000 25.520000 185 84 75 0
26.400000 23.980000 25.520000 185 86 76 0
26.620000 23.980000 25.520000 185 86 76 0
26.840000 23.980000 25.520000 185 86 76 0
27.060000 23.980000 25.520000 184 85 75 0
27.280000 23.980000 25.520000 186 87 79 0
27.500000 23.980000 25.520000 187 88 80 0
27.720000 23.980000 27.060000 184 86 78 0
27.940000 23.980000 27.060000 186 88 80 0
28.160000 23.980000 26.840000 186 88 80 0
28.380000 23.980000 26.840000 186 88 80 0
28.600000 23.980000 26.840000 187 90 79 0
28.820000 23.980000 28.160000 187 90 79 0
29.040000 23.980000 27.940000 185 90 83 0
29.260000 23.980000 29.260000 186 91 84 0
29.480000 23.980000 29.260000 185 91 84 0
29.700000 23.980000 29.260000 185 91 84 0
29.920000 23.980000 29.260000 185 91 84 0
30.140000 23.980000 29.260000 186 92 85 0
30.360000 23.980000 29.260000 187 94 84 0
30.580000 23.980000 29.260000 187 94 84 0
30.800000 23.980000 30.580000 188 94 87 0
31.020000 23.980000 30.580000 186 92 85 0
31.240000 23.980000 30.580000 186 95 87 0
31.460000 23.980000 30.580000 186 95 87 0
31.680000 23.980000 30.800000 186 95 87 0
31.900000 23.980000 30.800000 186 95 87 0
32.120000 23.980000 30.800000 186 96 90 0
32.340000 23.980000 30.800000 186 96 90 0
32.560000 23.980000 30.800000 186 95 89 0
32.780000 23.980000 30.800000 186 95 89 0
33.000000 23.980000 30.800000 187 97 91 0
33.220000 23.980000 30.800000 187 97 91 0
33.440000 23.980000 31.020000 187 97 91 0
33.660000 23.980000 31.020000 188 98 92 0
33.880000 23.980000 31.020000 185 100 93 0
34.100000 23.980000 31.020000 186 101 94 0
34.320000 23.980000 31.020000 167 111 107 0
34.540000 23.980000 31.020000 174 118 114 0
34.760000 23.980000 32.560000 151 149 147 0
34.980000 23.980000 32.560000 188 186 184 0
35.200000 23.980000 33.880000 222 223 222 0
35.420000 23.980000 33.880000 231 232 231 0
35.640000 23.980000 33.880000 238 201 203 0
35.860000 23.980000 32.780000 195 158 160 0
36.080000 23.980000 32.780000 190 156 165 0
36.300000 23.980000 32.780000 201 167 176 0
36.520000 23.980000 33.000000 207 190 191 0
36.740000 23.980000 33.000000 201 184 185 0
36.960000 23.980000 33.000000 206 189 192 0
37.180000 23.980000 33.000000 201 184 187 0
0.000000 24.200000 3.080000 180 88 72 0
0.220000 24.200000 3.080000 181 89 73 0
0.440000 24.200000 3.080000 179 89 75 0
0.660000 24.200000 3.080000 180 90 76 0
0.880000 24.200000 3.080000 181 91 77 0
1.100000 24.200000 3.080000 181 91 77 0
1.320000 24.200000 3.080000 183 93 79 0
1.540000 24.200000 3.080000 182 92 78 0
1.760000 24.200000 3.080000 183 93 77 0
1.980000 24.200000 3.080000 184 94 78 0
2.200000 24.200000 3.080000 184 94 80 0
2.420000 24.200000 3.080000 184 94 80 0
2.640000 24.200000 3.080000 184 94 78 0
2.860000 24.200000 3.080000 184 94 78 0
3.080000 24.200000 3.080000 185 95 81 0
3.300000 24.200000 3.080000 185 95 81 0
3.520000 24.200000 3.080000 187 97 81 0
3.740000 24.200000 3.080000 188 98 82 0
3.960000 24.200000 3.080000 188 98 82 0
4.180000 24.200000 4.400000 188 98 82 0
4.400000 24.200000 4.400000 187 97 83 0
4.620000 24.200000 3.080000 188 98 84 0
4.840000 24.200000 3.080000 187 97 81 0
5.060000 24.200000 3.080000 187 97 81 0
5.280000 24.200000 3.080000 189 96 83 0
5.500000 24.200000 4.620000 187 94 81 0
5.720000 24.200000 4.620000 187 93 80 0
5.940000 24.200000 4.620000 186 92 79 0
6.160000 24.200000 4.840000 187 93 80 0
6.380000 24.200000 4.840000 186 92 79 0
6.600000 24.200000 5.060000 187 93 80 0
6.820000 24.200000 5.060000 186 92 79 0
7.040000 24.200000 6.160000 187 93 80 0
7.260000 24.200000 7.260000 185 91 78 0
7.480000 24.200000 7.040000 186 89 77 0
7.700000 24.200000 7.040000 187 90 78 0
7.920000 24.200000 8.360000 187 90 78 0
8.140000 24.200000 8.580000 187 90 78 0
8.360000 24.200000 8.580000 186 89 77 0
8.580000 24.200000 8.580000 185 88 76 0
8.800000 24.200000 8.580000 185 88 76 0
9.020000 24.200000 8.800000 183 86 74 0
9.240000 24.200000 8.800000 183 84 73 0
9.460000 24.200000 8.800000 184 85 74 0
9.680000 24.200000 8.800000 184 86 72 0
9.900000 24.200000 10.340000 184 86 72 0
10.120000 24.200000 10.340000 182 83 72 0
10.340000 24.200000 10.340000 181 82 71 0
10.560000 24.200000 10.560000 181 82 71 0
10.780000 24.200000 10.560000 179 80 69 0
11.000000 24.200000 10.560000 180 79 70 0
11.220000 24.200000 10.560000 178 77 68 0
11.440000 24.200000 10.780000 177 76 67 0
11.660000 24.200000 10.780000 176 75 66 0
11.880000 24.200000 10.780000 175 74 65 0
12.100000 24.200000 10.780000 174 73 64 0
12.320000 24.200000 10.780000 173 74 64 0
12.540000 24.200000 12.980000 172 73 63 0
12.760000 24.200000 13.860000 171 70 61 0
12.980000 24.200000 13.860000 171 70 61 0
13.200000 24.200000 13.860000 170 69 62 0
13.420000 24.200000 13.860000 168 67 60 0
13.640000 24.200000 14.080000 168 67 60 0
13.860000 24.200000 14.080000 168 67 60 0
14.080000 24.200000 14.080000 167 68 60 0
14.300000 24.200000 14.080000 167 68 60 0
14.520000 24.200000 14.080000 167 66 59 0
14.740000 24.200000 14.080000 167 66 59 0
14.960000 24.200000 14.300000 167 66 59 0
15.180000 24.200000 14.300000 166 65 58 0
15.400000 24.200000 15.620000 166 65 58 0
15.620000 24.200000 15.620000 167 66 59 0
15.840000 24.200000 15.620000 167 66 59 0
16.060000 24.200000 15.620000 167 66 59 0
16.280000 24.200000 15.620000 167 66 59 0
16.500000 24.200000 15.620000 167 66 59 0
16.720000 24.200000 15.840000 167 66 59 0
16.940000 24.200000 15.840000 168 67 60 0
17.160000 24.200000 15.840000 168 67 60 0
17.380000 24.200000 15.840000 168 67 60 0
17.600000 24.200000 15.840000 168 67 60 0
17.820000 24.200000 15.840000 170 69 62 0
18.040000 24.200000 15.840000 171 70 63 0
18.260000 24.200000 15.840000 171 70 63 0
18.480000 24.200000 16.060000 171 70 61 0
18.700000 24.200000 16.060000 173 72 63 0
18.920000 24.200000 17.380000 175 74 65 0
19.140000 24.200000 17.380000 175 74 65 0
19.360000 24.200000 17.380000 178 77 68 0
19.580000 24.200000 17.600000 180 79 70 0
19.800000 24.200000 17.600000 181 80 71 0
20.020000 24.200000 17.600000 181 80 71 0
20.240000 24.200000 17.820000 183 82 73 0
20.460000 24.200000 17.820000 181 80 71 0
20.680000 24.200000 17.820000 181 80 71 0
20.900000 24.200000 18.920000 181 80 71 0
21.120000 24.200000 19.800000 180 79 70 0
21.340000 24.200000 20.900000 181 80 71 0
21.560000 24.200000 20.900000 181 80 71 0
21.780000 24.200000 22.220000 181 80 71 0
22.000000 24.200000 22.220000 181 80 71 0
22.220000 24.200000 22.220000 183 82 73 0
22.440000 24.200000 22.220000 183 82 73 0
22.660000 24.200000 22.220000 184 83 74 0
22.880000 24.200000 22.220000 183 82 73 0
23.100000 24.200000 22.220000 183 82 73 0
23.320000 24.200000 23.760000 182 81 72 0
23.540000 24.200000 23.760000 183 82 73 0
23.760000 24.200000 23.760000 182 81 72 0
23.980000 24.200000 23.760000 181 80 71 0
24.200000 24.200000 23.760000 182 81 72 0
24.420000 24.200000 23.760000 183 82 73 0
24.640000 24.200000 23.980000 183 82 73 0
24.860000 24.200000 23.980000 183 82 73 0
25.080000 24.200000 23.980000 183 82 73 0
25.300000 24.200000 23.980000 184 83 74 0
25.520000 24.200000 23.980000 185 84 75 0
25.740000 24.200000 25.300000 183 82 73 0
25.960000 24.200000 25.520000 184 83 74 0
26.180000 24.200000 25.520000 185 84 75 0
26.400000 24.200000 25.300000 185 86 76 0
26.620000 24.200000 25.520000 185 86 76 0
26.840000 24.200000 25.520000 185 86 76 0
27.060000 24.200000 25.520000 186 87 77 0
27.280000 24.200000 25.520000 186 87 79 0
27.500000 24.200000 25.520000 186 87 79 0
27.720000 24.200000 26.840000 186 88 80 0
27.940000 24.200000 26.840000 186 88 80 0
28.160000 24.200000 27.060000 187 89 81 0
28.380000 24.200000 27.060000 187 89 81 0
28.600000 24.200000 26.840000 187 90 79 0
28.820000 24.200000 28.160000 187 90 79 0
29.040000 24.200000 28.160000 185 90 83 0
29.260000 24.200000 28.160000 186 91 84 0
29.480000 24.200000 29.260000 185 91 84 0
29.700000 24.200000 29.260000 186 92 85 0
29.920000 24.200000 29.260000 186 92 85 0
30.140000 24.200000 29.260000 187 93 86 0
30.360000 24.200000 29.260000 187 94 84 0
30.580000 24.200000 29.260000 187 94 84 0
30.800000 24.200000 30.580000 187 93 86 0
31.020000 24.200000 30.580000 188 94 87 0
31.240000 24.200000 30.580000 186 95 87 0
31.460000 24.200000 30.580000 187 96 88 0
31.680000 24.200000 30.580000 188 97 89 0
31.900000 24.200000 30.800000 187 96 88 0
32.120000 24.200000 30.800000 188 98 92 0
32.340000 24.200000 30.800000 186 96 90 0
32.560000 24.200000 30.800000 188 97 91 0
32.780000 24.200000 30.800000 187 96 90 0
33.000000 24.200000 30.800000 186 96 90 0
33.220000 24.200000 30.800000 187 97 91 0
33.440000 24.200000 31.020000 187 97 91 0
33.660000 24.200000 31.020000 189 99 93 0
33.880000 24.200000 31.020000 188 103 96 0
34.100000 24.200000 31.020000 190 105 98 0
34.320000 24.200000 31.020000 181 125 121 0
34.540000 24.200000 32.560000 205 149 145 0
34.760000 24.200000 32.560000 211 209 207 0
34.980000 24.200000 33.880000 241 239 237 0
35.200000 24.200000 33.880000 240 241 240 0
35.420000 24.200000 35.200000 240 241 240 0
35.640000 24.200000 33.880000 255 228 230 0
35.860000 24.200000 34.100000 232 195 197 0
36.080000 24.200000 32.780000 211 177 186 0
36.300000 24.200000 32.780000 232 198 207 0
36.520000 24.200000 33.000000 234 217 218 0
36.740000 24.200000 33.000000 236 219 220 0
36.960000 24.200000 34.320000 246 229 232 0
37.180000 24.200000 34.320000 241 224 227 0
0.000000 24.420000 3.080000 181 88 75 0
0.220000 24.420000 3.080000 181 88 75 0
0.440000 24.420000 3.080000 181 89 73 0
0.660000 24.420000 3.080000 182 90 74 0
0.880000 24.420000 3.080000 183 91 75 0
1.100000 24.420000 3.080000 184 92 76 0
1.320000 24.420000 3.080000 185 93 77 0
1.540000 24.420000 3.080000 185 93 77 0
1.760000 24.420000 3.080000 185 92 79 0
1.980000 24.420000 3.080000 186 93 80 0
2.200000 24.420000 3.080000 186 93 80 0
2.420000 24.420000 3.080000 186 93 80 0
2.640000 24.420000 3.080000 187 95 79 0
2.860000 24.420000 3.080000 186 94 78 0
3.080000 24.420000 3.080000 187 94 81 0
3.300000 24.420000 3.080000 187 94 81 0
3.520000 24.420000 3.080000 188 95 82 0
3.740000 24.420000 4.400000 189 96 83 0
3.960000 24.420000 4.400000 189 97 81 0
4.180000 24.420000 4.400000 188 96 80 0
4.400000 24.420000 4.400000 187 97 81 0
4.620000 24.420000 3.080000 187 97 81 0
4.840000 24.420000 3.080000 189 96 83 0
5.060000 24.420000 3.080000 188 95 82 0
5.280000 24.420000 3.080000 188 95 82 0
5.500000 24.420000 4.620000 186 93 80 0
5.720000 24.420000 4.620000 186 92 77 0
5.940000 24.420000 4.620000 186 92 77 0
6.160000 24.420000 4.840000 186 92 77 0
6.380000 24.420000 4.840000 185 91 76 0
6.600000 24.420000 4.840000 185 91 78 0
6.820000 24.420000 5.060000 186 92 79 0
7.040000 24.420000 4.840000 185 91 78 0
7.260000 24.420000 5.940000 185 91 78 0
7.480000 24.420000 7.260000 186 89 75 0
7.700000 24.420000 7.040000 187 90 76 0
7.920000 24.420000 8.360000 185 91 76 0
8.140000 24.420000 8.580000 184 90 75 0
8.360000 24.420000 8.580000 186 89 77 0
8.580000 24.420000 8.580000 185 88 76 0
8.800000 24.420000 8.580000 186 87 76 0
9.020000 24.420000 8.800000 184 85 74 0
9.240000 24.420000 8.800000 183 85 71 0
9.460000 24.420000 8.800000 183 85 71 0
9.680000 24.420000 8.800000 185 87 73 0
9.900000 24.420000 10.340000 184 86 72 0
10.120000 24.420000 10.340000 183 84 73 0
10.340000 24.420000 10.340000 182 83 72 0
10.560000 24.420000 10.340000 181 81 70 0
10.780000 24.420000 10.560000 180 80 69 0
11.000000 24.420000 10.560000 180 80 69 0
11.220000 24.420000 10.560000 179 79 68 0
11.440000 24.420000 10.560000 177 76 67 0
11.660000 24.420000 10.780000 176 75 66 0
11.880000 24.420000 10.780000 175 74 65 0
12.100000 24.420000 11.000000 175 74 65 0
12.320000 24.420000 10.780000 173 72 63 0
12.540000 24.420000 11.660000 173 72 63 0
12.760000 24.420000 12.540000 170 69 60 0
12.980000 24.420000 13.860000 170 69 60 0
13.200000 24.420000 13.860000 169 68 61 0
13.420000 24.420000 13.860000 168 67 60 0
13.640000 24.420000 14.080000 169 68 61 0
13.860000 24.420000 14.080000 168 67 60 0
14.080000 24.420000 14.080000 167 66 59 0
14.300000 24.420000 14.080000 167 66 59 0
14.520000 24.420000 14.080000 167 66 57 0
14.740000 24.420000 14.080000 167 66 57 0
14.960000 24.420000 14.300000 166 65 58 0
15.180000 24.420000 14.300000 166 65 58 0
15.400000 24.420000 15.620000 166 65 58 0
15.620000 24.420000 15.620000 167 66 59 0
15.840000 24.420000 15.620000 169 65 57 0
16.060000 24.420000 15.620000 169 65 57 0
16.280000 24.420000 15.620000 167 66 57 0
16.500000 24.420000 15.620000 167 66 57 0
16.720000 24.420000 15.840000 168 67 60 0
16.940000 24.420000 15.840000 168 67 60 0
17.160000 24.420000 15.840000 169 68 59 0
17.380000 24.420000 15.840000 170 69 60 0
17.600000 24.420000 15.840000 171 70 61 0
17.820000 24.420000 15.840000 171 70 61 0
18.040000 24.420000 15.840000 172 71 64 0
18.260000 24.420000 15.840000 173 72 65 0
18.480000 24.420000 16.060000 174 73 66 0
18.700000 24.420000 16.060000 174 73 66 0
18.920000 24.420000 16.060000 175 74 65 0
19.140000 24.420000 17.380000 176 75 66 0
19.360000 24.420000 17.380000 178 77 68 0
19.580000 24.420000 17.380000 180 79 70 0
19.800000 24.420000 17.600000 183 82 73 0
20.020000 24.420000 17.600000 183 82 73 0
20.240000 24.420000 17.600000 183 82 73 0
20.460000 24.420000 17.820000 183 82 73 0
20.680000 24.420000 17.600000 183 80 70 0
20.900000 24.420000 18.920000 183 80 70 0
21.120000 24.420000 20.020000 180 79 70 0
21.340000 24.420000 21.120000 181 80 71 0
21.560000 24.420000 20.900000 183 79 71 0
21.780000 24.420000 20.900000 182 78 70 0
22.000000 24.420000 22.220000 183 79 71 0
22.220000 24.420000 22.220000 183 79 71 0
22.440000 24.420000 22.220000 183 80 70 0
22.660000 24.420000 22.220000 184 81 71 0
22.880000 24.420000 22.220000 182 81 72 0
23.100000 24.420000 22.220000 182 81 72 0
23.320000 24.420000 22.440000 183 82 73 0
23.540000 24.420000 23.760000 182 81 72 0
23.760000 24.420000 23.760000 182 81 72 0
23.980000 24.420000 23.760000 182 81 72 0
24.200000 24.420000 23.760000 183 83 72 0
24.420000 24.420000 23.980000 182 82 71 0
24.640000 24.420000 23.980000 182 81 72 0
24.860000 24.420000 23.980000 183 82 73 0
25.080000 24.420000 23.980000 183 82 73 0
25.300000 24.420000 23.980000 184 83 74 0
25.520000 24.420000 23.980000 184 83 74 0
25.740000 24.420000 23.980000 184 83 74 0
25.960000 24.420000 25.300000 184 83 74 0
26.180000 24.420000 25.300000 185 84 75 0
26.400000 24.420000 25.300000 185 86 76 0
26.620000 24.420000 25.300000 185 86 76 0
26.840000 24.420000 25.520000 185 86 78 0
27.060000 24.420000 25.520000 186 87 79 0
27.280000 24.420000 25.520000 186 89 78 0
27.500000 24.420000 25.520000 187 90 79 0
27.720000 24.420000 26.840000 186 89 78 0
27.940000 24.420000 26.840000 187 90 79 0
28.160000 24.420000 27.060000 187 89 81 0
28.380000 24.420000 27.060000 188 90 82 0
28.600000 24.420000 27.060000 185 90 81 0
28.820000 24.420000 27.060000 186 91 82 0
29.040000 24.420000 27.060000 187 92 83 0
29.260000 24.420000 28.160000 187 92 83 0
29.480000 24.420000 27.940000 186 91 82 0
29.700000 24.420000 29.040000 188 93 84 0
29.920000 24.420000 29.040000 189 94 85 0
30.140000 24.420000 29.260000 188 93 84 0
30.360000 24.420000 29.260000 189 95 88 0
30.580000 24.420000 29.260000 188 94 87 0
30.800000 24.420000 29.260000 187 96 88 0
31.020000 24.420000 30.580000 188 97 89 0
31.240000 24.420000 30.580000 188 97 89 0
31.460000 24.420000 30.580000 188 97 89 0
31.680000 24.420000 30.580000 192 98 91 0
31.900000 24.420000 30.580000 192 98 91 0
32.120000 24.420000 30.800000 190 99 93 0
32.340000 24.420000 30.800000 189 98 92 0
32.560000 24.420000 30.800000 189 98 92 0
32.780000 24.420000 30.800000 190 99 93 0
33.000000 24.420000 30.800000 186 98 91 0
33.220000 24.420000 30.800000 187 99 92 0
33.440000 24.420000 30.800000 186 101 94 0
33.660000 24.420000 31.020000 189 104 97 0
33.880000 24.420000 31.020000 180 108 107 0
34.100000 24.420000 31.020000 189 117 116 0
34.320000 24.420000 31.020000 176 151 150 0
34.540000 24.420000 32.560000 206 181 180 0
34.760000 24.420000 33.880000 236 237 236 0
34.980000 24.420000 35.200000 240 241 240 0
35.200000 24.420000 35.200000 240 241 240 0
35.420000 24.420000 35.200000 240 241 240 0
35.640000 24.420000 35.200000 240 241 240 0
35.860000 24.420000 34.100000 238 239 238 0
36.080000 24.420000 34.100000 227 226 226 0
36.300000 24.420000 34.320000 235 234 234 0
36.520000 24.420000 34.320000 240 241 240 0
36.740000 24.420000 34.320000 240 241 240 0
36.960000 24.420000 34.320000 251 236 234 0
37.180000 24.420000 34.320000 241 226 224 0
0.000000 24.640000 3.080000 180 87 74 0
0.220000 24.640000 3.080000 181 88 75 0
0.440000 24.640000 3.080000 181 89 73 0
0.660000 24.640000 3.080000 181 89 73 0
0.880000 24.640000 3.080000 183 91 75 0
1.100000 24.640000 3.080000 183 91 75 0
1.320000 24.640000 3.080000 184 92 76 0
1.540000 24.640000 3.080000 185 93 77 0
1.760000 24.640000 3.080000 185 92 79 0
1.980000 24.640000 3.080000 185 92 79 0
2.200000 24.640000 3.080000 186 93 80 0
2.420000 24.640000 3.080000 187 94 81 0
2.640000 24.640000 3.080000 186 94 78 0
2.860000 24.640000 3.080000 186 94 78 0
3.080000 24.640000 3.080000 187 94 81 0
3.300000 24.640000 3.080000 187 94 81 0
3.520000 24.640000 3.080000 187 94 81 0
3.740000 24.640000 4.400000 189 96 83 0
3.960000 24.640000 4.400000 188 96 80 0
4.180000 24.640000 4.400000 188 96 80 0
4.400000 24.640000 4.400000 187 97 81 0
4.620000 24.640000 3.080000 186 96 80 0
4.840000 24.640000 3.080000 187 94 81 0
5.060000 24.640000 3.080000 187 94 81 0
5.280000 24.640000 3.080000 186 93 80 0
5.500000 24.640000 3.080000 185 92 79 0
5.720000 24.640000 4.620000 187 93 78 0
5.940000 24.640000 4.620000 186 92 77 0
6.160000 24.640000 4.840000 185 91 76 0
6.380000 24.640000 4.840000 185 91 76 0
6.600000 24.640000 4.840000 185 91 78 0
6.820000 24.640000 5.060000 186 92 79 0
7.040000 24.640000 5.060000 186 92 79 0
7.260000 24.640000 5.060000 186 92 79 0
7.480000 24.640000 6.160000 187 90 76 0
7.700000 24.640000 7.040000 187 90 76 0
7.920000 24.640000 8.360000 184 90 75 0
8.140000 24.640000 8.580000 184 90 75 0
8.360000 24.640000 8.580000 185 88 76 0
8.580000 24.640000 8.580000 185 88 76 0
8.800000 24.640000 8.580000 185 86 75 0
9.020000 24.640000 8.580000 184 85 74 0
9.240000 24.640000 8.800000 184 86 72 0
9.460000 24.640000 8.800000 183 85 71 0
9.680000 24.640000 8.800000 182 84 70 0
9.900000 24.640000 10.340000 183 85 71 0
10.120000 24.640000 10.340000 184 85 74 0
10.340000 24.640000 10.340000 182 83 72 0
10.560000 24.640000 10.340000 182 82 71 0
10.780000 24.640000 10.560000 181 81 70 0
11.000000 24.640000 10.560000 180 80 69 0
11.220000 24.640000 10.560000 179 79 68 0
11.440000 24.640000 10.560000 178 77 68 0
11.660000 24.640000 10.780000 175 74 65 0
11.880000 24.640000 10.780000 175 74 65 0
12.100000 24.640000 10.780000 174 73 64 0
12.320000 24.640000 10.780000 175 74 65 0
12.540000 24.640000 11.660000 172 71 62 0
12.760000 24.640000 12.540000 171 70 61 0
12.980000 24.640000 13.860000 170 69 60 0
13.200000 24.640000 13.860000 169 68 61 0
13.420000 24.640000 13.860000 169 68 61 0
13.640000 24.640000 14.080000 168 67 60 0
13.860000 24.640000 14.080000 168 67 60 0
14.080000 24.640000 14.080000 168 67 60 0
14.300000 24.640000 14.080000 167 66 59 0
14.520000 24.640000 14.080000 166 65 56 0
14.740000 24.640000 14.080000 167 66 57 0
14.960000 24.640000 14.080000 166 65 58 0
15.180000 24.640000 14.300000 166 65 58 0
15.400000 24.640000 14.300000 166 65 58 0
15.620000 24.640000 15.620000 167 66 59 0
15.840000 24.640000 15.620000 169 65 57 0
16.060000 24.640000 15.620000 170 66 58 0
16.280000 24.640000 15.620000 168 67 58 0
16.500000 24.640000 15.620000 168 67 58 0
16.720000 24.640000 15.840000 169 68 61 0
16.940000 24.640000 15.840000 170 69 62 0
17.160000 24.640000 15.840000 171 70 61 0
17.380000 24.640000 15.840000 171 70 61 0
17.600000 24.640000 15.840000 170 69 60 0
17.820000 24.640000 15.840000 172 71 62 0
18.040000 24.640000 15.840000 173 72 65 0
18.260000 24.640000 15.840000 174 73 66 0
18.480000 24.640000 16.060000 175 74 67 0
18.700000 24.640000 16.060000 175 74 67 0
18.920000 24.640000 16.060000 177 76 67 0
19.140000 24.640000 17.380000 177 76 67 0
19.360000 24.640000 17.380000 180 79 70 0
19.580000 24.640000 17.380000 180 79 70 0
19.800000 24.640000 17.600000 183 82 73 0
20.020000 24.640000 17.600000 183 82 73 0
20.240000 24.640000 17.600000 183 82 73 0
20.460000 24.640000 17.820000 183 82 73 0
20.680000 24.640000 17.820000 184 81 71 0
20.900000 24.640000 17.600000 183 80 70 0
21.120000 24.640000 18.920000 181 80 71 0
21.340000 24.640000 19.800000 181 80 71 0
21.560000 24.640000 20.900000 182 78 70 0
21.780000 24.640000 20.900000 181 77 69 0
22.000000 24.640000 22.220000 182 78 70 0
22.220000 24.640000 22.220000 184 80 72 0
22.440000 24.640000 22.220000 183 80 70 0
22.660000 24.640000 22.220000 182 79 69 0
22.880000 24.640000 22.220000 181 80 71 0
23.100000 24.640000 22.220000 182 81 72 0
23.320000 24.640000 22.440000 181 80 71 0
23.540000 24.640000 22.440000 181 80 71 0
23.760000 24.640000 23.760000 182 81 72 0
23.980000 24.640000 23.760000 182 81 72 0
24.200000 24.640000 23.760000 182 82 71 0
24.420000 24.640000 23.980000 183 83 72 0
24.640000 24.640000 23.980000 184 83 74 0
24.860000 24.640000 23.980000 184 83 74 0
25.080000 24.640000 23.980000 184 83 74 0
25.300000 24.640000 23.980000 185 84 75 0
25.520000 24.640000 23.980000 184 83 74 0
25.740000 24.640000 23.980000 184 83 74 0
25.960000 24.640000 25.300000 185 84 75 0
26.180000 24.640000 25.300000 185 84 75 0
26.400000 24.640000 25.300000 185 86 76 0
26.620000 24.640000 25.300000 185 86 76 0
26.840000 24.640000 25.520000 186 87 79 0
27.060000 24.640000 25.520000 187 88 80 0
27.280000 24.640000 25.520000 186 89 78 0
27.500000 24.640000 25.520000 187 90 79 0
27.720000 24.640000 25.520000 187 90 79 0
27.940000 24.640000 26.840000 187 90 79 0
28.160000 24.640000 27.060000 187 89 81 0
28.380000 24.640000 25.740000 187 89 81 0
28.600000 24.640000 27.060000 186 91 82 0
28.820000 24.640000 25.740000 188 93 84 0
29.040000 24.640000 25.740000 186 91 82 0
29.260000 24.640000 27.060000 188 93 84 0
29.480000 24.640000 27.940000 188 93 84 0
29.700000 24.640000 29.260000 187 92 83 0
29.920000 24.640000 29.040000 189 94 85 0
30.140000 24.640000 29.260000 189 94 85 0
30.360000 24.640000 29.260000 189 95 88 0
30.580000 24.640000 29.260000 189 95 88 0
30.800000 24.640000 29.260000 188 97 89 0
31.020000 24.640000 29.260000 189 98 90 0
31.240000 24.640000 30.580000 191 100 92 0
31.460000 24.640000 30.580000 192 101 93 0
31.680000 24.640000 30.580000 195 101 94 0
31.900000 24.640000 30.580000 194 100 93 0
32.120000 24.640000 30.580000 190 99 93 0
32.340000 24.640000 30.580000 191 100 94 0
32.560000 24.640000 30.800000 191 100 94 0
32.780000 24.640000 30.800000 191 100 94 0
33.000000 24.640000 30.800000 190 102 95 0
33.220000 24.640000 30.800000 192 104 97 0
33.440000 24.640000 30.800000 191 106 99 0
33.660000 24.640000 31.020000 195 110 103 0
33.880000 24.640000 31.020000 189 117 116 0
34.100000 24.640000 31.020000 198 126 125 0
34.320000 24.640000 31.020000 187 162 161 0
34.540000 24.640000 32.560000 221 196 195 0
34.760000 24.640000 33.880000 240 241 240 0
34.980000 24.640000 35.200000 240 241 240 0
35.200000 24.640000 35.200000 240 241 240 0
35.420000 24.640000 35.200000 240 241 240 0
35.640000 24.640000 35.200000 240 241 240 0
35.860000 24.640000 34.100000 240 241 240 0
36.080000 24.640000 34.320000 241 240 240 0
36.300000 24.640000 34.320000 241 240 240 0
36.520000 24.640000 34.320000 240 241 240 0
36.740000 24.640000 34.320000 240 241 240 0
36.960000 24.640000 34.320000 251 236 234 0
37.180000 24.640000 34.320000 240 225 223 0
0.000000 24.860000 3.080000 180 88 72 0
0.220000 24.860000 3.080000 181 89 73 0
0.440000 24.860000 3.080000 181 89 73 0
0.660000 24.860000 3.080000 182 90 74 0
0.880000 24.860000 3.080000 183 90 77 0
1.100000 24.860000 3.080000 184 91 78 0
1.320000 24.860000 3.080000 183 93 77 0
1.540000 24.860000 3.080000 183 93 77 0
1.760000 24.860000 3.080000 183 93 77 0
1.980000 24.860000 3.080000 183 93 77 0
2.200000 24.860000 3.080000 186 94 78 0
2.420000 24.860000 3.080000 186 94 78 0
2.640000 24.860000 3.080000 187 94 81 0
2.860000 24.860000 3.080000 186 93 80 0
3.080000 24.860000 3.080000 185 95 81 0
3.300000 24.860000 3.080000 185 95 81 0
3.520000 24.860000 3.080000 186 93 80 0
3.740000 24.860000 3.080000 188 95 82 0
3.960000 24.860000 4.400000 188 96 80 0
4.180000 24.860000 4.400000 189 97 81 0
4.400000 24.860000 4.400000 187 94 81 0
4.620000 24.860000 4.400000 188 95 82 0
4.840000 24.860000 3.080000 187 95 79 0
5.060000 24.860000 3.080000 186 94 78 0
5.280000 24.860000 3.080000 185 92 79 0
5.500000 24.860000 3.080000 185 92 79 0
5.720000 24.860000 3.300000 186 92 77 0
5.940000 24.860000 4.620000 185 91 76 0
6.160000 24.860000 4.620000 185 91 78 0
6.380000 24.860000 4.840000 185 91 78 0
6.600000 24.860000 4.840000 185 91 76 0
6.820000 24.860000 5.060000 186 92 77 0
7.040000 24.860000 3.740000 186 92 79 0
7.260000 24.860000 5.060000 186 92 79 0
7.480000 24.860000 6.160000 185 91 76 0
7.700000 24.860000 7.040000 185 91 76 0
7.920000 24.860000 8.360000 186 89 77 0
8.140000 24.860000 8.360000 186 89 77 0
8.360000 24.860000 8.580000 185 88 74 0
8.580000 24.860000 8.580000 185 88 74 0
8.800000 24.860000 8.580000 184 87 73 0
9.020000 24.860000 8.580000 183 86 72 0
9.240000 24.860000 8.800000 184 86 72 0
9.460000 24.860000 8.800000 184 86 72 0
9.680000 24.860000 8.800000 184 85 74 0
9.900000 24.860000 8.800000 184 85 74 0
10.120000 24.860000 10.340000 184 86 72 0
10.340000 24.860000 10.340000 183 85 71 0
10.560000 24.860000 10.340000 183 84 73 0
10.780000 24.860000 10.340000 181 82 71 0
11.000000 24.860000 10.560000 179 81 67 0
11.220000 24.860000 10.560000 179 81 67 0
11.440000 24.860000 10.560000 178 78 67 0
11.660000 24.860000 10.560000 177 77 66 0
11.880000 24.860000 10.780000 175 75 64 0
12.100000 24.860000 10.780000 174 74 63 0
12.320000 24.860000 10.780000 172 71 62 0
12.540000 24.860000 11.880000 172 71 62 0
12.760000 24.860000 12.760000 171 70 63 0
12.980000 24.860000 13.860000 169 68 61 0
13.200000 24.860000 13.860000 169 68 59 0
13.420000 24.860000 13.860000 169 68 59 0
13.640000 24.860000 13.860000 169 68 59 0
13.860000 24.860000 14.080000 168 67 58 0
14.080000 24.860000 14.080000 169 65 59 0
14.300000 24.860000 14.080000 168 64 58 0
14.520000 24.860000 14.080000 166 65 58 0
14.740000 24.860000 14.080000 167 66 59 0
14.960000 24.860000 14.080000 170 66 58 0
15.180000 24.860000 14.080000 168 64 56 0
15.400000 24.860000 14.300000 170 66 58 0
15.620000 24.860000 15.620000 169 65 57 0
15.840000 24.860000 15.620000 170 66 58 0
16.060000 24.860000 15.620000 171 67 59 0
16.280000 24.860000 15.620000 169 68 61 0
16.500000 24.860000 15.620000 169 68 61 0
16.720000 24.860000 15.620000 170 69 60 0
16.940000 24.860000 15.840000 171 70 61 0
17.160000 24.860000 15.840000 171 70 61 0
17.380000 24.860000 15.840000 172 71 62 0
17.600000 24.860000 15.840000 174 70 62 0
17.820000 24.860000 15.840000 175 71 63 0
18.040000 24.860000 15.840000 175 74 65 0
18.260000 24.860000 15.840000 175 74 65 0
18.480000 24.860000 15.840000 176 75 66 0
18.700000 24.860000 16.060000 176 75 66 0
18.920000 24.860000 16.060000 179 79 68 0
19.140000 24.860000 16.060000 180 80 69 0
19.360000 24.860000 17.380000 181 81 70 0
19.580000 24.860000 17.380000 182 82 71 0
19.800000 24.860000 17.600000 183 82 73 0
20.020000 24.860000 17.600000 183 82 73 0
20.240000 24.860000 17.600000 183 82 73 0
20.460000 24.860000 17.600000 182 81 72 0
20.680000 24.860000 17.820000 182 81 72 0
20.900000 24.860000 17.820000 181 80 71 0
21.120000 24.860000 18.920000 182 78 70 0
21.340000 24.860000 19.800000 181 77 69 0
21.560000 24.860000 20.900000 180 79 70 0
21.780000 24.860000 20.900000 180 79 70 0
22.000000 24.860000 22.220000 180 79 70 0
22.220000 24.860000 22.220000 182 81 72 0
22.440000 24.860000 22.220000 182 78 70 0
22.660000 24.860000 22.220000 182 78 70 0
22.880000 24.860000 22.220000 182 78 70 0
23.100000 24.860000 22.220000 184 80 72 0
23.320000 24.860000 22.440000 181 80 71 0
23.540000 24.860000 22.440000 181 80 71 0
23.760000 24.860000 22.440000 182 81 72 0
23.980000 24.860000 23.760000 182 81 72 0
24.200000 24.860000 23.760000 182 81 72 0
24.420000 24.860000 23.760000 183 82 73 0
24.640000 24.860000 23.980000 182 83 73 0
24.860000 24.860000 23.980000 183 84 74 0
25.080000 24.860000 23.980000 184 85 75 0
25.300000 24.860000 23.980000 182 83 73 0
25.520000 24.860000 23.980000 183 84 74 0
25.740000 24.860000 23.980000 185 86 76 0
25.960000 24.860000 23.980000 184 85 75 0
26.180000 24.860000 23.980000 185 86 76 0
26.400000 24.860000 25.300000 186 87 79 0
26.620000 24.860000 25.300000 186 87 79 0
26.840000 24.860000 25.300000 185 87 79 0
27.060000 24.860000 25.520000 186 88 80 0
27.280000 24.860000 25.520000 188 90 82 0
27.500000 24.860000 25.520000 188 90 82 0
27.720000 24.860000 25.520000 187 89 81 0
27.940000 24.860000 25.520000 187 89 81 0
28.160000 24.860000 25.520000 185 90 81 0
28.380000 24.860000 25.740000 186 91 82 0
28.600000 24.860000 25.740000 189 91 83 0
28.820000 24.860000 25.740000 189 91 83 0
29.040000 24.860000 25.740000 190 92 84 0
29.260000 24.860000 25.960000 190 92 84 0
29.480000 24.860000 27.060000 188 93 84 0
29.700000 24.860000 28.160000 189 94 85 0
29.920000 24.860000 27.940000 188 95 85 0
30.140000 24.860000 29.260000 188 95 85 0
30.360000 24.860000 29.260000 189 95 88 0
30.580000 24.860000 29.260000 190 96 89 0
30.800000 24.860000 29.040000 188 98 92 0
31.020000 24.860000 29.260000 192 102 96 0
31.240000 24.860000 29.260000 193 102 94 0
31.460000 24.860000 30.580000 194 103 95 0
31.680000 24.860000 30.580000 181 107 99 0
31.900000 24.860000 30.580000 183 109 101 0
32.120000 24.860000 30.580000 169 113 109 0
32.340000 24.860000 30.580000 170 114 110 0
32.560000 24.860000 30.580000 192 112 106 0
32.780000 24.860000 30.580000 190 110 104 0
33.000000 24.860000 30.800000 189 111 104 0
33.220000 24.860000 30.800000 191 113 106 0
33.440000 24.860000 30.800000 186 119 121 0
33.660000 24.860000 31.020000 195 128 130 0
33.880000 24.860000 31.020000 187 141 147 0
34.100000 24.860000 31.020000 190 144 150 0
34.320000 24.860000 32.340000 192 169 176 0
34.540000 24.860000 32.560000 230 207 214 0
34.760000 24.860000 33.880000 241 241 238 0
34.980000 24.860000 35.200000 241 241 238 0
35.200000 24.860000 35.200000 240 241 240 0
35.420000 24.860000 35.200000 240 241 240 0
35.640000 24.860000 35.200000 241 240 240 0
35.860000 24.860000 34.100000 241 240 240 0
36.080000 24.860000 34.320000 241 240 240 0
36.300000 24.860000 34.320000 241 240 240 0
36.520000 24.860000 34.320000 242 240 238 0
36.740000 24.860000 34.320000 242 240 238 0
36.960000 24.860000 34.320000 255 224 211 0
37.180000 24.860000 34.320000 255 211 198 0
0.000000 25.080000 3.080000 180 88 72 0
0.220000 25.080000 3.080000 181 89 73 0
0.440000 25.080000 3.080000 181 89 73 0
0.660000 25.080000 3.080000 182 90 74 0
0.880000 25.080000 3.080000 183 90 77 0
1.100000 25.080000 3.080000 184 91 78 0
1.320000 25.080000 3.080000 182 92 76 0
1.540000 25.080000 3.080000 183 93 77 0
1.760000 25.080000 3.080000 183 93 77 0
1.980000 25.080000 3.080000 184 94 78 0
2.200000 25.080000 3.080000 185 93 77 0
2.420000 25.080000 3.080000 186 94 78 0
2.640000 25.080000 3.080000 186 93 80 0
2.860000 25.080000 3.080000 187 94 81 0
3.080000 25.080000 3.080000 185 95 81 0
3.300000 25.080000 3.080000 185 95 81 0
3.520000 25.080000 3.080000 188 95 82 0
3.740000 25.080000 3.080000 187 94 81 0
3.960000 25.080000 4.400000 188 96 80 0
4.180000 25.080000 4.400000 188 96 80 0
4.400000 25.080000 4.400000 188 95 82 0
4.620000 25.080000 4.400000 189 96 83 0
4.840000 25.080000 3.080000 186 94 78 0
5.060000 25.080000 3.080000 186 94 78 0
5.280000 25.080000 3.080000 185 92 79 0
5.500000 25.080000 3.080000 185 92 79 0
5.720000 25.080000 3.080000 186 92 77 0
5.940000 25.080000 4.620000 184 90 75 0
6.160000 25.080000 4.620000 185 91 78 0
6.380000 25.080000 4.840000 186 92 79 0
6.600000 25.080000 4.840000 185 91 76 0
6.820000 25.080000 5.060000 185 91 76 0
7.040000 25.080000 3.740000 186 92 79 0
7.260000 25.080000 5.280000 186 92 79 0
7.480000 25.080000 5.060000 185 91 76 0
7.700000 25.080000 5.940000 185 91 76 0
7.920000 25.080000 7.040000 186 89 77 0
8.140000 25.080000 8.360000 186 89 77 0
8.360000 25.080000 8.580000 186 89 75 0
8.580000 25.080000 8.580000 184 87 73 0
8.800000 25.080000 8.580000 184 87 73 0
9.020000 25.080000 8.580000 184 87 73 0
9.240000 25.080000 8.800000 184 86 72 0
9.460000 25.080000 8.800000 184 86 72 0
9.680000 25.080000 8.800000 185 86 75 0
9.900000 25.080000 8.800000 185 86 75 0
10.120000 25.080000 10.340000 185 87 73 0
10.340000 25.080000 10.340000 185 87 73 0
10.560000 25.080000 10.340000 184 85 74 0
10.780000 25.080000 10.340000 182 83 72 0
11.000000 25.080000 10.560000 181 83 69 0
11.220000 25.080000 10.560000 180 82 68 0
11.440000 25.080000 10.560000 179 79 68 0
11.660000 25.080000 10.560000 176 76 65 0
11.880000 25.080000 10.560000 175 75 64 0
12.100000 25.080000 10.780000 174 74 63 0
12.320000 25.080000 10.780000 172 71 62 0
12.540000 25.080000 10.780000 171 70 61 0
12.760000 25.080000 12.980000 170 69 62 0
12.980000 25.080000 12.540000 168 67 60 0
13.200000 25.080000 13.860000 169 68 59 0
13.420000 25.080000 13.860000 169 68 59 0
13.640000 25.080000 13.860000 170 69 60 0
13.860000 25.080000 13.860000 169 68 59 0
14.080000 25.080000 14.080000 171 67 61 0
14.300000 25.080000 14.080000 168 64 58 0
14.520000 25.080000 14.080000 166 65 58 0
14.740000 25.080000 14.080000 168 67 60 0
14.960000 25.080000 14.080000 170 66 58 0
15.180000 25.080000 14.080000 169 65 57 0
15.400000 25.080000 14.080000 171 67 59 0
15.620000 25.080000 14.300000 170 66 58 0
15.840000 25.080000 14.300000 170 66 58 0
16.060000 25.080000 15.620000 171 67 59 0
16.280000 25.080000 15.620000 170 69 62 0
16.500000 25.080000 15.620000 169 68 61 0
16.720000 25.080000 15.620000 171 70 61 0
16.940000 25.080000 15.840000 171 70 61 0
17.160000 25.080000 15.840000 173 72 63 0
17.380000 25.080000 15.840000 174 73 64 0
17.600000 25.080000 15.840000 178 74 66 0
17.820000 25.080000 15.840000 177 73 65 0
18.040000 25.080000 15.840000 176 75 66 0
18.260000 25.080000 15.840000 177 76 67 0
18.480000 25.080000 15.840000 179 78 69 0
18.700000 25.080000 16.060000 180 79 70 0
18.920000 25.080000 16.060000 180 80 69 0
19.140000 25.080000 16.060000 182 82 71 0
19.360000 25.080000 16.060000 181 81 70 0
19.580000 25.080000 17.380000 183 83 72 0
19.800000 25.080000 17.380000 183 82 73 0
20.020000 25.080000 17.600000 183 82 73 0
20.240000 25.080000 17.600000 183 82 73 0
20.460000 25.080000 17.600000 182 81 72 0
20.680000 25.080000 17.600000 180 79 70 0
20.900000 25.080000 17.820000 181 80 71 0
21.120000 25.080000 17.600000 182 78 70 0
21.340000 25.080000 20.020000 180 76 68 0
21.560000 25.080000 20.900000 180 79 70 0
21.780000 25.080000 20.900000 179 78 69 0
22.000000 25.080000 20.900000 181 80 71 0
22.220000 25.080000 22.220000 180 79 70 0
22.440000 25.080000 22.220000 181 77 69 0
22.660000 25.080000 22.220000 182 78 70 0
22.880000 25.080000 22.220000 182 78 70 0
23.100000 25.080000 22.220000 182 78 70 0
23.320000 25.080000 22.440000 180 79 70 0
23.540000 25.080000 22.440000 180 79 70 0
23.760000 25.080000 22.440000 182 81 72 0
23.980000 25.080000 23.760000 182 81 72 0
24.200000 25.080000 23.760000 181 80 71 0
24.420000 25.080000 23.760000 182 81 72 0
24.640000 25.080000 23.760000 183 84 74 0
24.860000 25.080000 23.980000 183 84 74 0
25.080000 25.080000 23.980000 183 84 74 0
25.300000 25.080000 23.980000 184 85 75 0
25.520000 25.080000 23.980000 185 86 76 0
25.740000 25.080000 23.980000 185 86 76 0
25.960000 25.080000 23.980000 185 86 76 0
26.180000 25.080000 23.980000 186 87 77 0
26.400000 25.080000 25.300000 186 87 79 0
26.620000 25.080000 25.300000 186 87 79 0
26.840000 25.080000 25.300000 186 88 80 0
27.060000 25.080000 25.300000 187 89 81 0
27.280000 25.080000 25.520000 187 89 81 0
27.500000 25.080000 25.520000 188 90 82 0
27.720000 25.080000 25.520000 188 90 82 0
27.940000 25.080000 25.520000 188 90 82 0
28.160000 25.080000 25.520000 187 92 83 0
28.380000 25.080000 25.520000 187 92 83 0
28.600000 25.080000 25.740000 190 92 84 0
28.820000 25.080000 25.740000 190 92 84 0
29.040000 25.080000 25.740000 190 92 84 0
29.260000 25.080000 25.960000 190 92 84 0
29.480000 25.080000 25.960000 189 94 85 0
29.700000 25.080000 27.280000 191 96 87 0
29.920000 25.080000 27.060000 189 96 86 0
30.140000 25.080000 27.940000 190 97 87 0
30.360000 25.080000 29.040000 190 96 89 0
30.580000 25.080000 29.040000 192 98 91 0
30.800000 25.080000 29.040000 193 103 97 0
31.020000 25.080000 29.040000 193 103 97 0
31.240000 25.080000 29.040000 193 102 94 0
31.460000 25.080000 29.040000 195 104 96 0
31.680000 25.080000 30.580000 184 110 102 0
31.900000 25.080000 30.580000 189 115 107 0
32.120000 25.080000 30.580000 205 149 145 0
32.340000 25.080000 30.580000 219 163 159 0
32.560000 25.080000 30.580000 224 144 138 0
32.780000 25.080000 30.580000 205 125 119 0
33.000000 25.080000 30.800000 197 119 112 0
33.220000 25.080000 30.800000 198 120 113 0
33.440000 25.080000 30.800000 196 129 131 0
33.660000 25.080000 30.800000 209 142 144 0
33.880000 25.080000 31.020000 212 166 172 0
34.100000 25.080000 32.340000 230 184 190 0
34.320000 25.080000 32.340000 220 197 204 0
34.540000 25.080000 33.880000 235 212 219 0
34.760000 25.080000 33.880000 241 241 238 0
34.980000 25.080000 35.200000 241 241 238 0
35.200000 25.080000 35.200000 240 241 240 0
35.420000 25.080000 35.200000 240 241 240 0
35.640000 25.080000 35.200000 241 240 240 0
35.860000 25.080000 34.100000 241 240 240 0
36.080000 25.080000 34.100000 239 238 238 0
36.300000 25.080000 34.320000 241 240 240 0
36.520000 25.080000 34.320000 241 239 237 0
36.740000 25.080000 34.320000 236 234 232 0
36.960000 25.080000 33.000000 255 212 199 0
37.180000 25.080000 33.000000 223 163 150 0
0.000000 25.300000 3.080000 180 87 74 0
0.220000 25.300000 3.080000 181 88 75 0
0.440000 25.300000 3.080000 181 89 73 0
0.660000 25.300000 3.080000 182 90 74 0
0.880000 25.300000 3.080000 182 89 76 0
1.100000 25.300000 3.080000 183 90 77 0
1.320000 25.300000 3.080000 182 92 76 0
1.540000 25.300000 3.080000 182 92 76 0
1.760000 25.300000 3.080000 184 91 78 0
1.980000 25.300000 3.080000 184 91 78 0
2.200000 25.300000 3.080000 183 93 79 0
2.420000 25.300000 3.080000 184 94 80 0
2.640000 25.300000 3.080000 184 94 80 0
2.860000 25.300000 3.080000 184 94 80 0
3.080000 25.300000 3.080000 184 94 78 0
3.300000 25.300000 3.080000 184 94 78 0
3.520000 25.300000 3.080000 187 94 81 0
3.740000 25.300000 3.080000 187 94 81 0
3.960000 25.300000 4.400000 186 96 82 0
4.180000 25.300000 4.400000 185 95 81 0
4.400000 25.300000 4.400000 187 94 81 0
4.620000 25.300000 4.400000 188 95 82 0
4.840000 25.300000 4.400000 186 93 80 0
5.060000 25.300000 3.080000 186 93 80 0
5.280000 25.300000 3.080000 186 93 80 0
5.500000 25.300000 3.080000 185 92 79 0
5.720000 25.300000 3.080000 185 92 79 0
5.940000 25.300000 4.620000 184 91 78 0
6.160000 25.300000 4.620000 185 92 79 0
6.380000 25.300000 4.620000 183 90 77 0
6.600000 25.300000 4.840000 185 91 78 0
6.820000 25.300000 4.840000 185 91 78 0
7.040000 25.300000 5.060000 186 92 79 0
7.260000 25.300000 3.740000 186 92 79 0
7.480000 25.300000 5.280000 186 92 79 0
7.700000 25.300000 6.160000 184 90 77 0
7.920000 25.300000 7.040000 184 90 77 0
8.140000 25.300000 8.360000 185 91 78 0
8.360000 25.300000 8.580000 185 88 76 0
8.580000 25.300000 8.580000 186 89 77 0
8.800000 25.300000 8.580000 185 88 76 0
9.020000 25.300000 8.580000 184 87 75 0
9.240000 25.300000 8.580000 184 87 75 0
9.460000 25.300000 8.800000 184 87 75 0
9.680000 25.300000 8.800000 182 88 73 0
9.900000 25.300000 8.800000 183 89 74 0
10.120000 25.300000 10.120000 185 91 76 0
10.340000 25.300000 10.340000 186 92 77 0
10.560000 25.300000 10.340000 187 90 78 0
10.780000 25.300000 10.340000 183 86 74 0
11.000000 25.300000 10.340000 183 83 72 0
11.220000 25.300000 10.560000 181 81 70 0
11.440000 25.300000 10.560000 179 78 69 0
11.660000 25.300000 10.560000 177 76 67 0
11.880000 25.300000 10.560000 177 73 65 0
12.100000 25.300000 10.780000 176 72 64 0
12.320000 25.300000 10.780000 172 71 64 0
12.540000 25.300000 10.780000 172 71 64 0
12.760000 25.300000 11.880000 170 69 62 0
12.980000 25.300000 12.760000 170 69 62 0
13.200000 25.300000 13.860000 169 68 59 0
13.420000 25.300000 13.860000 169 68 59 0
13.640000 25.300000 13.860000 169 68 59 0
13.860000 25.300000 13.860000 169 68 59 0
14.080000 25.300000 14.080000 168 67 60 0
14.300000 25.300000 14.080000 168 67 60 0
14.520000 25.300000 14.080000 167 66 59 0
14.740000 25.300000 14.080000 169 68 61 0
14.960000 25.300000 14.080000 168 67 58 0
15.180000 25.300000 14.080000 168 67 58 0
15.400000 25.300000 14.080000 168 67 58 0
15.620000 25.300000 14.300000 169 68 59 0
15.840000 25.300000 14.300000 169 68 59 0
16.060000 25.300000 14.300000 169 68 59 0
16.280000 25.300000 15.620000 170 69 60 0
16.500000 25.300000 15.620000 172 71 62 0
16.720000 25.300000 15.620000 173 72 63 0
16.940000 25.300000 15.620000 174 73 64 0
17.160000 25.300000 15.840000 174 73 64 0
17.380000 25.300000 15.840000 175 74 65 0
17.600000 25.300000 15.840000 177 76 69 0
17.820000 25.300000 15.840000 178 77 70 0
18.040000 25.300000 15.840000 178 77 68 0
18.260000 25.300000 15.840000 180 79 70 0
18.480000 25.300000 15.840000 180 79 70 0
18.700000 25.300000 15.840000 182 81 72 0
18.920000 25.300000 16.060000 183 82 73 0
19.140000 25.300000 16.060000 182 81 72 0
19.360000 25.300000 16.060000 184 83 74 0
19.580000 25.300000 17.380000 183 82 73 0
19.800000 25.300000 17.380000 183 82 73 0
20.020000 25.300000 17.380000 183 82 73 0
20.240000 25.300000 17.600000 182 81 72 0
20.460000 25.300000 17.600000 180 79 70 0
20.680000 25.300000 17.600000 179 78 69 0
