ply
format ascii 1.0
element vertex 1161
property float x
property float y
property float z
property uchar red
property uchar green
property uchar blue
property uchar alpha
end_header
20.460000 12.100000 20.130000 164 80 64 0
20.680000 12.100000 20.130000 164 80 64 0
20.900000 12.100000 20.130000 166 80 64 0
21.120000 12.100000 20.130000 165 79 63 0
21.340000 12.100000 20.130000 165 76 63 0
21.560000 12.100000 20.130000 164 75 62 0
21.780000 12.100000 20.130000 165 75 61 0
22.000000 12.100000 20.130000 166 76 62 0
22.220000 12.100000 20.130000 165 75 62 0
22.440000 12.100000 20.130000 165 75 62 0
22.660000 12.100000 20.130000 166 73 61 0
22.880000 12.100000 20.130000 166 73 61 0
23.100000 12.100000 20.240000 165 72 60 0
23.320000 12.100000 20.900000 164 71 59 0
23.540000 12.100000 20.900000 165 70 59 0
23.760000 12.100000 20.900000 165 70 59 0
23.980000 12.100000 20.900000 165 70 59 0
24.200000 12.100000 20.900000 164 69 58 0
24.420000 12.100000 20.900000 165 70 59 0
24.640000 12.100000 20.900000 164 69 58 0
24.860000 12.100000 20.900000 165 70 59 0
25.080000 12.100000 20.900000 164 69 58 0
25.300000 12.100000 20.900000 164 69 58 0
25.520000 12.100000 21.010000 165 70 59 0
25.740000 12.100000 21.010000 165 68 57 0
25.960000 12.100000 21.010000 167 70 59 0
26.180000 12.100000 21.010000 166 69 58 0
26.400000 12.100000 21.010000 166 69 58 0
26.620000 12.100000 19.580000 166 69 58 0
26.840000 12.100000 14.080000 165 68 57 0
27.060000 12.100000 6.490000 166 68 60 0
27.280000 12.100000 2.310000 166 68 60 0
27.500000 12.100000 5.060000 166 69 58 0
27.720000 12.100000 9.900000 167 70 59 0
27.940000 12.100000 14.080000 167 68 60 0
28.160000 12.100000 12.760000 167 68 60 0
28.380000 12.100000 6.490000 167 68 58 0
28.600000 12.100000 0.990000 168 69 59 0
31.460000 12.100000 0.330000 170 69 60 0
31.680000 12.100000 0.330000 172 71 62 0
32.340000 12.100000 0.440000 173 72 63 0
32.560000 12.100000 0.440000 174 73 64 0
32.780000 12.100000 0.440000 173 72 63 0
33.000000 12.100000 0.440000 173 72 63 0
33.220000 12.100000 0.440000 174 73 64 0
33.440000 12.100000 0.440000 174 73 64 0
33.660000 12.100000 0.440000 175 76 66 0
33.880000 12.100000 0.440000 175 76 66 0
34.100000 12.100000 0.440000 175 76 65 0
34.320000 12.100000 0.440000 177 78 67 0
34.540000 12.100000 0.440000 176 77 67 0
34.760000 12.100000 0.440000 178 79 69 0
34.980000 12.100000 0.440000 179 80 69 0
35.200000 12.100000 0.440000 179 80 69 0
35.420000 12.100000 0.440000 179 80 70 0
35.640000 12.100000 0.440000 180 81 71 0
35.860000 12.100000 0.440000 179 82 70 0
36.080000 12.100000 0.440000 180 83 71 0
36.300000 12.100000 0.440000 181 84 73 0
36.520000 12.100000 0.440000 182 85 74 0
36.740000 12.100000 0.550000 182 85 74 0
36.960000 12.100000 0.550000 182 85 74 0
37.180000 12.100000 0.550000 180 85 74 0
0.000000 12.320000 2.310000 132 100 84 0
0.220000 12.320000 2.310000 132 100 82 0
0.440000 12.320000 2.310000 132 100 82 0
0.660000 12.320000 2.970000 132 100 84 0
0.880000 12.320000 2.970000 132 100 84 0
1.100000 12.320000 2.970000 133 99 84 0
1.320000 12.320000 2.970000 133 99 84 0
1.540000 12.320000 2.970000 133 99 82 0
1.760000 12.320000 2.970000 132 98 81 0
1.980000 12.320000 2.970000 132 98 81 0
2.200000 12.320000 2.970000 133 99 82 0
2.420000 12.320000 2.310000 132 98 83 0
2.640000 12.320000 2.310000 132 98 83 0
2.860000 12.320000 2.310000 134 98 81 0
3.080000 12.320000 2.970000 134 98 81 0
3.300000 12.320000 2.970000 133 99 82 0
3.520000 12.320000 2.310000 132 98 81 0
3.740000 12.320000 2.310000 133 97 80 0
3.960000 12.320000 2.310000 133 97 80 0
4.180000 12.320000 2.310000 133 96 82 0
4.400000 12.320000 2.310000 134 97 83 0
4.620000 12.320000 2.310000 132 96 79 0
4.840000 12.320000 2.310000 133 97 80 0
5.060000 12.320000 2.310000 134 96 80 0
5.280000 12.320000 2.310000 132 94 78 0
5.500000 12.320000 2.970000 133 95 79 0
5.720000 12.320000 2.970000 133 95 79 0
5.940000 12.320000 2.970000 133 95 79 0
6.160000 12.320000 2.310000 134 96 80 0
6.380000 12.320000 2.310000 133 95 79 0
6.600000 12.320000 2.310000 133 95 79 0
6.820000 12.320000 2.310000 133 95 79 0
7.040000 12.320000 1.650000 132 94 78 0
7.260000 12.320000 2.310000 134 94 79 0
7.480000 12.320000 2.970000 133 93 78 0
7.700000 12.320000 2.970000 133 93 78 0
7.920000 12.320000 2.970000 133 93 78 0
8.140000 12.320000 3.630000 133 93 78 0
8.360000 12.320000 3.630000 133 93 78 0
8.580000 12.320000 3.630000 133 93 78 0
8.800000 12.320000 2.970000 133 93 78 0
9.020000 12.320000 2.970000 132 92 77 0
9.240000 12.320000 2.310000 132 92 77 0
9.460000 12.320000 2.310000 132 92 77 0
9.680000 12.320000 2.310000 132 92 77 0
9.900000 12.320000 2.310000 132 93 75 0
10.120000 12.320000 2.310000 132 93 75 0
10.340000 12.320000 2.310000 132 92 77 0
10.560000 12.320000 2.310000 133 93 78 0
10.780000 12.320000 2.310000 132 92 77 0
11.000000 12.320000 2.310000 133 93 78 0
11.220000 12.320000 2.310000 135 92 78 0
11.440000 12.320000 2.310000 136 93 79 0
11.660000 12.320000 2.970000 136 94 77 0
11.880000 12.320000 2.310000 137 95 78 0
12.100000 12.320000 2.310000 135 92 78 0
12.320000 12.320000 2.310000 138 95 81 0
12.540000 12.320000 2.970000 138 95 81 0
12.760000 12.320000 2.310000 137 94 80 0
12.980000 12.320000 2.310000 138 95 81 0
13.200000 12.320000 2.310000 137 94 80 0
13.420000 12.320000 2.310000 137 95 78 0
13.640000 12.320000 1.650000 137 95 78 0
13.860000 12.320000 1.650000 137 94 80 0
14.080000 12.320000 1.650000 137 94 80 0
14.300000 12.320000 1.540000 137 94 80 0
14.520000 12.320000 2.970000 137 94 80 0
14.740000 12.320000 2.970000 137 94 80 0
14.960000 12.320000 2.310000 136 93 79 0
15.180000 12.320000 1.650000 136 93 79 0
15.400000 12.320000 0.880000 137 94 80 0
15.620000 12.320000 5.720000 140 93 78 0
15.840000 12.320000 14.740000 143 96 81 0
16.060000 12.320000 18.370000 154 94 78 0
16.280000 12.320000 17.160000 155 95 79 0
16.500000 12.320000 17.270000 163 96 82 0
16.720000 12.320000 17.270000 162 95 81 0
16.940000 12.320000 17.160000 163 95 79 0
17.160000 12.320000 17.820000 162 94 78 0
17.380000 12.320000 17.820000 163 94 76 0
17.600000 12.320000 17.820000 161 92 74 0
17.820000 12.320000 18.480000 163 90 76 0
18.040000 12.320000 18.920000 163 90 76 0
18.260000 12.320000 19.470000 166 88 71 0
18.480000 12.320000 19.360000 165 87 70 0
18.700000 12.320000 19.360000 166 86 70 0
18.920000 12.320000 19.360000 165 85 69 0
19.140000 12.320000 19.360000 164 84 68 0
19.360000 12.320000 19.360000 164 84 68 0
19.580000 12.320000 19.360000 166 84 68 0
19.800000 12.320000 19.360000 164 82 66 0
20.020000 12.320000 19.360000 165 81 65 0
20.240000 12.320000 20.130000 165 81 65 0
20.460000 12.320000 20.130000 164 80 64 0
20.680000 12.320000 20.130000 164 80 64 0
20.900000 12.320000 20.130000 165 79 63 0
21.120000 12.320000 20.130000 165 79 63 0
21.340000 12.320000 20.130000 165 76 63 0
21.560000 12.320000 20.130000 164 75 62 0
21.780000 12.320000 20.130000 166 76 62 0
22.000000 12.320000 20.130000 165 75 61 0
22.220000 12.320000 20.130000 165 75 62 0
22.440000 12.320000 20.130000 164 74 61 0
22.660000 12.320000 20.130000 166 73 61 0
22.880000 12.320000 20.130000 164 71 59 0
23.100000 12.320000 20.130000 165 72 60 0
23.320000 12.320000 20.240000 165 72 60 0
23.540000 12.320000 20.240000 165 70 59 0
23.760000 12.320000 20.900000 165 70 59 0
23.980000 12.320000 20.900000 165 70 59 0
24.200000 12.320000 20.240000 165 70 59 0
24.420000 12.320000 20.900000 165 70 59 0
24.640000 12.320000 20.900000 165 70 59 0
24.860000 12.320000 20.900000 164 69 58 0
25.080000 12.320000 20.900000 164 69 58 0
25.300000 12.320000 20.900000 164 69 58 0
25.520000 12.320000 21.010000 165 70 59 0
25.740000 12.320000 21.010000 166 69 58 0
25.960000 12.320000 21.010000 166 69 58 0
26.180000 12.320000 21.010000 166 69 58 0
26.400000 12.320000 21.010000 167 70 59 0
26.620000 12.320000 21.010000 165 68 57 0
26.840000 12.320000 19.580000 165 68 57 0
27.060000 12.320000 14.080000 165 67 59 0
27.280000 12.320000 9.900000 165 67 59 0
27.500000 12.320000 11.330000 166 69 58 0
27.720000 12.320000 14.080000 166 69 58 0
27.940000 12.320000 18.260000 167 68 60 0
28.160000 12.320000 19.580000 166 67 59 0
28.380000 12.320000 12.760000 167 68 58 0
28.600000 12.320000 3.740000 167 68 58 0
31.460000 12.320000 0.330000 170 69 60 0
31.680000 12.320000 0.330000 171 70 61 0
31.900000 12.320000 0.330000 171 70 61 0
32.340000 12.320000 0.440000 172 71 62 0
32.560000 12.320000 0.440000 172 71 62 0
32.780000 12.320000 0.440000 173 72 63 0
33.000000 12.320000 0.440000 174 73 64 0
33.220000 12.320000 0.440000 173 72 63 0
33.440000 12.320000 0.440000 174 73 64 0
33.660000 12.320000 0.440000 175 76 66 0
33.880000 12.320000 0.440000 175 76 66 0
34.100000 12.320000 0.440000 176 77 66 0
34.320000 12.320000 0.440000 177 78 67 0
34.540000 12.320000 0.440000 177 78 68 0
34.760000 12.320000 0.440000 177 78 68 0
34.980000 12.320000 0.440000 179 80 69 0
35.200000 12.320000 0.440000 178 79 68 0
35.420000 12.320000 0.440000 178 79 69 0
35.640000 12.320000 0.440000 179 80 70 0
35.860000 12.320000 0.440000 180 83 71 0
36.080000 12.320000 0.440000 180 83 71 0
36.300000 12.320000 0.440000 180 83 72 0
36.520000 12.320000 0.440000 181 84 73 0
36.740000 12.320000 0.550000 181 84 73 0
36.960000 12.320000 0.550000 182 85 74 0
37.180000 12.320000 0.550000 180 85 74 0
0.000000 12.540000 1.650000 133 101 85 0
0.220000 12.540000 1.650000 132 100 84 0
0.440000 12.540000 2.970000 132 100 84 0
0.660000 12.540000 2.970000 132 100 82 0
0.880000 12.540000 2.970000 132 100 82 0
1.100000 12.540000 2.970000 132 98 83 0
1.320000 12.540000 3.630000 133 99 84 0
1.540000 12.540000 3.630000 131 99 83 0
1.760000 12.540000 3.630000 132 100 84 0
1.980000 12.540000 3.630000 133 99 82 0
2.200000 12.540000 2.970000 134 100 83 0
2.420000 12.540000 2.310000 133 99 82 0
2.640000 12.540000 1.540000 132 98 81 0
2.860000 12.540000 2.970000 132 98 81 0
3.080000 12.540000 3.630000 133 99 82 0
3.300000 12.540000 2.970000 132 98 81 0
3.520000 12.540000 2.970000 131 97 80 0
3.740000 12.540000 3.630000 134 98 81 0
3.960000 12.540000 3.630000 133 97 80 0
4.180000 12.540000 3.630000 134 98 81 0
4.400000 12.540000 2.970000 133 97 80 0
4.620000 12.540000 3.630000 133 97 80 0
4.840000 12.540000 3.630000 133 97 80 0
5.060000 12.540000 2.970000 134 96 80 0
5.280000 12.540000 2.310000 134 96 80 0
5.500000 12.540000 2.310000 134 96 80 0
5.720000 12.540000 2.310000 134 96 80 0
5.940000 12.540000 2.310000 133 95 79 0
6.160000 12.540000 2.310000 133 95 79 0
6.380000 12.540000 2.310000 133 95 79 0
6.600000 12.540000 2.310000 134 96 80 0
6.820000 12.540000 2.310000 133 95 79 0
7.040000 12.540000 1.650000 133 95 79 0
7.260000 12.540000 2.310000 134 94 79 0
7.480000 12.540000 2.970000 134 94 79 0
7.700000 12.540000 2.970000 132 94 78 0
7.920000 12.540000 3.630000 132 94 78 0
8.140000 12.540000 3.630000 133 93 78 0
8.360000 12.540000 2.970000 132 92 77 0
8.580000 12.540000 2.970000 133 93 78 0
8.800000 12.540000 2.310000 132 92 77 0
9.020000 12.540000 2.310000 132 92 77 0
9.240000 12.540000 2.310000 132 92 77 0
9.460000 12.540000 2.310000 132 92 77 0
9.680000 12.540000 2.310000 132 92 77 0
9.900000 12.540000 2.310000 132 92 77 0
10.120000 12.540000 1.650000 133 93 78 0
10.340000 12.540000 1.650000 135 92 78 0
10.560000 12.540000 1.650000 135 92 78 0
10.780000 12.540000 2.310000 135 93 76 0
11.000000 12.540000 2.970000 135 93 76 0
11.220000 12.540000 2.970000 136 93 79 0
11.440000 12.540000 2.310000 136 93 79 0
11.660000 12.540000 2.970000 135 93 76 0
11.880000 12.540000 2.970000 136 94 77 0
12.100000 12.540000 2.310000 137 95 78 0
12.320000 12.540000 2.310000 137 95 78 0
12.540000 12.540000 1.540000 137 95 78 0
12.760000 12.540000 2.310000 137 95 78 0
12.980000 12.540000 2.310000 137 94 80 0
13.200000 12.540000 2.310000 136 93 79 0
13.420000 12.540000 2.310000 136 94 77 0
13.640000 12.540000 2.310000 136 94 77 0
13.860000 12.540000 1.650000 136 94 77 0
14.080000 12.540000 1.540000 137 95 78 0
14.300000 12.540000 2.310000 137 93 77 0
14.520000 12.540000 2.970000 139 95 79 0
14.740000 12.540000 2.970000 137 95 78 0
14.960000 12.540000 2.310000 136 94 77 0
15.180000 12.540000 2.310000 136 94 77 0
15.400000 12.540000 1.540000 136 94 77 0
15.620000 12.540000 5.720000 138 94 78 0
15.840000 12.540000 14.080000 141 97 81 0
16.060000 12.540000 17.820000 149 95 78 0
16.280000 12.540000 17.270000 151 97 80 0
16.500000 12.540000 17.270000 161 98 78 0
16.720000 12.540000 17.270000 161 98 78 0
16.940000 12.540000 17.270000 164 95 77 0
17.160000 12.540000 17.270000 163 94 76 0
17.380000 12.540000 17.270000 164 92 73 0
17.600000 12.540000 17.930000 163 91 72 0
17.820000 12.540000 17.710000 161 92 74 0
18.040000 12.540000 18.920000 160 91 73 0
18.260000 12.540000 19.360000 165 89 70 0
18.480000 12.540000 19.360000 164 88 69 0
18.700000 12.540000 19.360000 166 87 69 0
18.920000 12.540000 19.360000 165 86 68 0
19.140000 12.540000 19.360000 164 85 67 0
19.360000 12.540000 19.360000 163 84 66 0
19.580000 12.540000 19.360000 163 84 66 0
19.800000 12.540000 19.360000 162 83 65 0
20.020000 12.540000 19.360000 164 82 65 0
20.240000 12.540000 20.130000 163 81 64 0
20.460000 12.540000 20.130000 164 81 62 0
20.680000 12.540000 20.130000 163 80 61 0
20.900000 12.540000 20.130000 165 79 63 0
21.120000 12.540000 20.130000 165 79 63 0
21.340000 12.540000 20.130000 165 76 63 0
21.560000 12.540000 20.130000 164 75 62 0
21.780000 12.540000 20.130000 165 76 63 0
22.000000 12.540000 20.130000 163 74 61 0
22.220000 12.540000 20.130000 164 74 60 0
22.440000 12.540000 20.130000 164 74 60 0
22.660000 12.540000 20.130000 166 73 61 0
22.880000 12.540000 20.130000 165 72 60 0
23.100000 12.540000 20.130000 164 71 59 0
23.320000 12.540000 20.240000 164 71 59 0
23.540000 12.540000 20.240000 165 72 60 0
23.760000 12.540000 20.240000 165 72 60 0
23.980000 12.540000 20.240000 165 72 59 0
24.200000 12.540000 20.240000 164 71 58 0
24.420000 12.540000 20.240000 166 71 60 0
24.640000 12.540000 20.900000 165 70 59 0
24.860000 12.540000 20.900000 164 69 58 0
25.080000 12.540000 20.900000 165 70 59 0
25.300000 12.540000 20.900000 165 68 57 0
25.520000 12.540000 21.010000 167 70 59 0
25.740000 12.540000 21.010000 165 68 57 0
25.960000 12.540000 21.010000 166 69 58 0
26.180000 12.540000 21.010000 165 68 57 0
26.400000 12.540000 21.010000 165 68 57 0
26.620000 12.540000 21.010000 166 69 58 0
26.840000 12.540000 21.010000 165 68 57 0
27.060000 12.540000 19.580000 166 69 58 0
27.280000 12.540000 16.830000 165 68 57 0
27.500000 12.540000 15.510000 165 68 57 0
27.720000 12.540000 15.510000 165 68 57 0
27.940000 12.540000 16.830000 166 67 57 0
28.160000 12.540000 18.260000 166 67 57 0
28.380000 12.540000 12.760000 167 68 58 0
28.600000 12.540000 3.740000 167 68 58 0
31.460000 12.540000 0.330000 170 71 61 0
31.680000 12.540000 0.330000 170 71 61 0
31.900000 12.540000 0.330000 171 70 61 0
32.340000 12.540000 0.440000 172 72 61 0
32.560000 12.540000 0.440000 172 72 61 0
32.780000 12.540000 0.440000 173 74 63 0
33.000000 12.540000 0.440000 172 73 62 0
33.220000 12.540000 0.440000 172 73 63 0
33.440000 12.540000 0.440000 173 74 64 0
33.660000 12.540000 0.440000 174 75 64 0
33.880000 12.540000 0.440000 175 76 65 0
34.100000 12.540000 0.440000 176 77 66 0
34.320000 12.540000 0.440000 176 77 66 0
34.540000 12.540000 0.440000 176 77 66 0
34.760000 12.540000 0.440000 177 78 67 0
34.980000 12.540000 0.440000 176 77 67 0
35.200000 12.540000 0.440000 178 79 69 0
35.420000 12.540000 0.440000 178 79 68 0
35.640000 12.540000 0.440000 179 80 69 0
35.860000 12.540000 0.440000 180 81 70 0
36.080000 12.540000 0.440000 181 82 71 0
36.300000 12.540000 0.440000 180 83 71 0
36.520000 12.540000 0.440000 180 83 71 0
36.740000 12.540000 0.550000 181 84 73 0
36.960000 12.540000 0.550000 181 84 73 0
37.180000 12.540000 0.550000 180 86 73 0
0.000000 12.760000 2.310000 133 101 85 0
0.220000 12.760000 2.970000 133 101 85 0
0.440000 12.760000 2.310000 132 100 84 0
0.660000 12.760000 2.310000 133 101 83 0
0.880000 12.760000 2.310000 133 101 83 0
1.100000 12.760000 3.630000 134 100 85 0
1.320000 12.760000 4.400000 134 100 85 0
1.540000 12.760000 4.400000 131 99 83 0
1.760000 12.760000 4.400000 132 100 84 0
1.980000 12.760000 4.400000 134 100 83 0
2.200000 12.760000 3.740000 133 99 82 0
2.420000 12.760000 1.650000 132 98 81 0
2.640000 12.760000 1.540000 133 99 82 0
2.860000 12.760000 2.970000 133 99 82 0
3.080000 12.760000 2.970000 133 99 82 0
3.300000 12.760000 2.970000 132 98 81 0
3.520000 12.760000 2.970000 133 99 82 0
3.740000 12.760000 3.630000 133 97 80 0
3.960000 12.760000 4.400000 134 98 81 0
4.180000 12.760000 4.400000 134 98 81 0
4.400000 12.760000 3.630000 133 97 80 0
4.620000 12.760000 3.630000 134 98 81 0
4.840000 12.760000 3.630000 133 97 80 0
5.060000 12.760000 2.970000 134 96 80 0
5.280000 12.760000 2.310000 134 96 80 0
5.500000 12.760000 1.540000 134 96 80 0
5.720000 12.760000 2.310000 133 95 79 0
5.940000 12.760000 2.310000 134 96 80 0
6.160000 12.760000 2.310000 133 95 79 0
6.380000 12.760000 2.310000 133 95 79 0
6.600000 12.760000 2.310000 132 94 78 0
6.820000 12.760000 2.310000 133 95 79 0
7.040000 12.760000 2.310000 133 95 79 0
7.260000 12.760000 2.970000 134 94 79 0
7.480000 12.760000 3.630000 134 94 79 0
7.700000 12.760000 3.630000 133 95 79 0
7.920000 12.760000 2.970000 132 94 78 0
8.140000 12.760000 2.970000 132 92 77 0
8.360000 12.760000 2.970000 132 92 77 0
8.580000 12.760000 2.970000 131 91 76 0
8.800000 12.760000 2.310000 132 92 77 0
9.020000 12.760000 2.310000 132 92 77 0
9.240000 12.760000 2.310000 132 92 77 0
9.460000 12.760000 2.310000 131 91 76 0
9.680000 12.760000 2.310000 132 92 77 0
9.900000 12.760000 2.310000 132 92 77 0
10.120000 12.760000 2.310000 132 92 77 0
10.340000 12.760000 2.310000 135 92 78 0
10.560000 12.760000 2.310000 135 92 78 0
10.780000 12.760000 2.970000 135 93 76 0
11.000000 12.760000 2.970000 135 93 76 0
11.220000 12.760000 2.310000 136 93 79 0
11.440000 12.760000 2.310000 136 93 79 0
11.660000 12.760000 2.310000 135 93 76 0
11.880000 12.760000 2.970000 136 94 77 0
12.100000 12.760000 2.970000 137 95 78 0
12.320000 12.760000 2.310000 137 95 78 0
12.540000 12.760000 1.540000 136 94 77 0
12.760000 12.760000 1.650000 137 95 78 0
12.980000 12.760000 1.540000 136 93 79 0
13.200000 12.760000 2.310000 137 94 80 0
13.420000 12.760000 2.310000 137 95 78 0
13.640000 12.760000 2.310000 137 95 78 0
13.860000 12.760000 2.310000 137 95 78 0
14.080000 12.760000 1.540000 137 95 78 0
14.300000 12.760000 2.310000 138 94 78 0
14.520000 12.760000 2.310000 138 94 78 0
14.740000 12.760000 2.310000 137 95 78 0
14.960000 12.760000 2.310000 136 94 77 0
15.180000 12.760000 2.310000 137 95 78 0
15.400000 12.760000 1.540000 136 94 77 0
15.620000 12.760000 5.720000 138 94 78 0
15.840000 12.760000 14.740000 141 97 81 0
16.060000 12.760000 17.820000 150 96 79 0
16.280000 12.760000 17.270000 152 98 81 0
16.500000 12.760000 17.270000 160 97 77 0
16.720000 12.760000 17.270000 161 98 78 0
16.940000 12.760000 17.270000 164 95 77 0
17.160000 12.760000 17.270000 163 94 76 0
17.380000 12.760000 17.270000 164 92 73 0
17.600000 12.760000 17.710000 164 92 73 0
17.820000 12.760000 18.150000 162 93 75 0
18.040000 12.760000 18.700000 160 91 73 0
18.260000 12.760000 19.360000 165 89 70 0
18.480000 12.760000 19.360000 164 88 69 0
18.700000 12.760000 19.360000 165 86 68 0
18.920000 12.760000 19.360000 164 85 67 0
19.140000 12.760000 19.360000 164 85 67 0
19.360000 12.760000 19.360000 164 85 67 0
19.580000 12.760000 19.360000 163 84 66 0
19.800000 12.760000 19.360000 163 84 66 0
20.020000 12.760000 19.360000 164 82 65 0
20.240000 12.760000 19.360000 164 82 65 0
20.460000 12.760000 19.470000 164 81 62 0
20.680000 12.760000 20.130000 164 81 62 0
20.900000 12.760000 20.130000 165 79 63 0
21.120000 12.760000 20.130000 165 79 63 0
21.340000 12.760000 20.130000 166 77 64 0
21.560000 12.760000 20.130000 164 75 62 0
21.780000 12.760000 20.130000 165 76 63 0
22.000000 12.760000 20.130000 164 75 62 0
22.220000 12.760000 20.130000 164 74 60 0
22.440000 12.760000 20.130000 163 73 59 0
22.660000 12.760000 20.130000 166 73 61 0
22.880000 12.760000 20.130000 165 72 60 0
23.100000 12.760000 20.130000 166 73 61 0
23.320000 12.760000 20.240000 165 72 60 0
23.540000 12.760000 20.240000 165 72 60 0
23.760000 12.760000 20.240000 164 71 59 0
23.980000 12.760000 20.240000 165 72 59 0
24.200000 12.760000 20.240000 165 72 59 0
24.420000 12.760000 20.240000 166 71 60 0
24.640000 12.760000 20.240000 165 70 59 0
24.860000 12.760000 20.240000 165 70 59 0
25.080000 12.760000 20.900000 165 70 59 0
25.300000 12.760000 20.900000 166 69 58 0
25.520000 12.760000 20.900000 166 69 58 0
25.740000 12.760000 20.900000 165 68 57 0
25.960000 12.760000 21.010000 165 68 57 0
26.180000 12.760000 21.010000 166 69 58 0
26.400000 12.760000 21.010000 166 69 58 0
26.620000 12.760000 21.010000 165 68 57 0
26.840000 12.760000 21.010000 165 68 57 0
27.060000 12.760000 21.010000 166 69 58 0
27.280000 12.760000 16.830000 166 69 58 0
27.500000 12.760000 11.330000 166 69 58 0
27.720000 12.760000 11.330000 165 68 57 0
27.940000 12.760000 12.760000 167 68 58 0
28.160000 12.760000 12.760000 168 69 59 0
28.380000 12.760000 8.580000 167 68 58 0
28.600000 12.760000 2.310000 167 68 58 0
32.340000 12.760000 0.330000 173 73 62 0
32.560000 12.760000 0.440000 173 73 62 0
32.780000 12.760000 0.440000 172 73 62 0
33.000000 12.760000 0.440000 173 74 63 0
33.220000 12.760000 0.440000 173 74 64 0
33.440000 12.760000 0.440000 173 74 64 0
33.660000 12.760000 0.440000 173 74 63 0
33.880000 12.760000 0.440000 175 76 65 0
34.100000 12.760000 0.440000 175 76 65 0
34.320000 12.760000 0.440000 176 77 66 0
34.540000 12.760000 0.440000 175 76 65 0
34.760000 12.760000 0.440000 176 77 66 0
34.980000 12.760000 0.440000 177 78 68 0
35.200000 12.760000 0.440000 177 78 68 0
35.420000 12.760000 0.440000 179 80 69 0
35.640000 12.760000 0.440000 179 80 69 0
35.860000 12.760000 0.440000 180 81 70 0
36.080000 12.760000 0.440000 179 80 69 0
36.300000 12.760000 0.440000 179 82 70 0
36.520000 12.760000 0.440000 180 83 71 0
36.740000 12.760000 0.550000 181 84 73 0
36.960000 12.760000 0.550000 181 84 73 0
37.180000 12.760000 0.550000 180 86 73 0
0.000000 12.980000 4.400000 134 102 84 0
0.220000 12.980000 3.630000 134 102 86 0
0.440000 12.980000 2.310000 133 101 85 0
0.660000 12.980000 2.310000 134 100 83 0
0.880000 12.980000 2.310000 133 99 82 0
1.100000 12.980000 3.630000 134 100 85 0
1.320000 12.980000 5.060000 134 100 85 0
1.540000 12.980000 5.060000 134 100 83 0
1.760000 12.980000 4.400000 134 100 83 0
1.980000 12.980000 5.060000 133 99 82 0
2.200000 12.980000 4.400000 133 99 82 0
2.420000 12.980000 2.310000 133 99 82 0
2.640000 12.980000 2.310000 132 98 81 0
2.860000 12.980000 2.970000 134 100 83 0
3.080000 12.980000 2.310000 133 99 82 0
3.300000 12.980000 2.310000 132 98 81 0
3.520000 12.980000 2.970000 132 98 81 0
3.740000 12.980000 2.970000 134 97 83 0
3.960000 12.980000 3.630000 134 97 83 0
4.180000 12.980000 3.630000 134 98 81 0
4.400000 12.980000 3.630000 134 98 81 0
4.620000 12.980000 4.400000 134 98 81 0
4.840000 12.980000 4.400000 133 97 80 0
5.060000 12.980000 3.630000 132 96 79 0
5.280000 12.980000 2.970000 133 97 80 0
5.500000 12.980000 2.970000 134 96 82 0
5.720000 12.980000 2.310000 134 96 82 0
5.940000 12.980000 2.970000 133 95 79 0
6.160000 12.980000 3.630000 134 96 80 0
6.380000 12.980000 3.630000 134 96 80 0
6.600000 12.980000 2.970000 133 95 79 0
6.820000 12.980000 2.970000 133 95 79 0
7.040000 12.980000 2.970000 132 94 78 0
7.260000 12.980000 3.630000 133 95 79 0
7.480000 12.980000 3.630000 133 95 79 0
7.700000 12.980000 3.630000 134 94 79 0
7.920000 12.980000 2.970000 134 94 79 0
8.140000 12.980000 2.970000 133 93 78 0
8.360000 12.980000 2.970000 132 92 77 0
8.580000 12.980000 2.970000 133 93 78 0
8.800000 12.980000 2.310000 132 92 77 0
9.020000 12.980000 2.310000 133 93 78 0
9.240000 12.980000 2.310000 132 92 77 0
9.460000 12.980000 2.970000 131 92 74 0
9.680000 12.980000 2.310000 131 92 74 0
9.900000 12.980000 2.310000 134 91 77 0
10.120000 12.980000 2.970000 134 91 77 0
10.340000 12.980000 2.970000 134 91 77 0
10.560000 12.980000 2.970000 135 92 78 0
10.780000 12.980000 2.310000 135 93 76 0
11.000000 12.980000 2.310000 136 94 77 0
11.220000 12.980000 2.310000 136 94 77 0
11.440000 12.980000 2.310000 136 94 77 0
11.660000 12.980000 2.310000 135 93 76 0
11.880000 12.980000 2.970000 137 95 78 0
12.100000 12.980000 2.970000 137 95 78 0
12.320000 12.980000 2.310000 137 95 78 0
12.540000 12.980000 1.540000 137 93 77 0
12.760000 12.980000 1.540000 139 95 79 0
12.980000 12.980000 2.310000 137 95 78 0
13.200000 12.980000 2.310000 137 95 78 0
13.420000 12.980000 2.310000 137 95 78 0
13.640000 12.980000 2.310000 137 95 78 0
13.860000 12.980000 2.310000 138 94 80 0
14.080000 12.980000 2.310000 138 94 80 0
14.300000 12.980000 2.310000 138 94 78 0
14.520000 12.980000 1.540000 138 94 78 0
14.740000 12.980000 1.540000 136 94 77 0
14.960000 12.980000 2.310000 136 94 77 0
15.180000 12.980000 2.310000 136 94 77 0
15.400000 12.980000 1.540000 137 95 78 0
15.620000 12.980000 5.720000 139 95 79 0
15.840000 12.980000 14.740000 140 96 80 0
16.060000 12.980000 17.820000 149 95 78 0
16.280000 12.980000 17.270000 151 97 80 0
16.500000 12.980000 17.270000 160 96 79 0
16.720000 12.980000 17.270000 160 96 79 0
16.940000 12.980000 17.270000 163 96 75 0
17.160000 12.980000 17.160000 162 95 74 0
17.380000 12.980000 17.710000 165 93 76 0
17.600000 12.980000 18.150000 164 92 75 0
17.820000 12.980000 18.700000 164 92 73 0
18.040000 12.980000 18.700000 162 90 71 0
18.260000 12.980000 19.360000 164 88 69 0
18.480000 12.980000 19.360000 164 88 69 0
18.700000 12.980000 19.360000 165 86 68 0
18.920000 12.980000 19.360000 166 87 69 0
19.140000 12.980000 19.360000 164 85 67 0
19.360000 12.980000 19.360000 164 85 67 0
19.580000 12.980000 19.360000 164 82 65 0
19.800000 12.980000 19.360000 164 82 65 0
20.020000 12.980000 19.360000 165 81 65 0
20.240000 12.980000 19.470000 165 81 65 0
20.460000 12.980000 19.470000 166 80 64 0
20.680000 12.980000 20.130000 165 79 63 0
20.900000 12.980000 20.130000 164 78 62 0
21.120000 12.980000 20.130000 164 78 62 0
21.340000 12.980000 20.130000 163 79 63 0
21.560000 12.980000 20.130000 162 78 62 0
21.780000 12.980000 20.130000 165 75 61 0
22.000000 12.980000 20.130000 164 74 60 0
22.220000 12.980000 20.130000 164 74 60 0
22.440000 12.980000 20.130000 163 73 59 0
22.660000 12.980000 20.130000 163 73 59 0
22.880000 12.980000 20.130000 163 73 59 0
23.100000 12.980000 20.130000 166 73 61 0
23.320000 12.980000 20.130000 165 72 60 0
23.540000 12.980000 20.240000 165 70 59 0
23.760000 12.980000 20.240000 165 70 59 0
23.980000 12.980000 20.240000 165 70 59 0
24.200000 12.980000 20.240000 164 69 58 0
24.420000 12.980000 20.240000 166 69 58 0
24.640000 12.980000 20.240000 165 68 57 0
24.860000 12.980000 20.240000 166 69 58 0
25.080000 12.980000 20.240000 166 69 58 0
25.300000 12.980000 20.900000 165 68 57 0
25.520000 12.980000 20.900000 166 69 58 0
25.740000 12.980000 20.900000 165 68 57 0
25.960000 12.980000 21.010000 165 68 57 0
26.180000 12.980000 21.010000 166 69 58 0
26.400000 12.980000 21.010000 165 68 57 0
26.620000 12.980000 21.010000 166 69 58 0
26.840000 12.980000 21.010000 165 68 57 0
27.060000 12.980000 21.010000 167 68 58 0
27.280000 12.980000 16.830000 166 67 57 0
27.500000 12.980000 9.900000 166 69 58 0
27.720000 12.980000 9.900000 166 69 58 0
27.940000 12.980000 12.650000 167 68 58 0
28.160000 12.980000 12.760000 166 67 57 0
28.380000 12.980000 11.330000 167 68 58 0
28.600000 12.980000 6.490000 167 68 58 0
28.820000 12.980000 0.990000 167 68 58 0
32.340000 12.980000 0.330000 171 70 61 0
32.560000 12.980000 0.330000 172 71 62 0
32.780000 12.980000 0.440000 171 72 62 0
33.000000 12.980000 0.440000 173 74 64 0
33.220000 12.980000 0.440000 174 74 63 0
33.440000 12.980000 0.440000 174 74 63 0
33.660000 12.980000 0.440000 174 74 63 0
33.880000 12.980000 0.440000 175 75 64 0
34.100000 12.980000 0.440000 176 76 65 0
34.320000 12.980000 0.440000 176 76 65 0
34.540000 12.980000 0.440000 175 76 65 0
34.760000 12.980000 0.440000 176 77 66 0
34.980000 12.980000 0.440000 176 77 66 0
35.200000 12.980000 0.440000 178 79 68 0
35.420000 12.980000 0.440000 178 79 68 0
35.640000 12.980000 0.440000 179 80 69 0
35.860000 12.980000 0.440000 178 79 68 0
36.080000 12.980000 0.440000 179 80 69 0
36.300000 12.980000 0.440000 179 82 70 0
36.520000 12.980000 0.550000 180 83 71 0
36.740000 12.980000 0.550000 180 83 71 0
36.960000 12.980000 0.550000 180 83 71 0
37.180000 12.980000 0.550000 180 83 71 0
0.000000 13.200000 4.400000 135 103 85 0
0.220000 13.200000 4.400000 134 102 86 0
0.440000 13.200000 2.970000 133 101 85 0
0.660000 13.200000 2.310000 134 100 83 0
0.880000 13.200000 2.310000 134 100 83 0
1.100000 13.200000 3.630000 133 99 84 0
1.320000 13.200000 5.060000 134 100 85 0
1.540000 13.200000 5.060000 135 101 84 0
1.760000 13.200000 5.060000 134 100 83 0
1.980000 13.200000 5.060000 134 100 83 0
2.200000 13.200000 5.720000 134 100 83 0
2.420000 13.200000 5.060000 133 99 82 0
2.640000 13.200000 4.400000 133 99 82 0
2.860000 13.200000 3.630000 133 99 82 0
3.080000 13.200000 2.970000 133 99 82 0
3.300000 13.200000 2.310000 133 99 82 0
3.520000 13.200000 2.310000 132 98 81 0
3.740000 13.200000 2.970000 134 97 83 0
3.960000 13.200000 2.970000 135 98 84 0
4.180000 13.200000 2.970000 135 99 82 0
4.400000 13.200000 4.400000 135 99 82 0
4.620000 13.200000 5.060000 135 99 82 0
4.840000 13.200000 5.060000 133 97 80 0
5.060000 13.200000 4.400000 132 96 79 0
5.280000 13.200000 3.630000 134 98 81 0
5.500000 13.200000 3.630000 134 96 82 0
5.720000 13.200000 2.970000 133 95 81 0
5.940000 13.200000 2.970000 133 95 79 0
6.160000 13.200000 3.630000 133 95 79 0
6.380000 13.200000 3.630000 133 95 79 0
6.600000 13.200000 3.630000 134 96 80 0
6.820000 13.200000 3.740000 134 96 80 0
7.040000 13.200000 3.630000 133 95 79 0
7.260000 13.200000 3.630000 133 95 79 0
7.480000 13.200000 3.630000 133 95 79 0
7.700000 13.200000 3.630000 134 94 79 0
7.920000 13.200000 2.970000 133 93 78 0
8.140000 13.200000 2.310000 133 93 78 0
8.360000 13.200000 2.970000 133 93 78 0
8.580000 13.200000 2.970000 133 93 78 0
8.800000 13.200000 2.970000 133 93 78 0
9.020000 13.200000 3.630000 133 93 78 0
9.240000 13.200000 3.630000 132 92 77 0
9.460000 13.200000 2.970000 133 94 76 0
9.680000 13.200000 2.970000 132 93 75 0
9.900000 13.200000 2.970000 134 91 77 0
10.120000 13.200000 3.630000 134 91 77 0
10.340000 13.200000 3.630000 134 91 77 0
10.560000 13.200000 2.970000 135 92 78 0
10.780000 13.200000 2.310000 135 93 76 0
11.000000 13.200000 1.540000 135 93 76 0
11.220000 13.200000 2.310000 136 94 77 0
11.440000 13.200000 2.970000 137 95 78 0
11.660000 13.200000 2.970000 136 94 77 0
11.880000 13.200000 2.970000 137 95 78 0
12.100000 13.200000 2.970000 137 95 78 0
12.320000 13.200000 2.310000 137 95 78 0
12.540000 13.200000 2.310000 139 95 79 0
12.760000 13.200000 2.970000 138 94 78 0
12.980000 13.200000 2.970000 137 95 78 0
13.200000 13.200000 2.970000 137 95 78 0
13.420000 13.200000 2.310000 137 95 78 0
13.640000 13.200000 2.310000 137 95 78 0
13.860000 13.200000 2.310000 138 94 80 0
14.080000 13.200000 2.310000 138 94 80 0
14.300000 13.200000 1.540000 138 94 78 0
14.520000 13.200000 1.540000 137 93 77 0
14.740000 13.200000 1.540000 136 94 77 0
14.960000 13.200000 1.540000 136 94 77 0
15.180000 13.200000 1.540000 136 94 77 0
15.400000 13.200000 1.540000 136 94 77 0
15.620000 13.200000 5.720000 139 95 79 0
15.840000 13.200000 14.080000 141 97 81 0
16.060000 13.200000 17.820000 149 95 78 0
16.280000 13.200000 17.270000 151 97 80 0
16.500000 13.200000 17.270000 159 95 78 0
16.720000 13.200000 17.270000 160 96 79 0
16.940000 13.200000 17.270000 162 95 74 0
17.160000 13.200000 17.820000 163 96 75 0
17.380000 13.200000 18.260000 164 92 75 0
17.600000 13.200000 18.700000 164 92 75 0
17.820000 13.200000 18.700000 163 91 72 0
18.040000 13.200000 18.700000 163 91 72 0
18.260000 13.200000 19.360000 165 89 70 0
18.480000 13.200000 19.360000 164 88 69 0
18.700000 13.200000 19.360000 165 86 68 0
18.920000 13.200000 19.360000 164 85 67 0
19.140000 13.200000 19.360000 164 85 67 0
19.360000 13.200000 19.360000 164 85 67 0
19.580000 13.200000 19.360000 164 82 65 0
19.800000 13.200000 19.360000 164 82 65 0
20.020000 13.200000 19.360000 165 81 65 0
20.240000 13.200000 19.470000 164 80 64 0
20.460000 13.200000 19.470000 166 80 64 0
20.680000 13.200000 19.470000 165 79 63 0
20.900000 13.200000 20.130000 165 79 63 0
21.120000 13.200000 20.130000 164 78 62 0
21.340000 13.200000 20.130000 162 78 62 0
21.560000 13.200000 20.130000 162 78 62 0
21.780000 13.200000 20.130000 166 76 62 0
22.000000 13.200000 20.130000 164 74 60 0
22.220000 13.200000 20.130000 164 74 60 0
22.440000 13.200000 20.130000 164 74 60 0
22.660000 13.200000 20.130000 164 74 60 0
22.880000 13.200000 20.130000 164 74 60 0
23.100000 13.200000 20.130000 165 72 60 0
23.320000 13.200000 20.130000 164 71 59 0
23.540000 13.200000 20.240000 165 70 59 0
23.760000 13.200000 20.240000 164 69 58 0
23.980000 13.200000 20.240000 166 71 60 0
24.200000 13.200000 20.240000 164 69 58 0
24.420000 13.200000 20.240000 166 69 58 0
24.640000 13.200000 20.240000 166 69 58 0
24.860000 13.200000 20.240000 166 69 58 0
25.080000 13.200000 20.240000 165 68 57 0
25.300000 13.200000 20.240000 166 69 58 0
25.520000 13.200000 20.900000 165 68 57 0
25.740000 13.200000 20.900000 166 69 58 0
25.960000 13.200000 21.010000 165 68 57 0
26.180000 13.200000 21.010000 165 68 57 0
26.400000 13.200000 21.010000 166 69 58 0
26.620000 13.200000 21.010000 165 68 57 0
26.840000 13.200000 21.010000 165 68 57 0
27.060000 13.200000 21.010000 166 67 57 0
27.280000 13.200000 19.580000 166 67 57 0
27.500000 13.200000 16.830000 166 69 58 0
27.720000 13.200000 16.830000 165 68 57 0
27.940000 13.200000 18.260000 167 68 58 0
28.160000 13.200000 16.830000 167 68 58 0
28.380000 13.200000 14.080000 167 68 58 0
28.600000 13.200000 8.580000 167 68 58 0
28.820000 13.200000 2.310000 167 68 58 0
29.040000 13.200000 0.990000 167 68 58 0
29.260000 13.200000 2.420000 166 67 57 0
29.480000 13.200000 0.990000 168 69 59 0
32.120000 13.200000 0.330000 171 70 61 0
32.340000 13.200000 0.330000 171 70 61 0
32.560000 13.200000 0.330000 172 71 62 0
32.780000 13.200000 0.440000 172 73 63 0
33.000000 13.200000 0.440000 172 73 63 0
33.220000 13.200000 0.440000 173 73 62 0
33.440000 13.200000 0.440000 174 74 63 0
33.660000 13.200000 0.440000 174 74 63 0
33.880000 13.200000 0.440000 174 74 63 0
34.100000 13.200000 0.440000 174 74 63 0
34.320000 13.200000 0.440000 176 76 65 0
34.540000 13.200000 0.440000 175 76 65 0
34.760000 13.200000 0.440000 176 77 66 0
34.980000 13.200000 0.440000 177 78 67 0
35.200000 13.200000 0.440000 178 79 68 0
35.420000 13.200000 0.440000 178 79 68 0
35.640000 13.200000 0.440000 177 78 67 0
35.860000 13.200000 0.440000 178 79 68 0
36.080000 13.200000 0.440000 179 80 69 0
36.300000 13.200000 0.440000 179 82 70 0
36.520000 13.200000 0.550000 180 83 71 0
36.740000 13.200000 0.550000 180 83 71 0
36.960000 13.200000 0.550000 180 83 71 0
37.180000 13.200000 0.550000 180 83 71 0
0.000000 13.420000 4.400000 135 103 85 0
0.220000 13.420000 5.060000 134 102 84 0
0.440000 13.420000 5.060000 135 103 85 0
0.660000 13.420000 3.630000 134 102 84 0
0.880000 13.420000 3.630000 134 102 84 0
1.100000 13.420000 4.400000 135 101 84 0
1.320000 13.420000 5.060000 135 101 84 0
1.540000 13.420000 5.060000 135 101 84 0
1.760000 13.420000 5.060000 134 100 83 0
1.980000 13.420000 5.720000 134 102 84 0
2.200000 13.420000 6.380000 133 101 83 0
2.420000 13.420000 5.720000 133 99 82 0
2.640000 13.420000 5.720000 133 99 82 0
2.860000 13.420000 5.060000 133 99 82 0
3.080000 13.420000 3.630000 134 100 83 0
3.300000 13.420000 3.630000 133 99 82 0
3.520000 13.420000 2.970000 133 99 82 0
3.740000 13.420000 2.970000 134 100 83 0
3.960000 13.420000 2.970000 133 99 82 0
4.180000 13.420000 3.630000 135 99 82 0
4.400000 13.420000 4.400000 135 99 82 0
4.620000 13.420000 5.060000 134 98 81 0
4.840000 13.420000 5.060000 134 98 81 0
5.060000 13.420000 4.400000 133 97 80 0
5.280000 13.420000 4.400000 133 97 80 0
5.500000 13.420000 3.630000 133 97 80 0
5.720000 13.420000 2.970000 132 96 79 0
5.940000 13.420000 2.310000 132 96 79 0
6.160000 13.420000 2.970000 132 96 79 0
6.380000 13.420000 3.630000 134 96 80 0
6.600000 13.420000 4.400000 134 96 80 0
6.820000 13.420000 4.400000 134 96 80 0
7.040000 13.420000 3.630000 133 95 79 0
7.260000 13.420000 2.970000 133 95 79 0
7.480000 13.420000 3.630000 133 95 79 0
7.700000 13.420000 3.630000 133 95 79 0
7.920000 13.420000 2.970000 133 95 79 0
8.140000 13.420000 2.310000 134 94 79 0
8.360000 13.420000 2.310000 134 94 79 0
8.580000 13.420000 3.630000 133 93 78 0
8.800000 13.420000 4.290000 132 92 77 0
9.020000 13.420000 4.290000 133 93 78 0
9.240000 13.420000 3.630000 132 92 77 0
9.460000 13.420000 3.630000 133 94 76 0
9.680000 13.420000 3.630000 132 93 75 0
9.900000 13.420000 3.630000 134 91 77 0
10.120000 13.420000 3.630000 135 92 78 0
10.340000 13.420000 2.970000 133 93 78 0
10.560000 13.420000 2.970000 132 92 77 0
10.780000 13.420000 2.310000 135 92 78 0
11.000000 13.420000 2.310000 135 92 78 0
11.220000 13.420000 2.970000 136 94 77 0
11.440000 13.420000 3.630000 136 94 77 0
11.660000 13.420000 3.630000 136 93 79 0
11.880000 13.420000 3.630000 137 94 80 0
12.100000 13.420000 2.970000 137 95 78 0
12.320000 13.420000 2.970000 138 96 79 0
12.540000 13.420000 2.970000 138 94 78 0
12.760000 13.420000 2.970000 138 94 78 0
12.980000 13.420000 3.630000 137 95 78 0
13.200000 13.420000 3.630000 136 94 77 0
13.420000 13.420000 2.970000 137 94 80 0
13.640000 13.420000 2.310000 137 94 80 0
13.860000 13.420000 2.310000 138 96 79 0
14.080000 13.420000 2.310000 138 96 79 0
14.300000 13.420000 2.310000 139 95 79 0
14.520000 13.420000 2.310000 137 93 77 0
14.740000 13.420000 2.200000 137 95 78 0
14.960000 13.420000 2.200000 137 95 78 0
15.180000 13.420000 1.540000 137 95 78 0
15.400000 13.420000 0.880000 137 95 78 0
15.620000 13.420000 5.060000 139 95 79 0
15.840000 13.420000 14.080000 140 96 80 0
16.060000 13.420000 17.820000 148 96 80 0
16.280000 13.420000 17.270000 150 98 82 0
16.500000 13.420000 17.270000 157 95 77 0
16.720000 13.420000 17.270000 159 97 79 0
16.940000 13.420000 17.270000 163 95 79 0
17.160000 13.420000 17.820000 162 94 78 0
17.380000 13.420000 18.150000 165 91 73 0
17.600000 13.420000 18.700000 164 90 72 0
17.820000 13.420000 18.700000 164 90 72 0
18.040000 13.420000 18.700000 163 89 71 0
18.260000 13.420000 18.700000 166 88 71 0
18.480000 13.420000 19.360000 164 86 69 0
18.700000 13.420000 19.360000 164 86 68 0
18.920000 13.420000 19.360000 164 86 68 0
19.140000 13.420000 19.360000 166 84 67 0
19.360000 13.420000 19.360000 165 83 66 0
19.580000 13.420000 19.360000 165 83 66 0
19.800000 13.420000 19.360000 165 83 66 0
20.020000 13.420000 19.360000 164 80 64 0
20.240000 13.420000 19.360000 164 80 64 0
20.460000 13.420000 19.360000 165 81 65 0
20.680000 13.420000 19.360000 163 79 63 0
20.900000 13.420000 20.130000 165 78 64 0
21.120000 13.420000 20.130000 165 78 64 0
21.340000 13.420000 20.130000 166 77 64 0
21.560000 13.420000 20.130000 165 76 63 0
21.780000 13.420000 20.130000 166 76 63 0
22.000000 13.420000 20.130000 165 75 62 0
22.220000 13.420000 20.130000 164 74 61 0
22.440000 13.420000 20.130000 164 74 61 0
22.660000 13.420000 20.130000 163 73 60 0
22.880000 13.420000 20.130000 162 72 59 0
23.100000 13.420000 20.130000 162 72 59 0
23.320000 13.420000 20.130000 163 73 60 0
23.540000 13.420000 20.240000 164 71 59 0
23.760000 13.420000 20.240000 163 70 58 0
23.980000 13.420000 20.240000 164 69 58 0
24.200000 13.420000 20.240000 165 70 59 0
24.420000 13.420000 20.240000 162 69 57 0
24.640000 13.420000 20.900000 163 70 58 0
24.860000 13.420000 20.240000 163 68 57 0
25.080000 13.420000 20.240000 164 69 58 0
25.300000 13.420000 20.900000 164 69 58 0
25.520000 13.420000 20.900000 163 68 57 0
25.740000 13.420000 20.900000 166 69 58 0
25.960000 13.420000 21.010000 165 68 57 0
26.180000 13.420000 21.010000 162 67 56 0
26.400000 13.420000 21.010000 163 68 57 0
26.620000 13.420000 21.010000 166 69 58 0
26.840000 13.420000 21.010000 165 68 57 0
27.060000 13.420000 21.010000 166 69 58 0
27.280000 13.420000 21.010000 165 68 57 0
27.500000 13.420000 19.580000 164 67 56 0
27.720000 13.420000 18.260000 166 69 58 0
27.940000 13.420000 19.580000 166 69 58 0
28.160000 13.420000 16.830000 164 67 56 0
28.380000 13.420000 8.580000 166 69 58 0
28.600000 13.420000 3.740000 167 70 59 0
28.820000 13.420000 0.990000 167 68 58 0
29.040000 13.420000 2.310000 167 68 58 0
29.260000 13.420000 5.170000 168 69 59 0
29.480000 13.420000 2.420000 168 69 59 0
32.340000 13.420000 0.330000 170 71 61 0
32.560000 13.420000 0.440000 171 72 62 0
32.780000 13.420000 0.440000 172 71 62 0
33.000000 13.420000 0.440000 173 72 63 0
33.220000 13.420000 0.440000 173 72 63 0
33.440000 13.420000 0.440000 173 72 63 0
33.660000 13.420000 0.440000 172 71 62 0
33.880000 13.420000 0.440000 173 72 63 0
34.100000 13.420000 0.440000 175 74 65 0
34.320000 13.420000 0.440000 174 73 64 0
34.540000 13.420000 0.440000 175 76 65 0
34.760000 13.420000 0.440000 175 76 65 0
34.980000 13.420000 0.440000 179 78 69 0
35.200000 13.420000 0.440000 178 77 68 0
35.420000 13.420000 0.440000 177 78 67 0
35.640000 13.420000 0.440000 177 78 67 0
35.860000 13.420000 0.440000 178 79 68 0
36.080000 13.420000 0.440000 179 80 69 0
36.300000 13.420000 0.550000 179 80 69 0
36.520000 13.420000 0.550000 181 82 71 0
36.740000 13.420000 0.550000 181 82 71 0
36.960000 13.420000 0.550000 181 82 71 0
37.180000 13.420000 0.550000 181 84 72 0
0.000000 13.640000 4.400000 136 104 86 0
0.220000 13.640000 5.060000 136 104 86 0
0.440000 13.640000 5.720000 136 104 86 0
0.660000 13.640000 5.060000 137 105 87 0
0.880000 13.640000 5.060000 136 104 86 0
1.100000 13.640000 5.060000 136 102 85 0
1.320000 13.640000 5.060000 136 102 85 0
1.540000 13.640000 4.400000 135 101 84 0
1.760000 13.640000 4.400000 136 102 85 0
1.980000 13.640000 5.060000 135 103 85 0
2.200000 13.640000 5.720000 134 102 84 0
2.420000 13.640000 5.060000 135 101 84 0
2.640000 13.640000 5.060000 133 99 82 0
2.860000 13.640000 5.060000 134 100 83 0
3.080000 13.640000 4.290000 134 100 83 0
3.300000 13.640000 4.290000 135 101 84 0
3.520000 13.640000 4.290000 134 100 83 0
3.740000 13.640000 3.630000 134 100 83 0
3.960000 13.640000 3.630000 134 100 83 0
4.180000 13.640000 4.290000 136 100 83 0
4.400000 13.640000 4.400000 136 100 83 0
4.620000 13.640000 4.400000 135 99 82 0
4.840000 13.640000 4.400000 134 98 81 0
5.060000 13.640000 4.290000 134 98 81 0
5.280000 13.640000 4.290000 134 98 81 0
5.500000 13.640000 4.290000 133 97 80 0
5.720000 13.640000 2.970000 134 98 81 0
5.940000 13.640000 2.200000 133 97 80 0
6.160000 13.640000 2.970000 133 97 80 0
6.380000 13.640000 4.290000 134 96 80 0
6.600000 13.640000 4.400000 134 96 80 0
6.820000 13.640000 3.630000 135 97 81 0
7.040000 13.640000 3.630000 135 97 81 0
7.260000 13.640000 3.630000 134 96 80 0
7.480000 13.640000 3.630000 134 96 80 0
7.700000 13.640000 3.630000 133 95 79 0
7.920000 13.640000 3.630000 132 94 78 0
8.140000 13.640000 2.970000 133 93 78 0
8.360000 13.640000 2.970000 133 93 78 0
8.580000 13.640000 3.630000 134 94 79 0
8.800000 13.640000 4.290000 133 93 78 0
9.020000 13.640000 3.630000 132 92 77 0
9.240000 13.640000 2.970000 132 92 77 0
9.460000 13.640000 3.630000 131 92 74 0
9.680000 13.640000 3.630000 131 92 74 0
9.900000 13.640000 3.630000 134 91 77 0
10.120000 13.640000 3.630000 135 92 78 0
10.340000 13.640000 2.970000 133 93 78 0
10.560000 13.640000 2.310000 134 94 79 0
10.780000 13.640000 2.310000 135 92 78 0
11.000000 13.640000 2.970000 136 93 79 0
11.220000 13.640000 3.630000 136 94 77 0
11.440000 13.640000 3.630000 136 94 77 0
11.660000 13.640000 3.630000 136 93 79 0
11.880000 13.640000 3.630000 137 94 80 0
12.100000 13.640000 3.630000 136 94 77 0
12.320000 13.640000 3.630000 137 95 78 0
12.540000 13.640000 3.630000 138 94 78 0
12.760000 13.640000 2.970000 138 94 78 0
12.980000 13.640000 3.630000 137 95 78 0
13.200000 13.640000 3.630000 137 95 78 0
13.420000 13.640000 2.970000 136 93 79 0
13.640000 13.640000 2.310000 136 93 79 0
13.860000 13.640000 2.310000 137 95 78 0
14.080000 13.640000 2.970000 137 95 78 0
14.300000 13.640000 2.970000 137 93 77 0
14.520000 13.640000 2.970000 137 93 77 0
14.740000 13.640000 2.200000 136 94 77 0
14.960000 13.640000 2.200000 137 95 78 0
15.180000 13.640000 1.540000 136 94 77 0
15.400000 13.640000 0.880000 135 93 76 0
15.620000 13.640000 4.950000 138 94 78 0
15.840000 13.640000 14.080000 139 95 79 0
16.060000 13.640000 17.820000 148 96 80 0
16.280000 13.640000 17.270000 149 97 81 0
16.500000 13.640000 17.270000 157 95 77 0
16.720000 13.640000 17.270000 159 97 79 0
16.940000 13.640000 17.270000 163 95 79 0
17.160000 13.640000 17.820000 162 94 78 0
17.380000 13.640000 18.150000 166 92 74 0
17.600000 13.640000 18.700000 164 90 72 0
17.820000 13.640000 18.700000 164 90 72 0
18.040000 13.640000 18.700000 163 89 71 0
18.260000 13.640000 18.700000 166 88 71 0
18.480000 13.640000 18.700000 165 87 70 0
18.700000 13.640000 18.700000 165 87 69 0
18.920000 13.640000 19.360000 164 86 68 0
19.140000 13.640000 19.360000 167 85 68 0
19.360000 13.640000 19.360000 165 83 66 0
19.580000 13.640000 19.360000 165 83 66 0
19.800000 13.640000 19.360000 164 82 65 0
20.020000 13.640000 19.360000 165 81 65 0
20.240000 13.640000 19.360000 165 81 65 0
20.460000 13.640000 19.360000 164 80 64 0
20.680000 13.640000 19.470000 164 80 64 0
20.900000 13.640000 19.470000 165 78 64 0
21.120000 13.640000 20.130000 164 77 63 0
21.340000 13.640000 20.130000 165 76 63 0
21.560000 13.640000 20.130000 165 76 63 0
21.780000 13.640000 20.130000 165 75 62 0
22.000000 13.640000 20.130000 164 74 61 0
22.220000 13.640000 20.130000 163 73 60 0
22.440000 13.640000 20.130000 164 74 61 0
22.660000 13.640000 20.130000 163 73 60 0
22.880000 13.640000 20.130000 163 73 60 0
23.100000 13.640000 20.130000 162 72 59 0
23.320000 13.640000 20.130000 163 73 60 0
23.540000 13.640000 20.130000 164 71 59 0
23.760000 13.640000 20.240000 165 72 60 0
23.980000 13.640000 20.240000 165 70 59 0
24.200000 13.640000 20.240000 163 68 57 0
24.420000 13.640000 20.900000 163 70 58 0
24.640000 13.640000 20.900000 164 71 59 0
24.860000 13.640000 20.240000 164 69 58 0
25.080000 13.640000 20.240000 164 69 58 0
25.300000 13.640000 20.900000 163 68 57 0
25.520000 13.640000 20.900000 163 68 57 0
25.740000 13.640000 20.900000 166 69 58 0
25.960000 13.640000 20.900000 165 68 57 0
26.180000 13.640000 21.010000 163 68 57 0
26.400000 13.640000 20.240000 164 69 58 0
26.620000 13.640000 21.010000 165 68 57 0
26.840000 13.640000 21.010000 164 67 56 0
27.060000 13.640000 21.010000 165 68 57 0
27.280000 13.640000 21.010000 165 68 57 0
27.500000 13.640000 18.260000 165 68 57 0
27.720000 13.640000 15.510000 166 69 58 0
27.940000 13.640000 18.260000 166 69 58 0
28.160000 13.640000 15.510000 166 69 58 0
28.380000 13.640000 5.060000 166 69 58 0
29.040000 13.640000 0.990000 167 68 58 0
29.260000 13.640000 2.310000 167 68 58 0
29.480000 13.640000 0.990000 167 68 58 0
32.340000 13.640000 0.440000 170 71 61 0
32.560000 13.640000 0.440000 171 72 62 0
32.780000 13.640000 0.440000 172 71 62 0
33.000000 13.640000 0.440000 172 71 62 0
33.220000 13.640000 0.440000 171 70 61 0
33.440000 13.640000 0.440000 173 72 63 0
33.660000 13.640000 0.440000 173 72 63 0
33.880000 13.640000 0.440000 174 73 64 0
34.100000 13.640000 0.440000 174 73 64 0
34.320000 13.640000 0.440000 174 73 64 0
34.540000 13.640000 0.440000 174 75 64 0
34.760000 13.640000 0.440000 175 76 65 0
34.980000 13.640000 0.440000 175 74 65 0
35.200000 13.640000 0.440000 178 77 68 0
35.420000 13.640000 0.440000 177 78 67 0
35.640000 13.640000 0.440000 177 78 67 0
35.860000 13.640000 0.440000 177 78 67 0
36.080000 13.640000 0.440000 178 79 68 0
36.300000 13.640000 0.550000 179 80 69 0
36.520000 13.640000 0.550000 180 81 70 0
36.740000 13.640000 0.550000 180 81 70 0
36.960000 13.640000 0.550000 181 82 71 0
37.180000 13.640000 0.550000 180 83 71 0
0.000000 13.860000 3.630000 136 107 88 0
0.220000 13.860000 4.400000 137 105 87 0
