ply
format ascii 1.0
element vertex 1112
property float x
property float y
property float z
property uchar red
property uchar green
property uchar blue
property uchar alpha
end_header
26.620000 20.020000 14.630000 149 131 114 0
26.840000 20.020000 13.860000 149 131 114 0
27.060000 20.020000 13.970000 147 130 115 0
27.280000 20.020000 13.200000 148 131 116 0
27.500000 20.020000 13.200000 148 131 116 0
27.720000 20.020000 13.200000 149 132 117 0
27.940000 20.020000 13.860000 147 133 117 0
28.160000 20.020000 13.860000 147 133 117 0
28.380000 20.020000 14.630000 148 134 120 0
28.600000 20.020000 15.290000 148 134 120 0
28.820000 20.020000 15.290000 147 133 117 0
29.040000 20.020000 15.290000 146 132 116 0
29.260000 20.020000 15.950000 148 131 116 0
29.480000 20.020000 15.950000 148 131 116 0
29.700000 20.020000 15.950000 147 130 115 0
29.920000 20.020000 15.950000 147 130 115 0
30.140000 20.020000 15.950000 149 131 116 0
30.360000 20.020000 16.720000 149 131 116 0
30.580000 20.020000 16.720000 149 133 115 0
30.800000 20.020000 16.720000 149 133 115 0
31.020000 20.020000 16.720000 149 131 114 0
31.240000 20.020000 17.380000 150 132 115 0
31.460000 20.020000 17.380000 151 135 117 0
31.680000 20.020000 17.380000 153 137 119 0
31.900000 20.020000 17.380000 155 137 120 0
32.120000 20.020000 17.380000 156 138 121 0
32.340000 20.020000 17.380000 160 142 123 0
32.560000 20.020000 17.380000 161 143 124 0
32.780000 20.020000 17.270000 164 147 126 0
33.000000 20.020000 18.040000 167 150 129 0
33.220000 20.020000 18.040000 171 155 135 0
33.440000 20.020000 18.040000 175 159 139 0
33.660000 20.020000 18.040000 178 162 144 0
33.880000 20.020000 18.040000 182 166 148 0
34.100000 20.020000 18.040000 185 172 158 0
34.320000 20.020000 18.040000 189 176 162 0
34.540000 20.020000 18.040000 189 182 167 0
34.760000 20.020000 18.040000 192 185 170 0
34.980000 20.020000 18.040000 193 189 175 0
35.200000 20.020000 18.150000 197 193 179 0
35.420000 20.020000 18.150000 199 192 181 0
35.640000 20.020000 18.150000 203 196 185 0
35.860000 20.020000 18.150000 205 196 184 0
36.080000 20.020000 18.150000 206 197 185 0
36.300000 20.020000 18.260000 206 199 188 0
36.520000 20.020000 18.260000 206 199 188 0
36.740000 20.020000 18.260000 207 200 189 0
36.960000 20.020000 18.370000 206 199 188 0
37.180000 20.020000 18.370000 206 199 188 0
0.000000 20.240000 14.080000 139 103 102 0
0.220000 20.240000 14.080000 138 99 97 0
0.440000 20.240000 14.190000 138 99 97 0
0.660000 20.240000 13.640000 140 97 99 0
0.880000 20.240000 13.750000 139 96 98 0
1.100000 20.240000 13.750000 140 98 97 0
1.320000 20.240000 13.750000 141 99 98 0
1.540000 20.240000 13.750000 140 101 101 0
1.760000 20.240000 13.750000 140 101 101 0
1.980000 20.240000 13.750000 141 102 102 0
2.200000 20.240000 13.750000 142 103 103 0
2.420000 20.240000 13.750000 141 104 106 0
2.640000 20.240000 13.750000 142 105 107 0
2.860000 20.240000 13.750000 142 107 109 0
3.080000 20.240000 13.750000 143 108 110 0
3.300000 20.240000 13.750000 143 110 114 0
3.520000 20.240000 13.750000 143 110 114 0
3.740000 20.240000 14.410000 147 111 118 0
3.960000 20.240000 14.410000 147 111 118 0
4.180000 20.240000 14.410000 146 114 122 0
4.400000 20.240000 14.410000 148 116 124 0
4.620000 20.240000 14.410000 145 119 125 0
4.840000 20.240000 14.410000 146 120 126 0
5.060000 20.240000 14.410000 146 124 132 0
5.280000 20.240000 14.410000 148 126 134 0
5.500000 20.240000 14.410000 150 126 135 0
5.720000 20.240000 14.410000 153 129 138 0
5.940000 20.240000 14.300000 165 129 126 0
6.160000 20.240000 14.960000 173 137 134 0
6.380000 20.240000 15.620000 174 175 174 0
6.600000 20.240000 16.280000 233 234 233 0
6.820000 20.240000 16.940000 240 241 240 0
7.040000 20.240000 17.050000 240 241 240 0
7.260000 20.240000 17.160000 240 241 240 0
7.480000 20.240000 17.160000 240 241 240 0
7.700000 20.240000 17.160000 240 241 240 0
7.920000 20.240000 17.160000 240 241 240 0
8.140000 20.240000 17.160000 240 241 240 0
8.360000 20.240000 17.160000 240 241 240 0
8.580000 20.240000 17.160000 240 241 240 0
8.800000 20.240000 17.160000 240 241 240 0
9.020000 20.240000 17.160000 240 241 240 0
9.240000 20.240000 17.160000 240 241 240 0
9.460000 20.240000 17.050000 240 241 240 0
9.680000 20.240000 17.490000 239 240 239 0
9.900000 20.240000 17.490000 255 200 201 0
10.120000 20.240000 15.730000 170 113 114 0
10.340000 20.240000 15.180000 160 98 94 0
10.560000 20.240000 15.180000 155 93 89 0
10.780000 20.240000 14.410000 152 91 85 0
11.000000 20.240000 14.410000 151 90 84 0
11.220000 20.240000 14.410000 151 86 79 0
11.440000 20.240000 14.410000 151 86 79 0
11.660000 20.240000 14.410000 152 84 78 0
11.880000 20.240000 14.410000 151 83 77 0
12.100000 20.240000 14.410000 151 83 77 0
12.320000 20.240000 14.410000 152 84 78 0
12.540000 20.240000 14.410000 151 83 77 0
12.760000 20.240000 14.410000 151 83 77 0
12.980000 20.240000 14.410000 149 80 70 0
13.200000 20.240000 14.410000 149 80 70 0
13.420000 20.240000 14.410000 151 77 69 0
13.640000 20.240000 14.410000 151 77 69 0
13.860000 20.240000 14.410000 149 75 69 0
14.080000 20.240000 14.410000 148 74 68 0
14.300000 20.240000 13.750000 149 74 66 0
14.520000 20.240000 13.750000 148 73 65 0
14.740000 20.240000 13.750000 148 74 66 0
14.960000 20.240000 13.750000 147 73 65 0
15.180000 20.240000 13.750000 148 73 65 0
15.400000 20.240000 13.750000 148 73 65 0
15.620000 20.240000 13.750000 149 73 68 0
15.840000 20.240000 13.640000 147 71 66 0
16.060000 20.240000 14.410000 147 71 66 0
16.280000 20.240000 13.750000 147 71 66 0
16.500000 20.240000 13.750000 146 71 63 0
16.720000 20.240000 13.750000 145 70 62 0
16.940000 20.240000 13.750000 146 72 64 0
17.160000 20.240000 13.640000 147 73 65 0
17.380000 20.240000 13.640000 146 76 64 0
17.600000 20.240000 14.190000 155 85 73 0
17.820000 20.240000 14.630000 161 93 79 0
18.040000 20.240000 14.630000 164 96 82 0
18.260000 20.240000 14.630000 164 89 79 0
18.480000 20.240000 14.740000 162 87 77 0
18.700000 20.240000 14.190000 152 74 69 0
18.920000 20.240000 13.640000 143 65 60 0
19.140000 20.240000 14.740000 142 64 59 0
19.360000 20.240000 14.630000 143 65 60 0
19.580000 20.240000 14.080000 141 65 60 0
19.800000 20.240000 14.190000 144 68 63 0
20.020000 20.240000 14.080000 137 73 68 0
20.240000 20.240000 14.630000 143 79 74 0
20.460000 20.240000 15.290000 143 88 80 0
20.680000 20.240000 15.290000 146 91 83 0
20.900000 20.240000 15.290000 147 92 84 0
21.120000 20.240000 14.520000 149 94 86 0
21.340000 20.240000 14.520000 152 102 98 0
21.560000 20.240000 14.630000 158 108 104 0
21.780000 20.240000 14.630000 155 116 118 0
22.000000 20.240000 14.630000 161 122 124 0
22.220000 20.240000 14.630000 158 127 128 0
22.440000 20.240000 14.630000 160 129 130 0
22.660000 20.240000 14.630000 168 123 121 0
22.880000 20.240000 14.630000 167 122 120 0
23.100000 20.240000 14.630000 171 113 104 0
23.320000 20.240000 14.630000 165 107 98 0
23.540000 20.240000 14.630000 167 100 89 0
23.760000 20.240000 14.630000 164 97 86 0
23.980000 20.240000 14.630000 165 98 84 0
24.200000 20.240000 14.630000 164 97 83 0
24.420000 20.240000 14.630000 159 100 89 0
24.640000 20.240000 14.630000 158 99 88 0
24.860000 20.240000 14.630000 156 102 89 0
25.080000 20.240000 14.630000 162 108 95 0
25.300000 20.240000 14.630000 154 114 102 0
25.520000 20.240000 14.630000 159 119 107 0
25.740000 20.240000 14.630000 152 128 115 0
25.960000 20.240000 14.630000 153 129 116 0
26.180000 20.240000 14.630000 151 128 115 0
26.400000 20.240000 14.630000 150 127 114 0
26.620000 20.240000 14.630000 151 129 111 0
26.840000 20.240000 13.860000 149 127 109 0
27.060000 20.240000 13.970000 149 127 109 0
27.280000 20.240000 13.970000 148 126 108 0
27.500000 20.240000 13.200000 150 126 111 0
27.720000 20.240000 13.200000 151 127 112 0
27.940000 20.240000 13.200000 149 129 115 0
28.160000 20.240000 13.970000 150 130 116 0
28.380000 20.240000 14.630000 149 131 114 0
28.600000 20.240000 15.290000 149 131 114 0
28.820000 20.240000 15.290000 149 131 114 0
29.040000 20.240000 15.950000 149 131 114 0
29.260000 20.240000 15.950000 150 128 112 0
29.480000 20.240000 15.950000 150 128 112 0
29.700000 20.240000 15.950000 149 129 113 0
29.920000 20.240000 15.950000 149 129 113 0
30.140000 20.240000 15.950000 149 130 111 0
30.360000 20.240000 16.720000 150 131 112 0
30.580000 20.240000 16.720000 149 131 112 0
30.800000 20.240000 16.720000 150 132 113 0
31.020000 20.240000 16.720000 150 130 114 0
31.240000 20.240000 17.380000 151 131 115 0
31.460000 20.240000 17.380000 152 133 114 0
31.680000 20.240000 17.380000 153 134 115 0
31.900000 20.240000 17.380000 155 138 117 0
32.120000 20.240000 17.380000 157 140 119 0
32.340000 20.240000 17.380000 159 141 122 0
32.560000 20.240000 17.380000 162 144 125 0
32.780000 20.240000 17.380000 165 147 130 0
33.000000 20.240000 18.040000 168 150 133 0
33.220000 20.240000 18.040000 170 156 138 0
33.440000 20.240000 18.040000 174 160 142 0
33.660000 20.240000 18.040000 177 168 150 0
33.880000 20.240000 18.040000 180 171 153 0
34.100000 20.240000 18.040000 184 176 160 0
34.320000 20.240000 18.040000 187 179 163 0
34.540000 20.240000 18.040000 191 182 170 0
34.760000 20.240000 18.040000 193 184 172 0
34.980000 20.240000 18.040000 195 188 177 0
35.200000 20.240000 18.150000 199 192 181 0
35.420000 20.240000 18.150000 202 193 181 0
35.640000 20.240000 18.150000 204 195 183 0
35.860000 20.240000 18.150000 205 198 185 0
36.080000 20.240000 18.150000 205 198 185 0
36.300000 20.240000 18.260000 206 199 188 0
36.520000 20.240000 18.260000 207 200 189 0
36.740000 20.240000 18.260000 207 198 188 0
36.960000 20.240000 18.370000 207 198 188 0
37.180000 20.240000 18.370000 206 197 187 0
0.000000 20.460000 13.530000 136 100 99 0
0.220000 20.460000 13.530000 138 99 97 0
0.440000 20.460000 13.530000 137 98 96 0
0.660000 20.460000 13.640000 139 96 98 0
0.880000 20.460000 13.640000 138 95 97 0
1.100000 20.460000 13.750000 139 97 96 0
1.320000 20.460000 13.090000 140 98 97 0
1.540000 20.460000 13.750000 139 100 100 0
1.760000 20.460000 13.750000 140 101 101 0
1.980000 20.460000 13.750000 140 101 101 0
2.200000 20.460000 13.750000 141 102 102 0
2.420000 20.460000 13.750000 140 103 105 0
2.640000 20.460000 13.750000 142 105 107 0
2.860000 20.460000 13.750000 142 107 109 0
3.080000 20.460000 13.750000 143 108 110 0
3.300000 20.460000 13.750000 142 109 113 0
3.520000 20.460000 13.750000 143 110 114 0
3.740000 20.460000 14.410000 148 112 119 0
3.960000 20.460000 14.410000 148 112 119 0
4.180000 20.460000 14.410000 146 114 122 0
4.400000 20.460000 14.410000 148 116 124 0
4.620000 20.460000 14.410000 146 120 126 0
4.840000 20.460000 14.410000 147 121 127 0
5.060000 20.460000 14.410000 146 124 132 0
5.280000 20.460000 14.410000 147 125 133 0
5.500000 20.460000 14.410000 150 126 135 0
5.720000 20.460000 14.300000 152 128 137 0
5.940000 20.460000 14.960000 164 128 125 0
6.160000 20.460000 14.960000 195 159 156 0
6.380000 20.460000 16.280000 216 217 216 0
6.600000 20.460000 16.940000 240 241 240 0
6.820000 20.460000 17.600000 240 241 240 0
7.040000 20.460000 17.050000 240 241 240 0
7.260000 20.460000 17.160000 240 241 240 0
7.480000 20.460000 17.160000 240 241 240 0
7.700000 20.460000 17.160000 240 241 240 0
7.920000 20.460000 17.160000 240 241 240 0
8.140000 20.460000 17.160000 240 241 240 0
8.360000 20.460000 17.160000 240 241 240 0
8.580000 20.460000 17.160000 240 241 240 0
8.800000 20.460000 17.160000 240 241 240 0
9.020000 20.460000 17.160000 240 241 240 0
9.240000 20.460000 17.160000 240 241 240 0
9.460000 20.460000 16.940000 240 241 240 0
9.680000 20.460000 17.490000 238 239 238 0
9.900000 20.460000 16.830000 216 159 160 0
10.120000 20.460000 15.730000 162 105 106 0
10.340000 20.460000 15.180000 156 94 90 0
10.560000 20.460000 15.180000 154 92 88 0
10.780000 20.460000 14.410000 151 90 84 0
11.000000 20.460000 14.410000 150 89 83 0
11.220000 20.460000 14.410000 151 86 79 0
11.440000 20.460000 14.410000 150 85 78 0
11.660000 20.460000 14.410000 151 83 77 0
11.880000 20.460000 14.410000 151 83 77 0
12.100000 20.460000 14.410000 151 83 77 0
12.320000 20.460000 14.410000 151 83 77 0
12.540000 20.460000 14.410000 152 84 78 0
12.760000 20.460000 14.410000 151 83 77 0
12.980000 20.460000 14.410000 150 81 71 0
13.200000 20.460000 14.410000 149 80 70 0
13.420000 20.460000 14.410000 151 77 69 0
13.640000 20.460000 14.410000 148 74 66 0
13.860000 20.460000 14.410000 148 74 68 0
14.080000 20.460000 13.750000 149 75 69 0
14.300000 20.460000 13.750000 147 72 64 0
14.520000 20.460000 13.750000 148 73 65 0
14.740000 20.460000 13.750000 146 72 64 0
14.960000 20.460000 13.750000 146 72 64 0
15.180000 20.460000 13.750000 147 72 64 0
15.400000 20.460000 13.750000 147 72 64 0
15.620000 20.460000 14.300000 147 71 66 0
15.840000 20.460000 14.850000 146 70 65 0
16.060000 20.460000 14.190000 147 71 66 0
16.280000 20.460000 13.750000 147 71 66 0
16.500000 20.460000 13.750000 146 71 63 0
16.720000 20.460000 13.640000 147 72 64 0
16.940000 20.460000 14.300000 148 74 66 0
17.160000 20.460000 14.190000 148 74 66 0
17.380000 20.460000 13.640000 149 79 67 0
17.600000 20.460000 14.190000 152 82 70 0
17.820000 20.460000 14.080000 154 86 72 0
18.040000 20.460000 14.740000 163 95 81 0
18.260000 20.460000 14.190000 166 91 81 0
18.480000 20.460000 14.190000 156 81 71 0
18.700000 20.460000 14.300000 145 67 62 0
18.920000 20.460000 13.640000 144 66 61 0
19.140000 20.460000 14.080000 143 65 60 0
19.360000 20.460000 14.630000 144 66 61 0
19.580000 20.460000 14.740000 145 69 64 0
19.800000 20.460000 14.190000 148 72 67 0
20.020000 20.460000 14.080000 149 85 80 0
20.240000 20.460000 14.630000 156 92 87 0
20.460000 20.460000 14.520000 153 98 90 0
20.680000 20.460000 14.520000 157 102 94 0
20.900000 20.460000 14.520000 158 103 95 0
21.120000 20.460000 14.630000 159 104 96 0
21.340000 20.460000 14.630000 158 108 104 0
21.560000 20.460000 14.630000 162 112 108 0
21.780000 20.460000 14.630000 158 119 121 0
22.000000 20.460000 14.630000 163 124 126 0
22.220000 20.460000 14.630000 160 129 130 0
22.440000 20.460000 14.630000 161 130 131 0
22.660000 20.460000 14.630000 167 122 120 0
22.880000 20.460000 14.630000 160 115 113 0
23.100000 20.460000 14.630000 165 107 98 0
23.320000 20.460000 14.630000 156 98 89 0
23.540000 20.460000 14.630000 162 95 84 0
23.760000 20.460000 14.630000 162 95 84 0
23.980000 20.460000 14.630000 163 96 82 0
24.200000 20.460000 14.630000 163 96 82 0
24.420000 20.460000 14.630000 157 98 87 0
24.640000 20.460000 14.630000 157 98 87 0
24.860000 20.460000 14.630000 157 103 90 0
25.080000 20.460000 14.630000 160 106 93 0
25.300000 20.460000 14.630000 154 114 102 0
25.520000 20.460000 14.630000 156 116 104 0
25.740000 20.460000 14.630000 149 125 112 0
25.960000 20.460000 14.630000 150 126 113 0
26.180000 20.460000 14.630000 149 126 113 0
26.400000 20.460000 14.630000 150 127 114 0
26.620000 20.460000 14.630000 148 126 108 0
26.840000 20.460000 13.860000 148 126 108 0
27.060000 20.460000 13.970000 147 125 107 0
27.280000 20.460000 13.970000 147 125 107 0
27.500000 20.460000 13.200000 148 124 109 0
27.720000 20.460000 13.200000 148 124 109 0
27.940000 20.460000 13.200000 145 125 111 0
28.160000 20.460000 13.970000 146 126 112 0
28.380000 20.460000 14.630000 147 129 112 0
28.600000 20.460000 15.290000 147 129 112 0
28.820000 20.460000 15.290000 146 128 111 0
29.040000 20.460000 15.950000 148 130 113 0
29.260000 20.460000 15.950000 149 127 111 0
29.480000 20.460000 15.950000 149 127 111 0
29.700000 20.460000 15.950000 148 128 112 0
29.920000 20.460000 15.950000 148 128 112 0
30.140000 20.460000 16.720000 149 130 111 0
30.360000 20.460000 16.720000 149 130 111 0
30.580000 20.460000 16.720000 150 132 113 0
30.800000 20.460000 16.720000 149 131 112 0
31.020000 20.460000 17.380000 150 130 114 0
31.240000 20.460000 17.380000 150 130 114 0
31.460000 20.460000 17.380000 152 133 114 0
31.680000 20.460000 17.380000 153 134 115 0
31.900000 20.460000 17.380000 154 137 116 0
32.120000 20.460000 17.380000 156 139 118 0
32.340000 20.460000 17.380000 160 142 123 0
32.560000 20.460000 17.380000 162 144 125 0
32.780000 20.460000 17.380000 168 150 133 0
33.000000 20.460000 18.040000 169 151 134 0
33.220000 20.460000 18.040000 171 157 139 0
33.440000 20.460000 18.040000 175 161 143 0
33.660000 20.460000 18.040000 178 169 151 0
33.880000 20.460000 18.040000 182 173 155 0
34.100000 20.460000 18.040000 186 178 162 0
34.320000 20.460000 18.040000 190 182 166 0
34.540000 20.460000 18.040000 191 182 170 0
34.760000 20.460000 18.040000 196 187 175 0
34.980000 20.460000 18.150000 199 192 181 0
35.200000 20.460000 18.150000 200 193 182 0
35.420000 20.460000 18.150000 202 193 181 0
35.640000 20.460000 18.150000 204 195 183 0
35.860000 20.460000 18.150000 204 197 184 0
36.080000 20.460000 18.260000 205 198 185 0
36.300000 20.460000 18.260000 206 199 188 0
36.520000 20.460000 18.260000 206 199 188 0
36.740000 20.460000 18.260000 207 198 188 0
36.960000 20.460000 18.370000 207 198 188 0
37.180000 20.460000 18.370000 206 197 187 0
0.000000 20.680000 13.640000 140 95 93 0
0.220000 20.680000 13.640000 141 95 90 0
0.440000 20.680000 13.640000 140 94 89 0
0.660000 20.680000 13.750000 144 95 94 0
0.880000 20.680000 13.750000 143 94 93 0
1.100000 20.680000 13.750000 139 97 96 0
1.320000 20.680000 13.090000 139 97 96 0
1.540000 20.680000 13.750000 140 99 100 0
1.760000 20.680000 13.750000 141 100 101 0
1.980000 20.680000 13.750000 141 102 104 0
2.200000 20.680000 13.750000 141 102 104 0
2.420000 20.680000 13.750000 141 104 107 0
2.640000 20.680000 13.750000 141 104 107 0
2.860000 20.680000 13.750000 142 105 108 0
3.080000 20.680000 13.750000 143 106 109 0
3.300000 20.680000 13.750000 144 108 113 0
3.520000 20.680000 13.750000 145 109 114 0
3.740000 20.680000 14.410000 144 111 117 0
3.960000 20.680000 14.410000 145 112 118 0
4.180000 20.680000 14.410000 145 115 122 0
4.400000 20.680000 14.410000 146 116 123 0
4.620000 20.680000 14.410000 150 117 123 0
4.840000 20.680000 14.410000 152 119 125 0
5.060000 20.680000 14.410000 152 120 126 0
5.280000 20.680000 14.410000 154 122 128 0
5.500000 20.680000 14.410000 155 122 128 0
5.720000 20.680000 14.300000 157 124 130 0
5.940000 20.680000 14.960000 161 140 144 0
6.160000 20.680000 15.620000 206 185 189 0
6.380000 20.680000 16.280000 232 233 232 0
6.600000 20.680000 16.940000 240 241 240 0
6.820000 20.680000 17.600000 240 241 240 0
7.040000 20.680000 16.940000 240 241 240 0
7.260000 20.680000 17.050000 240 241 240 0
7.480000 20.680000 17.160000 240 241 240 0
7.700000 20.680000 17.160000 240 241 240 0
7.920000 20.680000 17.160000 240 241 240 0
8.140000 20.680000 17.160000 240 241 240 0
8.360000 20.680000 17.160000 240 241 240 0
8.580000 20.680000 17.160000 240 241 240 0
8.800000 20.680000 17.160000 240 241 240 0
9.020000 20.680000 17.160000 240 241 240 0
9.240000 20.680000 17.160000 240 241 240 0
9.460000 20.680000 16.940000 255 229 238 0
9.680000 20.680000 16.940000 226 190 199 0
9.900000 20.680000 16.390000 170 110 105 0
10.120000 20.680000 15.070000 157 97 92 0
10.340000 20.680000 15.180000 157 93 88 0
10.560000 20.680000 14.410000 154 90 85 0
10.780000 20.680000 14.410000 155 87 79 0
11.000000 20.680000 14.410000 154 86 78 0
11.220000 20.680000 14.410000 154 83 74 0
11.440000 20.680000 14.410000 152 81 72 0
11.660000 20.680000 14.410000 150 81 71 0
11.880000 20.680000 14.410000 150 81 71 0
12.100000 20.680000 14.410000 152 82 77 0
12.320000 20.680000 14.410000 152 82 77 0
12.540000 20.680000 14.410000 153 82 75 0
12.760000 20.680000 14.410000 153 82 75 0
12.980000 20.680000 14.410000 153 79 71 0
13.200000 20.680000 14.410000 151 77 69 0
13.420000 20.680000 14.410000 150 76 68 0
13.640000 20.680000 14.410000 148 74 66 0
13.860000 20.680000 13.750000 147 73 65 0
14.080000 20.680000 13.750000 147 73 65 0
14.300000 20.680000 13.750000 146 71 63 0
14.520000 20.680000 13.750000 146 71 63 0
14.740000 20.680000 13.750000 145 70 62 0
14.960000 20.680000 13.750000 144 69 61 0
15.180000 20.680000 13.750000 145 70 62 0
15.400000 20.680000 13.750000 145 70 62 0
15.620000 20.680000 14.190000 146 72 66 0
15.840000 20.680000 14.850000 146 72 66 0
16.060000 20.680000 14.190000 146 71 63 0
16.280000 20.680000 14.300000 147 72 64 0
16.500000 20.680000 14.300000 146 71 63 0
16.720000 20.680000 14.190000 148 73 65 0
16.940000 20.680000 14.190000 148 74 66 0
17.160000 20.680000 14.190000 150 76 68 0
17.380000 20.680000 14.190000 151 77 69 0
17.600000 20.680000 14.300000 154 80 72 0
17.820000 20.680000 14.300000 152 82 69 0
18.040000 20.680000 14.190000 156 86 73 0
18.260000 20.680000 14.300000 159 81 74 0
18.480000 20.680000 14.190000 144 66 59 0
18.700000 20.680000 14.190000 144 64 58 0
18.920000 20.680000 14.190000 143 63 57 0
19.140000 20.680000 14.190000 139 65 59 0
19.360000 20.680000 14.080000 144 70 64 0
19.580000 20.680000 14.630000 142 84 78 0
19.800000 20.680000 14.630000 149 91 85 0
20.020000 20.680000 14.740000 149 103 98 0
20.240000 20.680000 14.630000 155 109 104 0
20.460000 20.680000 14.630000 162 111 105 0
20.680000 20.680000 14.630000 162 111 105 0
20.900000 20.680000 14.630000 162 108 103 0
21.120000 20.680000 14.630000 161 107 102 0
21.340000 20.680000 14.630000 158 109 107 0
21.560000 20.680000 14.630000 161 112 110 0
21.780000 20.680000 14.630000 164 118 115 0
22.000000 20.680000 14.630000 168 122 119 0
22.220000 20.680000 14.630000 175 125 121 0
22.440000 20.680000 14.630000 171 121 117 0
22.660000 20.680000 14.630000 172 111 101 0
22.880000 20.680000 14.520000 163 102 92 0
23.100000 20.680000 14.630000 160 95 84 0
23.320000 20.680000 14.630000 158 93 82 0
23.540000 20.680000 14.630000 160 93 80 0
23.760000 20.680000 14.630000 160 93 80 0
23.980000 20.680000 14.630000 157 94 82 0
24.200000 20.680000 14.630000 158 95 83 0
24.420000 20.680000 14.630000 158 95 83 0
24.640000 20.680000 14.520000 160 97 85 0
24.860000 20.680000 14.630000 158 101 87 0
25.080000 20.680000 14.630000 162 105 91 0
25.300000 20.680000 14.630000 152 112 100 0
25.520000 20.680000 14.630000 154 114 102 0
25.740000 20.680000 14.630000 149 120 107 0
25.960000 20.680000 14.630000 151 122 109 0
26.180000 20.680000 14.630000 150 123 109 0
26.400000 20.680000 14.630000 149 122 108 0
26.620000 20.680000 14.630000 149 122 108 0
26.840000 20.680000 14.630000 149 122 108 0
27.060000 20.680000 13.970000 148 120 104 0
27.280000 20.680000 13.970000 149 121 105 0
27.500000 20.680000 13.970000 146 122 107 0
27.720000 20.680000 13.970000 146 122 107 0
27.940000 20.680000 13.970000 149 122 108 0
28.160000 20.680000 13.970000 149 122 108 0
28.380000 20.680000 14.630000 148 126 110 0
28.600000 20.680000 15.290000 148 126 110 0
28.820000 20.680000 15.950000 149 127 109 0
29.040000 20.680000 15.950000 149 127 109 0
29.260000 20.680000 16.060000 149 125 108 0
29.480000 20.680000 16.060000 149 125 108 0
29.700000 20.680000 15.950000 148 124 109 0
29.920000 20.680000 15.950000 150 126 111 0
30.140000 20.680000 16.720000 149 127 111 0
30.360000 20.680000 16.720000 150 128 112 0
30.580000 20.680000 16.720000 150 128 109 0
30.800000 20.680000 16.720000 151 129 110 0
31.020000 20.680000 17.380000 151 129 111 0
31.240000 20.680000 17.380000 152 130 112 0
31.460000 20.680000 17.380000 154 131 112 0
31.680000 20.680000 17.380000 155 132 113 0
31.900000 20.680000 17.380000 156 137 118 0
32.120000 20.680000 17.380000 159 140 121 0
32.340000 20.680000 17.380000 162 140 121 0
32.560000 20.680000 17.380000 166 144 125 0
32.780000 20.680000 18.040000 166 149 128 0
33.000000 20.680000 18.040000 170 153 132 0
33.220000 20.680000 18.040000 174 158 140 0
33.440000 20.680000 18.040000 179 163 145 0
33.660000 20.680000 18.040000 180 167 153 0
33.880000 20.680000 18.040000 185 172 158 0
34.100000 20.680000 18.040000 186 178 163 0
34.320000 20.680000 18.040000 190 182 167 0
34.540000 20.680000 18.040000 195 184 173 0
34.760000 20.680000 18.040000 197 186 175 0
34.980000 20.680000 18.150000 198 189 177 0
35.200000 20.680000 18.150000 200 191 179 0
35.420000 20.680000 18.150000 202 193 183 0
35.640000 20.680000 18.150000 203 194 184 0
35.860000 20.680000 18.150000 205 196 184 0
36.080000 20.680000 18.260000 205 196 184 0
36.300000 20.680000 18.260000 207 198 188 0
36.520000 20.680000 18.260000 206 197 187 0
36.740000 20.680000 18.370000 205 196 186 0
36.960000 20.680000 18.370000 205 196 186 0
37.180000 20.680000 18.370000 205 194 185 0
0.000000 20.900000 13.640000 139 94 92 0
0.220000 20.900000 13.640000 139 93 88 0
0.440000 20.900000 13.750000 140 94 89 0
0.660000 20.900000 13.090000 143 94 93 0
0.880000 20.900000 13.090000 143 94 93 0
1.100000 20.900000 13.090000 138 96 95 0
1.320000 20.900000 13.090000 139 97 96 0
1.540000 20.900000 13.750000 139 98 99 0
1.760000 20.900000 13.750000 141 100 101 0
1.980000 20.900000 13.750000 140 101 103 0
2.200000 20.900000 13.750000 141 102 104 0
2.420000 20.900000 13.750000 140 103 106 0
2.640000 20.900000 13.750000 142 105 108 0
2.860000 20.900000 13.750000 143 106 109 0
3.080000 20.900000 13.750000 143 106 109 0
3.300000 20.900000 13.750000 144 108 113 0
3.520000 20.900000 13.750000 145 109 114 0
3.740000 20.900000 14.410000 144 111 117 0
3.960000 20.900000 14.410000 145 112 118 0
4.180000 20.900000 14.410000 146 116 123 0
4.400000 20.900000 14.410000 146 116 123 0
4.620000 20.900000 14.410000 149 116 122 0
4.840000 20.900000 14.410000 150 117 123 0
5.060000 20.900000 14.410000 151 119 125 0
5.280000 20.900000 14.410000 150 118 124 0
5.500000 20.900000 14.300000 151 118 124 0
5.720000 20.900000 14.960000 154 121 127 0
5.940000 20.900000 14.960000 167 146 150 0
6.160000 20.900000 15.620000 203 182 186 0
6.380000 20.900000 16.280000 232 233 232 0
6.600000 20.900000 16.940000 240 241 240 0
6.820000 20.900000 17.600000 240 241 240 0
7.040000 20.900000 16.940000 240 241 240 0
7.260000 20.900000 17.050000 240 241 240 0
7.480000 20.900000 17.160000 240 241 240 0
7.700000 20.900000 17.160000 240 241 240 0
7.920000 20.900000 17.160000 240 241 240 0
8.140000 20.900000 17.160000 240 241 240 0
8.360000 20.900000 17.160000 240 241 240 0
8.580000 20.900000 17.160000 240 241 240 0
8.800000 20.900000 17.160000 240 241 240 0
9.020000 20.900000 16.500000 240 241 240 0
9.240000 20.900000 16.500000 239 240 239 0
9.460000 20.900000 16.390000 235 199 208 0
9.680000 20.900000 15.730000 160 124 133 0
9.900000 20.900000 15.070000 160 100 95 0
10.120000 20.900000 15.180000 155 95 90 0
10.340000 20.900000 15.180000 155 91 86 0
10.560000 20.900000 14.410000 153 89 84 0
10.780000 20.900000 14.410000 153 85 77 0
11.000000 20.900000 14.410000 151 83 75 0
11.220000 20.900000 14.410000 153 82 73 0
11.440000 20.900000 14.410000 150 79 70 0
11.660000 20.900000 14.410000 150 81 71 0
11.880000 20.900000 14.410000 149 80 70 0
12.100000 20.900000 14.410000 150 80 75 0
12.320000 20.900000 14.410000 151 81 76 0
12.540000 20.900000 14.410000 152 81 74 0
12.760000 20.900000 14.410000 151 80 73 0
12.980000 20.900000 14.410000 153 79 71 0
13.200000 20.900000 14.410000 150 76 68 0
13.420000 20.900000 14.410000 148 74 66 0
13.640000 20.900000 14.410000 147 73 65 0
13.860000 20.900000 13.750000 145 71 63 0
14.080000 20.900000 13.750000 147 73 65 0
14.300000 20.900000 13.750000 146 71 63 0
14.520000 20.900000 13.750000 145 70 62 0
14.740000 20.900000 13.750000 144 69 61 0
14.960000 20.900000 13.750000 145 70 62 0
15.180000 20.900000 13.750000 144 69 61 0
15.400000 20.900000 13.750000 146 71 63 0
15.620000 20.900000 14.300000 146 72 66 0
15.840000 20.900000 14.300000 146 72 66 0
16.060000 20.900000 14.300000 146 71 63 0
16.280000 20.900000 14.190000 147 72 64 0
16.500000 20.900000 14.190000 147 72 64 0
16.720000 20.900000 14.300000 150 75 67 0
16.940000 20.900000 13.640000 150 76 68 0
17.160000 20.900000 13.750000 149 75 67 0
17.380000 20.900000 14.300000 151 77 69 0
17.600000 20.900000 14.190000 153 79 71 0
17.820000 20.900000 14.190000 153 83 70 0
18.040000 20.900000 14.190000 151 81 68 0
18.260000 20.900000 14.080000 145 67 60 0
18.480000 20.900000 14.080000 142 64 57 0
18.700000 20.900000 14.740000 143 63 57 0
18.920000 20.900000 14.630000 142 62 56 0
19.140000 20.900000 14.740000 142 68 62 0
19.360000 20.900000 14.630000 150 76 70 0
19.580000 20.900000 14.630000 146 88 82 0
19.800000 20.900000 14.520000 159 101 95 0
20.020000 20.900000 14.630000 159 113 108 0
20.240000 20.900000 14.630000 167 121 116 0
20.460000 20.900000 14.630000 170 119 113 0
20.680000 20.900000 14.630000 167 116 110 0
20.900000 20.900000 14.630000 163 109 104 0
21.120000 20.900000 14.630000 160 106 101 0
21.340000 20.900000 14.630000 157 108 106 0
21.560000 20.900000 14.630000 161 112 110 0
21.780000 20.900000 14.630000 163 117 114 0
22.000000 20.900000 14.630000 164 118 115 0
22.220000 20.900000 14.630000 167 117 113 0
22.440000 20.900000 14.630000 160 110 106 0
22.660000 20.900000 14.630000 161 100 90 0
22.880000 20.900000 14.630000 156 95 85 0
23.100000 20.900000 14.630000 157 92 81 0
23.320000 20.900000 14.630000 157 92 81 0
23.540000 20.900000 14.630000 159 92 79 0
23.760000 20.900000 14.630000 159 92 79 0
23.980000 20.900000 14.630000 156 93 81 0
24.200000 20.900000 14.630000 156 93 81 0
24.420000 20.900000 14.630000 157 94 82 0
24.640000 20.900000 14.630000 159 96 84 0
24.860000 20.900000 14.630000 156 99 85 0
25.080000 20.900000 14.630000 160 103 89 0
25.300000 20.900000 14.630000 151 111 99 0
25.520000 20.900000 14.630000 152 112 100 0
25.740000 20.900000 14.630000 146 117 104 0
25.960000 20.900000 14.630000 148 119 106 0
26.180000 20.900000 14.630000 148 121 107 0
26.400000 20.900000 14.630000 147 120 106 0
26.620000 20.900000 14.630000 148 121 107 0
26.840000 20.900000 14.630000 147 120 106 0
27.060000 20.900000 14.630000 147 119 103 0
27.280000 20.900000 14.630000 147 119 103 0
27.500000 20.900000 14.630000 143 119 104 0
27.720000 20.900000 14.630000 143 119 104 0
27.940000 20.900000 14.630000 144 117 103 0
28.160000 20.900000 14.630000 146 119 105 0
28.380000 20.900000 14.630000 145 123 107 0
28.600000 20.900000 15.290000 146 124 108 0
28.820000 20.900000 16.060000 147 125 107 0
29.040000 20.900000 16.060000 147 125 107 0
29.260000 20.900000 16.060000 148 124 107 0
29.480000 20.900000 15.950000 148 124 107 0
29.700000 20.900000 16.720000 148 124 109 0
29.920000 20.900000 16.720000 149 125 110 0
30.140000 20.900000 16.720000 148 126 110 0
30.360000 20.900000 16.720000 149 127 111 0
30.580000 20.900000 16.720000 151 129 110 0
30.800000 20.900000 17.380000 150 128 109 0
31.020000 20.900000 17.380000 150 128 110 0
31.240000 20.900000 17.380000 151 129 111 0
31.460000 20.900000 17.380000 153 130 111 0
31.680000 20.900000 17.380000 156 133 114 0
31.900000 20.900000 17.380000 154 135 116 0
32.120000 20.900000 17.380000 157 138 119 0
32.340000 20.900000 17.380000 162 140 121 0
32.560000 20.900000 17.380000 165 143 124 0
32.780000 20.900000 18.040000 166 149 128 0
33.000000 20.900000 18.040000 170 153 132 0
33.220000 20.900000 18.040000 174 158 140 0
33.440000 20.900000 18.040000 179 163 145 0
33.660000 20.900000 18.040000 180 167 153 0
33.880000 20.900000 18.040000 185 172 158 0
34.100000 20.900000 18.040000 187 179 164 0
34.320000 20.900000 18.040000 190 182 167 0
34.540000 20.900000 18.040000 195 184 173 0
34.760000 20.900000 18.040000 198 187 176 0
34.980000 20.900000 18.150000 199 190 178 0
35.200000 20.900000 18.150000 201 192 180 0
35.420000 20.900000 18.150000 203 194 184 0
35.640000 20.900000 18.150000 204 195 185 0
35.860000 20.900000 18.260000 204 195 183 0
36.080000 20.900000 18.260000 205 196 184 0
36.300000 20.900000 18.260000 206 197 187 0
36.520000 20.900000 18.260000 205 196 186 0
36.740000 20.900000 18.370000 204 195 185 0
36.960000 20.900000 18.370000 204 195 185 0
37.180000 20.900000 18.370000 205 194 185 0
0.000000 21.120000 13.640000 140 94 89 0
0.220000 21.120000 13.640000 141 95 92 0
0.440000 21.120000 13.090000 140 94 91 0
0.660000 21.120000 13.090000 139 95 91 0
0.880000 21.120000 13.090000 140 96 92 0
1.100000 21.120000 13.090000 141 95 93 0
1.320000 21.120000 13.750000 142 96 94 0
1.540000 21.120000 13.750000 141 99 98 0
1.760000 21.120000 13.750000 141 99 98 0
1.980000 21.120000 13.750000 141 100 99 0
2.200000 21.120000 13.750000 142 101 100 0
2.420000 21.120000 13.750000 141 102 104 0
2.640000 21.120000 13.750000 143 104 106 0
2.860000 21.120000 13.750000 144 104 108 0
3.080000 21.120000 13.750000 145 105 109 0
3.300000 21.120000 13.750000 145 108 113 0
3.520000 21.120000 13.750000 145 108 113 0
3.740000 21.120000 14.410000 143 110 114 0
3.960000 21.120000 14.410000 145 112 116 0
4.180000 21.120000 14.410000 145 114 117 0
4.400000 21.120000 14.410000 147 116 119 0
4.620000 21.120000 14.410000 150 114 119 0
4.840000 21.120000 14.410000 151 115 120 0
5.060000 21.120000 14.410000 152 115 120 0
5.280000 21.120000 14.410000 152 115 120 0
5.500000 21.120000 14.300000 155 114 117 0
5.720000 21.120000 14.960000 160 119 122 0
5.940000 21.120000 14.960000 174 142 152 0
6.160000 21.120000 15.620000 191 159 169 0
6.380000 21.120000 16.280000 221 197 218 0
6.600000 21.120000 16.940000 250 226 247 0
6.820000 21.120000 16.940000 254 234 240 0
7.040000 21.120000 16.940000 254 234 240 0
7.260000 21.120000 17.050000 255 221 236 0
7.480000 21.120000 16.390000 254 219 234 0
7.700000 21.120000 16.500000 244 231 236 0
7.920000 21.120000 16.500000 249 236 241 0
8.140000 21.120000 16.500000 245 237 245 0
8.360000 21.120000 17.160000 245 237 245 0
8.580000 21.120000 16.500000 255 230 245 0
8.800000 21.120000 16.500000 255 229 244 0
9.020000 21.120000 16.500000 244 197 198 0
9.240000 21.120000 15.840000 205 158 159 0
9.460000 21.120000 15.840000 177 117 112 0
9.680000 21.120000 15.180000 159 99 94 0
9.900000 21.120000 15.180000 159 95 90 0
10.120000 21.120000 14.410000 156 92 87 0
10.340000 21.120000 14.410000 156 88 80 0
10.560000 21.120000 14.410000 153 85 77 0
10.780000 21.120000 14.410000 153 84 74 0
11.000000 21.120000 14.410000 152 83 73 0
11.220000 21.120000 14.410000 149 80 72 0
11.440000 21.120000 14.410000 149 80 72 0
11.660000 21.120000 14.410000 150 81 73 0
11.880000 21.120000 14.410000 150 81 73 0
12.100000 21.120000 14.410000 151 80 73 0
12.320000 21.120000 14.410000 150 79 72 0
12.540000 21.120000 14.410000 153 79 71 0
12.760000 21.120000 14.410000 152 78 70 0
12.980000 21.120000 14.410000 151 76 68 0
13.200000 21.120000 13.750000 148 73 65 0
13.420000 21.120000 13.750000 146 72 64 0
13.640000 21.120000 13.750000 146 72 64 0
13.860000 21.120000 13.750000 146 71 63 0
14.080000 21.120000 13.750000 145 70 62 0
14.300000 21.120000 13.750000 145 70 62 0
14.520000 21.120000 13.750000 146 71 63 0
14.740000 21.120000 13.750000 145 70 62 0
14.960000 21.120000 14.300000 144 69 61 0
15.180000 21.120000 13.750000 144 70 62 0
15.400000 21.120000 13.750000 145 71 63 0
15.620000 21.120000 14.300000 147 72 64 0
15.840000 21.120000 13.750000 147 72 64 0
16.060000 21.120000 13.640000 147 72 64 0
16.280000 21.120000 14.190000 148 73 65 0
16.500000 21.120000 14.300000 149 74 66 0
16.720000 21.120000 13.750000 150 75 67 0
16.940000 21.120000 13.750000 150 76 68 0
17.160000 21.120000 13.750000 151 77 69 0
17.380000 21.120000 13.750000 151 73 66 0
17.600000 21.120000 14.190000 151 73 66 0
17.820000 21.120000 14.740000 149 69 63 0
18.040000 21.120000 14.740000 144 64 58 0
18.260000 21.120000 14.080000 143 63 57 0
18.480000 21.120000 14.630000 142 62 56 0
18.700000 21.120000 14.630000 141 63 56 0
18.920000 21.120000 14.520000 143 65 58 0
19.140000 21.120000 14.630000 141 70 63 0
19.360000 21.120000 14.630000 150 79 72 0
19.580000 21.120000 14.520000 143 93 87 0
19.800000 21.120000 14.520000 158 108 102 0
20.020000 21.120000 14.630000 160 118 114 0
20.240000 21.120000 14.630000 164 122 118 0
20.460000 21.120000 14.630000 171 121 115 0
20.680000 21.120000 14.630000 166 116 110 0
20.900000 21.120000 14.630000 166 108 102 0
21.120000 21.120000 14.630000 163 105 99 0
21.340000 21.120000 14.630000 161 108 99 0
21.560000 21.120000 14.630000 162 109 100 0
21.780000 21.120000 14.630000 163 108 98 0
22.000000 21.120000 14.630000 162 107 97 0
22.220000 21.120000 14.630000 163 102 92 0
22.440000 21.120000 14.630000 159 98 88 0
22.660000 21.120000 14.630000 161 94 81 0
22.880000 21.120000 14.630000 160 93 80 0
23.100000 21.120000 14.630000 159 92 78 0
23.320000 21.120000 14.630000 159 92 78 0
23.540000 21.120000 14.630000 161 93 77 0
23.760000 21.120000 14.630000 160 92 76 0
23.980000 21.120000 14.630000 157 93 79 0
24.200000 21.120000 14.630000 156 92 78 0
24.420000 21.120000 14.630000 157 92 81 0
24.640000 21.120000 14.630000 158 93 82 0
24.860000 21.120000 14.630000 157 97 84 0
25.080000 21.120000 14.630000 159 99 86 0
25.300000 21.120000 14.630000 154 107 96 0
25.520000 21.120000 14.630000 155 108 97 0
25.740000 21.120000 14.630000 150 113 100 0
25.960000 21.120000 14.630000 152 115 102 0
26.180000 21.120000 14.630000 148 118 105 0
26.400000 21.120000 14.630000 148 118 105 0
26.620000 21.120000 14.630000 147 119 102 0
26.840000 21.120000 14.630000 148 120 103 0
27.060000 21.120000 14.630000 149 116 102 0
27.280000 21.120000 14.630000 148 115 101 0
27.500000 21.120000 15.290000 144 114 99 0
27.720000 21.120000 15.290000 143 113 98 0
27.940000 21.120000 14.630000 146 113 99 0
28.160000 21.120000 14.630000 148 115 101 0
28.380000 21.120000 15.290000 147 119 102 0
28.600000 21.120000 15.290000 148 120 103 0
28.820000 21.120000 16.060000 150 121 108 0
29.040000 21.120000 16.060000 150 121 108 0
29.260000 21.120000 16.060000 145 123 105 0
29.480000 21.120000 15.950000 146 124 106 0
29.700000 21.120000 16.720000 147 123 108 0
29.920000 21.120000 16.720000 148 124 109 0
30.140000 21.120000 16.720000 147 125 107 0
30.360000 21.120000 16.720000 149 127 109 0
30.580000 21.120000 16.720000 150 128 112 0
30.800000 21.120000 17.380000 150 128 112 0
31.020000 21.120000 17.380000 151 129 111 0
31.240000 21.120000 17.380000 151 129 111 0
31.460000 21.120000 17.380000 154 131 112 0
31.680000 21.120000 17.380000 155 132 113 0
31.900000 21.120000 17.380000 158 135 116 0
32.120000 21.120000 17.380000 161 138 119 0
32.340000 21.120000 17.380000 160 141 121 0
32.560000 21.120000 18.040000 164 145 125 0
32.780000 21.120000 18.040000 166 148 129 0
33.000000 21.120000 18.040000 171 153 134 0
33.220000 21.120000 18.040000 174 158 140 0
33.440000 21.120000 18.040000 180 164 146 0
33.660000 21.120000 18.040000 178 169 151 0
33.880000 21.120000 18.040000 185 176 158 0
34.100000 21.120000 18.040000 190 180 165 0
34.320000 21.120000 18.040000 193 183 168 0
34.540000 21.120000 18.040000 195 188 175 0
34.760000 21.120000 18.150000 196 189 176 0
34.980000 21.120000 18.150000 199 190 178 0
35.200000 21.120000 18.150000 203 194 182 0
35.420000 21.120000 18.150000 204 195 183 0
35.640000 21.120000 18.150000 205 196 184 0
35.860000 21.120000 18.260000 206 197 185 0
36.080000 21.120000 17.600000 206 197 185 0
36.300000 21.120000 18.260000 206 197 185 0
36.520000 21.120000 18.370000 206 197 185 0
36.740000 21.120000 18.370000 206 197 185 0
36.960000 21.120000 18.370000 205 196 184 0
37.180000 21.120000 18.480000 204 195 183 0
0.000000 21.340000 13.640000 140 94 89 0
0.220000 21.340000 13.750000 141 95 92 0
0.440000 21.340000 13.090000 140 94 91 0
0.660000 21.340000 13.090000 140 96 92 0
0.880000 21.340000 13.090000 140 96 92 0
1.100000 21.340000 13.750000 142 96 94 0
1.320000 21.340000 13.750000 142 96 94 0
1.540000 21.340000 13.750000 141 99 98 0
1.760000 21.340000 13.750000 142 100 99 0
1.980000 21.340000 13.750000 141 100 99 0
2.200000 21.340000 13.750000 142 101 100 0
2.420000 21.340000 13.750000 142 103 105 0
2.640000 21.340000 13.750000 143 104 106 0
2.860000 21.340000 13.750000 144 104 108 0
3.080000 21.340000 13.750000 146 106 110 0
3.300000 21.340000 13.750000 144 107 112 0
3.520000 21.340000 13.750000 146 109 114 0
3.740000 21.340000 13.750000 144 111 115 0
3.960000 21.340000 14.410000 144 111 115 0
4.180000 21.340000 14.410000 145 114 117 0
4.400000 21.340000 14.410000 146 115 118 0
4.620000 21.340000 14.410000 149 113 118 0
4.840000 21.340000 14.410000 149 113 118 0
5.060000 21.340000 14.410000 150 113 118 0
5.280000 21.340000 14.410000 149 112 117 0
5.500000 21.340000 14.300000 152 111 114 0
5.720000 21.340000 14.300000 153 112 115 0
5.940000 21.340000 14.960000 166 134 144 0
6.160000 21.340000 14.850000 187 155 165 0
6.380000 21.340000 15.620000 184 160 181 0
6.600000 21.340000 15.620000 200 176 197 0
6.820000 21.340000 15.620000 213 193 199 0
7.040000 21.340000 15.620000 212 192 198 0
7.260000 21.340000 15.730000 213 178 193 0
7.480000 21.340000 15.730000 203 168 183 0
7.700000 21.340000 15.730000 191 178 183 0
7.920000 21.340000 16.500000 216 203 208 0
8.140000 21.340000 16.500000 226 218 226 0
8.360000 21.340000 16.500000 225 217 225 0
8.580000 21.340000 16.500000 229 200 215 0
8.800000 21.340000 15.840000 195 166 181 0
9.020000 21.340000 15.840000 173 126 127 0
9.240000 21.340000 15.180000 160 113 114 0
9.460000 21.340000 15.180000 162 102 97 0
9.680000 21.340000 15.180000 155 95 90 0
9.900000 21.340000 15.180000 156 92 87 0
10.120000 21.340000 14.410000 153 89 84 0
10.340000 21.340000 14.410000 153 85 77 0
10.560000 21.340000 14.410000 153 85 77 0
10.780000 21.340000 14.410000 152 83 73 0
11.000000 21.340000 14.410000 150 81 71 0
11.220000 21.340000 14.410000 150 81 73 0
11.440000 21.340000 14.410000 150 81 73 0
11.660000 21.340000 14.410000 150 81 73 0
11.880000 21.340000 14.410000 149 80 72 0
12.100000 21.340000 14.410000 149 78 71 0
12.320000 21.340000 14.410000 150 79 72 0
12.540000 21.340000 14.410000 152 78 70 0
12.760000 21.340000 14.410000 149 75 67 0
12.980000 21.340000 14.410000 149 74 66 0
13.200000 21.340000 13.750000 147 72 64 0
13.420000 21.340000 13.750000 145 71 63 0
13.640000 21.340000 13.750000 145 71 63 0
13.860000 21.340000 13.750000 146 71 63 0
14.080000 21.340000 13.750000 145 70 62 0
14.300000 21.340000 13.750000 145 70 62 0
14.520000 21.340000 13.750000 146 71 63 0
14.740000 21.340000 13.750000 144 69 61 0
14.960000 21.340000 13.750000 145 70 62 0
15.180000 21.340000 13.750000 145 71 63 0
15.400000 21.340000 13.750000 146 72 64 0
15.620000 21.340000 13.750000 147 72 64 0
15.840000 21.340000 13.750000 147 72 64 0
16.060000 21.340000 13.750000 146 71 63 0
16.280000 21.340000 14.300000 148 73 65 0
16.500000 21.340000 13.750000 148 73 65 0
16.720000 21.340000 13.640000 149 74 66 0
16.940000 21.340000 14.190000 148 74 66 0
17.160000 21.340000 13.640000 148 74 66 0
17.380000 21.340000 14.300000 149 71 64 0
17.600000 21.340000 14.080000 144 66 59 0
17.820000 21.340000 14.630000 144 64 58 0
18.040000 21.340000 14.740000 143 63 57 0
18.260000 21.340000 14.080000 142 62 56 0
18.480000 21.340000 14.630000 142 62 56 0
18.700000 21.340000 14.520000 143 65 58 0
18.920000 21.340000 14.630000 144 66 59 0
19.140000 21.340000 14.740000 141 70 63 0
19.360000 21.340000 14.630000 149 78 71 0
19.580000 21.340000 14.520000 144 94 88 0
19.800000 21.340000 14.520000 157 107 101 0
20.020000 21.340000 14.630000 157 115 111 0
20.240000 21.340000 14.630000 162 120 116 0
20.460000 21.340000 14.630000 167 117 111 0
20.680000 21.340000 14.630000 162 112 106 0
20.900000 21.340000 14.630000 166 108 102 0
21.120000 21.340000 14.630000 162 104 98 0
21.340000 21.340000 14.630000 160 107 98 0
21.560000 21.340000 14.630000 159 106 97 0
21.780000 21.340000 14.630000 159 104 94 0
22.000000 21.340000 14.630000 158 103 93 0
22.220000 21.340000 14.630000 160 99 89 0
22.440000 21.340000 14.630000 157 96 86 0
22.660000 21.340000 14.630000 160 93 80 0
22.880000 21.340000 14.630000 161 94 81 0
23.100000 21.340000 14.630000 160 93 79 0
23.320000 21.340000 14.630000 163 96 82 0
23.540000 21.340000 14.630000 169 101 85 0
23.760000 21.340000 14.630000 166 98 82 0
23.980000 21.340000 14.630000 158 94 80 0
24.200000 21.340000 14.630000 157 93 79 0
24.420000 21.340000 14.630000 157 92 81 0
24.640000 21.340000 14.630000 157 92 81 0
24.860000 21.340000 14.630000 156 96 83 0
25.080000 21.340000 14.630000 158 98 85 0
25.300000 21.340000 14.630000 152 105 94 0
25.520000 21.340000 14.630000 154 107 96 0
25.740000 21.340000 14.630000 148 111 98 0
25.960000 21.340000 14.630000 150 113 100 0
26.180000 21.340000 14.630000 146 116 103 0
26.400000 21.340000 14.630000 147 117 104 0
26.620000 21.340000 14.630000 145 117 100 0
26.840000 21.340000 14.630000 145 117 100 0
27.060000 21.340000 14.630000 148 115 101 0
27.280000 21.340000 15.290000 146 113 99 0
27.500000 21.340000 15.290000 142 112 97 0
27.720000 21.340000 15.290000 141 111 96 0
27.940000 21.340000 15.290000 145 112 98 0
28.160000 21.340000 15.290000 145 112 98 0
28.380000 21.340000 15.290000 144 116 99 0
28.600000 21.340000 15.290000 147 119 102 0
28.820000 21.340000 16.060000 148 119 106 0
29.040000 21.340000 16.060000 149 120 107 0
29.260000 21.340000 16.060000 146 124 106 0
29.480000 21.340000 16.720000 146 124 106 0
29.700000 21.340000 16.720000 147 123 108 0
29.920000 21.340000 16.720000 148 124 109 0
30.140000 21.340000 16.720000 147 125 107 0
30.360000 21.340000 16.720000 149 127 109 0
30.580000 21.340000 17.380000 149 127 111 0
30.800000 21.340000 17.380000 151 129 113 0
31.020000 21.340000 17.380000 150 128 110 0
31.240000 21.340000 17.380000 151 129 111 0
31.460000 21.340000 17.380000 155 132 113 0
31.680000 21.340000 17.380000 157 134 115 0
31.900000 21.340000 17.380000 158 135 116 0
32.120000 21.340000 17.380000 162 139 120 0
32.340000 21.340000 18.040000 161 142 122 0
32.560000 21.340000 18.040000 164 145 125 0
32.780000 21.340000 18.040000 168 150 131 0
33.000000 21.340000 18.040000 172 154 135 0
33.220000 21.340000 18.040000 176 160 142 0
33.440000 21.340000 18.040000 182 166 148 0
33.660000 21.340000 18.040000 183 174 156 0
33.880000 21.340000 18.040000 189 180 162 0
34.100000 21.340000 18.040000 192 182 167 0
34.320000 21.340000 18.040000 196 186 171 0
34.540000 21.340000 18.040000 196 189 176 0
34.760000 21.340000 18.150000 200 193 180 0
34.980000 21.340000 18.150000 203 194 182 0
35.200000 21.340000 18.150000 204 195 183 0
35.420000 21.340000 18.150000 205 196 184 0
35.640000 21.340000 18.260000 206 197 185 0
35.860000 21.340000 17.600000 206 197 185 0
36.080000 21.340000 17.600000 207 198 186 0
36.300000 21.340000 18.260000 207 198 186 0
36.520000 21.340000 18.370000 207 198 186 0
36.740000 21.340000 18.370000 207 198 186 0
36.960000 21.340000 18.480000 206 197 185 0
37.180000 21.340000 18.480000 206 197 185 0
0.000000 21.560000 13.750000 142 94 89 0
0.220000 21.560000 13.090000 142 94 89 0
0.440000 21.560000 13.090000 142 94 89 0
0.660000 21.560000 13.090000 143 94 92 0
0.880000 21.560000 13.090000 143 94 92 0
1.100000 21.560000 13.750000 142 96 93 0
1.320000 21.560000 13.750000 142 96 93 0
1.540000 21.560000 13.750000 143 98 96 0
1.760000 21.560000 13.750000 143 98 96 0
1.980000 21.560000 13.750000 145 100 98 0
2.200000 21.560000 13.750000 146 101 99 0
2.420000 21.560000 13.750000 143 100 102 0
2.640000 21.560000 13.750000 144 101 103 0
2.860000 21.560000 13.750000 143 104 104 0
3.080000 21.560000 13.750000 145 106 106 0
3.300000 21.560000 13.750000 146 107 109 0
3.520000 21.560000 13.750000 147 108 110 0
3.740000 21.560000 13.750000 145 109 114 0
3.960000 21.560000 13.750000 146 110 115 0
4.180000 21.560000 14.410000 147 112 114 0
4.400000 21.560000 14.410000 147 112 114 0
4.620000 21.560000 14.410000 153 110 112 0
4.840000 21.560000 14.410000 152 109 111 0
5.060000 21.560000 14.410000 155 106 104 0
5.280000 21.560000 14.410000 154 105 103 0
5.500000 21.560000 14.300000 154 102 99 0
5.720000 21.560000 14.300000 156 104 101 0
5.940000 21.560000 14.960000 162 111 111 0
6.160000 21.560000 14.960000 186 135 135 0
6.380000 21.560000 14.960000 187 134 137 0
6.600000 21.560000 14.960000 183 130 133 0
6.820000 21.560000 14.960000 184 127 128 0
7.040000 21.560000 14.960000 179 122 123 0
7.260000 21.560000 15.070000 174 117 119 0
7.480000 21.560000 15.070000 176 119 121 0
7.700000 21.560000 15.070000 178 129 130 0
7.920000 21.560000 15.070000 183 134 135 0
8.140000 21.560000 15.070000 186 131 132 0
8.360000 21.560000 15.070000 182 127 128 0
8.580000 21.560000 15.070000 177 118 117 0
8.800000 21.560000 15.180000 166 107 106 0
9.020000 21.560000 15.180000 161 101 95 0
9.240000 21.560000 15.180000 156 96 90 0
