ply
format ascii 1.0
element vertex 1141
property float x
property float y
property float z
property uchar red
property uchar green
property uchar blue
property uchar alpha
end_header
31.240000 12.760000 8.360000 186 74 81 0
31.460000 12.760000 8.360000 185 73 80 0
31.680000 12.760000 9.900000 185 73 80 0
31.900000 12.760000 9.900000 184 72 79 0
32.120000 12.760000 11.220000 183 71 78 0
32.340000 12.760000 11.220000 184 72 79 0
32.560000 12.760000 11.440000 183 71 78 0
32.780000 12.760000 11.440000 182 70 77 0
33.000000 12.760000 12.760000 183 71 78 0
33.220000 12.760000 12.760000 182 70 77 0
33.440000 12.760000 12.760000 183 71 78 0
33.660000 12.760000 14.080000 183 71 78 0
33.880000 12.760000 14.080000 182 70 77 0
34.100000 12.760000 15.400000 183 71 78 0
34.320000 12.760000 15.400000 184 72 79 0
34.540000 12.760000 15.620000 184 72 79 0
34.760000 12.760000 14.520000 184 72 79 0
34.980000 12.760000 15.620000 186 74 81 0
35.200000 12.760000 15.840000 187 75 82 0
35.420000 12.760000 14.740000 186 74 81 0
35.640000 12.760000 14.960000 188 76 83 0
35.860000 12.760000 16.280000 189 77 84 0
36.080000 12.760000 17.160000 188 77 81 0
36.300000 12.760000 16.940000 190 79 83 0
36.520000 12.760000 16.940000 191 79 86 0
36.740000 12.760000 16.940000 191 79 86 0
36.960000 12.760000 18.260000 190 79 83 0
37.180000 12.760000 19.360000 190 79 83 0
0.000000 12.980000 29.260000 205 202 178 0
0.220000 12.980000 30.580000 207 204 180 0
0.440000 12.980000 30.580000 204 203 177 0
0.660000 12.980000 30.800000 205 204 178 0
0.880000 12.980000 30.800000 206 204 178 0
1.100000 12.980000 30.800000 207 205 179 0
1.320000 12.980000 31.020000 206 205 179 0
1.540000 12.980000 31.020000 206 205 179 0
1.760000 12.980000 32.560000 207 206 181 0
1.980000 12.980000 32.560000 207 206 181 0
2.200000 12.980000 32.560000 206 205 179 0
2.420000 12.980000 32.560000 203 202 176 0
2.640000 12.980000 32.560000 201 196 169 0
2.860000 12.980000 32.780000 195 190 163 0
3.080000 12.980000 31.460000 201 176 153 0
3.300000 12.980000 31.460000 194 169 146 0
3.520000 12.980000 31.460000 196 155 132 0
3.740000 12.980000 31.460000 189 148 125 0
3.960000 12.980000 31.680000 187 134 113 0
4.180000 12.980000 33.000000 179 126 105 0
4.400000 12.980000 32.780000 187 113 95 0
4.620000 12.980000 34.980000 183 109 91 0
4.840000 12.980000 36.080000 186 105 96 0
5.060000 12.980000 37.400000 186 105 96 0
5.280000 12.980000 37.400000 189 101 92 0
5.500000 12.980000 38.940000 189 101 92 0
5.720000 12.980000 38.940000 193 98 91 0
5.940000 12.980000 38.940000 191 96 89 0
6.160000 12.980000 40.260000 193 93 88 0
6.380000 12.980000 40.260000 192 92 87 0
6.600000 12.980000 41.580000 192 90 88 0
6.820000 12.980000 31.900000 190 88 86 0
7.040000 12.980000 12.540000 189 87 85 0
7.260000 12.980000 2.860000 190 88 86 0
7.480000 12.980000 4.180000 189 89 86 0
7.700000 12.980000 7.040000 189 89 86 0
7.920000 12.980000 8.360000 191 89 87 0
8.140000 12.980000 11.220000 189 87 85 0
8.360000 12.980000 14.080000 191 86 85 0
8.580000 12.980000 16.720000 190 85 84 0
8.800000 12.980000 18.260000 191 86 85 0
9.020000 12.980000 18.260000 190 85 84 0
9.240000 12.980000 19.580000 189 84 83 0
9.460000 12.980000 19.580000 188 83 82 0
9.680000 12.980000 20.900000 189 83 82 0
9.900000 12.980000 21.120000 188 82 81 0
10.120000 12.980000 21.120000 188 82 81 0
10.340000 12.980000 21.120000 189 83 82 0
10.560000 12.980000 21.120000 189 83 82 0
10.780000 12.980000 22.660000 187 81 80 0
11.000000 12.980000 23.760000 187 81 80 0
11.220000 12.980000 23.540000 186 80 79 0
11.440000 12.980000 25.080000 187 81 80 0
11.660000 12.980000 25.080000 188 82 81 0
11.880000 12.980000 26.400000 187 81 80 0
12.100000 12.980000 26.400000 186 80 79 0
12.320000 12.980000 26.400000 187 81 80 0
12.540000 12.980000 26.400000 186 80 79 0
12.760000 12.980000 27.940000 187 80 81 0
12.980000 12.980000 27.940000 185 78 79 0
13.200000 12.980000 28.160000 188 79 80 0
13.420000 12.980000 27.060000 186 77 78 0
13.640000 12.980000 26.180000 187 78 79 0
13.860000 12.980000 27.500000 188 79 80 0
14.080000 12.980000 28.380000 187 78 79 0
14.300000 12.980000 29.260000 187 78 79 0
14.520000 12.980000 30.580000 188 79 80 0
14.740000 12.980000 30.580000 187 78 79 0
14.960000 12.980000 30.580000 188 79 80 0
15.180000 12.980000 30.580000 188 79 80 0
15.400000 12.980000 30.580000 187 78 79 0
15.620000 12.980000 30.800000 187 78 79 0
15.840000 12.980000 30.800000 187 78 79 0
16.060000 12.980000 30.800000 187 78 79 0
16.280000 12.980000 30.800000 186 77 78 0
16.500000 12.980000 31.020000 187 78 79 0
16.720000 12.980000 31.240000 186 76 80 0
16.940000 12.980000 31.240000 187 77 81 0
17.160000 12.980000 31.460000 185 76 77 0
17.380000 12.980000 31.460000 187 78 79 0
17.600000 12.980000 31.460000 186 77 78 0
17.820000 12.980000 31.680000 187 78 79 0
18.040000 12.980000 31.680000 188 78 82 0
18.260000 12.980000 31.460000 187 77 81 0
18.480000 12.980000 33.660000 187 77 81 0
18.700000 12.980000 34.760000 186 76 80 0
18.920000 12.980000 34.540000 187 76 80 0
19.140000 12.980000 34.760000 188 77 81 0
19.360000 12.980000 34.760000 186 76 80 0
19.580000 12.980000 34.760000 186 76 80 0
19.800000 12.980000 34.760000 187 77 81 0
20.020000 12.980000 34.760000 187 77 81 0
20.240000 12.980000 34.980000 187 77 81 0
20.460000 12.980000 34.980000 187 77 81 0
20.680000 12.980000 36.300000 188 77 81 0
20.900000 12.980000 36.520000 188 77 81 0
21.120000 12.980000 35.200000 187 77 81 0
21.340000 12.980000 35.200000 187 77 81 0
21.560000 12.980000 35.420000 188 77 81 0
21.780000 12.980000 35.420000 187 76 80 0
22.000000 12.980000 35.640000 188 78 82 0
22.220000 12.980000 35.640000 187 77 81 0
22.440000 12.980000 35.640000 187 76 80 0
22.660000 12.980000 35.640000 187 76 80 0
22.880000 12.980000 35.860000 187 77 81 0
23.100000 12.980000 35.860000 186 76 80 0
23.320000 12.980000 37.180000 188 76 83 0
23.540000 12.980000 38.060000 189 77 84 0
23.760000 12.980000 38.940000 187 77 83 0
23.980000 12.980000 38.720000 186 76 82 0
24.200000 12.980000 38.720000 186 74 81 0
24.420000 12.980000 38.940000 187 75 82 0
24.640000 12.980000 38.940000 187 75 82 0
24.860000 12.980000 40.260000 188 76 83 0
25.080000 12.980000 40.260000 187 75 82 0
25.300000 12.980000 40.260000 187 75 82 0
25.520000 12.980000 40.260000 187 75 82 0
25.740000 12.980000 41.580000 187 75 82 0
25.960000 12.980000 41.580000 187 75 82 0
26.180000 12.980000 41.580000 187 75 82 0
26.400000 12.980000 41.580000 188 76 83 0
26.620000 12.980000 41.800000 188 76 83 0
26.840000 12.980000 37.620000 188 76 83 0
27.060000 12.980000 20.900000 187 75 82 0
27.280000 12.980000 4.400000 187 75 82 0
27.500000 12.980000 0.220000 187 75 82 0
27.720000 12.980000 0.440000 187 75 82 0
27.940000 12.980000 0.440000 188 76 83 0
28.160000 12.980000 0.440000 188 76 83 0
28.380000 12.980000 1.760000 187 75 82 0
28.600000 12.980000 1.760000 187 75 82 0
28.820000 12.980000 1.980000 187 75 82 0
29.040000 12.980000 2.420000 188 76 83 0
29.260000 12.980000 2.420000 187 75 82 0
29.480000 12.980000 2.640000 187 75 82 0
29.700000 12.980000 2.640000 187 75 82 0
29.920000 12.980000 2.640000 188 76 83 0
30.140000 12.980000 3.740000 187 75 82 0
30.360000 12.980000 5.940000 186 74 81 0
30.580000 12.980000 7.040000 186 74 81 0
30.800000 12.980000 8.360000 186 74 83 0
31.020000 12.980000 8.360000 186 74 83 0
31.240000 12.980000 8.360000 185 73 82 0
31.460000 12.980000 9.900000 184 72 81 0
31.680000 12.980000 9.900000 184 72 81 0
31.900000 12.980000 9.900000 183 71 80 0
32.120000 12.980000 11.220000 184 72 79 0
32.340000 12.980000 11.440000 183 71 78 0
32.560000 12.980000 11.440000 184 70 80 0
32.780000 12.980000 11.440000 184 70 80 0
33.000000 12.980000 11.440000 182 70 79 0
33.220000 12.980000 12.760000 183 71 80 0
33.440000 12.980000 12.760000 181 69 78 0
33.660000 12.980000 14.080000 182 70 79 0
33.880000 12.980000 14.080000 183 71 78 0
34.100000 12.980000 14.080000 182 70 77 0
34.320000 12.980000 14.300000 184 71 78 0
34.540000 12.980000 14.740000 187 74 81 0
34.760000 12.980000 13.640000 185 73 80 0
34.980000 12.980000 14.960000 186 74 81 0
35.200000 12.980000 14.960000 188 76 83 0
35.420000 12.980000 14.960000 187 75 82 0
35.640000 12.980000 15.180000 188 76 83 0
35.860000 12.980000 14.960000 188 76 83 0
36.080000 12.980000 16.280000 189 77 84 0
36.300000 12.980000 16.280000 189 77 84 0
36.520000 12.980000 16.060000 190 80 84 0
36.740000 12.980000 16.940000 192 82 86 0
36.960000 12.980000 18.040000 193 81 88 0
37.180000 12.980000 19.360000 190 78 85 0
0.000000 13.200000 30.580000 206 203 179 0
0.220000 13.200000 30.580000 206 203 179 0
0.440000 13.200000 30.580000 205 204 178 0
0.660000 13.200000 30.800000 205 204 178 0
0.880000 13.200000 30.800000 206 204 178 0
1.100000 13.200000 30.800000 207 205 179 0
1.320000 13.200000 31.020000 206 205 179 0
1.540000 13.200000 31.020000 207 206 180 0
1.760000 13.200000 32.560000 207 206 181 0
1.980000 13.200000 32.560000 208 207 182 0
2.200000 13.200000 32.560000 207 206 180 0
2.420000 13.200000 32.560000 206 205 179 0
2.640000 13.200000 32.560000 208 203 176 0
2.860000 13.200000 32.780000 203 198 171 0
3.080000 13.200000 31.460000 210 185 162 0
3.300000 13.200000 31.460000 203 178 155 0
3.520000 13.200000 31.460000 206 165 142 0
3.740000 13.200000 31.460000 199 158 135 0
3.960000 13.200000 31.680000 199 146 125 0
4.180000 13.200000 31.680000 190 137 116 0
4.400000 13.200000 31.680000 197 123 105 0
4.620000 13.200000 32.780000 189 115 97 0
4.840000 13.200000 34.980000 189 108 99 0
5.060000 13.200000 36.080000 186 105 96 0
5.280000 13.200000 37.400000 190 102 93 0
5.500000 13.200000 38.940000 188 100 91 0
5.720000 13.200000 38.940000 192 97 90 0
5.940000 13.200000 38.940000 190 95 88 0
6.160000 13.200000 38.940000 192 92 87 0
6.380000 13.200000 40.260000 191 91 86 0
6.600000 13.200000 38.940000 191 89 87 0
6.820000 13.200000 26.400000 190 88 86 0
7.040000 13.200000 9.680000 190 88 86 0
7.260000 13.200000 4.180000 190 88 86 0
7.480000 13.200000 5.500000 188 88 85 0
7.700000 13.200000 8.360000 189 89 86 0
7.920000 13.200000 9.900000 189 87 85 0
8.140000 13.200000 12.540000 189 87 85 0
8.360000 13.200000 14.080000 191 86 85 0
8.580000 13.200000 16.940000 190 85 84 0
8.800000 13.200000 16.940000 190 85 84 0
9.020000 13.200000 18.480000 190 85 84 0
9.240000 13.200000 18.480000 189 84 83 0
9.460000 13.200000 21.120000 188 83 82 0
9.680000 13.200000 20.900000 189 83 82 0
9.900000 13.200000 21.120000 187 81 80 0
10.120000 13.200000 21.120000 188 82 81 0
10.340000 13.200000 22.660000 188 82 81 0
10.560000 13.200000 22.660000 188 82 81 0
10.780000 13.200000 22.660000 187 81 80 0
11.000000 13.200000 23.760000 187 81 80 0
11.220000 13.200000 25.080000 187 81 80 0
11.440000 13.200000 24.860000 186 80 79 0
11.660000 13.200000 26.400000 187 81 80 0
11.880000 13.200000 26.400000 186 80 79 0
12.100000 13.200000 26.400000 187 81 80 0
12.320000 13.200000 27.940000 186 80 79 0
12.540000 13.200000 27.940000 186 80 79 0
12.760000 13.200000 26.840000 185 78 79 0
12.980000 13.200000 27.060000 185 78 79 0
13.200000 13.200000 27.280000 187 78 79 0
13.420000 13.200000 26.180000 188 79 80 0
13.640000 13.200000 27.500000 187 78 79 0
13.860000 13.200000 27.280000 187 78 79 0
14.080000 13.200000 29.480000 186 77 78 0
14.300000 13.200000 30.580000 188 79 80 0
14.520000 13.200000 30.580000 187 78 79 0
14.740000 13.200000 30.580000 187 78 79 0
14.960000 13.200000 30.580000 188 79 80 0
15.180000 13.200000 30.580000 187 78 79 0
15.400000 13.200000 30.580000 187 78 79 0
15.620000 13.200000 30.800000 187 78 79 0
15.840000 13.200000 30.800000 187 78 79 0
16.060000 13.200000 30.800000 188 79 80 0
16.280000 13.200000 30.800000 187 78 79 0
16.500000 13.200000 31.020000 186 77 78 0
16.720000 13.200000 31.240000 186 76 80 0
16.940000 13.200000 31.460000 186 76 80 0
17.160000 13.200000 31.460000 185 76 77 0
17.380000 13.200000 31.460000 186 77 78 0
17.600000 13.200000 31.680000 187 78 79 0
17.820000 13.200000 31.680000 185 76 77 0
18.040000 13.200000 31.680000 186 76 80 0
18.260000 13.200000 32.560000 188 78 82 0
18.480000 13.200000 33.440000 187 77 81 0
18.700000 13.200000 34.540000 187 77 81 0
18.920000 13.200000 34.760000 187 76 80 0
19.140000 13.200000 34.760000 186 75 79 0
19.360000 13.200000 34.760000 185 75 79 0
19.580000 13.200000 34.760000 186 76 80 0
19.800000 13.200000 34.760000 187 77 81 0
20.020000 13.200000 34.760000 187 77 81 0
20.240000 13.200000 34.980000 187 77 81 0
20.460000 13.200000 36.300000 187 77 81 0
20.680000 13.200000 36.300000 189 78 82 0
20.900000 13.200000 36.520000 189 78 82 0
21.120000 13.200000 35.200000 187 77 81 0
21.340000 13.200000 35.200000 187 77 81 0
21.560000 13.200000 35.420000 186 75 79 0
21.780000 13.200000 35.420000 186 75 79 0
22.000000 13.200000 35.640000 186 76 80 0
22.220000 13.200000 35.640000 187 77 81 0
22.440000 13.200000 35.640000 187 76 80 0
22.660000 13.200000 35.640000 186 75 79 0
22.880000 13.200000 35.860000 186 76 80 0
23.100000 13.200000 35.860000 186 76 80 0
23.320000 13.200000 37.180000 187 75 82 0
23.540000 13.200000 38.060000 188 76 83 0
23.760000 13.200000 38.940000 186 76 82 0
23.980000 13.200000 38.720000 186 76 82 0
24.200000 13.200000 38.720000 185 73 80 0
24.420000 13.200000 38.720000 186 74 81 0
24.640000 13.200000 38.720000 187 75 82 0
24.860000 13.200000 40.260000 187 75 82 0
25.080000 13.200000 40.260000 187 75 82 0
25.300000 13.200000 40.260000 186 74 81 0
25.520000 13.200000 41.580000 187 75 82 0
25.740000 13.200000 41.580000 187 75 82 0
25.960000 13.200000 41.580000 188 76 83 0
26.180000 13.200000 41.580000 187 75 82 0
26.400000 13.200000 41.580000 187 75 82 0
26.620000 13.200000 41.800000 187 75 82 0
26.840000 13.200000 40.260000 186 74 81 0
27.060000 13.200000 26.620000 186 74 81 0
27.280000 13.200000 7.260000 187 75 82 0
27.500000 13.200000 0.220000 188 76 83 0
27.720000 13.200000 0.440000 189 77 84 0
27.940000 13.200000 0.440000 188 76 83 0
28.160000 13.200000 0.440000 188 76 83 0
28.380000 13.200000 1.760000 186 74 81 0
28.600000 13.200000 1.980000 185 73 80 0
28.820000 13.200000 2.200000 186 74 81 0
29.040000 13.200000 2.420000 187 75 82 0
29.260000 13.200000 2.420000 187 75 82 0
29.480000 13.200000 2.640000 187 75 82 0
29.700000 13.200000 2.640000 186 74 81 0
29.920000 13.200000 4.180000 186 74 81 0
30.140000 13.200000 5.060000 187 75 82 0
30.360000 13.200000 5.940000 186 74 81 0
30.580000 13.200000 8.360000 185 73 80 0
30.800000 13.200000 8.360000 185 73 82 0
31.020000 13.200000 8.360000 184 72 81 0
31.240000 13.200000 9.900000 183 71 80 0
31.460000 13.200000 9.900000 184 72 81 0
31.680000 13.200000 9.900000 183 71 80 0
31.900000 13.200000 9.900000 183 71 80 0
32.120000 13.200000 9.900000 185 73 80 0
32.340000 13.200000 11.440000 183 71 78 0
32.560000 13.200000 11.440000 184 70 80 0
32.780000 13.200000 11.440000 183 69 79 0
33.000000 13.200000 11.440000 182 70 79 0
33.220000 13.200000 12.760000 182 70 79 0
33.440000 13.200000 12.760000 182 70 79 0
33.660000 13.200000 12.760000 181 69 78 0
33.880000 13.200000 14.080000 182 70 77 0
34.100000 13.200000 14.300000 185 73 80 0
34.320000 13.200000 13.200000 187 74 81 0
34.540000 13.200000 13.640000 186 73 80 0
34.760000 13.200000 13.640000 186 74 81 0
34.980000 13.200000 13.640000 186 74 81 0
35.200000 13.200000 15.180000 185 73 80 0
35.420000 13.200000 15.180000 186 74 81 0
35.640000 13.200000 15.180000 187 75 82 0
35.860000 13.200000 15.180000 189 77 84 0
36.080000 13.200000 15.180000 188 76 83 0
36.300000 13.200000 15.180000 190 78 85 0
36.520000 13.200000 16.280000 191 81 85 0
36.740000 13.200000 17.160000 192 82 86 0
36.960000 13.200000 18.040000 192 80 87 0
37.180000 13.200000 19.360000 191 79 86 0
0.000000 13.420000 30.580000 203 202 177 0
0.220000 13.420000 30.580000 204 203 178 0
0.440000 13.420000 30.800000 204 203 178 0
0.660000 13.420000 30.800000 205 204 179 0
0.880000 13.420000 30.800000 205 204 179 0
1.100000 13.420000 31.020000 205 204 179 0
1.320000 13.420000 31.020000 206 205 180 0
1.540000 13.420000 31.020000 206 205 180 0
1.760000 13.420000 32.560000 205 206 183 0
1.980000 13.420000 32.560000 205 206 183 0
2.200000 13.420000 32.560000 208 207 182 0
2.420000 13.420000 32.560000 207 206 181 0
2.640000 13.420000 32.780000 206 203 179 0
2.860000 13.420000 32.780000 205 202 178 0
3.080000 13.420000 32.780000 204 199 174 0
3.300000 13.420000 31.460000 198 193 168 0
3.520000 13.420000 31.460000 198 183 155 0
3.740000 13.420000 31.460000 189 174 146 0
3.960000 13.420000 31.680000 193 165 139 0
4.180000 13.420000 31.680000 185 157 131 0
4.400000 13.420000 31.680000 193 141 122 0
4.620000 13.420000 31.680000 185 133 114 0
4.840000 13.420000 32.560000 188 121 107 0
5.060000 13.420000 34.760000 181 114 100 0
5.280000 13.420000 36.080000 190 103 91 0
5.500000 13.420000 37.400000 188 101 89 0
5.720000 13.420000 37.400000 193 95 89 0
5.940000 13.420000 38.940000 191 93 87 0
6.160000 13.420000 38.940000 190 90 88 0
6.380000 13.420000 40.260000 190 90 88 0
6.600000 13.420000 33.440000 188 86 85 0
6.820000 13.420000 15.400000 190 88 87 0
7.040000 13.420000 5.720000 189 87 86 0
7.260000 13.420000 4.180000 189 87 86 0
7.480000 13.420000 7.040000 187 87 84 0
7.700000 13.420000 8.360000 188 88 85 0
7.920000 13.420000 11.220000 187 85 84 0
8.140000 13.420000 12.540000 188 86 85 0
8.360000 13.420000 14.080000 189 84 84 0
8.580000 13.420000 16.720000 188 83 83 0
8.800000 13.420000 18.260000 187 85 84 0
9.020000 13.420000 18.260000 186 84 83 0
9.240000 13.420000 19.580000 188 83 82 0
9.460000 13.420000 20.900000 187 82 81 0
9.680000 13.420000 22.440000 187 82 82 0
9.900000 13.420000 22.440000 187 82 82 0
10.120000 13.420000 22.440000 186 81 81 0
10.340000 13.420000 22.660000 187 82 82 0
10.560000 13.420000 23.980000 187 82 82 0
10.780000 13.420000 23.980000 186 81 81 0
11.000000 13.420000 23.980000 187 80 81 0
11.220000 13.420000 25.080000 185 78 79 0
11.440000 13.420000 26.400000 183 78 78 0
11.660000 13.420000 26.400000 184 79 79 0
11.880000 13.420000 26.400000 187 80 81 0
12.100000 13.420000 26.620000 186 79 80 0
12.320000 13.420000 26.620000 185 78 79 0
12.540000 13.420000 26.840000 186 79 80 0
12.760000 13.420000 27.060000 185 78 79 0
12.980000 13.420000 26.180000 184 77 78 0
13.200000 13.420000 26.180000 185 78 79 0
13.420000 13.420000 26.180000 185 78 79 0
13.640000 13.420000 27.280000 184 77 78 0
13.860000 13.420000 29.480000 184 77 78 0
14.080000 13.420000 30.580000 186 77 78 0
14.300000 13.420000 30.580000 187 78 79 0
14.520000 13.420000 30.580000 187 78 79 0
14.740000 13.420000 30.580000 187 78 79 0
14.960000 13.420000 30.580000 185 78 79 0
15.180000 13.420000 30.580000 184 77 78 0
15.400000 13.420000 30.800000 186 76 80 0
15.620000 13.420000 30.800000 187 77 81 0
15.840000 13.420000 30.800000 186 77 78 0
16.060000 13.420000 30.800000 187 78 79 0
16.280000 13.420000 31.020000 184 77 78 0
16.500000 13.420000 31.240000 185 78 79 0
16.720000 13.420000 31.460000 185 76 77 0
16.940000 13.420000 30.140000 186 77 78 0
17.160000 13.420000 31.460000 186 76 80 0
17.380000 13.420000 31.680000 185 75 79 0
17.600000 13.420000 31.680000 184 74 78 0
17.820000 13.420000 31.680000 185 75 79 0
18.040000 13.420000 31.460000 186 76 80 0
18.260000 13.420000 33.660000 186 76 80 0
18.480000 13.420000 34.760000 186 76 80 0
18.700000 13.420000 34.540000 186 76 80 0
18.920000 13.420000 34.760000 185 75 79 0
19.140000 13.420000 34.760000 186 76 80 0
19.360000 13.420000 34.760000 185 75 79 0
19.580000 13.420000 34.760000 186 76 80 0
19.800000 13.420000 34.760000 187 77 81 0
20.020000 13.420000 34.980000 186 76 80 0
20.240000 13.420000 34.980000 186 76 80 0
20.460000 13.420000 34.980000 187 77 81 0
20.680000 13.420000 36.300000 187 77 81 0
20.900000 13.420000 35.200000 187 77 81 0
21.120000 13.420000 35.200000 187 77 81 0
21.340000 13.420000 35.420000 187 77 81 0
21.560000 13.420000 35.420000 186 76 80 0
21.780000 13.420000 35.640000 184 74 78 0
22.000000 13.420000 35.640000 187 77 81 0
22.220000 13.420000 35.640000 185 75 79 0
22.440000 13.420000 35.640000 185 75 79 0
22.660000 13.420000 35.860000 187 77 81 0
22.880000 13.420000 35.860000 185 75 79 0
23.100000 13.420000 35.860000 186 76 80 0
23.320000 13.420000 36.960000 187 77 83 0
23.540000 13.420000 37.840000 186 76 82 0
23.760000 13.420000 38.940000 187 77 83 0
23.980000 13.420000 38.720000 187 77 83 0
24.200000 13.420000 38.720000 184 74 80 0
24.420000 13.420000 38.720000 184 74 80 0
24.640000 13.420000 40.260000 185 75 81 0
24.860000 13.420000 40.260000 186 76 82 0
25.080000 13.420000 40.260000 185 75 81 0
25.300000 13.420000 41.580000 185 75 81 0
25.520000 13.420000 41.580000 185 75 81 0
25.740000 13.420000 41.580000 185 75 81 0
25.960000 13.420000 41.580000 185 75 81 0
26.180000 13.420000 41.580000 184 74 80 0
26.400000 13.420000 41.800000 185 75 81 0
26.620000 13.420000 40.260000 184 74 80 0
26.840000 13.420000 34.760000 184 74 80 0
27.060000 13.420000 23.760000 185 75 81 0
27.280000 13.420000 8.580000 185 75 81 0
27.500000 13.420000 0.440000 186 76 82 0
27.720000 13.420000 0.440000 188 78 84 0
27.940000 13.420000 0.440000 187 77 83 0
28.160000 13.420000 0.440000 186 76 82 0
28.380000 13.420000 0.660000 184 74 80 0
28.600000 13.420000 0.880000 184 74 80 0
28.820000 13.420000 1.100000 185 75 81 0
29.040000 13.420000 2.640000 185 75 81 0
29.260000 13.420000 2.640000 184 74 80 0
29.480000 13.420000 2.640000 185 73 80 0
29.700000 13.420000 3.960000 185 73 80 0
29.920000 13.420000 3.960000 185 73 82 0
30.140000 13.420000 5.060000 185 73 82 0
30.360000 13.420000 7.260000 184 74 80 0
30.580000 13.420000 8.360000 183 73 79 0
30.800000 13.420000 8.360000 183 73 81 0
31.020000 13.420000 9.680000 184 74 82 0
31.240000 13.420000 9.900000 183 71 78 0
31.460000 13.420000 9.900000 182 70 77 0
31.680000 13.420000 9.900000 181 71 77 0
31.900000 13.420000 9.900000 181 71 77 0
32.120000 13.420000 9.900000 181 71 79 0
32.340000 13.420000 11.440000 182 72 80 0
32.560000 13.420000 11.440000 181 69 78 0
32.780000 13.420000 11.440000 182 70 79 0
33.000000 13.420000 11.440000 181 69 78 0
33.220000 13.420000 12.760000 181 69 78 0
33.440000 13.420000 12.760000 181 69 78 0
33.660000 13.420000 12.760000 181 69 78 0
33.880000 13.420000 14.080000 181 69 76 0
34.100000 13.420000 14.300000 184 72 79 0
34.320000 13.420000 13.420000 185 73 80 0
34.540000 13.420000 13.640000 186 74 81 0
34.760000 13.420000 13.640000 186 74 81 0
34.980000 13.420000 13.640000 185 73 80 0
35.200000 13.420000 15.180000 186 74 81 0
35.420000 13.420000 15.180000 185 73 80 0
35.640000 13.420000 15.180000 186 76 82 0
35.860000 13.420000 15.180000 187 77 83 0
36.080000 13.420000 15.180000 189 79 85 0
36.300000 13.420000 15.180000 189 79 85 0
36.520000 13.420000 14.960000 190 80 86 0
36.740000 13.420000 16.060000 191 81 87 0
36.960000 13.420000 16.940000 192 82 88 0
37.180000 13.420000 18.260000 188 78 84 0
0.000000 13.640000 30.580000 204 203 178 0
0.220000 13.640000 30.580000 204 203 178 0
0.440000 13.640000 30.800000 204 203 178 0
0.660000 13.640000 30.800000 204 203 178 0
0.880000 13.640000 30.800000 205 204 179 0
1.100000 13.640000 31.020000 205 204 179 0
1.320000 13.640000 31.020000 206 205 180 0
1.540000 13.640000 31.020000 207 206 181 0
1.760000 13.640000 32.560000 205 206 183 0
1.980000 13.640000 32.560000 206 207 184 0
2.200000 13.640000 32.560000 208 207 182 0
2.420000 13.640000 32.560000 207 206 181 0
2.640000 13.640000 32.780000 208 205 181 0
2.860000 13.640000 32.780000 206 203 179 0
3.080000 13.640000 32.780000 208 203 178 0
3.300000 13.640000 32.780000 204 199 174 0
3.520000 13.640000 31.460000 206 191 163 0
3.740000 13.640000 31.460000 199 184 156 0
3.960000 13.640000 31.680000 203 175 149 0
4.180000 13.640000 31.680000 195 167 141 0
4.400000 13.640000 31.680000 203 151 132 0
4.620000 13.640000 31.680000 198 146 127 0
4.840000 13.640000 32.780000 199 132 118 0
5.060000 13.640000 33.660000 190 123 109 0
5.280000 13.640000 36.080000 195 108 96 0
5.500000 13.640000 37.400000 188 101 89 0
5.720000 13.640000 37.400000 193 95 89 0
5.940000 13.640000 38.940000 191 93 87 0
6.160000 13.640000 38.940000 190 90 88 0
6.380000 13.640000 40.260000 189 89 87 0
6.600000 13.640000 30.580000 189 87 86 0
6.820000 13.640000 10.120000 189 87 86 0
7.040000 13.640000 2.860000 189 87 86 0
7.260000 13.640000 5.500000 188 86 85 0
7.480000 13.640000 8.360000 187 87 84 0
7.700000 13.640000 9.900000 186 86 83 0
7.920000 13.640000 11.220000 188 86 85 0
8.140000 13.640000 12.540000 187 85 84 0
8.360000 13.640000 14.080000 189 84 84 0
8.580000 13.640000 16.720000 189 84 84 0
8.800000 13.640000 18.260000 186 84 83 0
9.020000 13.640000 19.580000 186 84 83 0
9.240000 13.640000 20.900000 188 83 82 0
9.460000 13.640000 22.220000 187 82 81 0
9.680000 13.640000 22.440000 187 82 82 0
9.900000 13.640000 22.440000 187 82 82 0
10.120000 13.640000 23.980000 186 81 81 0
10.340000 13.640000 23.980000 186 81 81 0
10.560000 13.640000 23.760000 187 82 82 0
10.780000 13.640000 25.080000 185 80 80 0
11.000000 13.640000 25.080000 186 79 80 0
11.220000 13.640000 26.400000 185 78 79 0
11.440000 13.640000 26.400000 184 79 79 0
11.660000 13.640000 26.400000 185 80 80 0
11.880000 13.640000 26.620000 185 78 79 0
12.100000 13.640000 26.840000 186 79 80 0
12.320000 13.640000 27.060000 186 79 80 0
12.540000 13.640000 25.960000 186 79 80 0
12.760000 13.640000 25.960000 187 80 81 0
12.980000 13.640000 26.180000 185 78 79 0
13.200000 13.640000 27.500000 185 78 79 0
13.420000 13.640000 27.280000 185 78 79 0
13.640000 13.640000 29.480000 185 78 79 0
13.860000 13.640000 29.260000 185 78 79 0
14.080000 13.640000 30.580000 185 76 77 0
14.300000 13.640000 30.580000 186 77 78 0
14.520000 13.640000 30.580000 186 77 78 0
14.740000 13.640000 30.580000 186 77 78 0
14.960000 13.640000 30.580000 185 78 79 0
15.180000 13.640000 30.580000 185 78 79 0
15.400000 13.640000 30.800000 186 76 80 0
15.620000 13.640000 30.800000 187 77 81 0
15.840000 13.640000 30.800000 186 77 78 0
16.060000 13.640000 30.800000 186 77 78 0
16.280000 13.640000 31.020000 185 78 79 0
16.500000 13.640000 31.240000 185 78 79 0
16.720000 13.640000 30.140000 187 78 79 0
16.940000 13.640000 30.140000 186 77 78 0
17.160000 13.640000 31.460000 186 76 80 0
17.380000 13.640000 31.680000 186 76 80 0
17.600000 13.640000 31.680000 186 76 80 0
17.820000 13.640000 31.680000 185 75 79 0
18.040000 13.640000 32.560000 186 76 80 0
18.260000 13.640000 33.440000 186 76 80 0
18.480000 13.640000 34.540000 185 75 79 0
18.700000 13.640000 34.540000 186 76 80 0
18.920000 13.640000 34.760000 185 75 79 0
19.140000 13.640000 34.760000 186 76 80 0
19.360000 13.640000 34.760000 186 76 80 0
19.580000 13.640000 34.760000 186 76 80 0
19.800000 13.640000 34.760000 186 76 80 0
20.020000 13.640000 34.980000 186 76 80 0
20.240000 13.640000 34.980000 186 76 80 0
20.460000 13.640000 36.300000 186 76 80 0
20.680000 13.640000 36.520000 185 75 79 0
20.900000 13.640000 35.200000 186 76 80 0
21.120000 13.640000 35.200000 187 77 81 0
21.340000 13.640000 35.420000 187 77 81 0
21.560000 13.640000 35.420000 187 77 81 0
21.780000 13.640000 35.640000 186 76 80 0
22.000000 13.640000 35.640000 186 76 80 0
22.220000 13.640000 35.640000 187 77 81 0
22.440000 13.640000 35.640000 186 76 80 0
22.660000 13.640000 35.860000 186 76 80 0
22.880000 13.640000 35.860000 187 77 81 0
23.100000 13.640000 35.860000 186 76 80 0
23.320000 13.640000 36.740000 186 76 82 0
23.540000 13.640000 38.940000 186 76 82 0
23.760000 13.640000 38.720000 187 77 83 0
23.980000 13.640000 38.720000 187 77 83 0
24.200000 13.640000 38.940000 186 76 82 0
24.420000 13.640000 40.260000 185 75 81 0
24.640000 13.640000 40.260000 187 77 83 0
24.860000 13.640000 40.260000 185 75 81 0
25.080000 13.640000 40.260000 186 76 82 0
25.300000 13.640000 41.580000 184 74 80 0
25.520000 13.640000 41.580000 186 76 82 0
25.740000 13.640000 41.580000 185 75 81 0
25.960000 13.640000 41.580000 185 75 81 0
26.180000 13.640000 41.580000 184 74 80 0
26.400000 13.640000 41.800000 186 76 82 0
26.620000 13.640000 34.760000 184 74 80 0
26.840000 13.640000 18.260000 184 74 80 0
27.060000 13.640000 7.260000 185 75 81 0
27.280000 13.640000 3.080000 185 75 81 0
27.500000 13.640000 0.440000 185 75 81 0
27.720000 13.640000 0.440000 187 77 83 0
27.940000 13.640000 1.760000 187 77 83 0
28.160000 13.640000 1.980000 185 75 81 0
28.380000 13.640000 2.200000 185 75 81 0
28.600000 13.640000 1.100000 185 75 81 0
28.820000 13.640000 2.640000 185 75 81 0
29.040000 13.640000 2.640000 185 75 81 0
29.260000 13.640000 2.640000 184 74 80 0
29.480000 13.640000 2.640000 185 73 80 0
29.700000 13.640000 3.960000 185 73 80 0
29.920000 13.640000 5.060000 185 73 82 0
30.140000 13.640000 5.940000 186 74 83 0
30.360000 13.640000 8.360000 184 74 80 0
30.580000 13.640000 8.360000 184 74 80 0
30.800000 13.640000 8.360000 182 72 80 0
31.020000 13.640000 8.360000 183 73 81 0
31.240000 13.640000 9.900000 183 71 78 0
31.460000 13.640000 9.900000 182 70 77 0
31.680000 13.640000 9.900000 182 72 78 0
31.900000 13.640000 9.900000 182 72 78 0
32.120000 13.640000 9.900000 181 71 79 0
32.340000 13.640000 11.440000 182 72 80 0
32.560000 13.640000 11.440000 183 71 80 0
32.780000 13.640000 11.440000 181 69 78 0
33.000000 13.640000 11.440000 182 70 79 0
33.220000 13.640000 12.760000 180 68 77 0
33.440000 13.640000 12.760000 180 68 77 0
33.660000 13.640000 14.300000 181 69 78 0
33.880000 13.640000 14.080000 183 71 78 0
34.100000 13.640000 14.300000 184 72 79 0
34.320000 13.640000 13.420000 185 73 80 0
34.540000 13.640000 13.640000 186 74 81 0
34.760000 13.640000 13.640000 187 75 82 0
34.980000 13.640000 14.960000 187 75 82 0
35.200000 13.640000 14.960000 185 73 80 0
35.420000 13.640000 14.960000 187 75 82 0
35.640000 13.640000 14.960000 186 76 82 0
35.860000 13.640000 14.960000 188 78 84 0
36.080000 13.640000 15.180000 190 80 86 0
36.300000 13.640000 15.180000 191 81 87 0
36.520000 13.640000 15.180000 191 81 87 0
36.740000 13.640000 14.960000 191 81 87 0
36.960000 13.640000 16.060000 189 79 85 0
37.180000 13.640000 17.160000 189 79 85 0
0.000000 13.860000 30.580000 206 204 178 0
0.220000 13.860000 30.580000 205 203 177 0
0.440000 13.860000 30.800000 204 203 178 0
0.660000 13.860000 30.800000 205 204 179 0
0.880000 13.860000 30.800000 205 204 179 0
1.100000 13.860000 31.020000 206 205 180 0
1.320000 13.860000 31.020000 206 205 180 0
1.540000 13.860000 31.020000 207 206 181 0
1.760000 13.860000 32.560000 207 206 181 0
1.980000 13.860000 32.560000 207 206 181 0
2.200000 13.860000 32.560000 208 207 182 0
2.420000 13.860000 32.560000 208 207 182 0
2.640000 13.860000 32.780000 208 205 181 0
2.860000 13.860000 32.780000 208 205 181 0
3.080000 13.860000 32.780000 208 203 179 0
3.300000 13.860000 32.780000 207 202 178 0
3.520000 13.860000 32.780000 207 201 174 0
3.740000 13.860000 31.460000 205 199 172 0
3.960000 13.860000 31.680000 200 190 160 0
4.180000 13.860000 31.680000 194 184 154 0
4.400000 13.860000 31.680000 198 173 146 0
4.620000 13.860000 31.680000 190 165 138 0
4.840000 13.860000 31.680000 195 149 128 0
5.060000 13.860000 32.560000 188 142 121 0
5.280000 13.860000 34.760000 195 122 110 0
5.500000 13.860000 36.080000 187 114 102 0
5.720000 13.860000 36.080000 192 98 91 0
5.940000 13.860000 37.400000 190 96 89 0
6.160000 13.860000 38.940000 192 90 86 0
6.380000 13.860000 40.260000 191 89 85 0
6.600000 13.860000 30.580000 190 88 86 0
6.820000 13.860000 11.220000 189 87 85 0
7.040000 13.860000 2.860000 190 88 86 0
7.260000 13.860000 7.040000 189 87 85 0
7.480000 13.860000 9.680000 188 88 83 0
7.700000 13.860000 11.220000 187 87 82 0
7.920000 13.860000 12.540000 189 84 83 0
8.140000 13.860000 14.080000 189 84 83 0
8.360000 13.860000 14.080000 189 84 84 0
8.580000 13.860000 15.400000 189 84 84 0
8.800000 13.860000 18.260000 190 85 84 0
9.020000 13.860000 19.800000 188 83 82 0
9.240000 13.860000 20.900000 188 83 82 0
9.460000 13.860000 22.220000 187 82 81 0
9.680000 13.860000 23.760000 188 82 81 0
9.900000 13.860000 23.760000 189 83 82 0
10.120000 13.860000 23.760000 188 81 82 0
10.340000 13.860000 25.080000 188 81 82 0
10.560000 13.860000 25.080000 189 80 81 0
10.780000 13.860000 26.400000 188 79 80 0
11.000000 13.860000 26.400000 188 79 80 0
11.220000 13.860000 26.400000 187 78 79 0
11.440000 13.860000 26.400000 185 78 79 0
11.660000 13.860000 27.940000 185 78 79 0
11.880000 13.860000 26.620000 187 78 79 0
12.100000 13.860000 27.060000 189 80 81 0
12.320000 13.860000 25.960000 188 79 80 0
12.540000 13.860000 26.180000 188 79 80 0
12.760000 13.860000 26.180000 188 79 80 0
12.980000 13.860000 26.180000 187 78 79 0
13.200000 13.860000 27.280000 187 78 79 0
13.420000 13.860000 28.160000 187 78 79 0
13.640000 13.860000 29.260000 188 78 82 0
13.860000 13.860000 30.580000 187 77 81 0
14.080000 13.860000 30.580000 187 77 81 0
14.300000 13.860000 30.580000 187 77 81 0
14.520000 13.860000 30.580000 187 78 79 0
14.740000 13.860000 30.580000 187 78 79 0
14.960000 13.860000 30.580000 187 78 79 0
15.180000 13.860000 30.800000 186 77 78 0
15.400000 13.860000 30.800000 187 77 81 0
15.620000 13.860000 30.800000 187 77 81 0
15.840000 13.860000 30.800000 186 76 80 0
16.060000 13.860000 32.120000 186 76 80 0
16.280000 13.860000 30.800000 186 77 78 0
16.500000 13.860000 31.240000 187 78 79 0
16.720000 13.860000 30.140000 187 78 79 0
16.940000 13.860000 30.140000 187 78 79 0
17.160000 13.860000 31.680000 186 76 80 0
17.380000 13.860000 31.680000 188 78 82 0
17.600000 13.860000 31.680000 186 76 80 0
17.820000 13.860000 31.460000 185 75 79 0
18.040000 13.860000 33.660000 187 76 80 0
18.260000 13.860000 34.760000 188 77 81 0
18.480000 13.860000 34.540000 188 79 80 0
18.700000 13.860000 34.760000 187 78 79 0
18.920000 13.860000 34.760000 187 77 81 0
19.140000 13.860000 34.760000 186 76 80 0
19.360000 13.860000 34.760000 186 76 80 0
19.580000 13.860000 34.760000 188 78 82 0
19.800000 13.860000 34.760000 187 77 81 0
20.020000 13.860000 34.980000 186 76 80 0
20.240000 13.860000 36.300000 189 78 82 0
20.460000 13.860000 36.300000 187 76 80 0
20.680000 13.860000 36.520000 186 76 80 0
20.900000 13.860000 35.200000 186 76 80 0
21.120000 13.860000 35.200000 186 76 80 0
21.340000 13.860000 35.420000 188 78 82 0
21.560000 13.860000 35.640000 188 77 81 0
21.780000 13.860000 35.640000 188 77 81 0
22.000000 13.860000 35.640000 185 75 79 0
22.220000 13.860000 35.640000 187 77 81 0
22.440000 13.860000 35.860000 187 77 81 0
22.660000 13.860000 35.860000 187 77 81 0
22.880000 13.860000 35.860000 186 76 80 0
23.100000 13.860000 36.960000 187 77 81 0
23.320000 13.860000 37.840000 186 75 79 0
23.540000 13.860000 38.940000 188 77 81 0
23.760000 13.860000 38.720000 187 77 81 0
23.980000 13.860000 38.720000 186 76 80 0
24.200000 13.860000 38.720000 189 77 84 0
24.420000 13.860000 40.260000 187 75 82 0
24.640000 13.860000 40.260000 186 76 80 0
24.860000 13.860000 40.260000 187 77 81 0
25.080000 13.860000 40.260000 187 75 82 0
25.300000 13.860000 41.580000 187 75 82 0
25.520000 13.860000 41.580000 187 75 82 0
25.740000 13.860000 41.580000 186 74 81 0
25.960000 13.860000 41.580000 187 75 82 0
26.180000 13.860000 41.800000 186 74 81 0
26.400000 13.860000 41.800000 186 76 82 0
26.620000 13.860000 32.120000 186 76 82 0
26.840000 13.860000 9.900000 187 75 82 0
27.060000 13.860000 0.440000 186 74 81 0
27.280000 13.860000 0.440000 185 73 82 0
27.500000 13.860000 0.440000 186 74 83 0
27.720000 13.860000 0.440000 186 74 81 0
27.940000 13.860000 1.760000 186 74 81 0
28.160000 13.860000 1.980000 186 74 81 0
28.380000 13.860000 2.200000 187 75 82 0
28.600000 13.860000 2.420000 187 75 82 0
28.820000 13.860000 2.640000 188 76 83 0
29.040000 13.860000 2.640000 187 75 84 0
29.260000 13.860000 2.640000 187 75 84 0
29.480000 13.860000 2.640000 187 75 82 0
29.700000 13.860000 5.060000 187 75 82 0
29.920000 13.860000 5.940000 187 75 82 0
30.140000 13.860000 7.040000 185 73 80 0
30.360000 13.860000 8.360000 186 74 81 0
30.580000 13.860000 8.360000 185 73 80 0
30.800000 13.860000 8.360000 184 72 81 0
31.020000 13.860000 8.360000 183 71 80 0
31.240000 13.860000 9.900000 183 71 80 0
31.460000 13.860000 9.900000 182 70 79 0
31.680000 13.860000 9.900000 183 71 78 0
31.900000 13.860000 9.900000 182 70 77 0
32.120000 13.860000 9.900000 182 70 77 0
32.340000 13.860000 11.440000 183 71 78 0
32.560000 13.860000 11.440000 184 72 81 0
32.780000 13.860000 11.440000 183 71 80 0
33.000000 13.860000 12.760000 182 70 77 0
33.220000 13.860000 12.980000 181 69 76 0
33.440000 13.860000 12.760000 182 70 77 0
33.660000 13.860000 14.080000 183 71 78 0
33.880000 13.860000 15.400000 185 73 80 0
34.100000 13.860000 14.300000 185 73 80 0
34.320000 13.860000 13.420000 186 73 80 0
34.540000 13.860000 13.640000 187 74 81 0
34.760000 13.860000 13.640000 187 75 82 0
34.980000 13.860000 14.960000 185 73 80 0
35.200000 13.860000 14.960000 186 74 81 0
35.420000 13.860000 14.960000 188 76 83 0
35.640000 13.860000 14.960000 189 77 84 0
35.860000 13.860000 14.960000 189 77 84 0
36.080000 13.860000 15.180000 191 81 85 0
36.300000 13.860000 15.180000 192 82 86 0
36.520000 13.860000 15.180000 191 81 87 0
36.740000 13.860000 15.180000 190 80 86 0
36.960000 13.860000 16.280000 190 80 86 0
37.180000 13.860000 16.060000 190 80 86 0
0.000000 14.080000 30.580000 206 204 178 0
0.220000 14.080000 30.580000 205 203 177 0
0.440000 14.080000 30.800000 204 203 178 0
0.660000 14.080000 30.800000 205 204 179 0
0.880000 14.080000 30.800000 206 205 180 0
1.100000 14.080000 31.020000 206 205 180 0
1.320000 14.080000 31.020000 207 206 181 0
1.540000 14.080000 31.020000 207 206 181 0
1.760000 14.080000 32.560000 207 206 181 0
1.980000 14.080000 32.560000 208 207 182 0
2.200000 14.080000 32.560000 208 207 182 0
2.420000 14.080000 32.560000 207 206 181 0
2.640000 14.080000 32.780000 208 205 181 0
2.860000 14.080000 32.780000 207 204 180 0
3.080000 14.080000 32.780000 208 203 179 0
3.300000 14.080000 32.780000 208 203 179 0
3.520000 14.080000 33.000000 208 202 175 0
3.740000 14.080000 33.000000 208 202 175 0
3.960000 14.080000 31.680000 209 199 169 0
4.180000 14.080000 31.680000 204 194 164 0
4.400000 14.080000 31.680000 207 182 155 0
4.620000 14.080000 31.680000 201 176 149 0
4.840000 14.080000 31.680000 207 161 140 0
5.060000 14.080000 32.780000 199 153 132 0
5.280000 14.080000 33.440000 206 133 121 0
5.500000 14.080000 34.540000 197 124 112 0
5.720000 14.080000 36.080000 199 105 98 0
5.940000 14.080000 37.400000 192 98 91 0
6.160000 14.080000 37.400000 193 91 87 0
6.380000 14.080000 38.720000 191 89 85 0
6.600000 14.080000 30.580000 190 88 86 0
6.820000 14.080000 11.000000 189 87 85 0
7.040000 14.080000 4.180000 189 87 85 0
7.260000 14.080000 7.040000 189 87 85 0
7.480000 14.080000 9.680000 188 88 83 0
7.700000 14.080000 11.220000 190 90 85 0
7.920000 14.080000 12.540000 190 85 84 0
8.140000 14.080000 14.080000 189 84 83 0
8.360000 14.080000 14.080000 189 84 84 0
8.580000 14.080000 16.720000 189 84 84 0
8.800000 14.080000 18.260000 189 84 83 0
9.020000 14.080000 19.580000 188 83 82 0
9.240000 14.080000 22.220000 188 83 82 0
9.460000 14.080000 23.760000 188 83 82 0
9.680000 14.080000 23.760000 188 82 81 0
9.900000 14.080000 25.080000 188 82 81 0
10.120000 14.080000 25.080000 189 82 83 0
10.340000 14.080000 25.080000 188 81 82 0
10.560000 14.080000 26.400000 189 80 81 0
10.780000 14.080000 26.400000 189 80 81 0
11.000000 14.080000 26.400000 188 79 80 0
11.220000 14.080000 26.620000 187 78 79 0
11.440000 14.080000 26.620000 185 78 79 0
11.660000 14.080000 26.620000 187 80 81 0
11.880000 14.080000 26.840000 188 79 80 0
12.100000 14.080000 25.960000 188 79 80 0
12.320000 14.080000 26.180000 188 79 80 0
12.540000 14.080000 26.180000 189 80 81 0
12.760000 14.080000 26.180000 188 79 80 0
12.980000 14.080000 26.180000 188 79 80 0
13.200000 14.080000 27.060000 187 78 79 0
13.420000 14.080000 29.260000 187 78 79 0
13.640000 14.080000 30.580000 187 77 81 0
13.860000 14.080000 30.580000 188 78 82 0
14.080000 14.080000 30.580000 186 76 80 0
14.300000 14.080000 30.580000 186 76 80 0
14.520000 14.080000 30.580000 186 77 78 0
14.740000 14.080000 30.580000 186 77 78 0
14.960000 14.080000 30.800000 187 78 79 0
15.180000 14.080000 30.800000 186 77 78 0
15.400000 14.080000 30.800000 186 76 80 0
15.620000 14.080000 30.800000 186 76 80 0
15.840000 14.080000 30.800000 185 75 79 0
16.060000 14.080000 30.800000 186 76 80 0
16.280000 14.080000 31.020000 187 78 79 0
16.500000 14.080000 31.240000 186 77 78 0
16.720000 14.080000 30.140000 187 78 79 0
16.940000 14.080000 30.140000 187 78 79 0
17.160000 14.080000 31.680000 187 77 81 0
17.380000 14.080000 31.680000 187 77 81 0
17.600000 14.080000 31.680000 185 75 79 0
17.820000 14.080000 32.560000 186 76 80 0
18.040000 14.080000 33.440000 188 77 81 0
18.260000 14.080000 34.540000 188 77 81 0
18.480000 14.080000 34.540000 186 77 78 0
18.700000 14.080000 34.760000 185 76 77 0
18.920000 14.080000 34.760000 187 77 81 0
19.140000 14.080000 34.760000 187 77 81 0
19.360000 14.080000 34.760000 187 77 81 0
19.580000 14.080000 34.760000 187 77 81 0
19.800000 14.080000 34.760000 188 78 82 0
20.020000 14.080000 36.300000 187 77 81 0
20.240000 14.080000 36.300000 188 77 81 0
20.460000 14.080000 36.300000 185 74 78 0
20.680000 14.080000 36.520000 186 76 80 0
20.900000 14.080000 35.200000 186 76 80 0
21.120000 14.080000 35.420000 187 77 81 0
21.340000 14.080000 35.420000 187 77 81 0
21.560000 14.080000 35.640000 189 78 82 0
21.780000 14.080000 35.640000 187 76 80 0
22.000000 14.080000 35.640000 187 77 81 0
22.220000 14.080000 35.640000 187 77 81 0
22.440000 14.080000 35.860000 188 78 82 0
22.660000 14.080000 35.860000 187 77 81 0
22.880000 14.080000 36.960000 186 76 80 0
23.100000 14.080000 37.840000 186 76 80 0
23.320000 14.080000 38.720000 188 77 81 0
23.540000 14.080000 38.720000 189 78 82 0
23.760000 14.080000 38.720000 187 77 81 0
23.980000 14.080000 38.720000 187 77 81 0
24.200000 14.080000 40.260000 188 76 83 0
24.420000 14.080000 40.260000 188 76 83 0
24.640000 14.080000 40.260000 186 76 80 0
24.860000 14.080000 40.260000 186 76 80 0
25.080000 14.080000 40.260000 188 76 83 0
25.300000 14.080000 41.580000 187 75 82 0
25.520000 14.080000 41.580000 187 75 82 0
25.740000 14.080000 41.580000 187 75 82 0
25.960000 14.080000 41.580000 186 74 81 0
26.180000 14.080000 38.940000 186 74 81 0
26.400000 14.080000 34.760000 185 75 81 0
26.620000 14.080000 23.760000 185 75 81 0
26.840000 14.080000 7.260000 187 75 82 0
27.060000 14.080000 0.440000 186 74 81 0
27.280000 14.080000 0.440000 185 73 82 0
27.500000 14.080000 0.440000 186 74 83 0
27.720000 14.080000 1.760000 186 74 81 0
27.940000 14.080000 1.760000 186 74 81 0
28.160000 14.080000 1.980000 187 75 82 0
28.380000 14.080000 2.200000 187 75 82 0
28.600000 14.080000 2.420000 188 76 83 0
28.820000 14.080000 2.640000 186 74 81 0
29.040000 14.080000 2.640000 185 73 82 0
29.260000 14.080000 2.640000 186 74 83 0
29.480000 14.080000 3.740000 186 74 81 0
29.700000 14.080000 5.940000 185 73 80 0
29.920000 14.080000 7.040000 185 73 80 0
30.140000 14.080000 7.040000 184 72 79 0
30.360000 14.080000 8.360000 185 73 80 0
30.580000 14.080000 8.360000 185 73 80 0
30.800000 14.080000 8.360000 183 71 80 0
31.020000 14.080000 9.900000 182 70 79 0
31.240000 14.080000 9.900000 183 71 80 0
31.460000 14.080000 9.900000 182 70 79 0
31.680000 14.080000 9.900000 183 71 78 0
31.900000 14.080000 9.900000 183 71 78 0
32.120000 14.080000 11.440000 182 70 77 0
32.340000 14.080000 11.440000 182 70 77 0
32.560000 14.080000 11.440000 182 70 79 0
32.780000 14.080000 11.440000 182 70 79 0
33.000000 14.080000 12.980000 184 72 79 0
33.220000 14.080000 12.980000 183 71 78 0
33.440000 14.080000 12.980000 183 71 78 0
33.660000 14.080000 14.300000 184 72 79 0
33.880000 14.080000 14.300000 186 74 81 0
34.100000 14.080000 14.740000 185 73 80 0
34.320000 14.080000 13.640000 186 73 80 0
34.540000 14.080000 13.640000 186 73 80 0
34.760000 14.080000 14.960000 186 74 81 0
34.980000 14.080000 14.960000 189 77 84 0
35.200000 14.080000 14.960000 187 75 82 0
35.420000 14.080000 14.960000 189 77 84 0
35.640000 14.080000 14.960000 191 79 86 0
35.860000 14.080000 14.960000 192 80 87 0
36.080000 14.080000 15.180000 190 80 84 0
36.300000 14.080000 15.180000 191 81 85 0
36.520000 14.080000 15.180000 191 81 87 0
36.740000 14.080000 15.180000 190 80 86 0
36.960000 14.080000 15.180000 190 80 86 0
37.180000 14.080000 14.960000 190 80 86 0
0.000000 14.300000 30.580000 206 204 178 0
0.220000 14.300000 30.580000 206 204 178 0
0.440000 14.300000 30.800000 206 203 179 0
0.660000 14.300000 30.800000 206 203 179 0
0.880000 14.300000 30.800000 207 204 180 0
1.100000 14.300000 31.020000 207 204 180 0
1.320000 14.300000 31.020000 208 205 181 0
1.540000 14.300000 31.020000 208 205 181 0
1.760000 14.300000 32.560000 209 207 181 0
1.980000 14.300000 32.560000 208 206 180 0
2.200000 14.300000 32.560000 208 206 180 0
2.420000 14.300000 32.560000 207 205 179 0
2.640000 14.300000 32.780000 209 204 179 0
2.860000 14.300000 32.780000 209 204 179 0
3.080000 14.300000 32.780000 208 203 179 0
3.300000 14.300000 32.780000 208 203 179 0
3.520000 14.300000 33.000000 208 203 178 0
3.740000 14.300000 33.000000 207 202 177 0
3.960000 14.300000 33.000000 207 202 177 0
4.180000 14.300000 33.000000 206 201 176 0
4.400000 14.300000 31.680000 205 197 169 0
4.620000 14.300000 31.680000 197 189 161 0
4.840000 14.300000 31.680000 202 178 149 0
5.060000 14.300000 32.780000 193 169 140 0
5.280000 14.300000 33.440000 199 150 131 0
5.500000 14.300000 34.540000 190 141 122 0
5.720000 14.300000 34.540000 198 123 112 0
5.940000 14.300000 36.080000 188 113 102 0
6.160000 14.300000 37.400000 194 94 91 0
6.380000 14.300000 38.720000 191 91 88 0
6.600000 14.300000 30.360000 190 88 84 0
6.820000 14.300000 11.000000 190 88 84 0
7.040000 14.300000 4.180000 189 87 83 0
7.260000 14.300000 8.360000 188 86 82 0
7.480000 14.300000 9.680000 189 87 85 0
7.700000 14.300000 11.220000 189 87 85 0
7.920000 14.300000 12.540000 189 84 83 0
8.140000 14.300000 14.080000 189 84 83 0
8.360000 14.300000 14.080000 189 84 83 0
8.580000 14.300000 15.400000 188 83 82 0
8.800000 14.300000 18.040000 188 83 82 0
9.020000 14.300000 20.680000 188 83 82 0
9.240000 14.300000 22.220000 188 83 82 0
9.460000 14.300000 23.540000 187 82 81 0
9.680000 14.300000 25.080000 189 83 82 0
9.900000 14.300000 25.080000 188 82 81 0
10.120000 14.300000 25.080000 187 80 81 0
10.340000 14.300000 26.400000 186 79 80 0
10.560000 14.300000 26.400000 186 79 80 0
10.780000 14.300000 26.620000 185 78 79 0
11.000000 14.300000 26.620000 187 78 79 0
11.220000 14.300000 26.620000 187 78 79 0
11.440000 14.300000 26.620000 186 77 78 0
11.660000 14.300000 26.840000 186 77 78 0
11.880000 14.300000 27.060000 187 78 79 0
12.100000 14.300000 25.960000 187 78 79 0
12.320000 14.300000 26.180000 188 79 80 0
12.540000 14.300000 25.960000 188 79 80 0
12.760000 14.300000 27.280000 188 79 80 0
12.980000 14.300000 27.060000 187 78 79 0
13.200000 14.300000 28.160000 188 79 80 0
13.420000 14.300000 29.260000 187 78 79 0
13.640000 14.300000 30.580000 187 78 79 0
13.860000 14.300000 30.580000 187 78 79 0
14.080000 14.300000 30.580000 187 77 81 0
14.300000 14.300000 30.580000 187 77 81 0
14.520000 14.300000 30.580000 185 76 77 0
14.740000 14.300000 30.580000 187 78 79 0
14.960000 14.300000 30.800000 187 76 80 0
15.180000 14.300000 30.800000 187 76 80 0
15.400000 14.300000 30.800000 186 76 80 0
15.620000 14.300000 30.800000 187 77 81 0
15.840000 14.300000 30.800000 187 77 81 0
16.060000 14.300000 31.020000 187 77 81 0
16.280000 14.300000 31.240000 186 77 78 0
16.500000 14.300000 31.460000 185 76 77 0
16.720000 14.300000 30.140000 186 77 78 0
16.940000 14.300000 31.680000 186 77 78 0
17.160000 14.300000 31.680000 187 77 81 0
17.380000 14.300000 31.680000 185 75 79 0
17.600000 14.300000 31.460000 186 76 80 0
17.820000 14.300000 33.660000 186 76 80 0
18.040000 14.300000 34.760000 186 76 80 0
18.260000 14.300000 34.540000 186 76 80 0
18.480000 14.300000 34.760000 185 76 77 0
18.700000 14.300000 34.760000 187 78 79 0
18.920000 14.300000 34.760000 187 77 81 0
19.140000 14.300000 34.760000 187 77 81 0
19.360000 14.300000 34.760000 188 78 82 0
19.580000 14.300000 34.760000 188 78 82 0
19.800000 14.300000 36.300000 188 77 81 0
20.020000 14.300000 36.300000 188 77 81 0
20.240000 14.300000 36.300000 186 76 80 0
