ply
format ascii 1.0
element vertex 1124
property float x
property float y
property float z
property uchar red
property uchar green
property uchar blue
property uchar alpha
end_header
31.020000 31.680000 33.660000 203 98 97 0
31.240000 31.680000 32.560000 201 96 95 0
31.460000 31.680000 32.780000 201 96 96 0
31.680000 31.680000 33.000000 201 96 96 0
31.900000 31.680000 32.780000 201 94 95 0
32.120000 31.680000 33.880000 201 94 95 0
32.340000 31.680000 34.760000 200 94 93 0
32.560000 31.680000 36.080000 200 94 93 0
32.780000 31.680000 34.760000 200 93 94 0
33.000000 31.680000 31.900000 199 92 93 0
33.220000 31.680000 26.400000 198 91 92 0
33.440000 31.680000 23.540000 198 91 92 0
33.660000 31.680000 22.220000 199 92 93 0
33.880000 31.680000 20.900000 198 91 92 0
34.100000 31.680000 21.120000 199 90 91 0
34.320000 31.680000 21.120000 198 89 90 0
34.540000 31.680000 21.340000 198 89 90 0
34.760000 31.680000 21.560000 198 89 90 0
34.980000 31.680000 20.460000 197 88 89 0
35.200000 31.680000 20.460000 197 88 89 0
35.420000 31.680000 21.780000 197 88 89 0
35.640000 31.680000 22.660000 197 88 89 0
35.860000 31.680000 25.080000 196 87 88 0
36.080000 31.680000 25.080000 197 88 89 0
36.300000 31.680000 25.080000 197 88 89 0
36.520000 31.680000 25.080000 198 89 90 0
36.740000 31.680000 26.620000 200 91 92 0
36.960000 31.680000 26.620000 202 93 94 0
37.180000 31.680000 26.400000 203 93 97 0
0.000000 31.900000 17.160000 142 61 55 0
0.220000 31.900000 17.160000 141 60 54 0
0.440000 31.900000 18.480000 142 61 55 0
0.660000 31.900000 18.480000 141 60 52 0
0.880000 31.900000 18.480000 142 61 53 0
1.100000 31.900000 19.800000 141 62 53 0
1.320000 31.900000 19.800000 140 61 52 0
1.540000 31.900000 19.800000 141 60 52 0
1.760000 31.900000 19.800000 142 61 53 0
1.980000 31.900000 19.800000 142 61 55 0
2.200000 31.900000 21.120000 141 60 54 0
2.420000 31.900000 21.120000 142 61 53 0
2.640000 31.900000 21.120000 143 62 54 0
2.860000 31.900000 21.120000 143 64 55 0
3.080000 31.900000 21.120000 143 64 55 0
3.300000 31.900000 21.120000 145 64 56 0
3.520000 31.900000 20.900000 144 63 55 0
3.740000 31.900000 20.900000 146 65 57 0
3.960000 31.900000 21.120000 146 65 57 0
4.180000 31.900000 22.440000 146 65 57 0
4.400000 31.900000 22.220000 147 66 58 0
4.620000 31.900000 22.220000 146 67 58 0
4.840000 31.900000 22.220000 148 69 60 0
5.060000 31.900000 22.220000 147 68 59 0
5.280000 31.900000 22.220000 148 69 60 0
5.500000 31.900000 22.220000 149 68 60 0
5.720000 31.900000 22.440000 151 70 62 0
5.940000 31.900000 23.760000 150 75 65 0
6.160000 31.900000 23.760000 150 75 65 0
6.380000 31.900000 23.980000 150 80 68 0
6.600000 31.900000 23.100000 151 81 69 0
6.820000 31.900000 23.320000 155 82 71 0
7.040000 31.900000 23.320000 156 83 72 0
7.260000 31.900000 21.780000 154 84 72 0
7.480000 31.900000 21.780000 153 83 71 0
7.700000 31.900000 20.460000 152 82 70 0
7.920000 31.900000 20.460000 153 83 71 0
8.140000 31.900000 18.920000 153 80 69 0
8.360000 31.900000 18.920000 152 79 68 0
8.580000 31.900000 17.600000 153 80 69 0
8.800000 31.900000 17.600000 152 79 68 0
9.020000 31.900000 17.600000 151 81 69 0
9.240000 31.900000 17.600000 153 83 71 0
9.460000 31.900000 17.600000 152 82 70 0
9.680000 31.900000 17.600000 151 81 69 0
9.900000 31.900000 17.600000 151 81 69 0
10.120000 31.900000 17.600000 151 81 69 0
10.340000 31.900000 19.140000 152 78 70 0
10.560000 31.900000 19.140000 152 78 70 0
10.780000 31.900000 19.140000 149 80 68 0
11.000000 31.900000 19.140000 150 81 69 0
11.220000 31.900000 19.360000 152 82 70 0
11.440000 31.900000 19.140000 153 83 71 0
11.660000 31.900000 20.460000 151 86 75 0
11.880000 31.900000 20.240000 152 87 76 0
12.100000 31.900000 21.120000 142 94 79 0
12.320000 31.900000 22.220000 144 96 81 0
12.540000 31.900000 22.220000 138 101 87 0
12.760000 31.900000 20.900000 139 102 88 0
12.980000 31.900000 21.340000 138 106 88 0
13.200000 31.900000 20.240000 139 107 89 0
13.420000 31.900000 19.140000 137 109 92 0
13.640000 31.900000 17.820000 138 110 93 0
13.860000 31.900000 17.820000 139 111 92 0
14.080000 31.900000 16.500000 140 112 93 0
14.300000 31.900000 16.500000 141 115 97 0
14.520000 31.900000 16.280000 143 117 99 0
14.740000 31.900000 16.280000 145 117 98 0
14.960000 31.900000 14.960000 148 120 101 0
15.180000 31.900000 14.960000 153 124 103 0
15.400000 31.900000 14.960000 156 127 106 0
15.620000 31.900000 13.640000 159 133 113 0
15.840000 31.900000 13.640000 162 136 116 0
16.060000 31.900000 13.640000 166 141 118 0
16.280000 31.900000 13.640000 170 145 122 0
16.500000 31.900000 13.640000 177 147 132 0
16.720000 31.900000 13.640000 184 154 139 0
16.940000 31.900000 13.640000 184 165 145 0
17.160000 31.900000 13.640000 189 170 150 0
17.380000 31.900000 13.640000 193 177 157 0
17.600000 31.900000 13.640000 200 184 164 0
17.820000 31.900000 13.640000 205 196 176 0
18.040000 31.900000 13.640000 209 200 180 0
18.260000 31.900000 13.640000 214 206 188 0
18.480000 31.900000 14.740000 214 206 188 0
18.700000 31.900000 15.620000 215 207 189 0
18.920000 31.900000 16.720000 212 204 186 0
19.140000 31.900000 16.720000 209 201 185 0
19.360000 31.900000 18.260000 208 200 184 0
19.580000 31.900000 18.260000 209 200 182 0
19.800000 31.900000 18.260000 209 200 182 0
20.020000 31.900000 19.800000 209 201 183 0
20.240000 31.900000 19.800000 209 201 183 0
20.460000 31.900000 20.020000 209 201 183 0
20.680000 31.900000 20.020000 210 202 184 0
20.900000 31.900000 20.240000 211 203 187 0
21.120000 31.900000 20.240000 211 203 187 0
21.340000 31.900000 19.140000 212 202 187 0
21.560000 31.900000 19.140000 213 203 188 0
21.780000 31.900000 20.240000 211 202 184 0
22.000000 31.900000 21.120000 210 201 183 0
22.220000 31.900000 22.220000 209 200 180 0
22.440000 31.900000 22.220000 207 198 178 0
22.660000 31.900000 22.220000 207 191 171 0
22.880000 31.900000 22.220000 205 189 169 0
23.100000 31.900000 22.220000 204 186 167 0
23.320000 31.900000 22.440000 203 185 166 0
23.540000 31.900000 22.440000 203 187 167 0
23.760000 31.900000 22.440000 205 189 169 0
23.980000 31.900000 22.440000 205 193 174 0
24.200000 31.900000 22.440000 206 194 175 0
24.420000 31.900000 22.440000 207 195 178 0
24.640000 31.900000 22.440000 209 197 180 0
24.860000 31.900000 22.660000 210 198 181 0
25.080000 31.900000 22.660000 210 198 181 0
25.300000 31.900000 22.660000 210 198 179 0
25.520000 31.900000 22.660000 210 198 179 0
25.740000 31.900000 22.660000 209 197 180 0
25.960000 31.900000 22.880000 208 196 179 0
26.180000 31.900000 22.880000 208 196 177 0
26.400000 31.900000 22.880000 209 197 178 0
26.620000 31.900000 22.880000 210 197 183 0
26.840000 31.900000 22.880000 209 196 182 0
27.060000 31.900000 23.100000 209 199 184 0
27.280000 31.900000 23.100000 211 201 186 0
27.500000 31.900000 23.100000 212 205 192 0
27.720000 31.900000 23.100000 215 208 195 0
27.940000 31.900000 23.320000 217 208 200 0
28.160000 31.900000 24.640000 218 209 201 0
28.380000 31.900000 24.640000 219 208 197 0
28.600000 31.900000 24.640000 218 207 196 0
28.820000 31.900000 24.640000 216 202 186 0
29.040000 31.900000 25.960000 212 198 182 0
29.260000 31.900000 28.160000 219 181 167 0
29.480000 31.900000 29.260000 204 166 152 0
29.700000 31.900000 30.580000 217 139 132 0
29.920000 31.900000 31.900000 203 125 118 0
30.140000 31.900000 33.440000 207 105 104 0
30.360000 31.900000 33.440000 203 101 100 0
30.580000 31.900000 33.440000 203 98 98 0
30.800000 31.900000 33.660000 203 98 98 0
31.020000 31.900000 33.880000 202 97 96 0
31.240000 31.900000 34.100000 200 95 94 0
31.460000 31.900000 32.780000 200 95 95 0
31.680000 31.900000 33.000000 200 95 95 0
31.900000 31.900000 33.000000 202 95 96 0
32.120000 31.900000 33.880000 201 94 95 0
32.340000 31.900000 34.760000 201 92 93 0
32.560000 31.900000 34.760000 201 92 93 0
32.780000 31.900000 34.760000 198 92 91 0
33.000000 31.900000 30.580000 199 93 92 0
33.220000 31.900000 26.400000 198 91 92 0
33.440000 31.900000 23.540000 197 90 91 0
33.660000 31.900000 22.220000 200 91 92 0
33.880000 31.900000 20.900000 199 90 91 0
34.100000 31.900000 21.120000 198 89 90 0
34.320000 31.900000 21.120000 197 88 89 0
34.540000 31.900000 21.340000 198 89 89 0
34.760000 31.900000 21.560000 197 88 88 0
34.980000 31.900000 20.460000 198 89 90 0
35.200000 31.900000 20.460000 198 89 90 0
35.420000 31.900000 21.780000 197 88 89 0
35.640000 31.900000 22.660000 196 87 88 0
35.860000 31.900000 25.080000 196 87 88 0
36.080000 31.900000 25.080000 196 87 88 0
36.300000 31.900000 25.080000 196 87 88 0
36.520000 31.900000 25.080000 198 89 90 0
36.740000 31.900000 26.400000 199 90 91 0
36.960000 31.900000 26.620000 201 92 93 0
37.180000 31.900000 26.400000 205 96 97 0
0.000000 32.120000 17.160000 143 62 56 0
0.220000 32.120000 18.480000 142 61 55 0
0.440000 32.120000 18.480000 142 61 55 0
0.660000 32.120000 18.480000 142 61 53 0
0.880000 32.120000 18.480000 141 60 52 0
1.100000 32.120000 18.480000 141 62 53 0
1.320000 32.120000 18.480000 141 62 53 0
1.540000 32.120000 19.800000 142 61 53 0
1.760000 32.120000 19.800000 142 61 53 0
1.980000 32.120000 19.800000 142 61 55 0
2.200000 32.120000 21.120000 143 62 56 0
2.420000 32.120000 21.120000 143 62 54 0
2.640000 32.120000 21.120000 144 63 55 0
2.860000 32.120000 21.120000 143 64 55 0
3.080000 32.120000 21.120000 143 64 55 0
3.300000 32.120000 21.120000 144 63 55 0
3.520000 32.120000 21.120000 145 64 56 0
3.740000 32.120000 22.440000 146 65 57 0
3.960000 32.120000 22.440000 145 64 56 0
4.180000 32.120000 22.440000 146 65 57 0
4.400000 32.120000 22.220000 147 66 58 0
4.620000 32.120000 22.220000 146 67 58 0
4.840000 32.120000 22.220000 148 69 60 0
5.060000 32.120000 22.220000 148 69 60 0
5.280000 32.120000 22.220000 149 70 61 0
5.500000 32.120000 22.220000 148 67 59 0
5.720000 32.120000 22.220000 151 70 62 0
5.940000 32.120000 23.760000 148 73 63 0
6.160000 32.120000 23.760000 151 76 66 0
6.380000 32.120000 24.200000 149 79 67 0
6.600000 32.120000 23.100000 150 80 68 0
6.820000 32.120000 22.000000 154 81 70 0
7.040000 32.120000 21.780000 155 82 71 0
7.260000 32.120000 21.780000 152 82 70 0
7.480000 32.120000 20.460000 152 82 70 0
7.700000 32.120000 20.460000 152 82 70 0
7.920000 32.120000 20.460000 153 83 71 0
8.140000 32.120000 18.920000 154 81 70 0
8.360000 32.120000 18.920000 153 80 69 0
8.580000 32.120000 17.600000 152 79 68 0
8.800000 32.120000 17.600000 153 80 69 0
9.020000 32.120000 17.600000 151 81 69 0
9.240000 32.120000 17.600000 152 82 70 0
9.460000 32.120000 17.600000 152 82 70 0
9.680000 32.120000 17.600000 152 82 70 0
9.900000 32.120000 17.600000 152 82 70 0
10.120000 32.120000 17.600000 152 82 70 0
10.340000 32.120000 17.600000 153 79 71 0
10.560000 32.120000 19.140000 153 79 71 0
10.780000 32.120000 19.140000 150 81 69 0
11.000000 32.120000 19.140000 150 81 69 0
11.220000 32.120000 19.360000 152 82 70 0
11.440000 32.120000 19.140000 152 82 70 0
11.660000 32.120000 20.240000 149 84 73 0
11.880000 32.120000 20.240000 151 86 75 0
12.100000 32.120000 21.120000 141 93 78 0
12.320000 32.120000 22.220000 144 96 81 0
12.540000 32.120000 22.220000 137 100 86 0
12.760000 32.120000 22.220000 138 101 87 0
12.980000 32.120000 21.120000 135 103 85 0
13.200000 32.120000 20.020000 137 105 87 0
13.420000 32.120000 20.020000 136 108 91 0
13.640000 32.120000 20.020000 137 109 92 0
13.860000 32.120000 18.920000 139 111 92 0
14.080000 32.120000 17.820000 140 112 93 0
14.300000 32.120000 16.500000 140 114 96 0
14.520000 32.120000 16.500000 141 115 97 0
14.740000 32.120000 16.280000 145 117 98 0
14.960000 32.120000 14.960000 147 119 100 0
15.180000 32.120000 14.960000 150 121 100 0
15.400000 32.120000 14.960000 155 126 105 0
15.620000 32.120000 14.960000 156 130 110 0
15.840000 32.120000 13.640000 160 134 114 0
16.060000 32.120000 13.640000 165 140 117 0
16.280000 32.120000 13.640000 168 143 120 0
16.500000 32.120000 13.640000 174 144 129 0
16.720000 32.120000 13.640000 181 151 136 0
16.940000 32.120000 13.640000 181 162 142 0
17.160000 32.120000 13.640000 187 168 148 0
17.380000 32.120000 13.640000 191 175 155 0
17.600000 32.120000 13.640000 195 179 159 0
17.820000 32.120000 13.640000 195 186 166 0
18.040000 32.120000 13.640000 200 191 171 0
18.260000 32.120000 14.740000 203 195 177 0
18.480000 32.120000 15.620000 203 195 177 0
18.700000 32.120000 16.720000 205 197 179 0
18.920000 32.120000 16.720000 206 198 180 0
19.140000 32.120000 16.720000 206 198 182 0
19.360000 32.120000 18.260000 206 198 182 0
19.580000 32.120000 18.260000 206 197 179 0
19.800000 32.120000 18.260000 207 198 180 0
20.020000 32.120000 18.260000 206 198 180 0
20.240000 32.120000 19.800000 207 199 181 0
20.460000 32.120000 20.020000 208 200 182 0
20.680000 32.120000 20.020000 209 201 183 0
20.900000 32.120000 20.240000 209 201 185 0
21.120000 32.120000 18.920000 209 201 185 0
21.340000 32.120000 19.140000 212 202 187 0
21.560000 32.120000 19.140000 213 203 188 0
21.780000 32.120000 20.240000 211 202 184 0
22.000000 32.120000 21.120000 209 200 182 0
22.220000 32.120000 22.220000 208 199 179 0
22.440000 32.120000 22.220000 206 197 177 0
22.660000 32.120000 22.220000 208 192 172 0
22.880000 32.120000 22.220000 204 188 168 0
23.100000 32.120000 22.220000 204 186 167 0
23.320000 32.120000 22.440000 203 185 166 0
23.540000 32.120000 22.440000 204 188 168 0
23.760000 32.120000 22.440000 205 189 169 0
23.980000 32.120000 22.440000 204 192 173 0
24.200000 32.120000 22.440000 207 195 176 0
24.420000 32.120000 22.440000 207 195 178 0
24.640000 32.120000 22.440000 209 197 180 0
24.860000 32.120000 22.660000 209 197 180 0
25.080000 32.120000 22.660000 211 199 182 0
25.300000 32.120000 22.660000 210 198 179 0
25.520000 32.120000 22.660000 209 197 178 0
25.740000 32.120000 22.660000 208 196 179 0
25.960000 32.120000 22.880000 209 197 180 0
26.180000 32.120000 22.880000 209 197 178 0
26.400000 32.120000 22.880000 210 198 179 0
26.620000 32.120000 22.880000 211 198 184 0
26.840000 32.120000 22.880000 212 199 185 0
27.060000 32.120000 22.880000 211 201 186 0
27.280000 32.120000 23.100000 211 201 186 0
27.500000 32.120000 23.100000 216 209 196 0
27.720000 32.120000 23.100000 217 210 197 0
27.940000 32.120000 23.320000 218 209 201 0
28.160000 32.120000 24.640000 218 209 201 0
28.380000 32.120000 24.640000 220 209 198 0
28.600000 32.120000 24.640000 218 207 196 0
28.820000 32.120000 24.640000 216 202 186 0
29.040000 32.120000 26.180000 211 197 181 0
29.260000 32.120000 27.060000 217 179 165 0
29.480000 32.120000 29.260000 204 166 152 0
29.700000 32.120000 30.580000 214 136 129 0
29.920000 32.120000 31.900000 201 123 116 0
30.140000 32.120000 33.440000 205 103 102 0
30.360000 32.120000 33.440000 201 99 98 0
30.580000 32.120000 33.440000 203 98 98 0
30.800000 32.120000 33.660000 202 97 97 0
31.020000 32.120000 33.880000 201 96 95 0
31.240000 32.120000 33.880000 200 95 94 0
31.460000 32.120000 32.780000 201 96 96 0
31.680000 32.120000 33.000000 201 96 96 0
31.900000 32.120000 33.000000 201 94 95 0
32.120000 32.120000 34.100000 200 93 94 0
32.340000 32.120000 34.980000 201 92 93 0
32.560000 32.120000 34.760000 201 92 93 0
32.780000 32.120000 33.220000 198 92 91 0
33.000000 32.120000 30.580000 199 93 92 0
33.220000 32.120000 26.400000 198 91 92 0
33.440000 32.120000 23.540000 198 91 92 0
33.660000 32.120000 22.220000 200 91 92 0
33.880000 32.120000 20.900000 199 90 91 0
34.100000 32.120000 21.120000 198 89 90 0
34.320000 32.120000 21.120000 198 89 90 0
34.540000 32.120000 21.340000 199 90 90 0
34.760000 32.120000 21.560000 198 89 89 0
34.980000 32.120000 20.240000 198 89 90 0
35.200000 32.120000 20.460000 197 88 89 0
35.420000 32.120000 22.000000 197 88 89 0
35.640000 32.120000 22.880000 197 88 89 0
35.860000 32.120000 23.760000 197 88 89 0
36.080000 32.120000 25.080000 196 87 88 0
36.300000 32.120000 25.080000 197 88 89 0
36.520000 32.120000 25.080000 197 88 89 0
36.740000 32.120000 26.400000 199 90 91 0
36.960000 32.120000 26.620000 201 92 93 0
37.180000 32.120000 26.620000 203 94 95 0
0.000000 32.340000 17.160000 143 62 56 0
0.220000 32.340000 18.480000 143 62 56 0
0.440000 32.340000 18.480000 143 62 56 0
0.660000 32.340000 18.480000 142 61 55 0
0.880000 32.340000 18.480000 142 61 55 0
1.100000 32.340000 18.480000 142 61 53 0
1.320000 32.340000 18.480000 142 61 53 0
1.540000 32.340000 18.480000 143 62 54 0
1.760000 32.340000 20.020000 142 61 53 0
1.980000 32.340000 19.800000 142 61 53 0
2.200000 32.340000 19.800000 142 61 53 0
2.420000 32.340000 19.800000 144 63 57 0
2.640000 32.340000 21.120000 144 63 57 0
2.860000 32.340000 21.120000 145 64 56 0
3.080000 32.340000 21.120000 145 64 56 0
3.300000 32.340000 21.120000 145 64 58 0
3.520000 32.340000 21.120000 145 64 58 0
3.740000 32.340000 21.120000 144 63 57 0
3.960000 32.340000 21.120000 145 64 58 0
4.180000 32.340000 22.440000 146 65 59 0
4.400000 32.340000 22.440000 147 66 60 0
4.620000 32.340000 22.220000 147 66 58 0
4.840000 32.340000 22.220000 148 67 59 0
5.060000 32.340000 22.220000 150 69 61 0
5.280000 32.340000 22.220000 150 69 61 0
5.500000 32.340000 22.220000 149 70 61 0
5.720000 32.340000 22.220000 150 71 62 0
5.940000 32.340000 23.540000 151 73 64 0
6.160000 32.340000 23.540000 151 73 64 0
6.380000 32.340000 22.660000 153 75 66 0
6.600000 32.340000 21.780000 153 75 66 0
6.820000 32.340000 22.000000 153 78 68 0
7.040000 32.340000 21.780000 153 78 68 0
7.260000 32.340000 20.460000 152 79 68 0
7.480000 32.340000 20.460000 153 80 69 0
7.700000 32.340000 20.460000 152 82 70 0
7.920000 32.340000 19.140000 152 82 70 0
8.140000 32.340000 18.920000 155 80 70 0
8.360000 32.340000 18.920000 155 80 70 0
8.580000 32.340000 18.920000 151 81 69 0
8.800000 32.340000 17.600000 150 80 68 0
9.020000 32.340000 17.600000 155 82 71 0
9.240000 32.340000 17.600000 155 82 71 0
9.460000 32.340000 17.600000 155 82 71 0
9.680000 32.340000 17.600000 155 82 71 0
9.900000 32.340000 17.600000 155 82 71 0
10.120000 32.340000 17.600000 155 82 71 0
10.340000 32.340000 17.600000 154 81 70 0
10.560000 32.340000 19.140000 154 81 70 0
10.780000 32.340000 19.140000 154 81 70 0
11.000000 32.340000 19.140000 153 80 69 0
11.220000 32.340000 19.360000 154 79 69 0
11.440000 32.340000 19.140000 155 80 70 0
11.660000 32.340000 19.140000 154 81 70 0
11.880000 32.340000 20.240000 157 84 73 0
12.100000 32.340000 21.340000 154 85 75 0
12.320000 32.340000 22.220000 155 86 76 0
12.540000 32.340000 22.220000 143 95 80 0
12.760000 32.340000 22.220000 145 97 82 0
12.980000 32.340000 22.220000 139 101 85 0
13.200000 32.340000 20.900000 140 102 86 0
13.420000 32.340000 21.120000 138 106 88 0
13.640000 32.340000 19.800000 140 108 90 0
13.860000 32.340000 19.800000 139 110 91 0
14.080000 32.340000 18.700000 140 111 92 0
14.300000 32.340000 17.600000 140 112 93 0
14.520000 32.340000 16.280000 141 113 94 0
14.740000 32.340000 16.500000 148 114 97 0
14.960000 32.340000 14.960000 149 115 98 0
15.180000 32.340000 14.960000 150 121 100 0
15.400000 32.340000 14.960000 152 123 102 0
15.620000 32.340000 14.960000 156 127 106 0
15.840000 32.340000 13.640000 159 130 109 0
16.060000 32.340000 13.640000 163 135 116 0
16.280000 32.340000 13.640000 168 140 121 0
16.500000 32.340000 13.640000 169 146 123 0
16.720000 32.340000 13.640000 177 154 131 0
16.940000 32.340000 13.640000 183 157 139 0
17.160000 32.340000 13.640000 189 163 145 0
17.380000 32.340000 13.640000 187 171 150 0
17.600000 32.340000 13.640000 193 177 156 0
17.820000 32.340000 13.640000 194 182 163 0
18.040000 32.340000 14.740000 198 186 167 0
18.260000 32.340000 15.620000 198 189 171 0
18.480000 32.340000 16.720000 202 193 175 0
18.700000 32.340000 16.720000 203 194 176 0
18.920000 32.340000 16.720000 206 197 179 0
19.140000 32.340000 16.720000 208 197 175 0
19.360000 32.340000 18.260000 207 196 174 0
19.580000 32.340000 18.260000 207 195 178 0
19.800000 32.340000 18.260000 209 197 180 0
20.020000 32.340000 18.480000 206 197 179 0
20.240000 32.340000 19.800000 207 198 180 0
20.460000 32.340000 20.020000 208 199 181 0
20.680000 32.340000 20.020000 209 200 182 0
20.900000 32.340000 20.240000 209 201 183 0
21.120000 32.340000 18.920000 209 201 183 0
21.340000 32.340000 19.140000 210 202 186 0
21.560000 32.340000 19.140000 210 202 186 0
21.780000 32.340000 20.240000 210 201 183 0
22.000000 32.340000 21.120000 210 201 183 0
22.220000 32.340000 22.220000 211 199 182 0
22.440000 32.340000 22.220000 208 196 179 0
22.660000 32.340000 22.220000 206 190 169 0
22.880000 32.340000 22.220000 205 189 168 0
23.100000 32.340000 22.220000 205 187 168 0
23.320000 32.340000 22.440000 204 186 167 0
23.540000 32.340000 22.440000 204 188 170 0
23.760000 32.340000 22.440000 205 189 171 0
23.980000 32.340000 22.440000 206 190 172 0
24.200000 32.340000 22.440000 209 193 175 0
24.420000 32.340000 22.440000 208 194 176 0
24.640000 32.340000 22.440000 209 195 177 0
24.860000 32.340000 22.660000 210 198 179 0
25.080000 32.340000 22.660000 209 197 178 0
25.300000 32.340000 22.660000 208 196 177 0
25.520000 32.340000 22.660000 209 197 178 0
25.740000 32.340000 22.660000 209 197 178 0
25.960000 32.340000 22.660000 210 198 179 0
26.180000 32.340000 22.880000 211 199 182 0
26.400000 32.340000 22.880000 210 198 181 0
26.620000 32.340000 22.880000 210 200 186 0
26.840000 32.340000 22.880000 210 200 186 0
27.060000 32.340000 22.880000 211 202 190 0
27.280000 32.340000 23.100000 212 203 191 0
27.500000 32.340000 23.100000 214 209 200 0
27.720000 32.340000 23.100000 216 211 202 0
27.940000 32.340000 23.320000 217 212 201 0
28.160000 32.340000 24.640000 216 211 200 0
28.380000 32.340000 24.640000 220 210 196 0
28.600000 32.340000 24.640000 218 208 194 0
28.820000 32.340000 24.640000 220 202 185 0
29.040000 32.340000 26.180000 212 194 177 0
29.260000 32.340000 27.280000 225 170 162 0
29.480000 32.340000 29.480000 210 155 147 0
29.700000 32.340000 30.580000 218 130 124 0
29.920000 32.340000 31.900000 206 118 112 0
30.140000 32.340000 33.440000 204 102 101 0
30.360000 32.340000 33.440000 202 100 99 0
30.580000 32.340000 33.440000 201 99 98 0
30.800000 32.340000 33.660000 200 98 97 0
31.020000 32.340000 33.660000 199 97 96 0
31.240000 32.340000 33.880000 199 97 96 0
31.460000 32.340000 32.780000 202 95 96 0
31.680000 32.340000 33.000000 201 94 95 0
31.900000 32.340000 33.000000 203 94 95 0
32.120000 32.340000 34.100000 202 93 94 0
32.340000 32.340000 34.980000 201 94 95 0
32.560000 32.340000 34.760000 199 92 93 0
32.780000 32.340000 33.220000 201 92 93 0
33.000000 32.340000 30.580000 200 91 92 0
33.220000 32.340000 24.860000 200 91 92 0
33.440000 32.340000 22.220000 200 91 92 0
33.660000 32.340000 22.220000 199 90 91 0
33.880000 32.340000 20.900000 199 90 91 0
34.100000 32.340000 21.120000 198 89 90 0
34.320000 32.340000 21.120000 198 89 90 0
34.540000 32.340000 21.340000 197 88 89 0
34.760000 32.340000 21.560000 198 89 90 0
34.980000 32.340000 20.240000 198 89 90 0
35.200000 32.340000 20.460000 199 90 91 0
35.420000 32.340000 20.680000 197 88 89 0
35.640000 32.340000 21.780000 196 87 88 0
35.860000 32.340000 23.760000 197 88 89 0
36.080000 32.340000 25.080000 197 88 89 0
36.300000 32.340000 25.080000 197 88 89 0
36.520000 32.340000 25.080000 198 89 90 0
36.740000 32.340000 26.620000 198 89 90 0
36.960000 32.340000 26.620000 199 90 91 0
37.180000 32.340000 26.620000 201 91 95 0
0.000000 32.560000 17.160000 143 62 56 0
0.220000 32.560000 18.480000 143 62 56 0
0.440000 32.560000 18.480000 143 62 56 0
0.660000 32.560000 18.480000 143 62 56 0
0.880000 32.560000 18.480000 142 61 55 0
1.100000 32.560000 18.480000 142 61 53 0
1.320000 32.560000 18.480000 142 61 53 0
1.540000 32.560000 18.480000 142 61 53 0
1.760000 32.560000 20.020000 143 62 54 0
1.980000 32.560000 19.800000 142 61 53 0
2.200000 32.560000 19.800000 143 62 54 0
2.420000 32.560000 19.800000 144 63 57 0
2.640000 32.560000 21.120000 144 63 57 0
2.860000 32.560000 21.120000 145 64 56 0
3.080000 32.560000 21.120000 145 64 56 0
3.300000 32.560000 21.120000 145 64 58 0
3.520000 32.560000 21.120000 146 65 59 0
3.740000 32.560000 21.120000 145 64 58 0
3.960000 32.560000 21.120000 146 65 59 0
4.180000 32.560000 21.120000 146 65 59 0
4.400000 32.560000 22.440000 147 66 60 0
4.620000 32.560000 22.440000 147 66 58 0
4.840000 32.560000 22.440000 148 67 59 0
5.060000 32.560000 22.440000 150 69 61 0
5.280000 32.560000 22.440000 149 68 60 0
5.500000 32.560000 22.440000 149 70 61 0
5.720000 32.560000 22.440000 150 71 62 0
5.940000 32.560000 22.220000 149 71 62 0
6.160000 32.560000 23.540000 151 73 64 0
6.380000 32.560000 22.440000 152 74 65 0
6.600000 32.560000 21.560000 152 74 65 0
6.820000 32.560000 20.460000 151 76 66 0
7.040000 32.560000 20.460000 153 78 68 0
7.260000 32.560000 20.460000 153 80 69 0
7.480000 32.560000 20.460000 153 80 69 0
7.700000 32.560000 19.140000 151 81 69 0
7.920000 32.560000 19.140000 152 82 70 0
8.140000 32.560000 19.140000 157 82 72 0
8.360000 32.560000 18.920000 155 80 70 0
8.580000 32.560000 18.920000 152 82 70 0
8.800000 32.560000 17.600000 152 82 70 0
9.020000 32.560000 17.600000 155 82 71 0
9.240000 32.560000 17.600000 155 82 71 0
9.460000 32.560000 17.600000 155 82 71 0
9.680000 32.560000 17.600000 156 83 72 0
9.900000 32.560000 17.600000 156 83 72 0
10.120000 32.560000 17.600000 157 84 73 0
10.340000 32.560000 17.600000 156 83 72 0
10.560000 32.560000 17.600000 156 83 72 0
10.780000 32.560000 19.140000 155 82 71 0
11.000000 32.560000 19.140000 155 82 71 0
11.220000 32.560000 19.140000 154 79 69 0
11.440000 32.560000 19.140000 155 80 70 0
11.660000 32.560000 19.140000 154 81 70 0
11.880000 32.560000 19.140000 155 82 71 0
12.100000 32.560000 20.020000 153 84 74 0
12.320000 32.560000 22.220000 154 85 75 0
12.540000 32.560000 22.220000 143 95 80 0
12.760000 32.560000 22.220000 143 95 80 0
12.980000 32.560000 22.220000 140 102 86 0
13.200000 32.560000 22.220000 139 101 85 0
13.420000 32.560000 20.900000 137 105 87 0
13.640000 32.560000 19.800000 139 107 89 0
13.860000 32.560000 20.900000 137 108 89 0
14.080000 32.560000 19.580000 138 109 90 0
14.300000 32.560000 18.480000 139 111 92 0
14.520000 32.560000 17.380000 141 113 94 0
14.740000 32.560000 16.280000 146 112 95 0
14.960000 32.560000 16.500000 149 115 98 0
15.180000 32.560000 14.960000 148 119 98 0
15.400000 32.560000 14.960000 151 122 101 0
15.620000 32.560000 14.960000 156 127 106 0
15.840000 32.560000 13.640000 158 129 108 0
16.060000 32.560000 13.640000 162 134 115 0
16.280000 32.560000 13.640000 164 136 117 0
16.500000 32.560000 13.640000 167 144 121 0
16.720000 32.560000 13.640000 174 151 128 0
16.940000 32.560000 13.640000 180 154 136 0
17.160000 32.560000 13.640000 186 160 142 0
17.380000 32.560000 13.640000 185 169 148 0
17.600000 32.560000 13.860000 188 172 151 0
17.820000 32.560000 13.640000 191 179 160 0
18.040000 32.560000 15.620000 196 184 165 0
18.260000 32.560000 16.720000 196 187 169 0
18.480000 32.560000 16.720000 199 190 172 0
18.700000 32.560000 16.720000 201 192 174 0
18.920000 32.560000 16.720000 202 193 175 0
19.140000 32.560000 16.720000 205 194 172 0
19.360000 32.560000 18.260000 205 194 172 0
19.580000 32.560000 18.260000 207 195 178 0
19.800000 32.560000 18.260000 206 194 177 0
20.020000 32.560000 18.480000 205 196 178 0
20.240000 32.560000 18.480000 206 197 179 0
20.460000 32.560000 20.020000 207 198 180 0
20.680000 32.560000 20.240000 207 198 180 0
20.900000 32.560000 18.920000 207 199 181 0
21.120000 32.560000 19.140000 208 200 182 0
21.340000 32.560000 19.140000 209 201 185 0
21.560000 32.560000 19.140000 210 202 186 0
21.780000 32.560000 20.240000 210 201 183 0
22.000000 32.560000 21.120000 209 200 182 0
22.220000 32.560000 22.220000 210 198 181 0
22.440000 32.560000 22.220000 208 196 179 0
22.660000 32.560000 22.220000 207 191 170 0
22.880000 32.560000 22.220000 205 189 168 0
23.100000 32.560000 22.220000 205 187 168 0
23.320000 32.560000 22.440000 204 186 167 0
23.540000 32.560000 22.440000 202 186 168 0
23.760000 32.560000 22.440000 204 188 170 0
23.980000 32.560000 22.440000 205 189 171 0
24.200000 32.560000 22.440000 206 190 172 0
24.420000 32.560000 22.440000 206 192 174 0
24.640000 32.560000 22.440000 207 193 175 0
24.860000 32.560000 22.660000 208 196 177 0
25.080000 32.560000 22.660000 207 195 176 0
25.300000 32.560000 22.660000 207 195 176 0
25.520000 32.560000 22.660000 208 196 177 0
25.740000 32.560000 22.660000 209 197 178 0
25.960000 32.560000 22.660000 210 198 179 0
26.180000 32.560000 22.880000 210 198 181 0
26.400000 32.560000 22.880000 211 199 182 0
26.620000 32.560000 22.880000 210 200 186 0
26.840000 32.560000 22.880000 211 201 187 0
27.060000 32.560000 22.880000 211 202 190 0
27.280000 32.560000 23.100000 213 204 192 0
27.500000 32.560000 23.100000 213 208 199 0
27.720000 32.560000 23.100000 218 213 204 0
27.940000 32.560000 23.320000 218 213 202 0
28.160000 32.560000 24.640000 218 213 202 0
28.380000 32.560000 24.640000 220 210 196 0
28.600000 32.560000 24.640000 217 207 193 0
28.820000 32.560000 24.640000 218 200 183 0
29.040000 32.560000 26.180000 210 192 175 0
29.260000 32.560000 27.280000 220 165 157 0
29.480000 32.560000 29.480000 206 151 143 0
29.700000 32.560000 30.580000 215 127 121 0
29.920000 32.560000 31.900000 202 114 108 0
30.140000 32.560000 33.440000 203 101 100 0
30.360000 32.560000 33.440000 201 99 98 0
30.580000 32.560000 33.440000 199 97 96 0
30.800000 32.560000 33.660000 200 98 97 0
31.020000 32.560000 33.880000 200 98 97 0
31.240000 32.560000 34.100000 200 98 97 0
31.460000 32.560000 32.780000 201 94 95 0
31.680000 32.560000 33.000000 201 94 95 0
31.900000 32.560000 33.000000 202 93 94 0
32.120000 32.560000 34.100000 202 93 94 0
32.340000 32.560000 34.980000 201 94 95 0
32.560000 32.560000 34.760000 199 92 93 0
32.780000 32.560000 33.220000 201 92 93 0
33.000000 32.560000 29.040000 200 91 92 0
33.220000 32.560000 24.860000 199 90 91 0
33.440000 32.560000 22.220000 200 91 92 0
33.660000 32.560000 22.220000 199 90 91 0
33.880000 32.560000 20.900000 198 89 90 0
34.100000 32.560000 21.120000 198 89 90 0
34.320000 32.560000 21.120000 198 89 90 0
34.540000 32.560000 21.340000 198 89 90 0
34.760000 32.560000 21.560000 197 88 89 0
34.980000 32.560000 20.240000 198 89 90 0
35.200000 32.560000 20.460000 197 88 89 0
35.420000 32.560000 20.680000 197 88 89 0
35.640000 32.560000 21.780000 197 88 89 0
35.860000 32.560000 23.980000 197 88 89 0
36.080000 32.560000 25.080000 197 88 89 0
36.300000 32.560000 25.080000 197 88 89 0
36.520000 32.560000 25.080000 197 88 89 0
36.740000 32.560000 26.400000 198 89 90 0
36.960000 32.560000 26.620000 200 91 92 0
37.180000 32.560000 26.620000 200 90 94 0
0.000000 32.780000 18.480000 144 63 57 0
0.220000 32.780000 18.480000 143 63 57 0
0.440000 32.780000 18.480000 141 61 55 0
0.660000 32.780000 18.480000 141 60 54 0
0.880000 32.780000 18.480000 143 62 56 0
1.100000 32.780000 18.480000 142 61 55 0
1.320000 32.780000 18.480000 141 60 54 0
1.540000 32.780000 18.700000 142 61 55 0
1.760000 32.780000 20.020000 143 62 56 0
1.980000 32.780000 20.020000 142 61 55 0
2.200000 32.780000 19.800000 144 63 57 0
2.420000 32.780000 21.120000 143 62 56 0
2.640000 32.780000 21.120000 145 64 58 0
2.860000 32.780000 21.120000 144 63 57 0
3.080000 32.780000 21.120000 145 64 58 0
3.300000 32.780000 21.120000 146 65 59 0
3.520000 32.780000 21.120000 146 65 59 0
3.740000 32.780000 21.120000 147 66 60 0
3.960000 32.780000 21.120000 146 65 59 0
4.180000 32.780000 21.120000 149 65 60 0
4.400000 32.780000 22.440000 149 65 60 0
4.620000 32.780000 22.220000 147 66 60 0
4.840000 32.780000 22.220000 148 67 61 0
5.060000 32.780000 22.220000 150 69 61 0
5.280000 32.780000 22.220000 150 69 61 0
5.500000 32.780000 22.220000 150 69 63 0
5.720000 32.780000 22.220000 151 70 64 0
5.940000 32.780000 22.220000 151 70 64 0
6.160000 32.780000 22.440000 151 70 64 0
6.380000 32.780000 21.340000 152 73 64 0
6.600000 32.780000 20.460000 152 73 64 0
6.820000 32.780000 20.680000 152 74 65 0
7.040000 32.780000 19.140000 155 77 68 0
7.260000 32.780000 19.140000 152 74 65 0
7.480000 32.780000 19.140000 154 76 67 0
7.700000 32.780000 19.140000 152 79 68 0
7.920000 32.780000 19.140000 154 81 70 0
8.140000 32.780000 19.140000 155 80 70 0
8.360000 32.780000 19.140000 155 80 70 0
8.580000 32.780000 18.920000 155 80 70 0
8.800000 32.780000 17.600000 156 81 71 0
9.020000 32.780000 17.600000 155 80 70 0
9.240000 32.780000 17.600000 156 81 71 0
9.460000 32.780000 17.600000 156 81 71 0
9.680000 32.780000 17.600000 157 82 72 0
9.900000 32.780000 17.600000 158 83 75 0
10.120000 32.780000 17.600000 158 83 75 0
10.340000 32.780000 17.600000 158 85 74 0
10.560000 32.780000 17.600000 157 84 73 0
10.780000 32.780000 17.820000 157 82 72 0
11.000000 32.780000 17.820000 156 81 71 0
11.220000 32.780000 19.140000 155 80 70 0
11.440000 32.780000 18.920000 155 80 70 0
11.660000 32.780000 19.140000 156 78 69 0
11.880000 32.780000 20.460000 157 79 70 0
12.100000 32.780000 21.340000 155 82 71 0
12.320000 32.780000 22.220000 156 83 72 0
12.540000 32.780000 22.220000 155 85 73 0
12.760000 32.780000 22.220000 159 89 77 0
12.980000 32.780000 22.220000 151 91 78 0
13.200000 32.780000 22.220000 154 94 81 0
13.420000 32.780000 20.900000 142 103 85 0
13.640000 32.780000 20.900000 143 104 86 0
13.860000 32.780000 20.900000 140 106 89 0
14.080000 32.780000 20.900000 141 107 90 0
14.300000 32.780000 19.580000 138 109 90 0
14.520000 32.780000 18.480000 140 111 92 0
14.740000 32.780000 17.600000 142 115 93 0
14.960000 32.780000 16.500000 143 116 94 0
15.180000 32.780000 15.180000 150 116 99 0
15.400000 32.780000 15.180000 152 118 101 0
15.620000 32.780000 15.180000 152 124 105 0
15.840000 32.780000 15.180000 155 127 108 0
16.060000 32.780000 13.640000 160 130 114 0
16.280000 32.780000 13.640000 164 134 118 0
16.500000 32.780000 13.640000 171 142 121 0
16.720000 32.780000 13.640000 174 145 124 0
16.940000 32.780000 13.640000 179 153 133 0
17.160000 32.780000 13.860000 183 157 137 0
17.380000 32.780000 13.640000 187 165 146 0
17.600000 32.780000 13.640000 191 169 150 0
17.820000 32.780000 14.520000 194 177 154 0
18.040000 32.780000 15.400000 197 180 157 0
18.260000 32.780000 16.720000 198 184 166 0
18.480000 32.780000 16.720000 200 186 168 0
18.700000 32.780000 16.720000 200 186 170 0
18.920000 32.780000 16.720000 203 189 173 0
19.140000 32.780000 16.720000 203 191 174 0
19.360000 32.780000 18.260000 204 192 175 0
19.580000 32.780000 18.260000 205 193 176 0
19.800000 32.780000 18.480000 205 193 176 0
20.020000 32.780000 18.480000 207 195 178 0
20.240000 32.780000 18.700000 208 196 179 0
20.460000 32.780000 20.020000 208 196 179 0
20.680000 32.780000 20.240000 209 197 180 0
20.900000 32.780000 18.920000 208 198 183 0
21.120000 32.780000 19.140000 208 198 183 0
21.340000 32.780000 19.140000 208 200 185 0
21.560000 32.780000 19.140000 209 201 186 0
21.780000 32.780000 18.920000 209 201 185 0
22.000000 32.780000 21.340000 210 202 186 0
22.220000 32.780000 22.220000 212 200 183 0
22.440000 32.780000 22.220000 208 196 179 0
22.660000 32.780000 22.220000 206 194 177 0
22.880000 32.780000 22.220000 203 191 174 0
23.100000 32.780000 22.220000 205 189 169 0
23.320000 32.780000 22.440000 203 187 167 0
23.540000 32.780000 22.440000 203 187 167 0
23.760000 32.780000 22.440000 202 186 166 0
23.980000 32.780000 22.440000 203 187 169 0
24.200000 32.780000 22.440000 204 188 170 0
24.420000 32.780000 22.440000 206 190 170 0
24.640000 32.780000 22.440000 207 191 171 0
24.860000 32.780000 22.660000 205 189 169 0
25.080000 32.780000 22.660000 208 192 172 0
25.300000 32.780000 22.660000 209 193 175 0
25.520000 32.780000 22.660000 210 194 176 0
25.740000 32.780000 22.660000 208 196 177 0
25.960000 32.780000 22.660000 209 197 178 0
26.180000 32.780000 22.880000 211 197 181 0
26.400000 32.780000 22.880000 212 198 182 0
26.620000 32.780000 22.880000 212 199 185 0
26.840000 32.780000 22.880000 213 200 186 0
27.060000 32.780000 22.880000 211 204 193 0
27.280000 32.780000 23.100000 212 205 194 0
27.500000 32.780000 23.100000 217 208 198 0
27.720000 32.780000 23.100000 218 209 199 0
27.940000 32.780000 23.320000 221 210 199 0
28.160000 32.780000 24.640000 222 211 200 0
28.380000 32.780000 24.640000 221 206 194 0
28.600000 32.780000 24.640000 219 204 192 0
28.820000 32.780000 24.640000 225 197 180 0
29.040000 32.780000 26.180000 214 186 169 0
29.260000 32.780000 26.180000 225 156 146 0
29.480000 32.780000 28.600000 210 141 131 0
29.700000 32.780000 30.800000 218 119 117 0
29.920000 32.780000 31.900000 207 108 106 0
30.140000 32.780000 33.440000 203 101 100 0
30.360000 32.780000 33.440000 200 98 97 0
30.580000 32.780000 33.660000 201 96 96 0
30.800000 32.780000 33.660000 201 96 96 0
31.020000 32.780000 33.880000 201 96 96 0
31.240000 32.780000 34.100000 201 96 96 0
31.460000 32.780000 32.780000 200 93 94 0
31.680000 32.780000 33.000000 201 94 95 0
31.900000 32.780000 33.000000 199 92 93 0
32.120000 32.780000 34.100000 199 92 93 0
32.340000 32.780000 34.980000 202 93 94 0
32.560000 32.780000 34.760000 202 93 94 0
32.780000 32.780000 33.220000 200 93 94 0
33.000000 32.780000 29.040000 198 91 92 0
33.220000 32.780000 24.860000 201 92 93 0
33.440000 32.780000 22.220000 199 90 91 0
33.660000 32.780000 22.220000 199 90 91 0
33.880000 32.780000 22.220000 198 89 90 0
34.100000 32.780000 21.120000 198 89 90 0
34.320000 32.780000 21.120000 198 89 90 0
34.540000 32.780000 21.340000 198 89 90 0
34.760000 32.780000 21.560000 199 90 91 0
34.980000 32.780000 20.240000 198 89 90 0
35.200000 32.780000 20.460000 198 89 90 0
35.420000 32.780000 20.460000 198 89 90 0
35.640000 32.780000 21.780000 197 88 89 0
35.860000 32.780000 22.880000 197 86 88 0
36.080000 32.780000 23.760000 198 87 89 0
36.300000 32.780000 25.080000 197 88 89 0
36.520000 32.780000 25.080000 198 89 90 0
36.740000 32.780000 26.400000 198 89 90 0
36.960000 32.780000 26.620000 199 90 91 0
37.180000 32.780000 26.620000 200 91 92 0
0.000000 33.000000 18.480000 144 63 57 0
0.220000 33.000000 18.480000 143 63 57 0
0.440000 33.000000 18.480000 142 62 56 0
0.660000 33.000000 18.480000 143 62 56 0
0.880000 33.000000 18.480000 143 62 56 0
1.100000 33.000000 18.480000 143 62 56 0
1.320000 33.000000 18.700000 144 63 57 0
1.540000 33.000000 18.700000 143 62 56 0
1.760000 33.000000 20.020000 141 60 54 0
1.980000 33.000000 20.020000 142 61 55 0
2.200000 33.000000 20.020000 142 61 55 0
2.420000 33.000000 21.120000 144 63 57 0
2.640000 33.000000 21.120000 144 63 57 0
2.860000 33.000000 21.120000 144 63 57 0
3.080000 33.000000 21.120000 145 64 58 0
3.300000 33.000000 21.120000 145 64 58 0
3.520000 33.000000 21.120000 146 65 59 0
3.740000 33.000000 21.120000 146 65 59 0
3.960000 33.000000 21.120000 147 66 60 0
4.180000 33.000000 22.440000 148 64 59 0
4.400000 33.000000 22.440000 149 65 60 0
4.620000 33.000000 22.220000 148 67 61 0
4.840000 33.000000 22.220000 148 67 61 0
5.060000 33.000000 22.220000 148 67 59 0
5.280000 33.000000 22.220000 150 69 61 0
5.500000 33.000000 22.220000 149 68 62 0
5.720000 33.000000 22.220000 150 69 63 0
5.940000 33.000000 22.440000 151 70 64 0
6.160000 33.000000 21.340000 151 70 64 0
6.380000 33.000000 21.560000 152 73 64 0
6.600000 33.000000 20.240000 152 73 64 0
6.820000 33.000000 19.140000 153 75 66 0
7.040000 33.000000 19.140000 152 74 65 0
7.260000 33.000000 19.140000 153 75 66 0
7.480000 33.000000 19.140000 154 76 67 0
7.700000 33.000000 19.140000 152 79 68 0
7.920000 33.000000 19.140000 154 81 70 0
8.140000 33.000000 19.140000 155 80 70 0
8.360000 33.000000 19.140000 156 81 71 0
8.580000 33.000000 19.140000 156 81 71 0
8.800000 33.000000 18.920000 154 79 69 0
9.020000 33.000000 17.600000 155 80 70 0
9.240000 33.000000 17.600000 156 81 71 0
9.460000 33.000000 17.600000 157 82 72 0
9.680000 33.000000 17.600000 157 82 72 0
9.900000 33.000000 17.600000 158 83 75 0
10.120000 33.000000 17.600000 159 84 76 0
10.340000 33.000000 17.600000 159 86 75 0
10.560000 33.000000 17.600000 158 85 74 0
10.780000 33.000000 17.820000 158 83 73 0
11.000000 33.000000 17.820000 158 83 73 0
11.220000 33.000000 19.140000 156 81 71 0
11.440000 33.000000 19.140000 155 80 70 0
11.660000 33.000000 19.140000 157 79 70 0
11.880000 33.000000 20.240000 157 79 70 0
12.100000 33.000000 21.120000 154 81 70 0
12.320000 33.000000 22.220000 155 82 71 0
12.540000 33.000000 22.220000 153 83 71 0
12.760000 33.000000 22.220000 157 87 75 0
12.980000 33.000000 22.220000 151 91 78 0
13.200000 33.000000 22.220000 151 91 78 0
13.420000 33.000000 22.220000 139 100 82 0
13.640000 33.000000 22.220000 141 102 84 0
13.860000 33.000000 20.900000 138 104 87 0
14.080000 33.000000 19.800000 140 106 89 0
14.300000 33.000000 20.900000 138 109 90 0
14.520000 33.000000 19.580000 139 110 91 0
14.740000 33.000000 18.700000 140 113 91 0
14.960000 33.000000 17.600000 142 115 93 0
15.180000 33.000000 16.500000 149 115 98 0
15.400000 33.000000 15.180000 152 118 101 0
15.620000 33.000000 15.180000 150 122 103 0
15.840000 33.000000 15.180000 153 125 106 0
16.060000 33.000000 13.640000 158 128 112 0
16.280000 33.000000 13.640000 162 132 116 0
16.500000 33.000000 13.860000 167 138 117 0
16.720000 33.000000 13.860000 172 143 122 0
16.940000 33.000000 13.860000 174 148 128 0
17.160000 33.000000 13.640000 181 155 135 0
17.380000 33.000000 14.740000 182 160 141 0
17.600000 33.000000 15.620000 187 165 146 0
17.820000 33.000000 15.400000 190 173 150 0
18.040000 33.000000 16.720000 194 177 154 0
18.260000 33.000000 16.720000 193 179 161 0
18.480000 33.000000 16.720000 198 184 166 0
18.700000 33.000000 16.720000 199 185 169 0
18.920000 33.000000 16.720000 200 186 170 0
19.140000 33.000000 18.260000 201 189 172 0
19.360000 33.000000 18.260000 203 191 174 0
19.580000 33.000000 18.260000 204 192 175 0
19.800000 33.000000 18.480000 205 193 176 0
20.020000 33.000000 18.480000 206 194 177 0
20.240000 33.000000 18.700000 206 194 177 0
20.460000 33.000000 18.700000 207 195 178 0
20.680000 33.000000 18.920000 209 197 180 0
20.900000 33.000000 18.920000 209 199 184 0
21.120000 33.000000 19.140000 209 199 184 0
21.340000 33.000000 19.140000 209 201 186 0
21.560000 33.000000 19.140000 211 203 188 0
21.780000 33.000000 19.140000 214 206 190 0
22.000000 33.000000 20.240000 211 203 187 0
22.220000 33.000000 21.120000 214 202 185 0
22.440000 33.000000 22.220000 211 199 182 0
22.660000 33.000000 22.220000 208 196 179 0
22.880000 33.000000 22.220000 206 194 177 0
23.100000 33.000000 22.220000 206 190 170 0
23.320000 33.000000 22.440000 204 188 168 0
23.540000 33.000000 22.440000 203 187 167 0
23.760000 33.000000 22.440000 202 186 166 0
23.980000 33.000000 22.440000 201 185 167 0
24.200000 33.000000 22.440000 202 186 168 0
24.420000 33.000000 22.440000 203 187 167 0
24.640000 33.000000 22.440000 203 187 167 0
24.860000 33.000000 22.660000 204 188 168 0
25.080000 33.000000 22.660000 205 189 169 0
25.300000 33.000000 22.660000 206 190 172 0
25.520000 33.000000 22.660000 207 191 173 0
25.740000 33.000000 22.660000 207 195 176 0
25.960000 33.000000 22.660000 207 195 176 0
26.180000 33.000000 22.880000 210 196 180 0
26.400000 33.000000 22.880000 212 198 182 0
26.620000 33.000000 22.880000 212 199 185 0
26.840000 33.000000 22.880000 212 199 185 0
27.060000 33.000000 22.880000 211 204 193 0
27.280000 33.000000 23.100000 213 206 195 0
27.500000 33.000000 23.100000 217 208 198 0
27.720000 33.000000 23.100000 218 209 199 0
27.940000 33.000000 23.320000 220 209 198 0
28.160000 33.000000 24.640000 218 207 196 0
28.380000 33.000000 24.640000 221 206 194 0
28.600000 33.000000 24.640000 218 203 191 0
28.820000 33.000000 24.640000 219 191 174 0
29.040000 33.000000 26.180000 208 180 163 0
29.260000 33.000000 26.180000 218 149 139 0
29.480000 33.000000 28.600000 205 136 126 0
29.700000 33.000000 30.800000 213 114 112 0
29.920000 33.000000 33.440000 202 103 101 0
30.140000 33.000000 33.440000 200 98 97 0
30.360000 33.000000 33.660000 199 97 96 0
30.580000 33.000000 33.660000 201 96 96 0
30.800000 33.000000 33.660000 201 96 96 0
31.020000 33.000000 33.880000 201 96 96 0
31.240000 33.000000 34.100000 199 94 94 0
31.460000 33.000000 32.780000 200 93 94 0
31.680000 33.000000 33.000000 200 93 94 0
31.900000 33.000000 33.000000 200 93 94 0
32.120000 33.000000 33.880000 198 91 92 0
32.340000 33.000000 34.760000 201 92 93 0
32.560000 33.000000 34.760000 200 91 92 0
32.780000 33.000000 31.900000 200 93 94 0
33.000000 33.000000 27.720000 198 91 92 0
33.220000 33.000000 23.540000 200 91 92 0
33.440000 33.000000 22.220000 199 90 91 0
33.660000 33.000000 22.220000 198 89 90 0
33.880000 33.000000 22.220000 198 89 90 0
34.100000 33.000000 22.440000 198 89 90 0
34.320000 33.000000 22.440000 198 89 90 0
34.540000 33.000000 21.340000 197 88 89 0
34.760000 33.000000 21.560000 198 89 90 0
34.980000 33.000000 20.240000 198 89 90 0
35.200000 33.000000 20.460000 198 89 90 0
35.420000 33.000000 20.460000 197 88 89 0
35.640000 33.000000 21.780000 197 88 89 0
35.860000 33.000000 22.880000 198 87 89 0
36.080000 33.000000 23.760000 198 87 89 0
36.300000 33.000000 25.080000 197 88 89 0
36.520000 33.000000 25.080000 197 88 89 0
36.740000 33.000000 26.400000 198 89 90 0
36.960000 33.000000 26.620000 199 90 91 0
37.180000 33.000000 26.620000 199 90 91 0
0.000000 33.220000 18.480000 143 63 57 0
0.220000 33.220000 18.480000 143 63 57 0
0.440000 33.220000 18.480000 142 62 56 0
0.660000 33.220000 18.480000 143 62 56 0
0.880000 33.220000 18.480000 142 61 55 0
1.100000 33.220000 18.700000 143 62 56 0
1.320000 33.220000 18.700000 143 62 56 0
1.540000 33.220000 18.700000 143 62 56 0
1.760000 33.220000 20.020000 143 62 56 0
1.980000 33.220000 20.020000 142 61 55 0
2.200000 33.220000 20.020000 143 62 56 0
2.420000 33.220000 20.020000 144 63 57 0
2.640000 33.220000 20.020000 144 63 57 0
2.860000 33.220000 20.020000 144 63 57 0
3.080000 33.220000 20.020000 145 64 58 0
3.300000 33.220000 21.120000 146 65 59 0
3.520000 33.220000 21.120000 145 64 58 0
3.740000 33.220000 21.120000 147 66 60 0
3.960000 33.220000 22.440000 147 66 60 0
4.180000 33.220000 22.220000 148 67 61 0
4.400000 33.220000 22.220000 147 66 60 0
4.620000 33.220000 22.220000 148 67 61 0
4.840000 33.220000 22.220000 148 67 61 0
5.060000 33.220000 22.220000 149 68 62 0
5.280000 33.220000 22.220000 149 68 62 0
5.500000 33.220000 22.220000 149 68 62 0
5.720000 33.220000 22.220000 150 69 63 0
5.940000 33.220000 22.440000 150 69 61 0
6.160000 33.220000 21.340000 152 71 63 0
6.380000 33.220000 21.340000 151 72 63 0
6.600000 33.220000 21.560000 153 74 65 0
6.820000 33.220000 19.140000 153 74 65 0
7.040000 33.220000 19.140000 154 75 66 0
7.260000 33.220000 19.140000 152 74 65 0
7.480000 33.220000 19.140000 154 76 67 0
7.700000 33.220000 19.140000 152 77 67 0
7.920000 33.220000 19.140000 155 80 70 0
8.140000 33.220000 19.140000 155 80 70 0
8.360000 33.220000 19.140000 155 80 70 0
8.580000 33.220000 19.140000 156 81 71 0
8.800000 33.220000 19.140000 155 80 70 0
9.020000 33.220000 17.600000 155 80 70 0
9.240000 33.220000 17.600000 156 81 71 0
9.460000 33.220000 17.600000 159 81 72 0
9.680000 33.220000 17.600000 159 81 72 0
9.900000 33.220000 17.600000 158 83 73 0
10.120000 33.220000 17.600000 159 84 74 0
10.340000 33.220000 17.600000 160 86 78 0
10.560000 33.220000 17.600000 160 86 78 0
10.780000 33.220000 17.820000 158 84 76 0
11.000000 33.220000 17.820000 158 84 76 0
11.220000 33.220000 17.820000 158 83 73 0
11.440000 33.220000 17.820000 157 82 72 0
11.660000 33.220000 19.360000 158 80 71 0
11.880000 33.220000 18.920000 158 80 71 0
12.100000 33.220000 21.120000 156 81 71 0
12.320000 33.220000 22.220000 156 81 71 0
12.540000 33.220000 22.220000 156 81 71 0
12.760000 33.220000 22.220000 157 82 72 0
12.980000 33.220000 22.220000 155 86 76 0
13.200000 33.220000 22.220000 157 88 78 0
13.420000 33.220000 22.220000 151 94 82 0
13.640000 33.220000 22.220000 152 95 83 0
13.860000 33.220000 20.900000 140 102 86 0
14.080000 33.220000 20.900000 142 104 88 0
14.300000 33.220000 20.900000 143 105 87 0
14.520000 33.220000 20.900000 145 107 89 0
14.740000 33.220000 19.800000 144 110 93 0
14.960000 33.220000 18.700000 145 111 94 0
15.180000 33.220000 16.280000 147 116 93 0
15.400000 33.220000 15.180000 149 118 95 0
15.620000 33.220000 15.180000 154 121 101 0
15.840000 33.220000 15.180000 156 123 103 0
16.060000 33.220000 15.180000 159 126 106 0
16.280000 33.220000 13.860000 162 129 109 0
