ply
format ascii 1.0
element vertex 1146
property float x
property float y
property float z
property uchar red
property uchar green
property uchar blue
property uchar alpha
end_header
35.860000 3.080000 3.520000 155 138 143 0
36.080000 3.080000 3.520000 153 136 141 0
36.300000 3.080000 3.520000 154 135 136 0
36.520000 3.080000 3.520000 151 132 133 0
36.740000 3.080000 3.520000 150 129 131 0
36.960000 3.080000 3.520000 148 127 129 0
37.180000 3.080000 3.520000 151 126 127 0
0.000000 3.300000 1.870000 211 240 243 0
0.220000 3.300000 1.870000 210 239 242 0
0.440000 3.300000 1.870000 211 240 243 0
0.660000 3.300000 1.870000 210 239 242 0
0.880000 3.300000 1.870000 210 239 242 0
1.100000 3.300000 1.980000 209 239 242 0
1.320000 3.300000 1.980000 209 239 242 0
1.540000 3.300000 1.980000 210 239 240 0
1.760000 3.300000 1.980000 210 239 240 0
1.980000 3.300000 2.530000 206 239 241 0
2.200000 3.300000 2.970000 206 239 241 0
2.420000 3.300000 3.520000 209 239 242 0
2.640000 3.300000 3.520000 209 239 242 0
2.860000 3.300000 3.520000 209 239 242 0
3.080000 3.300000 3.520000 209 239 242 0
3.300000 3.300000 3.630000 209 240 240 0
3.520000 3.300000 3.630000 209 240 240 0
3.740000 3.300000 3.630000 206 239 241 0
3.960000 3.300000 3.630000 207 240 242 0
4.180000 3.300000 3.740000 208 238 241 0
4.400000 3.300000 3.740000 209 239 242 0
4.620000 3.300000 3.740000 209 239 242 0
4.840000 3.300000 3.740000 209 239 242 0
5.060000 3.300000 3.850000 206 239 241 0
5.280000 3.300000 3.850000 206 239 241 0
5.500000 3.300000 3.850000 205 240 241 0
5.720000 3.300000 3.850000 204 239 240 0
5.940000 3.300000 3.960000 204 237 241 0
6.160000 3.300000 3.960000 203 236 240 0
6.380000 3.300000 3.960000 196 235 247 0
6.600000 3.300000 3.960000 190 229 241 0
6.820000 3.300000 4.070000 187 222 239 0
7.040000 3.300000 3.300000 187 222 239 0
7.260000 3.300000 3.300000 188 220 238 0
7.480000 3.300000 3.410000 187 219 237 0
7.700000 3.300000 3.410000 184 220 239 0
7.920000 3.300000 3.410000 183 219 238 0
8.140000 3.300000 3.410000 183 217 239 0
8.360000 3.300000 3.960000 183 217 239 0
8.580000 3.300000 4.400000 180 218 238 0
8.800000 3.300000 4.180000 180 218 238 0
9.020000 3.300000 4.840000 171 217 238 0
9.240000 3.300000 4.950000 171 217 238 0
9.460000 3.300000 4.950000 165 216 240 0
9.680000 3.300000 4.290000 164 215 239 0
9.900000 3.300000 4.290000 170 214 236 0
10.120000 3.300000 4.290000 170 214 236 0
10.340000 3.300000 4.290000 165 216 240 0
10.560000 3.300000 4.290000 164 215 239 0
10.780000 3.300000 4.290000 165 214 239 0
11.000000 3.300000 4.290000 164 213 238 0
11.220000 3.300000 4.290000 159 217 241 0
11.440000 3.300000 4.290000 157 215 239 0
11.660000 3.300000 4.180000 157 215 239 0
11.880000 3.300000 4.290000 156 214 238 0
12.100000 3.300000 3.630000 159 214 239 0
12.320000 3.300000 4.180000 158 213 238 0
12.540000 3.300000 4.180000 154 215 238 0
12.760000 3.300000 3.520000 155 216 239 0
12.980000 3.300000 3.630000 153 214 237 0
13.200000 3.300000 3.520000 154 215 238 0
13.420000 3.300000 3.520000 151 215 238 0
13.640000 3.300000 3.520000 150 214 237 0
13.860000 3.300000 3.520000 155 214 239 0
14.080000 3.300000 3.520000 154 213 238 0
14.300000 3.300000 3.520000 149 214 237 0
14.520000 3.300000 3.520000 149 214 237 0
14.740000 3.300000 3.520000 145 213 235 0
14.960000 3.300000 3.520000 147 215 237 0
15.180000 3.300000 3.520000 149 213 236 0
15.400000 3.300000 3.520000 150 214 237 0
15.620000 3.300000 3.520000 150 211 237 0
15.840000 3.300000 3.520000 149 210 236 0
16.060000 3.300000 3.520000 148 213 238 0
16.280000 3.300000 3.520000 146 211 236 0
16.500000 3.300000 3.520000 146 211 236 0
16.720000 3.300000 3.520000 145 210 235 0
16.940000 3.300000 3.520000 149 207 239 0
17.160000 3.300000 3.520000 147 205 237 0
17.380000 3.300000 3.520000 151 203 237 0
17.600000 3.300000 3.520000 149 201 235 0
17.820000 3.300000 2.860000 147 195 230 0
18.040000 3.300000 2.860000 146 194 229 0
18.260000 3.300000 3.520000 151 185 215 0
18.480000 3.300000 3.520000 146 180 210 0
18.700000 3.300000 3.520000 157 170 199 0
18.920000 3.300000 3.520000 155 168 197 0
19.140000 3.300000 3.520000 154 164 187 0
19.360000 3.300000 2.860000 152 162 185 0
19.580000 3.300000 2.860000 156 157 172 0
19.800000 3.300000 3.520000 155 156 171 0
20.020000 3.300000 3.520000 157 153 165 0
20.240000 3.300000 2.860000 155 151 163 0
20.460000 3.300000 3.520000 158 150 160 0
20.680000 3.300000 3.520000 158 150 160 0
20.900000 3.300000 3.520000 155 147 157 0
21.120000 3.300000 2.860000 154 146 156 0
21.340000 3.300000 2.860000 154 146 156 0
21.560000 3.300000 2.860000 155 147 157 0
21.780000 3.300000 2.860000 157 143 153 0
22.000000 3.300000 3.520000 156 142 152 0
22.220000 3.300000 3.520000 155 143 152 0
22.440000 3.300000 3.520000 154 142 151 0
22.660000 3.300000 3.520000 155 143 150 0
22.880000 3.300000 2.860000 154 142 149 0
23.100000 3.300000 3.520000 153 139 147 0
23.320000 3.300000 3.520000 154 140 148 0
23.540000 3.300000 3.520000 154 138 146 0
23.760000 3.300000 3.520000 153 137 145 0
23.980000 3.300000 3.520000 153 137 143 0
24.200000 3.300000 3.520000 153 137 143 0
24.420000 3.300000 3.520000 152 136 142 0
24.640000 3.300000 2.860000 150 134 140 0
24.860000 3.300000 2.860000 151 135 141 0
25.080000 3.300000 3.520000 150 134 140 0
25.300000 3.300000 3.520000 148 133 135 0
25.520000 3.300000 3.520000 148 133 135 0
25.740000 3.300000 3.520000 148 131 134 0
25.960000 3.300000 2.860000 149 132 135 0
26.180000 3.300000 2.860000 147 130 135 0
26.400000 3.300000 2.860000 146 129 134 0
26.620000 3.300000 2.860000 147 130 133 0
26.840000 3.300000 3.520000 146 129 132 0
27.060000 3.300000 3.520000 146 131 131 0
27.280000 3.300000 3.520000 148 133 133 0
27.500000 3.300000 3.520000 147 131 136 0
27.720000 3.300000 3.520000 148 132 137 0
27.940000 3.300000 3.520000 147 131 136 0
28.160000 3.300000 3.520000 147 131 136 0
28.380000 3.300000 3.520000 148 133 135 0
28.600000 3.300000 3.520000 147 132 134 0
28.820000 3.300000 3.520000 147 132 132 0
29.040000 3.300000 3.520000 148 133 133 0
29.260000 3.300000 3.520000 148 132 137 0
29.480000 3.300000 3.520000 151 135 140 0
29.700000 3.300000 3.520000 154 138 143 0
29.920000 3.300000 3.520000 157 141 146 0
30.140000 3.300000 3.520000 156 143 145 0
30.360000 3.300000 3.520000 158 145 147 0
30.580000 3.300000 3.520000 157 147 151 0
30.800000 3.300000 2.860000 158 148 152 0
31.020000 3.300000 3.520000 158 146 151 0
31.240000 3.300000 3.520000 159 147 152 0
31.460000 3.300000 3.520000 161 148 152 0
31.680000 3.300000 3.520000 161 148 152 0
31.900000 3.300000 2.860000 160 149 152 0
32.120000 3.300000 3.520000 159 148 151 0
32.340000 3.300000 3.520000 158 148 152 0
32.560000 3.300000 2.860000 158 148 152 0
32.780000 3.300000 3.520000 156 146 150 0
33.000000 3.300000 3.520000 158 148 152 0
33.220000 3.300000 3.520000 159 146 151 0
33.440000 3.300000 3.520000 157 144 149 0
33.660000 3.300000 2.860000 156 145 148 0
33.880000 3.300000 2.860000 156 145 148 0
34.100000 3.300000 3.520000 155 144 147 0
34.320000 3.300000 3.520000 154 143 146 0
34.540000 3.300000 3.520000 154 141 145 0
34.760000 3.300000 3.520000 154 141 145 0
34.980000 3.300000 3.520000 155 139 144 0
35.200000 3.300000 3.520000 155 139 144 0
35.420000 3.300000 3.520000 153 140 144 0
35.640000 3.300000 3.520000 150 137 141 0
35.860000 3.300000 3.520000 152 135 140 0
36.080000 3.300000 3.520000 149 132 137 0
36.300000 3.300000 2.860000 150 131 132 0
36.520000 3.300000 3.520000 147 128 129 0
36.740000 3.300000 3.520000 147 126 128 0
36.960000 3.300000 3.520000 146 125 127 0
37.180000 3.300000 3.520000 147 122 123 0
0.000000 3.520000 1.760000 210 237 241 0
0.220000 3.520000 1.870000 211 238 242 0
0.440000 3.520000 1.870000 210 237 241 0
0.660000 3.520000 1.870000 210 239 242 0
0.880000 3.520000 1.870000 209 238 241 0
1.100000 3.520000 1.980000 210 237 241 0
1.320000 3.520000 1.980000 210 237 241 0
1.540000 3.520000 1.980000 210 239 242 0
1.760000 3.520000 1.980000 209 238 241 0
1.980000 3.520000 2.530000 210 237 241 0
2.200000 3.520000 2.970000 210 237 241 0
2.420000 3.520000 3.520000 210 239 242 0
2.640000 3.520000 3.520000 209 238 241 0
2.860000 3.520000 3.520000 210 237 241 0
3.080000 3.520000 3.520000 210 237 241 0
3.300000 3.520000 3.630000 209 238 241 0
3.520000 3.520000 3.630000 208 237 240 0
3.740000 3.520000 3.630000 208 237 240 0
3.960000 3.520000 3.630000 209 238 241 0
4.180000 3.520000 3.740000 209 237 243 0
4.400000 3.520000 3.740000 209 237 243 0
4.620000 3.520000 3.740000 208 236 242 0
4.840000 3.520000 3.740000 208 236 242 0
5.060000 3.520000 3.850000 206 236 239 0
5.280000 3.520000 3.850000 207 237 240 0
5.500000 3.520000 3.850000 207 235 241 0
5.720000 3.520000 3.850000 207 235 241 0
5.940000 3.520000 3.960000 206 234 241 0
6.160000 3.520000 3.960000 206 234 241 0
6.380000 3.520000 3.960000 203 231 240 0
6.600000 3.520000 3.960000 199 227 236 0
6.820000 3.520000 4.070000 194 221 237 0
7.040000 3.520000 4.070000 192 219 235 0
7.260000 3.520000 4.070000 194 216 234 0
7.480000 3.520000 4.070000 193 215 233 0
7.700000 3.520000 3.410000 192 214 233 0
7.920000 3.520000 4.070000 191 213 232 0
8.140000 3.520000 3.960000 192 214 233 0
8.360000 3.520000 4.400000 189 211 230 0
8.580000 3.520000 4.950000 189 211 232 0
8.800000 3.520000 4.840000 188 210 231 0
9.020000 3.520000 4.950000 186 208 229 0
9.240000 3.520000 4.950000 185 207 228 0
9.460000 3.520000 4.950000 185 207 228 0
9.680000 3.520000 4.950000 184 206 227 0
9.900000 3.520000 4.950000 184 206 227 0
10.120000 3.520000 4.950000 184 206 227 0
10.340000 3.520000 4.290000 183 204 228 0
10.560000 3.520000 4.290000 182 203 227 0
10.780000 3.520000 4.290000 180 204 225 0
11.000000 3.520000 4.290000 179 203 224 0
11.220000 3.520000 4.290000 174 205 229 0
11.440000 3.520000 4.290000 174 205 229 0
11.660000 3.520000 4.290000 175 204 229 0
11.880000 3.520000 4.400000 175 204 229 0
12.100000 3.520000 3.740000 174 204 233 0
12.320000 3.520000 3.740000 173 203 232 0
12.540000 3.520000 4.290000 174 205 229 0
12.760000 3.520000 3.740000 173 204 228 0
12.980000 3.520000 3.850000 167 208 235 0
13.200000 3.520000 3.740000 167 208 235 0
13.420000 3.520000 3.630000 164 207 236 0
13.640000 3.520000 4.180000 164 207 236 0
13.860000 3.520000 4.180000 168 204 233 0
14.080000 3.520000 4.180000 169 205 234 0
14.300000 3.520000 3.520000 158 208 236 0
14.520000 3.520000 3.520000 157 207 235 0
14.740000 3.520000 3.520000 161 204 233 0
14.960000 3.520000 3.520000 163 206 235 0
15.180000 3.520000 3.520000 160 206 237 0
15.400000 3.520000 3.520000 159 205 236 0
15.620000 3.520000 3.520000 150 207 239 0
15.840000 3.520000 3.630000 150 207 239 0
16.060000 3.520000 3.630000 155 203 234 0
16.280000 3.520000 3.520000 155 203 234 0
16.500000 3.520000 3.520000 163 198 231 0
16.720000 3.520000 3.520000 161 196 229 0
16.940000 3.520000 3.520000 164 194 223 0
17.160000 3.520000 3.520000 162 192 221 0
17.380000 3.520000 3.520000 167 183 211 0
17.600000 3.520000 3.520000 165 181 209 0
17.820000 3.520000 3.520000 166 176 198 0
18.040000 3.520000 3.520000 161 171 193 0
18.260000 3.520000 3.520000 166 165 178 0
18.480000 3.520000 3.520000 163 162 175 0
18.700000 3.520000 3.520000 162 158 170 0
18.920000 3.520000 2.860000 161 157 169 0
19.140000 3.520000 2.860000 157 153 163 0
19.360000 3.520000 2.860000 157 153 163 0
19.580000 3.520000 3.520000 160 149 161 0
19.800000 3.520000 3.520000 160 149 161 0
20.020000 3.520000 3.520000 155 148 159 0
20.240000 3.520000 3.520000 155 148 159 0
20.460000 3.520000 3.520000 156 148 158 0
20.680000 3.520000 3.520000 155 147 157 0
20.900000 3.520000 3.520000 156 145 154 0
21.120000 3.520000 2.860000 154 143 152 0
21.340000 3.520000 2.860000 154 143 154 0
21.560000 3.520000 2.860000 155 144 155 0
21.780000 3.520000 2.860000 155 141 151 0
22.000000 3.520000 3.520000 154 140 150 0
22.220000 3.520000 3.520000 153 141 148 0
22.440000 3.520000 3.520000 153 141 148 0
22.660000 3.520000 3.520000 153 139 147 0
22.880000 3.520000 2.860000 153 139 147 0
23.100000 3.520000 3.520000 152 138 146 0
23.320000 3.520000 3.520000 152 138 146 0
23.540000 3.520000 3.520000 153 137 145 0
23.760000 3.520000 3.520000 152 136 144 0
23.980000 3.520000 3.520000 151 135 143 0
24.200000 3.520000 3.520000 150 134 142 0
24.420000 3.520000 3.520000 151 133 140 0
24.640000 3.520000 2.860000 150 132 139 0
24.860000 3.520000 2.860000 149 132 135 0
25.080000 3.520000 2.860000 148 131 134 0
25.300000 3.520000 3.520000 148 131 134 0
25.520000 3.520000 3.520000 148 131 134 0
25.740000 3.520000 3.520000 147 130 131 0
25.960000 3.520000 3.520000 147 130 131 0
26.180000 3.520000 3.520000 145 130 132 0
26.400000 3.520000 3.520000 146 131 133 0
26.620000 3.520000 3.520000 146 129 132 0
26.840000 3.520000 3.520000 147 130 133 0
27.060000 3.520000 3.520000 146 129 134 0
27.280000 3.520000 3.520000 147 130 135 0
27.500000 3.520000 3.520000 146 131 133 0
27.720000 3.520000 3.520000 147 132 134 0
27.940000 3.520000 3.520000 146 131 133 0
28.160000 3.520000 3.520000 146 131 133 0
28.380000 3.520000 3.520000 147 130 133 0
28.600000 3.520000 3.520000 147 130 133 0
28.820000 3.520000 3.520000 147 130 133 0
29.040000 3.520000 3.520000 147 130 133 0
29.260000 3.520000 3.520000 147 132 134 0
29.480000 3.520000 3.520000 151 136 138 0
29.700000 3.520000 3.520000 151 138 142 0
29.920000 3.520000 3.520000 152 139 143 0
30.140000 3.520000 3.520000 157 141 146 0
30.360000 3.520000 3.520000 159 143 148 0
30.580000 3.520000 3.520000 158 142 147 0
30.800000 3.520000 2.860000 160 144 149 0
31.020000 3.520000 3.520000 158 145 150 0
31.240000 3.520000 3.520000 159 146 151 0
31.460000 3.520000 3.520000 159 146 150 0
31.680000 3.520000 2.860000 160 147 151 0
31.900000 3.520000 2.860000 159 146 148 0
32.120000 3.520000 2.860000 159 146 148 0
32.340000 3.520000 3.520000 159 146 150 0
32.560000 3.520000 3.520000 158 145 149 0
32.780000 3.520000 3.520000 158 145 150 0
33.000000 3.520000 3.520000 158 145 150 0
33.220000 3.520000 3.520000 156 145 146 0
33.440000 3.520000 3.520000 153 142 143 0
33.660000 3.520000 3.520000 157 142 144 0
33.880000 3.520000 3.520000 157 142 144 0
34.100000 3.520000 3.520000 157 140 145 0
34.320000 3.520000 3.520000 155 138 143 0
34.540000 3.520000 2.860000 153 140 144 0
34.760000 3.520000 3.520000 151 138 142 0
34.980000 3.520000 3.520000 153 136 139 0
35.200000 3.520000 3.520000 154 137 140 0
35.420000 3.520000 3.520000 151 132 133 0
35.640000 3.520000 3.520000 151 132 133 0
35.860000 3.520000 3.520000 150 131 132 0
36.080000 3.520000 2.860000 148 129 130 0
36.300000 3.520000 2.860000 149 126 129 0
36.520000 3.520000 2.860000 147 124 127 0
36.740000 3.520000 3.520000 150 121 121 0
36.960000 3.520000 3.520000 146 117 117 0
37.180000 3.520000 2.860000 149 114 113 0
0.000000 3.740000 1.760000 210 237 241 0
0.220000 3.740000 1.870000 211 238 242 0
0.440000 3.740000 1.870000 210 237 241 0
0.660000 3.740000 1.870000 210 239 242 0
0.880000 3.740000 1.870000 209 238 241 0
1.100000 3.740000 1.980000 211 238 242 0
1.320000 3.740000 1.980000 210 237 241 0
1.540000 3.740000 1.980000 209 238 241 0
1.760000 3.740000 1.980000 209 238 241 0
1.980000 3.740000 2.530000 210 237 241 0
2.200000 3.740000 2.970000 210 237 241 0
2.420000 3.740000 3.520000 209 238 241 0
2.640000 3.740000 3.520000 209 238 241 0
2.860000 3.740000 3.520000 211 238 242 0
3.080000 3.740000 3.520000 210 237 241 0
3.300000 3.740000 3.630000 209 238 241 0
3.520000 3.740000 3.630000 208 237 240 0
3.740000 3.740000 3.630000 208 237 240 0
3.960000 3.740000 3.630000 207 236 239 0
4.180000 3.740000 3.740000 208 236 242 0
4.400000 3.740000 3.740000 208 236 242 0
4.620000 3.740000 3.740000 209 237 243 0
4.840000 3.740000 3.740000 208 236 242 0
5.060000 3.740000 3.740000 207 237 240 0
5.280000 3.740000 3.850000 207 237 240 0
5.500000 3.740000 3.850000 207 235 241 0
5.720000 3.740000 3.850000 207 235 241 0
5.940000 3.740000 3.960000 206 234 241 0
6.160000 3.740000 3.960000 205 233 240 0
6.380000 3.740000 3.960000 204 232 241 0
6.600000 3.740000 3.960000 200 228 237 0
6.820000 3.740000 4.070000 197 224 240 0
7.040000 3.740000 4.070000 194 221 237 0
7.260000 3.740000 4.070000 196 218 236 0
7.480000 3.740000 4.070000 195 217 235 0
7.700000 3.740000 4.070000 193 215 234 0
7.920000 3.740000 3.960000 193 215 234 0
8.140000 3.740000 5.060000 192 214 233 0
8.360000 3.740000 5.610000 190 212 231 0
8.580000 3.740000 5.610000 187 209 230 0
8.800000 3.740000 5.610000 187 209 230 0
9.020000 3.740000 5.610000 186 208 229 0
9.240000 3.740000 4.950000 186 208 229 0
9.460000 3.740000 4.950000 184 206 227 0
9.680000 3.740000 4.950000 183 205 226 0
9.900000 3.740000 4.950000 183 205 226 0
10.120000 3.740000 5.060000 182 204 225 0
10.340000 3.740000 5.060000 181 202 226 0
10.560000 3.740000 5.060000 182 203 227 0
10.780000 3.740000 4.400000 180 204 225 0
11.000000 3.740000 4.400000 178 202 223 0
11.220000 3.740000 4.400000 172 203 227 0
11.440000 3.740000 4.400000 172 203 227 0
11.660000 3.740000 4.510000 172 201 226 0
11.880000 3.740000 3.850000 173 202 227 0
12.100000 3.740000 3.960000 171 201 230 0
12.320000 3.740000 3.960000 173 203 232 0
12.540000 3.740000 3.850000 173 204 228 0
12.760000 3.740000 3.960000 173 204 228 0
12.980000 3.740000 3.300000 165 206 233 0
13.200000 3.740000 3.300000 165 206 233 0
13.420000 3.740000 3.740000 163 206 235 0
13.640000 3.740000 4.290000 162 205 234 0
13.860000 3.740000 4.180000 168 204 233 0
14.080000 3.740000 4.180000 168 204 233 0
14.300000 3.740000 4.180000 158 208 236 0
14.520000 3.740000 4.180000 157 207 235 0
14.740000 3.740000 3.520000 162 205 234 0
14.960000 3.740000 3.520000 161 204 233 0
15.180000 3.740000 3.520000 159 205 236 0
15.400000 3.740000 3.520000 158 204 235 0
15.620000 3.740000 3.630000 149 206 238 0
15.840000 3.740000 2.970000 147 204 236 0
16.060000 3.740000 3.630000 152 200 231 0
16.280000 3.740000 3.630000 151 199 230 0
16.500000 3.740000 3.520000 159 194 227 0
16.720000 3.740000 3.520000 155 190 223 0
16.940000 3.740000 3.520000 156 186 215 0
17.160000 3.740000 3.520000 152 182 211 0
17.380000 3.740000 3.520000 157 173 201 0
17.600000 3.740000 3.520000 153 169 197 0
17.820000 3.740000 3.520000 154 164 186 0
18.040000 3.740000 3.520000 151 161 183 0
18.260000 3.740000 3.520000 157 156 169 0
18.480000 3.740000 2.860000 157 156 169 0
18.700000 3.740000 2.860000 158 154 166 0
18.920000 3.740000 2.860000 155 151 163 0
19.140000 3.740000 2.860000 154 150 160 0
19.360000 3.740000 3.520000 154 150 160 0
19.580000 3.740000 3.520000 158 147 159 0
19.800000 3.740000 3.520000 157 146 158 0
20.020000 3.740000 3.520000 154 147 158 0
20.240000 3.740000 3.520000 152 145 156 0
20.460000 3.740000 3.520000 154 146 156 0
20.680000 3.740000 3.520000 152 144 154 0
20.900000 3.740000 3.520000 155 144 153 0
21.120000 3.740000 2.860000 153 142 151 0
21.340000 3.740000 2.860000 154 143 154 0
21.560000 3.740000 3.520000 152 141 152 0
21.780000 3.740000 3.520000 155 141 151 0
22.000000 3.740000 3.520000 153 139 149 0
22.220000 3.740000 3.520000 151 139 146 0
22.440000 3.740000 3.520000 151 139 146 0
22.660000 3.740000 3.520000 152 138 146 0
22.880000 3.740000 2.860000 152 138 146 0
23.100000 3.740000 3.520000 152 138 146 0
23.320000 3.740000 3.520000 150 136 144 0
23.540000 3.740000 3.520000 151 135 143 0
23.760000 3.740000 3.520000 151 135 143 0
23.980000 3.740000 3.520000 150 134 142 0
24.200000 3.740000 3.520000 150 134 142 0
24.420000 3.740000 3.520000 150 132 139 0
24.640000 3.740000 2.860000 148 130 137 0
24.860000 3.740000 2.860000 147 130 133 0
25.080000 3.740000 2.860000 147 130 133 0
25.300000 3.740000 3.520000 147 130 133 0
25.520000 3.740000 3.520000 147 130 133 0
25.740000 3.740000 3.520000 147 130 131 0
25.960000 3.740000 3.520000 146 129 130 0
26.180000 3.740000 3.520000 145 130 132 0
26.400000 3.740000 3.520000 146 131 133 0
26.620000 3.740000 3.520000 146 129 132 0
26.840000 3.740000 3.520000 146 129 132 0
27.060000 3.740000 3.520000 146 129 134 0
27.280000 3.740000 3.520000 145 128 133 0
27.500000 3.740000 3.520000 145 130 132 0
27.720000 3.740000 3.520000 146 131 133 0
27.940000 3.740000 3.520000 145 130 132 0
28.160000 3.740000 3.520000 145 130 132 0
28.380000 3.740000 3.520000 146 129 132 0
28.600000 3.740000 3.520000 146 129 132 0
28.820000 3.740000 3.520000 146 129 132 0
29.040000 3.740000 3.520000 146 129 132 0
29.260000 3.740000 3.520000 147 132 134 0
29.480000 3.740000 3.520000 148 133 135 0
29.700000 3.740000 3.520000 151 138 142 0
29.920000 3.740000 3.520000 152 139 143 0
30.140000 3.740000 3.520000 155 139 144 0
30.360000 3.740000 3.520000 157 141 146 0
30.580000 3.740000 2.860000 158 142 147 0
30.800000 3.740000 2.860000 159 143 148 0
31.020000 3.740000 2.860000 156 143 148 0
31.240000 3.740000 3.520000 157 144 149 0
31.460000 3.740000 3.520000 157 144 148 0
31.680000 3.740000 3.520000 158 145 149 0
31.900000 3.740000 2.860000 157 144 146 0
32.120000 3.740000 2.860000 158 145 147 0
32.340000 3.740000 3.520000 157 144 148 0
32.560000 3.740000 3.520000 156 143 147 0
32.780000 3.740000 3.520000 156 143 148 0
33.000000 3.740000 3.520000 155 142 147 0
33.220000 3.740000 3.520000 155 144 145 0
33.440000 3.740000 3.520000 154 143 144 0
33.660000 3.740000 3.520000 156 141 143 0
33.880000 3.740000 3.520000 155 140 142 0
34.100000 3.740000 2.860000 154 137 142 0
34.320000 3.740000 2.860000 153 136 141 0
34.540000 3.740000 2.860000 151 138 142 0
34.760000 3.740000 3.520000 149 136 140 0
34.980000 3.740000 3.520000 151 134 137 0
35.200000 3.740000 3.520000 149 132 135 0
35.420000 3.740000 3.520000 149 130 131 0
35.640000 3.740000 3.520000 148 129 130 0
35.860000 3.740000 3.520000 146 127 128 0
36.080000 3.740000 2.860000 144 125 126 0
36.300000 3.740000 2.860000 145 122 125 0
36.520000 3.740000 2.860000 141 118 121 0
36.740000 3.740000 2.860000 144 115 115 0
36.960000 3.740000 3.520000 144 115 115 0
37.180000 3.740000 3.520000 144 109 108 0
0.000000 3.960000 1.760000 210 237 243 0
0.220000 3.960000 1.870000 209 236 240 0
0.440000 3.960000 1.870000 210 237 241 0
0.660000 3.960000 1.870000 209 236 242 0
0.880000 3.960000 1.870000 209 236 242 0
1.100000 3.960000 1.980000 209 237 243 0
1.320000 3.960000 1.980000 209 237 243 0
1.540000 3.960000 1.980000 209 236 242 0
1.760000 3.960000 1.980000 209 236 242 0
1.980000 3.960000 2.640000 209 236 242 0
2.200000 3.960000 2.970000 209 236 242 0
2.420000 3.960000 3.520000 209 236 242 0
2.640000 3.960000 3.520000 210 237 243 0
2.860000 3.960000 3.520000 208 236 242 0
3.080000 3.960000 3.520000 209 237 243 0
3.300000 3.960000 3.630000 209 236 242 0
3.520000 3.960000 3.630000 209 236 242 0
3.740000 3.960000 3.630000 209 236 242 0
3.960000 3.960000 3.630000 208 235 241 0
4.180000 3.960000 3.740000 208 235 241 0
4.400000 3.960000 3.740000 208 235 241 0
4.620000 3.960000 3.740000 207 235 241 0
4.840000 3.960000 3.740000 207 235 241 0
5.060000 3.960000 3.740000 208 234 242 0
5.280000 3.960000 3.850000 207 233 241 0
5.500000 3.960000 3.850000 207 234 240 0
5.720000 3.960000 3.850000 206 233 239 0
5.940000 3.960000 4.620000 206 232 240 0
6.160000 3.960000 4.620000 205 231 239 0
6.380000 3.960000 4.620000 204 230 240 0
6.600000 3.960000 4.730000 202 228 238 0
6.820000 3.960000 4.070000 200 226 238 0
7.040000 3.960000 4.070000 196 222 234 0
7.260000 3.960000 4.070000 198 219 235 0
7.480000 3.960000 4.070000 197 218 234 0
7.700000 3.960000 4.070000 195 216 232 0
7.920000 3.960000 4.620000 194 215 231 0
8.140000 3.960000 5.720000 194 212 231 0
8.360000 3.960000 5.610000 193 211 230 0
8.580000 3.960000 5.610000 192 209 224 0
8.800000 3.960000 5.610000 191 208 223 0
9.020000 3.960000 5.610000 188 206 223 0
9.240000 3.960000 5.610000 188 206 223 0
9.460000 3.960000 5.720000 187 203 221 0
9.680000 3.960000 5.720000 188 204 222 0
9.900000 3.960000 5.720000 186 202 222 0
10.120000 3.960000 5.060000 186 202 222 0
10.340000 3.960000 5.060000 185 201 219 0
10.560000 3.960000 5.060000 185 201 219 0
10.780000 3.960000 5.060000 183 201 218 0
11.000000 3.960000 5.170000 182 200 217 0
11.220000 3.960000 4.510000 180 198 217 0
11.440000 3.960000 4.510000 179 197 216 0
11.660000 3.960000 4.620000 180 197 218 0
11.880000 3.960000 4.620000 180 197 218 0
12.100000 3.960000 3.960000 181 199 218 0
12.320000 3.960000 4.070000 182 200 219 0
12.540000 3.960000 4.070000 178 198 217 0
12.760000 3.960000 4.070000 179 199 218 0
12.980000 3.960000 3.410000 181 199 218 0
13.200000 3.960000 4.070000 180 198 217 0
13.420000 3.960000 4.510000 176 198 217 0
13.640000 3.960000 4.950000 176 198 217 0
13.860000 3.960000 4.840000 174 198 219 0
14.080000 3.960000 4.840000 174 198 219 0
14.300000 3.960000 4.180000 173 197 218 0
14.520000 3.960000 4.180000 173 197 218 0
14.740000 3.960000 4.180000 171 196 222 0
14.960000 3.960000 4.180000 171 196 222 0
15.180000 3.960000 4.180000 166 197 221 0
15.400000 3.960000 4.180000 165 196 220 0
15.620000 3.960000 3.520000 166 192 220 0
15.840000 3.960000 3.630000 164 190 218 0
16.060000 3.960000 3.630000 171 182 209 0
16.280000 3.960000 3.630000 169 180 207 0
16.500000 3.960000 3.630000 165 177 198 0
16.720000 3.960000 3.520000 161 173 194 0
16.940000 3.960000 3.520000 167 165 181 0
17.160000 3.960000 3.520000 163 161 177 0
17.380000 3.960000 3.520000 162 159 175 0
17.600000 3.960000 3.520000 158 155 171 0
17.820000 3.960000 3.520000 158 154 164 0
18.040000 3.960000 3.520000 157 153 163 0
18.260000 3.960000 3.520000 159 150 166 0
18.480000 3.960000 3.520000 158 149 165 0
18.700000 3.960000 3.520000 155 146 160 0
18.920000 3.960000 3.520000 157 148 162 0
19.140000 3.960000 3.520000 155 148 159 0
19.360000 3.960000 3.520000 153 146 157 0
19.580000 3.960000 3.520000 155 147 157 0
19.800000 3.960000 3.520000 154 146 156 0
20.020000 3.960000 3.520000 154 143 155 0
20.240000 3.960000 3.520000 153 142 154 0
20.460000 3.960000 3.520000 153 142 153 0
20.680000 3.960000 3.520000 152 141 152 0
20.900000 3.960000 3.520000 149 143 152 0
21.120000 3.960000 3.520000 150 144 153 0
21.340000 3.960000 3.520000 152 141 150 0
21.560000 3.960000 3.520000 152 141 150 0
21.780000 3.960000 3.520000 152 140 149 0
22.000000 3.960000 3.520000 152 140 149 0
22.220000 3.960000 3.520000 152 138 146 0
22.440000 3.960000 3.520000 151 137 145 0
22.660000 3.960000 3.520000 151 137 145 0
22.880000 3.960000 3.520000 151 137 145 0
23.100000 3.960000 3.520000 149 135 143 0
23.320000 3.960000 3.520000 150 136 144 0
23.540000 3.960000 3.520000 150 134 140 0
23.760000 3.960000 3.520000 148 132 138 0
23.980000 3.960000 3.520000 149 132 137 0
24.200000 3.960000 3.520000 149 132 137 0
24.420000 3.960000 3.520000 148 131 136 0
24.640000 3.960000 3.520000 148 131 136 0
24.860000 3.960000 2.860000 145 129 134 0
25.080000 3.960000 3.520000 145 129 134 0
25.300000 3.960000 3.520000 146 129 132 0
25.520000 3.960000 3.520000 145 128 131 0
25.740000 3.960000 3.520000 145 128 131 0
25.960000 3.960000 3.520000 146 129 132 0
26.180000 3.960000 3.520000 144 129 129 0
26.400000 3.960000 3.520000 144 129 129 0
26.620000 3.960000 3.520000 145 128 131 0
26.840000 3.960000 3.520000 144 127 130 0
27.060000 3.960000 3.520000 143 128 130 0
27.280000 3.960000 3.520000 144 129 131 0
27.500000 3.960000 3.520000 145 128 129 0
27.720000 3.960000 3.520000 145 128 129 0
27.940000 3.960000 3.520000 146 129 130 0
28.160000 3.960000 3.520000 145 128 129 0
28.380000 3.960000 3.520000 145 128 131 0
28.600000 3.960000 3.520000 146 129 132 0
28.820000 3.960000 3.520000 144 129 131 0
29.040000 3.960000 3.520000 145 130 132 0
29.260000 3.960000 3.520000 145 130 132 0
29.480000 3.960000 3.520000 146 131 133 0
29.700000 3.960000 3.520000 148 135 139 0
29.920000 3.960000 3.520000 150 137 141 0
30.140000 3.960000 3.520000 155 139 144 0
30.360000 3.960000 2.860000 156 140 145 0
30.580000 3.960000 2.860000 155 142 146 0
30.800000 3.960000 2.860000 154 141 145 0
31.020000 3.960000 3.520000 155 142 146 0
31.240000 3.960000 3.520000 154 141 145 0
31.460000 3.960000 3.520000 155 144 147 0
31.680000 3.960000 3.520000 155 144 147 0
31.900000 3.960000 3.520000 158 143 145 0
32.120000 3.960000 3.520000 158 143 145 0
32.340000 3.960000 3.520000 155 144 147 0
32.560000 3.960000 3.520000 154 143 146 0
32.780000 3.960000 3.520000 154 141 145 0
33.000000 3.960000 3.520000 154 141 145 0
33.220000 3.960000 3.520000 153 140 144 0
33.440000 3.960000 3.520000 152 139 143 0
33.660000 3.960000 3.520000 153 137 142 0
33.880000 3.960000 3.520000 152 136 141 0
34.100000 3.960000 2.860000 151 134 139 0
34.320000 3.960000 2.860000 152 135 140 0
34.540000 3.960000 3.520000 153 131 138 0
34.760000 3.960000 3.520000 151 129 136 0
34.980000 3.960000 3.520000 150 127 130 0
35.200000 3.960000 2.860000 149 126 129 0
35.420000 3.960000 2.860000 148 126 126 0
35.640000 3.960000 3.520000 145 123 123 0
35.860000 3.960000 3.520000 148 119 119 0
36.080000 3.960000 2.860000 146 117 117 0
36.300000 3.960000 2.860000 148 113 112 0
36.520000 3.960000 2.860000 146 111 110 0
36.740000 3.960000 2.860000 145 109 106 0
36.960000 3.960000 3.520000 145 109 106 0
37.180000 3.960000 2.860000 142 106 103 0
0.000000 4.180000 1.760000 209 236 242 0
0.220000 4.180000 1.870000 209 236 240 0
0.440000 4.180000 1.870000 209 236 240 0
0.660000 4.180000 1.870000 209 236 242 0
0.880000 4.180000 1.870000 209 236 242 0
1.100000 4.180000 1.980000 208 236 242 0
1.320000 4.180000 1.980000 207 235 241 0
1.540000 4.180000 1.980000 209 236 242 0
1.760000 4.180000 1.980000 209 236 242 0
1.980000 4.180000 1.980000 208 235 241 0
2.200000 4.180000 2.530000 208 235 241 0
2.420000 4.180000 3.630000 208 235 241 0
2.640000 4.180000 3.520000 209 236 242 0
2.860000 4.180000 3.520000 207 235 241 0
3.080000 4.180000 3.520000 208 236 242 0
3.300000 4.180000 3.630000 208 235 241 0
3.520000 4.180000 3.630000 208 235 241 0
3.740000 4.180000 3.630000 208 235 241 0
3.960000 4.180000 3.630000 207 234 240 0
4.180000 4.180000 3.740000 207 234 240 0
4.400000 4.180000 3.740000 207 234 240 0
4.620000 4.180000 3.740000 206 234 240 0
4.840000 4.180000 3.740000 205 233 239 0
5.060000 4.180000 3.740000 207 233 241 0
5.280000 4.180000 3.850000 205 231 239 0
5.500000 4.180000 3.850000 205 232 238 0
5.720000 4.180000 3.850000 205 232 238 0
5.940000 4.180000 4.620000 205 231 239 0
6.160000 4.180000 4.620000 204 230 238 0
6.380000 4.180000 4.620000 203 229 239 0
6.600000 4.180000 4.730000 201 227 237 0
6.820000 4.180000 4.730000 201 227 239 0
7.040000 4.180000 4.730000 200 226 238 0
7.260000 4.180000 4.730000 201 222 238 0
7.480000 4.180000 4.840000 199 220 236 0
7.700000 4.180000 4.730000 198 219 235 0
7.920000 4.180000 5.060000 197 218 234 0
8.140000 4.180000 5.610000 197 215 234 0
8.360000 4.180000 6.270000 195 213 232 0
8.580000 4.180000 5.610000 196 213 228 0
8.800000 4.180000 5.610000 192 209 224 0
9.020000 4.180000 5.610000 190 208 225 0
9.240000 4.180000 5.720000 190 208 225 0
9.460000 4.180000 5.720000 190 206 224 0
9.680000 4.180000 5.720000 188 204 222 0
9.900000 4.180000 5.720000 188 204 224 0
10.120000 4.180000 5.720000 187 203 223 0
10.340000 4.180000 5.720000 186 202 220 0
10.560000 4.180000 5.060000 185 201 219 0
10.780000 4.180000 5.170000 183 201 218 0
11.000000 4.180000 5.170000 182 200 217 0
11.220000 4.180000 5.170000 181 199 218 0
11.440000 4.180000 5.280000 181 199 218 0
11.660000 4.180000 4.620000 181 198 219 0
11.880000 4.180000 4.620000 180 197 218 0
12.100000 4.180000 4.620000 180 198 217 0
12.320000 4.180000 4.730000 180 198 217 0
12.540000 4.180000 4.730000 176 196 215 0
12.760000 4.180000 4.070000 176 196 215 0
12.980000 4.180000 4.070000 180 198 217 0
13.200000 4.180000 4.070000 180 198 217 0
13.420000 4.180000 4.620000 175 197 216 0
13.640000 4.180000 5.060000 174 196 215 0
13.860000 4.180000 5.610000 171 195 216 0
14.080000 4.180000 5.500000 172 196 217 0
14.300000 4.180000 4.840000 170 194 215 0
14.520000 4.180000 4.840000 169 193 214 0
14.740000 4.180000 4.840000 167 192 218 0
14.960000 4.180000 4.180000 165 190 216 0
15.180000 4.180000 4.180000 160 191 215 0
15.400000 4.180000 4.180000 156 187 211 0
15.620000 4.180000 4.180000 156 182 210 0
15.840000 4.180000 4.180000 152 178 206 0
16.060000 4.180000 3.520000 160 171 198 0
16.280000 4.180000 3.630000 157 168 195 0
16.500000 4.180000 3.520000 155 167 188 0
16.720000 4.180000 3.520000 152 164 185 0
16.940000 4.180000 3.520000 158 156 172 0
17.160000 4.180000 3.520000 156 154 170 0
17.380000 4.180000 3.520000 157 154 170 0
17.600000 4.180000 3.520000 155 152 168 0
17.820000 4.180000 3.520000 154 150 160 0
18.040000 4.180000 3.520000 154 150 160 0
18.260000 4.180000 3.520000 155 146 162 0
18.480000 4.180000 3.520000 153 144 160 0
18.700000 4.180000 3.520000 154 145 159 0
18.920000 4.180000 3.520000 155 146 160 0
19.140000 4.180000 3.520000 152 145 156 0
19.360000 4.180000 3.520000 151 144 155 0
19.580000 4.180000 3.520000 152 144 154 0
19.800000 4.180000 3.520000 152 144 154 0
20.020000 4.180000 3.520000 154 143 155 0
20.240000 4.180000 3.520000 153 142 154 0
20.460000 4.180000 3.520000 152 141 152 0
20.680000 4.180000 3.520000 152 141 152 0
20.900000 4.180000 3.520000 150 144 153 0
21.120000 4.180000 3.520000 149 143 152 0
21.340000 4.180000 3.520000 151 140 149 0
21.560000 4.180000 3.520000 151 140 149 0
21.780000 4.180000 3.520000 151 139 148 0
22.000000 4.180000 3.520000 150 138 147 0
22.220000 4.180000 3.520000 151 137 145 0
22.440000 4.180000 3.520000 150 136 144 0
22.660000 4.180000 3.520000 150 136 144 0
22.880000 4.180000 3.520000 150 136 144 0
23.100000 4.180000 3.520000 148 134 142 0
23.320000 4.180000 3.520000 148 134 142 0
23.540000 4.180000 3.520000 150 134 140 0
23.760000 4.180000 3.520000 147 131 137 0
23.980000 4.180000 3.520000 148 131 136 0
24.200000 4.180000 3.520000 148 131 136 0
24.420000 4.180000 3.520000 148 131 136 0
24.640000 4.180000 3.520000 147 130 135 0
24.860000 4.180000 3.520000 145 129 134 0
25.080000 4.180000 3.520000 145 129 134 0
25.300000 4.180000 3.520000 146 129 132 0
25.520000 4.180000 3.520000 146 129 132 0
25.740000 4.180000 3.520000 146 129 132 0
25.960000 4.180000 3.520000 145 128 131 0
26.180000 4.180000 3.520000 144 129 129 0
26.400000 4.180000 3.520000 143 128 128 0
26.620000 4.180000 3.520000 144 127 130 0
26.840000 4.180000 3.520000 143 126 129 0
27.060000 4.180000 3.520000 143 128 130 0
27.280000 4.180000 3.520000 143 128 130 0
27.500000 4.180000 3.520000 144 127 128 0
27.720000 4.180000 3.520000 143 126 127 0
27.940000 4.180000 3.520000 144 127 128 0
28.160000 4.180000 3.520000 144 127 128 0
28.380000 4.180000 3.520000 144 127 130 0
28.600000 4.180000 3.520000 145 128 131 0
28.820000 4.180000 3.520000 143 128 130 0
29.040000 4.180000 3.520000 143 128 130 0
29.260000 4.180000 3.520000 143 128 130 0
29.480000 4.180000 3.520000 146 131 133 0
29.700000 4.180000 3.520000 146 133 137 0
29.920000 4.180000 3.520000 150 137 141 0
30.140000 4.180000 3.520000 154 138 143 0
30.360000 4.180000 3.520000 155 139 144 0
30.580000 4.180000 3.520000 154 141 145 0
30.800000 4.180000 3.520000 153 140 144 0
31.020000 4.180000 3.520000 152 139 143 0
31.240000 4.180000 3.520000 152 139 143 0
31.460000 4.180000 3.520000 152 141 144 0
31.680000 4.180000 3.520000 152 141 144 0
31.900000 4.180000 3.520000 156 141 143 0
32.120000 4.180000 3.520000 155 140 142 0
32.340000 4.180000 3.520000 152 141 144 0
32.560000 4.180000 3.520000 153 142 145 0
32.780000 4.180000 3.520000 151 138 142 0
33.000000 4.180000 3.520000 151 138 142 0
33.220000 4.180000 3.520000 151 138 142 0
33.440000 4.180000 3.520000 150 137 141 0
33.660000 4.180000 3.520000 150 134 139 0
33.880000 4.180000 3.520000 149 133 138 0
34.100000 4.180000 2.860000 149 132 137 0
34.320000 4.180000 2.860000 148 131 136 0
34.540000 4.180000 2.860000 150 128 135 0
34.760000 4.180000 3.630000 148 126 133 0
34.980000 4.180000 2.860000 146 123 126 0
35.200000 4.180000 2.860000 144 121 124 0
35.420000 4.180000 3.520000 144 122 122 0
35.640000 4.180000 3.520000 141 119 119 0
35.860000 4.180000 3.630000 144 115 115 0
36.080000 4.180000 2.860000 141 112 112 0
36.300000 4.180000 2.860000 145 110 109 0
36.520000 4.180000 3.520000 141 106 105 0
36.740000 4.180000 3.520000 143 107 104 0
36.960000 4.180000 2.860000 142 106 103 0
37.180000 4.180000 2.860000 141 105 102 0
0.000000 4.400000 1.760000 209 236 240 0
0.220000 4.400000 1.870000 208 237 240 0
0.440000 4.400000 1.870000 208 237 240 0
0.660000 4.400000 1.870000 208 235 239 0
0.880000 4.400000 1.870000 209 236 240 0
1.100000 4.400000 1.980000 207 236 239 0
1.320000 4.400000 1.980000 207 236 239 0
1.540000 4.400000 1.980000 208 237 240 0
1.760000 4.400000 1.980000 207 236 239 0
1.980000 4.400000 2.090000 208 236 242 0
2.200000 4.400000 2.640000 207 235 241 0
2.420000 4.400000 2.970000 207 236 239 0
2.640000 4.400000 3.520000 207 236 239 0
2.860000 4.400000 3.520000 209 236 240 0
3.080000 4.400000 3.520000 208 235 239 0
3.300000 4.400000 3.630000 209 236 242 0
3.520000 4.400000 3.630000 208 235 241 0
3.740000 4.400000 3.630000 206 234 240 0
3.960000 4.400000 3.630000 206 234 240 0
4.180000 4.400000 3.630000 207 234 240 0
4.400000 4.400000 3.740000 207 234 240 0
4.620000 4.400000 3.740000 207 234 240 0
4.840000 4.400000 3.740000 206 233 239 0
5.060000 4.400000 3.740000 207 233 241 0
5.280000 4.400000 3.850000 206 232 240 0
5.500000 4.400000 3.850000 205 233 240 0
5.720000 4.400000 3.850000 204 232 239 0
5.940000 4.400000 4.620000 205 231 239 0
6.160000 4.400000 4.620000 204 230 238 0
6.380000 4.400000 4.620000 204 230 238 0
6.600000 4.400000 4.730000 203 229 237 0
6.820000 4.400000 4.730000 202 228 238 0
7.040000 4.400000 4.730000 202 228 238 0
7.260000 4.400000 4.730000 201 227 239 0
7.480000 4.400000 4.840000 199 225 237 0
7.700000 4.400000 4.620000 199 222 235 0
7.920000 4.400000 5.720000 198 221 234 0
8.140000 4.400000 6.270000 197 220 235 0
8.360000 4.400000 6.270000 196 219 234 0
8.580000 4.400000 6.270000 191 218 234 0
8.800000 4.400000 6.270000 190 217 233 0
9.020000 4.400000 5.610000 192 214 232 0
9.240000 4.400000 5.720000 191 213 231 0
9.460000 4.400000 5.720000 192 210 225 0
9.680000 4.400000 5.720000 191 209 224 0
9.900000 4.400000 5.720000 190 208 225 0
10.120000 4.400000 5.720000 189 207 224 0
10.340000 4.400000 5.830000 190 205 223 0
10.560000 4.400000 5.830000 189 204 222 0
10.780000 4.400000 5.830000 185 203 218 0
11.000000 4.400000 5.940000 183 201 216 0
11.220000 4.400000 5.280000 184 201 216 0
11.440000 4.400000 5.280000 184 201 216 0
11.660000 4.400000 5.280000 183 199 217 0
11.880000 4.400000 5.390000 183 199 217 0
12.100000 4.400000 5.390000 186 198 215 0
12.320000 4.400000 5.390000 185 197 214 0
12.540000 4.400000 4.730000 183 198 212 0
12.760000 4.400000 4.730000 182 197 211 0
12.980000 4.400000 4.840000 183 198 214 0
13.200000 4.400000 4.840000 181 196 212 0
13.420000 4.400000 4.730000 179 195 215 0
13.640000 4.400000 5.170000 176 192 212 0
13.860000 4.400000 5.610000 176 192 212 0
14.080000 4.400000 5.500000 174 190 210 0
14.300000 4.400000 5.500000 173 189 210 0
14.520000 4.400000 5.610000 170 186 207 0
14.740000 4.400000 4.840000 167 181 205 0
14.960000 4.400000 4.840000 165 179 203 0
15.180000 4.400000 4.840000 167 175 195 0
15.400000 4.400000 4.180000 165 173 193 0
15.620000 4.400000 4.180000 164 169 184 0
15.840000 4.400000 4.180000 162 167 182 0
16.060000 4.400000 4.180000 165 161 173 0
16.280000 4.400000 4.180000 161 157 169 0
16.500000 4.400000 3.520000 158 155 167 0
16.720000 4.400000 3.520000 155 152 164 0
16.940000 4.400000 3.520000 156 152 164 0
17.160000 4.400000 3.520000 155 151 163 0
17.380000 4.400000 3.520000 154 150 162 0
17.600000 4.400000 3.520000 153 149 161 0
17.820000 4.400000 3.520000 155 149 158 0
18.040000 4.400000 3.520000 155 149 158 0
18.260000 4.400000 3.520000 155 147 157 0
18.480000 4.400000 3.520000 153 145 155 0
18.700000 4.400000 3.520000 151 144 155 0
18.920000 4.400000 3.520000 152 145 156 0
19.140000 4.400000 3.520000 151 144 155 0
19.360000 4.400000 3.520000 150 143 154 0
19.580000 4.400000 3.520000 153 142 151 0
19.800000 4.400000 3.520000 153 142 151 0
20.020000 4.400000 3.520000 152 144 154 0
20.240000 4.400000 3.520000 151 143 153 0
20.460000 4.400000 3.520000 149 141 151 0
20.680000 4.400000 3.520000 149 141 151 0
20.900000 4.400000 3.520000 151 140 149 0
21.120000 4.400000 3.520000 151 140 149 0
21.340000 4.400000 3.520000 151 139 146 0
21.560000 4.400000 3.520000 151 139 146 0
21.780000 4.400000 3.520000 150 138 143 0
22.000000 4.400000 3.520000 150 138 143 0
22.220000 4.400000 3.520000 149 137 144 0
22.440000 4.400000 3.520000 148 136 143 0
22.660000 4.400000 3.520000 150 134 140 0
22.880000 4.400000 3.520000 149 133 139 0
23.100000 4.400000 3.520000 148 132 137 0
23.320000 4.400000 3.520000 149 133 138 0
23.540000 4.400000 3.520000 147 131 136 0
23.760000 4.400000 3.520000 146 130 135 0
23.980000 4.400000 3.520000 147 130 133 0
24.200000 4.400000 3.520000 146 129 132 0
24.420000 4.400000 3.520000 145 129 134 0
24.640000 4.400000 3.520000 146 130 135 0
24.860000 4.400000 3.520000 145 130 132 0
25.080000 4.400000 3.520000 146 131 133 0
25.300000 4.400000 3.520000 144 129 131 0
25.520000 4.400000 3.520000 144 129 131 0
25.740000 4.400000 3.520000 145 128 131 0
25.960000 4.400000 3.520000 145 128 131 0
26.180000 4.400000 3.520000 142 127 129 0
26.400000 4.400000 3.520000 142 127 129 0
26.620000 4.400000 3.520000 143 126 129 0
26.840000 4.400000 3.520000 144 127 130 0
27.060000 4.400000 3.520000 142 125 128 0
27.280000 4.400000 3.520000 141 124 127 0
27.500000 4.400000 3.520000 143 126 127 0
27.720000 4.400000 3.520000 143 126 127 0
27.940000 4.400000 3.520000 141 126 128 0
28.160000 4.400000 3.520000 141 126 128 0
28.380000 4.400000 3.520000 142 127 129 0
28.600000 4.400000 3.520000 143 128 130 0
28.820000 4.400000 3.520000 143 126 127 0
29.040000 4.400000 3.520000 143 126 127 0
29.260000 4.400000 3.520000 144 127 130 0
29.480000 4.400000 3.520000 144 127 130 0
29.700000 4.400000 3.520000 146 133 137 0
29.920000 4.400000 3.520000 148 135 139 0
30.140000 4.400000 3.520000 148 135 139 0
30.360000 4.400000 3.520000 150 137 141 0
30.580000 4.400000 3.520000 154 138 143 0
30.800000 4.400000 3.520000 154 138 143 0
31.020000 4.400000 3.520000 152 139 141 0
31.240000 4.400000 3.520000 153 140 142 0
31.460000 4.400000 3.520000 151 140 143 0
31.680000 4.400000 3.520000 151 140 143 0
31.900000 4.400000 3.520000 151 138 142 0
32.120000 4.400000 3.520000 152 139 143 0
32.340000 4.400000 3.520000 153 137 142 0
32.560000 4.400000 3.520000 153 137 142 0
32.780000 4.400000 3.520000 150 137 139 0
33.000000 4.400000 3.520000 149 136 138 0
33.220000 4.400000 3.520000 148 135 137 0
33.440000 4.400000 3.520000 147 134 136 0
33.660000 4.400000 3.520000 152 132 136 0
33.880000 4.400000 3.520000 149 129 133 0
34.100000 4.400000 2.860000 148 127 129 0
34.320000 4.400000 2.860000 147 126 128 0
34.540000 4.400000 2.860000 148 126 124 0
34.760000 4.400000 2.860000 145 123 121 0
34.980000 4.400000 2.860000 148 119 119 0
35.200000 4.400000 3.520000 146 117 117 0
35.420000 4.400000 3.520000 146 115 116 0
35.640000 4.400000 3.520000 143 112 113 0
35.860000 4.400000 3.630000 145 110 109 0
36.080000 4.400000 2.860000 144 109 108 0
36.300000 4.400000 2.860000 143 108 107 0
36.520000 4.400000 3.520000 142 107 106 0
36.740000 4.400000 3.520000 141 105 104 0
36.960000 4.400000 3.520000 141 105 104 0
37.180000 4.400000 3.520000 142 103 101 0
0.000000 4.620000 1.760000 209 236 240 0
0.220000 4.620000 1.870000 207 236 239 0
0.440000 4.620000 1.870000 208 237 240 0
0.660000 4.620000 1.870000 209 236 240 0
0.880000 4.620000 1.870000 208 235 239 0
1.100000 4.620000 1.980000 207 236 239 0
1.320000 4.620000 1.980000 208 237 240 0
1.540000 4.620000 1.980000 208 237 240 0
1.760000 4.620000 1.980000 208 237 240 0
1.980000 4.620000 1.980000 207 235 241 0
2.200000 4.620000 2.530000 207 235 241 0
2.420000 4.620000 3.630000 208 237 240 0
2.640000 4.620000 3.520000 207 236 239 0
2.860000 4.620000 3.520000 208 235 239 0
3.080000 4.620000 3.520000 208 235 239 0
3.300000 4.620000 3.630000 207 234 240 0
3.520000 4.620000 3.630000 207 234 240 0
3.740000 4.620000 3.630000 206 234 240 0
3.960000 4.620000 3.630000 206 234 240 0
4.180000 4.620000 3.630000 207 234 240 0
4.400000 4.620000 3.740000 207 234 240 0
4.620000 4.620000 3.740000 206 233 239 0
4.840000 4.620000 3.740000 206 233 239 0
5.060000 4.620000 3.740000 205 231 239 0
5.280000 4.620000 3.850000 205 231 239 0
5.500000 4.620000 3.850000 204 232 239 0
5.720000 4.620000 3.850000 204 232 239 0
5.940000 4.620000 4.620000 205 231 239 0
6.160000 4.620000 4.620000 204 230 238 0
6.380000 4.620000 4.620000 204 230 238 0
6.600000 4.620000 4.730000 204 230 238 0
6.820000 4.620000 4.730000 201 227 237 0
7.040000 4.620000 4.730000 201 227 237 0
7.260000 4.620000 4.730000 201 227 239 0
7.480000 4.620000 4.840000 200 226 238 0
7.700000 4.620000 4.620000 200 223 236 0
7.920000 4.620000 5.720000 200 223 236 0
8.140000 4.620000 6.270000 198 221 236 0
8.360000 4.620000 6.270000 198 221 236 0
8.580000 4.620000 6.270000 194 221 237 0
8.800000 4.620000 6.270000 193 220 236 0
9.020000 4.620000 6.380000 193 215 233 0
9.240000 4.620000 6.380000 193 215 233 0
9.460000 4.620000 6.380000 194 212 227 0
9.680000 4.620000 6.380000 194 212 227 0
9.900000 4.620000 5.720000 192 210 227 0
10.120000 4.620000 5.830000 192 210 227 0
10.340000 4.620000 5.830000 194 209 227 0
10.560000 4.620000 5.830000 191 206 224 0
10.780000 4.620000 5.830000 186 204 219 0
11.000000 4.620000 5.940000 186 204 219 0
11.220000 4.620000 5.940000 186 203 218 0
11.440000 4.620000 5.940000 187 204 219 0
11.660000 4.620000 6.050000 186 202 220 0
11.880000 4.620000 6.050000 184 200 218 0
12.100000 4.620000 6.050000 187 199 216 0
12.320000 4.620000 5.390000 186 198 215 0
12.540000 4.620000 5.390000 184 199 213 0
12.760000 4.620000 5.500000 184 199 213 0
12.980000 4.620000 5.500000 181 196 212 0
13.200000 4.620000 5.500000 182 197 213 0
13.420000 4.620000 5.390000 176 192 212 0
13.640000 4.620000 6.490000 177 193 213 0
13.860000 4.620000 6.270000 173 189 209 0
14.080000 4.620000 6.270000 172 188 208 0
14.300000 4.620000 6.270000 168 184 205 0
14.520000 4.620000 5.610000 164 180 201 0
14.740000 4.620000 5.610000 162 176 200 0
14.960000 4.620000 4.840000 158 172 196 0
15.180000 4.620000 4.840000 161 169 189 0
15.400000 4.620000 4.840000 156 164 184 0
15.620000 4.620000 4.180000 153 158 173 0
15.840000 4.620000 4.180000 152 157 172 0
16.060000 4.620000 4.180000 159 155 167 0
16.280000 4.620000 4.180000 157 153 165 0
16.500000 4.620000 3.520000 153 150 162 0
16.720000 4.620000 3.520000 151 148 160 0
16.940000 4.620000 3.520000 153 149 161 0
17.160000 4.620000 3.520000 152 148 160 0
17.380000 4.620000 3.520000 151 147 159 0
17.600000 4.620000 3.520000 151 147 159 0
17.820000 4.620000 3.520000 153 147 156 0
18.040000 4.620000 3.520000 152 146 155 0
18.260000 4.620000 3.520000 152 144 154 0
18.480000 4.620000 3.520000 152 144 154 0
18.700000 4.620000 3.520000 151 144 155 0
18.920000 4.620000 3.520000 149 142 153 0
19.140000 4.620000 3.520000 149 142 153 0
19.360000 4.620000 3.520000 149 142 153 0
19.580000 4.620000 3.520000 151 140 149 0
19.800000 4.620000 3.520000 153 142 151 0
20.020000 4.620000 3.520000 149 141 151 0
20.240000 4.620000 3.520000 149 141 151 0
20.460000 4.620000 3.520000 148 140 150 0
20.680000 4.620000 3.520000 148 140 150 0
20.900000 4.620000 3.520000 150 139 148 0
21.120000 4.620000 3.520000 149 138 147 0
21.340000 4.620000 3.520000 151 139 146 0
21.560000 4.620000 3.520000 150 138 145 0
21.780000 4.620000 3.520000 149 137 142 0
22.000000 4.620000 3.520000 149 137 142 0
22.220000 4.620000 3.520000 148 136 143 0
22.440000 4.620000 3.520000 148 136 143 0
22.660000 4.620000 3.520000 149 133 139 0
22.880000 4.620000 3.520000 148 132 138 0
23.100000 4.620000 3.520000 148 132 137 0
23.320000 4.620000 3.520000 148 132 137 0
23.540000 4.620000 3.520000 146 130 135 0
23.760000 4.620000 3.520000 145 129 134 0
23.980000 4.620000 3.520000 145 128 131 0
24.200000 4.620000 3.520000 145 128 131 0
24.420000 4.620000 3.520000 145 129 134 0
24.640000 4.620000 3.520000 144 128 133 0
24.860000 4.620000 3.520000 143 128 130 0
25.080000 4.620000 3.520000 144 129 131 0
25.300000 4.620000 3.520000 144 129 131 0
25.520000 4.620000 3.520000 143 128 130 0
25.740000 4.620000 3.520000 143 126 129 0
25.960000 4.620000 3.520000 143 126 129 0
