ply
format ascii 1.0
element vertex 1123
property float x
property float y
property float z
property uchar red
property uchar green
property uchar blue
property uchar alpha
end_header
13.200000 33.660000 4.400000 155 173 154 0
13.420000 33.660000 3.740000 153 171 154 0
13.640000 33.660000 2.310000 153 171 154 0
13.860000 33.660000 2.310000 153 169 153 0
14.080000 33.660000 3.740000 154 170 154 0
14.300000 33.660000 5.720000 154 170 154 0
14.520000 33.660000 7.810000 153 169 153 0
14.740000 33.660000 9.240000 152 170 151 0
14.960000 33.660000 8.580000 152 170 151 0
15.180000 33.660000 8.030000 153 171 154 0
15.400000 33.660000 7.370000 152 170 153 0
15.620000 33.660000 7.370000 153 169 153 0
15.840000 33.660000 7.480000 153 169 153 0
16.060000 33.660000 7.370000 152 170 153 0
16.280000 33.660000 7.370000 150 168 151 0
16.500000 33.660000 7.370000 151 169 152 0
16.720000 33.660000 7.480000 150 168 151 0
16.940000 33.660000 7.480000 151 169 152 0
17.160000 33.660000 7.480000 151 169 152 0
17.380000 33.660000 7.480000 151 169 152 0
17.600000 33.660000 7.480000 150 168 151 0
17.820000 33.660000 7.370000 151 167 151 0
18.040000 33.660000 6.710000 150 166 150 0
18.260000 33.660000 6.050000 151 169 152 0
18.480000 33.660000 5.390000 150 168 151 0
18.700000 33.660000 4.730000 151 169 152 0
18.920000 33.660000 4.730000 150 168 151 0
19.140000 33.660000 4.730000 150 166 150 0
19.360000 33.660000 3.960000 150 166 150 0
19.580000 33.660000 2.640000 150 166 150 0
19.800000 33.660000 0.550000 149 165 149 0
20.460000 33.660000 4.730000 147 163 147 0
20.680000 33.660000 9.460000 147 163 147 0
20.900000 33.660000 4.620000 147 163 147 0
22.220000 33.660000 3.300000 146 162 144 0
22.440000 33.660000 8.800000 145 161 143 0
22.660000 33.660000 9.460000 146 160 142 0
22.880000 33.660000 9.570000 145 159 141 0
23.100000 33.660000 6.820000 144 158 140 0
23.320000 33.660000 3.300000 144 158 140 0
23.540000 33.660000 4.620000 144 158 140 0
23.760000 33.660000 5.280000 143 157 139 0
23.980000 33.660000 5.390000 143 157 139 0
24.200000 33.660000 5.390000 142 156 138 0
24.420000 33.660000 4.730000 144 156 139 0
24.640000 33.660000 4.730000 143 155 138 0
24.860000 33.660000 4.620000 142 156 138 0
25.080000 33.660000 3.960000 141 155 137 0
25.300000 33.660000 3.190000 142 156 138 0
25.520000 33.660000 2.530000 141 155 137 0
25.740000 33.660000 1.870000 142 154 137 0
25.960000 33.660000 1.870000 141 153 136 0
26.180000 33.660000 3.190000 141 153 136 0
26.400000 33.660000 4.400000 141 153 136 0
26.620000 33.660000 5.720000 141 153 136 0
26.840000 33.660000 6.380000 143 155 138 0
27.060000 33.660000 7.150000 140 152 135 0
27.280000 33.660000 7.260000 141 153 136 0
27.500000 33.660000 8.030000 140 152 135 0
27.720000 33.660000 8.030000 141 153 136 0
27.940000 33.660000 8.030000 142 152 136 0
28.160000 33.660000 7.370000 138 148 132 0
28.380000 33.660000 7.370000 143 141 123 0
28.600000 33.660000 7.370000 138 136 118 0
28.820000 33.660000 7.370000 144 127 104 0
29.040000 33.660000 6.710000 140 123 100 0
29.260000 33.660000 6.050000 142 123 101 0
29.480000 33.660000 5.390000 142 123 101 0
29.700000 33.660000 4.730000 140 122 97 0
29.920000 33.660000 4.730000 139 121 96 0
30.140000 33.660000 5.390000 140 122 95 0
30.360000 33.660000 5.280000 140 122 95 0
30.580000 33.660000 5.280000 139 121 96 0
30.800000 33.660000 5.390000 139 121 96 0
31.020000 33.660000 4.730000 138 120 95 0
31.240000 33.660000 4.730000 138 120 95 0
31.460000 33.660000 4.730000 138 120 95 0
31.680000 33.660000 4.730000 137 119 94 0
31.900000 33.660000 5.280000 140 119 93 0
32.120000 33.660000 6.380000 141 120 94 0
32.340000 33.660000 7.700000 141 120 96 0
32.560000 33.660000 7.700000 143 122 98 0
32.780000 33.660000 7.700000 143 122 98 0
33.000000 33.660000 7.700000 145 124 100 0
33.220000 33.660000 8.470000 165 133 103 0
33.440000 33.660000 8.470000 174 142 112 0
33.660000 33.660000 8.470000 182 146 115 0
33.880000 33.660000 9.240000 184 148 117 0
34.100000 33.660000 9.240000 184 144 116 0
34.320000 33.660000 8.580000 179 139 111 0
34.540000 33.660000 8.580000 178 140 112 0
34.760000 33.660000 9.240000 179 141 113 0
34.980000 33.660000 9.350000 182 145 114 0
35.200000 33.660000 9.350000 187 150 119 0
35.420000 33.660000 9.350000 185 150 117 0
35.640000 33.660000 9.350000 186 151 118 0
35.860000 33.660000 9.460000 189 149 121 0
36.080000 33.660000 10.120000 183 143 115 0
36.300000 33.660000 10.120000 178 135 113 0
36.520000 33.660000 9.460000 164 121 99 0
36.740000 33.660000 9.460000 155 113 84 0
36.960000 33.660000 10.230000 148 106 77 0
37.180000 33.660000 10.230000 145 103 76 0
0.000000 33.880000 6.600000 201 213 206 0
0.220000 33.880000 6.600000 200 212 205 0
0.440000 33.880000 6.600000 201 213 206 0
0.660000 33.880000 6.490000 201 213 206 0
0.880000 33.880000 7.150000 200 212 205 0
1.100000 33.880000 7.260000 197 212 204 0
1.320000 33.880000 6.600000 194 209 201 0
1.540000 33.880000 6.600000 193 208 200 0
1.760000 33.880000 6.600000 191 206 198 0
1.980000 33.880000 6.710000 182 199 186 0
2.200000 33.880000 7.370000 170 187 174 0
2.420000 33.880000 7.370000 160 171 150 0
2.640000 33.880000 7.480000 149 160 139 0
2.860000 33.880000 7.480000 147 156 134 0
3.080000 33.880000 7.480000 140 149 127 0
3.300000 33.880000 7.480000 138 145 124 0
3.520000 33.880000 8.250000 137 144 123 0
3.740000 33.880000 8.910000 134 141 121 0
3.960000 33.880000 9.570000 132 139 119 0
4.180000 33.880000 10.230000 131 138 117 0
4.400000 33.880000 11.660000 130 137 116 0
4.620000 33.880000 11.660000 128 137 115 0
4.840000 33.880000 11.660000 127 136 114 0
5.060000 33.880000 12.430000 127 134 113 0
5.280000 33.880000 11.660000 127 134 113 0
5.500000 33.880000 6.160000 127 134 113 0
5.720000 33.880000 2.530000 126 133 112 0
5.940000 33.880000 2.860000 127 134 113 0
6.160000 33.880000 4.180000 126 133 112 0
6.380000 33.880000 4.950000 126 133 112 0
6.600000 33.880000 6.600000 126 133 112 0
6.820000 33.880000 6.600000 125 132 111 0
7.040000 33.880000 7.150000 125 132 111 0
7.260000 33.880000 6.930000 125 132 111 0
7.480000 33.880000 6.930000 124 131 110 0
7.700000 33.880000 7.040000 125 132 111 0
7.920000 33.880000 6.930000 123 130 109 0
8.140000 33.880000 6.930000 124 131 110 0
8.360000 33.880000 6.930000 124 131 110 0
8.580000 33.880000 6.930000 123 132 110 0
8.800000 33.880000 6.930000 123 132 110 0
9.020000 33.880000 6.930000 124 131 110 0
9.240000 33.880000 6.930000 123 130 109 0
9.460000 33.880000 6.930000 124 131 110 0
9.680000 33.880000 6.930000 124 131 110 0
9.900000 33.880000 7.590000 124 131 110 0
10.120000 33.880000 7.590000 124 131 110 0
10.340000 33.880000 6.380000 123 130 109 0
10.560000 33.880000 4.510000 124 131 110 0
10.780000 33.880000 3.850000 123 130 109 0
11.000000 33.880000 4.620000 123 130 109 0
11.220000 33.880000 5.280000 124 131 110 0
11.440000 33.880000 6.380000 124 131 110 0
11.660000 33.880000 6.930000 123 130 109 0
11.880000 33.880000 7.040000 123 130 109 0
12.100000 33.880000 5.610000 123 131 111 0
12.320000 33.880000 4.950000 136 144 124 0
12.540000 33.880000 5.060000 148 166 147 0
12.760000 33.880000 4.400000 157 175 156 0
12.980000 33.880000 4.400000 156 172 156 0
13.200000 33.880000 4.400000 154 170 154 0
13.420000 33.880000 3.740000 153 169 151 0
13.640000 33.880000 3.080000 153 169 151 0
13.860000 33.880000 2.310000 153 169 153 0
14.080000 33.880000 3.740000 153 169 153 0
14.300000 33.880000 5.720000 153 169 151 0
14.520000 33.880000 7.700000 153 169 151 0
14.740000 33.880000 8.470000 152 168 152 0
14.960000 33.880000 8.580000 152 168 152 0
15.180000 33.880000 7.920000 153 169 153 0
15.400000 33.880000 7.260000 154 170 154 0
15.620000 33.880000 7.370000 153 169 153 0
15.840000 33.880000 7.370000 153 169 153 0
16.060000 33.880000 7.370000 153 169 151 0
16.280000 33.880000 7.370000 152 168 150 0
16.500000 33.880000 7.370000 151 167 151 0
16.720000 33.880000 7.370000 152 168 152 0
16.940000 33.880000 7.480000 151 167 151 0
17.160000 33.880000 7.480000 151 167 151 0
17.380000 33.880000 7.480000 151 167 151 0
17.600000 33.880000 7.370000 151 167 151 0
17.820000 33.880000 7.370000 152 168 152 0
18.040000 33.880000 6.710000 151 167 151 0
18.260000 33.880000 6.050000 150 166 150 0
18.480000 33.880000 5.390000 151 167 151 0
18.700000 33.880000 4.730000 151 167 151 0
18.920000 33.880000 4.730000 151 167 151 0
19.140000 33.880000 4.730000 150 166 150 0
19.360000 33.880000 3.960000 150 166 150 0
19.580000 33.880000 2.640000 152 165 150 0
19.800000 33.880000 0.550000 153 166 151 0
20.460000 33.880000 4.730000 147 163 147 0
20.680000 33.880000 10.230000 149 165 149 0
20.900000 33.880000 4.620000 150 164 146 0
21.780000 33.880000 0.550000 146 162 146 0
22.000000 33.880000 0.550000 145 161 145 0
22.220000 33.880000 3.960000 148 161 146 0
22.440000 33.880000 10.120000 147 160 145 0
22.660000 33.880000 13.640000 146 160 142 0
22.880000 33.880000 16.390000 146 160 142 0
23.100000 33.880000 12.320000 146 158 141 0
23.320000 33.880000 5.390000 146 158 141 0
23.540000 33.880000 3.960000 145 159 141 0
23.760000 33.880000 5.280000 143 157 139 0
23.980000 33.880000 5.390000 144 156 141 0
24.200000 33.880000 4.620000 143 155 140 0
24.420000 33.880000 3.960000 143 155 138 0
24.640000 33.880000 3.960000 143 155 138 0
24.860000 33.880000 3.960000 142 154 137 0
25.080000 33.880000 3.850000 144 156 139 0
25.300000 33.880000 2.530000 143 155 138 0
25.520000 33.880000 1.870000 141 153 136 0
25.740000 33.880000 1.870000 141 153 138 0
25.960000 33.880000 1.870000 141 153 138 0
26.180000 33.880000 2.530000 142 152 136 0
26.400000 33.880000 3.740000 142 152 136 0
26.620000 33.880000 4.950000 142 154 137 0
26.840000 33.880000 6.380000 142 154 137 0
27.060000 33.880000 7.150000 141 153 136 0
27.280000 33.880000 7.920000 141 153 136 0
27.500000 33.880000 8.690000 141 153 136 0
27.720000 33.880000 8.690000 140 152 135 0
27.940000 33.880000 8.030000 141 151 135 0
28.160000 33.880000 7.370000 141 151 135 0
28.380000 33.880000 7.370000 143 142 119 0
28.600000 33.880000 7.370000 139 138 115 0
28.820000 33.880000 7.370000 145 128 105 0
29.040000 33.880000 6.710000 141 124 101 0
29.260000 33.880000 6.050000 141 123 98 0
29.480000 33.880000 4.620000 141 123 98 0
29.700000 33.880000 4.730000 140 122 97 0
29.920000 33.880000 4.730000 140 122 97 0
30.140000 33.880000 5.280000 140 122 97 0
30.360000 33.880000 5.280000 139 121 96 0
30.580000 33.880000 5.280000 139 121 96 0
30.800000 33.880000 5.390000 139 121 96 0
31.020000 33.880000 4.730000 138 120 95 0
31.240000 33.880000 4.730000 137 119 94 0
31.460000 33.880000 4.730000 139 118 94 0
31.680000 33.880000 4.730000 139 118 94 0
31.900000 33.880000 5.280000 140 119 95 0
32.120000 33.880000 6.380000 141 120 96 0
32.340000 33.880000 6.930000 140 119 95 0
32.560000 33.880000 7.700000 142 121 97 0
32.780000 33.880000 7.700000 143 122 96 0
33.000000 33.880000 7.700000 145 124 98 0
33.220000 33.880000 8.470000 158 132 105 0
33.440000 33.880000 8.470000 166 140 113 0
33.660000 33.880000 9.240000 167 141 114 0
33.880000 33.880000 9.240000 165 139 112 0
34.100000 33.880000 9.240000 166 123 101 0
34.320000 33.880000 9.240000 159 116 94 0
34.540000 33.880000 9.240000 160 120 92 0
34.760000 33.880000 9.240000 161 121 93 0
34.980000 33.880000 9.350000 163 125 99 0
35.200000 33.880000 9.350000 166 128 102 0
35.420000 33.880000 9.350000 170 130 102 0
35.640000 33.880000 9.350000 169 129 101 0
35.860000 33.880000 9.460000 169 126 104 0
36.080000 33.880000 10.120000 161 118 96 0
36.300000 33.880000 10.120000 155 115 87 0
36.520000 33.880000 9.460000 148 108 80 0
36.740000 33.880000 10.230000 144 104 76 0
36.960000 33.880000 10.890000 142 102 74 0
37.180000 33.880000 10.890000 143 103 75 0
0.000000 34.100000 5.940000 202 214 207 0
0.220000 34.100000 5.940000 201 213 206 0
0.440000 34.100000 6.600000 200 212 205 0
0.660000 34.100000 6.490000 200 212 205 0
0.880000 34.100000 7.150000 200 212 205 0
1.100000 34.100000 7.150000 197 212 204 0
1.320000 34.100000 7.260000 196 211 203 0
1.540000 34.100000 6.600000 192 207 199 0
1.760000 34.100000 6.600000 190 205 197 0
1.980000 34.100000 6.600000 185 202 189 0
2.200000 34.100000 7.370000 171 188 175 0
2.420000 34.100000 7.370000 161 172 151 0
2.640000 34.100000 7.370000 151 162 141 0
2.860000 34.100000 7.480000 146 155 133 0
3.080000 34.100000 6.820000 142 151 129 0
3.300000 34.100000 7.480000 139 146 125 0
3.520000 34.100000 8.140000 136 143 122 0
3.740000 34.100000 8.800000 134 141 121 0
3.960000 34.100000 9.460000 133 140 120 0
4.180000 34.100000 10.230000 133 140 119 0
4.400000 34.100000 10.890000 131 138 117 0
4.620000 34.100000 11.000000 129 138 116 0
4.840000 34.100000 11.000000 127 136 114 0
5.060000 34.100000 10.340000 128 135 114 0
5.280000 34.100000 6.820000 127 134 113 0
5.500000 34.100000 2.640000 126 133 112 0
5.720000 34.100000 2.310000 127 134 113 0
5.940000 34.100000 3.520000 127 134 113 0
6.160000 34.100000 4.180000 125 132 111 0
6.380000 34.100000 4.950000 125 132 111 0
6.600000 34.100000 6.600000 126 133 112 0
6.820000 34.100000 6.600000 125 132 111 0
7.040000 34.100000 7.150000 124 131 110 0
7.260000 34.100000 6.930000 125 132 111 0
7.480000 34.100000 6.930000 124 131 110 0
7.700000 34.100000 7.040000 124 131 110 0
7.920000 34.100000 7.700000 125 132 111 0
8.140000 34.100000 7.040000 124 131 110 0
8.360000 34.100000 7.040000 124 131 110 0
8.580000 34.100000 6.930000 123 132 110 0
8.800000 34.100000 6.930000 123 132 110 0
9.020000 34.100000 6.930000 124 131 110 0
9.240000 34.100000 6.930000 124 131 110 0
9.460000 34.100000 7.040000 124 131 110 0
9.680000 34.100000 7.040000 123 130 109 0
9.900000 34.100000 7.700000 124 131 110 0
10.120000 34.100000 7.700000 123 130 109 0
10.340000 34.100000 6.380000 124 131 110 0
10.560000 34.100000 5.170000 123 130 109 0
10.780000 34.100000 4.620000 124 131 110 0
11.000000 34.100000 4.730000 124 131 110 0
11.220000 34.100000 5.280000 123 130 109 0
11.440000 34.100000 6.380000 124 131 110 0
11.660000 34.100000 6.930000 123 130 109 0
11.880000 34.100000 6.930000 124 131 110 0
12.100000 34.100000 6.380000 124 132 112 0
12.320000 34.100000 5.720000 136 144 124 0
12.540000 34.100000 5.060000 147 165 146 0
12.760000 34.100000 5.060000 158 176 157 0
12.980000 34.100000 4.400000 157 173 157 0
13.200000 34.100000 4.400000 155 171 155 0
13.420000 34.100000 3.740000 153 169 151 0
13.640000 34.100000 3.080000 153 169 151 0
13.860000 34.100000 2.310000 153 169 153 0
14.080000 34.100000 3.080000 154 170 154 0
14.300000 34.100000 5.720000 153 169 151 0
14.520000 34.100000 7.700000 154 170 152 0
14.740000 34.100000 8.470000 153 169 153 0
14.960000 34.100000 8.580000 153 169 153 0
15.180000 34.100000 7.920000 153 169 153 0
15.400000 34.100000 7.260000 154 170 154 0
15.620000 34.100000 7.370000 153 169 153 0
15.840000 34.100000 7.370000 153 169 153 0
16.060000 34.100000 7.370000 154 170 152 0
16.280000 34.100000 7.370000 153 169 151 0
16.500000 34.100000 7.370000 152 168 152 0
16.720000 34.100000 7.370000 152 168 152 0
16.940000 34.100000 7.480000 152 168 152 0
17.160000 34.100000 7.480000 152 168 152 0
17.380000 34.100000 7.480000 151 167 151 0
17.600000 34.100000 7.370000 152 168 152 0
17.820000 34.100000 7.370000 151 167 151 0
18.040000 34.100000 6.710000 151 167 151 0
18.260000 34.100000 6.050000 151 167 151 0
18.480000 34.100000 4.730000 152 168 152 0
18.700000 34.100000 4.730000 151 167 151 0
18.920000 34.100000 4.730000 151 167 151 0
19.140000 34.100000 4.620000 151 167 151 0
19.360000 34.100000 3.960000 150 166 150 0
19.580000 34.100000 1.870000 152 165 150 0
19.800000 34.100000 0.550000 152 165 150 0
20.460000 34.100000 4.730000 148 164 148 0
20.680000 34.100000 9.570000 148 164 148 0
20.900000 34.100000 4.620000 150 164 146 0
21.560000 34.100000 0.550000 151 164 149 0
21.780000 34.100000 0.550000 147 163 147 0
22.000000 34.100000 0.550000 147 163 147 0
22.220000 34.100000 1.870000 148 161 146 0
22.440000 34.100000 3.300000 147 160 145 0
22.660000 34.100000 8.140000 147 161 143 0
22.880000 34.100000 16.390000 147 161 143 0
23.100000 34.100000 15.070000 147 159 142 0
23.320000 34.100000 5.390000 146 158 141 0
23.540000 34.100000 2.640000 145 159 141 0
23.760000 34.100000 4.620000 144 158 140 0
23.980000 34.100000 4.620000 144 156 141 0
24.200000 34.100000 3.960000 144 156 141 0
24.420000 34.100000 3.960000 143 155 138 0
24.640000 34.100000 3.300000 142 154 137 0
24.860000 34.100000 3.960000 142 154 137 0
25.080000 34.100000 3.190000 142 154 137 0
25.300000 34.100000 2.530000 143 155 138 0
25.520000 34.100000 2.530000 143 155 138 0
25.740000 34.100000 2.530000 143 155 140 0
25.960000 34.100000 2.530000 141 153 138 0
26.180000 34.100000 3.190000 142 152 136 0
26.400000 34.100000 4.510000 142 152 136 0
26.620000 34.100000 5.060000 142 154 137 0
26.840000 34.100000 6.490000 142 154 137 0
27.060000 34.100000 7.150000 141 153 136 0
27.280000 34.100000 7.920000 141 153 136 0
27.500000 34.100000 8.690000 140 152 135 0
27.720000 34.100000 8.690000 140 152 135 0
27.940000 34.100000 8.690000 141 151 135 0
28.160000 34.100000 8.030000 140 150 134 0
28.380000 34.100000 7.370000 145 144 121 0
28.600000 34.100000 7.370000 139 138 115 0
28.820000 34.100000 7.370000 145 128 105 0
29.040000 34.100000 6.710000 141 124 101 0
29.260000 34.100000 5.280000 141 123 98 0
29.480000 34.100000 4.620000 141 123 98 0
29.700000 34.100000 4.620000 141 123 98 0
29.920000 34.100000 4.620000 140 122 97 0
30.140000 34.100000 5.280000 140 122 97 0
30.360000 34.100000 5.280000 140 122 97 0
30.580000 34.100000 5.280000 139 121 96 0
30.800000 34.100000 5.280000 140 122 97 0
31.020000 34.100000 4.620000 137 119 94 0
31.240000 34.100000 4.620000 137 119 94 0
31.460000 34.100000 4.620000 138 117 93 0
31.680000 34.100000 4.730000 139 118 94 0
31.900000 34.100000 5.280000 139 118 94 0
32.120000 34.100000 6.380000 139 118 94 0
32.340000 34.100000 6.930000 139 118 94 0
32.560000 34.100000 7.700000 141 120 96 0
32.780000 34.100000 7.700000 143 122 96 0
33.000000 34.100000 7.700000 143 122 96 0
33.220000 34.100000 8.470000 152 126 99 0
33.440000 34.100000 8.470000 155 129 102 0
33.660000 34.100000 8.470000 153 127 100 0
33.880000 34.100000 9.240000 149 123 96 0
34.100000 34.100000 9.240000 149 106 84 0
34.320000 34.100000 9.240000 141 98 76 0
34.540000 34.100000 9.240000 140 100 72 0
34.760000 34.100000 9.240000 143 103 75 0
34.980000 34.100000 9.350000 142 104 78 0
35.200000 34.100000 9.350000 145 107 81 0
35.420000 34.100000 9.350000 147 107 79 0
35.640000 34.100000 9.350000 147 107 79 0
35.860000 34.100000 9.460000 148 105 83 0
36.080000 34.100000 10.120000 145 102 80 0
36.300000 34.100000 10.120000 144 104 76 0
36.520000 34.100000 10.120000 142 102 74 0
36.740000 34.100000 10.230000 143 103 75 0
36.960000 34.100000 10.890000 142 102 74 0
37.180000 34.100000 11.550000 143 103 75 0
0.000000 34.320000 6.050000 200 215 207 0
0.220000 34.320000 6.050000 203 215 208 0
0.440000 34.320000 6.050000 201 213 206 0
0.660000 34.320000 5.940000 199 214 206 0
0.880000 34.320000 7.150000 199 214 206 0
1.100000 34.320000 7.040000 198 213 205 0
1.320000 34.320000 7.040000 196 211 203 0
1.540000 34.320000 7.150000 194 209 201 0
1.760000 34.320000 6.600000 190 205 197 0
1.980000 34.320000 6.600000 186 202 187 0
2.200000 34.320000 7.260000 176 192 177 0
2.420000 34.320000 7.370000 159 170 151 0
2.640000 34.320000 7.370000 153 164 145 0
2.860000 34.320000 7.370000 148 155 134 0
3.080000 34.320000 7.370000 143 150 129 0
3.300000 34.320000 7.370000 140 147 126 0
3.520000 34.320000 8.030000 138 145 124 0
3.740000 34.320000 8.690000 135 142 121 0
3.960000 34.320000 9.350000 134 141 120 0
4.180000 34.320000 10.120000 132 139 118 0
4.400000 34.320000 10.890000 131 138 117 0
4.620000 34.320000 10.890000 131 138 117 0
4.840000 34.320000 11.000000 129 136 115 0
5.060000 34.320000 8.910000 128 135 114 0
5.280000 34.320000 5.500000 128 135 114 0
5.500000 34.320000 2.640000 127 134 113 0
5.720000 34.320000 2.310000 127 134 113 0
5.940000 34.320000 3.520000 126 133 112 0
6.160000 34.320000 4.180000 126 133 112 0
6.380000 34.320000 5.060000 126 133 112 0
6.600000 34.320000 5.940000 125 132 111 0
6.820000 34.320000 6.710000 125 132 111 0
7.040000 34.320000 7.150000 125 132 111 0
7.260000 34.320000 6.930000 125 132 111 0
7.480000 34.320000 6.930000 125 132 111 0
7.700000 34.320000 7.700000 125 132 111 0
7.920000 34.320000 7.150000 124 131 110 0
8.140000 34.320000 7.150000 124 131 110 0
8.360000 34.320000 7.040000 124 131 110 0
8.580000 34.320000 7.700000 124 131 110 0
8.800000 34.320000 7.700000 124 131 110 0
9.020000 34.320000 7.700000 123 130 109 0
9.240000 34.320000 6.930000 124 131 110 0
9.460000 34.320000 7.040000 124 131 110 0
9.680000 34.320000 6.490000 124 131 110 0
9.900000 34.320000 7.810000 123 130 109 0
10.120000 34.320000 7.700000 123 130 109 0
10.340000 34.320000 6.380000 124 131 110 0
10.560000 34.320000 5.170000 123 130 109 0
10.780000 34.320000 5.280000 124 131 110 0
11.000000 34.320000 5.390000 123 130 109 0
11.220000 34.320000 5.280000 124 131 110 0
11.440000 34.320000 6.380000 124 131 110 0
11.660000 34.320000 6.930000 123 130 110 0
11.880000 34.320000 6.930000 124 131 111 0
12.100000 34.320000 6.380000 123 132 110 0
12.320000 34.320000 5.720000 134 143 121 0
12.540000 34.320000 5.060000 145 163 144 0
12.760000 34.320000 5.060000 157 175 156 0
12.980000 34.320000 4.400000 158 174 158 0
13.200000 34.320000 4.400000 156 172 156 0
13.420000 34.320000 3.740000 155 171 153 0
13.640000 34.320000 2.310000 154 170 152 0
13.860000 34.320000 1.650000 153 169 151 0
14.080000 34.320000 3.080000 154 170 152 0
14.300000 34.320000 5.060000 153 169 151 0
14.520000 34.320000 7.040000 153 169 151 0
14.740000 34.320000 8.470000 152 168 150 0
14.960000 34.320000 8.580000 154 170 152 0
15.180000 34.320000 7.920000 153 169 151 0
15.400000 34.320000 7.260000 153 169 151 0
15.620000 34.320000 7.370000 153 169 153 0
15.840000 34.320000 7.370000 154 170 154 0
16.060000 34.320000 6.710000 153 169 151 0
16.280000 34.320000 6.710000 154 170 152 0
16.500000 34.320000 7.370000 153 169 153 0
16.720000 34.320000 7.480000 153 169 153 0
16.940000 34.320000 7.480000 152 168 150 0
17.160000 34.320000 7.480000 150 166 148 0
17.380000 34.320000 7.480000 151 167 149 0
17.600000 34.320000 7.370000 151 167 149 0
17.820000 34.320000 7.370000 151 167 151 0
18.040000 34.320000 6.710000 151 167 151 0
18.260000 34.320000 6.050000 150 166 148 0
18.480000 34.320000 4.730000 151 167 149 0
18.700000 34.320000 3.960000 153 167 149 0
18.920000 34.320000 3.960000 153 167 149 0
19.140000 34.320000 3.960000 150 166 150 0
19.360000 34.320000 3.300000 150 166 150 0
19.580000 34.320000 1.870000 150 166 150 0
19.800000 34.320000 0.550000 149 165 149 0
20.460000 34.320000 3.300000 150 164 146 0
20.680000 34.320000 7.480000 150 164 146 0
20.900000 34.320000 3.300000 149 162 147 0
21.560000 34.320000 0.550000 148 164 146 0
21.780000 34.320000 0.550000 147 163 145 0
22.000000 34.320000 1.210000 147 163 145 0
22.220000 34.320000 0.550000 149 163 145 0
22.660000 34.320000 4.620000 148 161 146 0
22.880000 34.320000 15.070000 146 159 144 0
23.100000 34.320000 15.070000 145 159 141 0
23.320000 34.320000 5.390000 145 159 141 0
23.540000 34.320000 1.870000 145 159 141 0
23.760000 34.320000 3.960000 143 157 139 0
23.980000 34.320000 3.960000 144 156 139 0
24.200000 34.320000 3.960000 143 155 138 0
24.420000 34.320000 3.300000 143 155 140 0
24.640000 34.320000 3.300000 143 155 140 0
24.860000 34.320000 3.300000 142 154 137 0
25.080000 34.320000 3.960000 142 154 137 0
25.300000 34.320000 3.190000 144 156 139 0
25.520000 34.320000 3.190000 142 154 137 0
25.740000 34.320000 3.190000 142 154 137 0
25.960000 34.320000 3.960000 141 153 136 0
26.180000 34.320000 3.960000 141 153 136 0
26.400000 34.320000 5.280000 141 153 136 0
26.620000 34.320000 5.940000 141 153 136 0
26.840000 34.320000 7.260000 141 153 136 0
27.060000 34.320000 7.920000 141 153 136 0
27.280000 34.320000 8.690000 141 153 136 0
27.500000 34.320000 9.350000 141 153 136 0
27.720000 34.320000 9.350000 139 151 134 0
27.940000 34.320000 8.690000 140 152 135 0
28.160000 34.320000 7.370000 139 151 134 0
28.380000 34.320000 7.370000 145 148 126 0
28.600000 34.320000 7.370000 137 140 118 0
28.820000 34.320000 7.370000 144 129 105 0
29.040000 34.320000 6.710000 140 125 101 0
29.260000 34.320000 5.280000 140 123 100 0
29.480000 34.320000 4.620000 140 123 100 0
29.700000 34.320000 4.510000 141 123 96 0
29.920000 34.320000 5.280000 140 122 95 0
30.140000 34.320000 5.280000 140 122 97 0
30.360000 34.320000 5.940000 140 122 97 0
30.580000 34.320000 5.940000 140 122 97 0
30.800000 34.320000 5.280000 138 120 95 0
31.020000 34.320000 5.390000 137 119 94 0
31.240000 34.320000 4.620000 137 119 94 0
31.460000 34.320000 5.280000 136 118 91 0
31.680000 34.320000 5.280000 137 119 92 0
31.900000 34.320000 5.940000 138 117 93 0
32.120000 34.320000 6.380000 136 115 91 0
32.340000 34.320000 7.040000 138 113 90 0
32.560000 34.320000 7.040000 138 113 90 0
32.780000 34.320000 7.700000 136 114 95 0
33.000000 34.320000 7.810000 137 115 96 0
33.220000 34.320000 7.810000 143 114 93 0
33.440000 34.320000 8.470000 142 113 92 0
33.660000 34.320000 8.580000 145 112 90 0
33.880000 34.320000 8.580000 135 102 80 0
34.100000 34.320000 8.580000 130 94 75 0
34.320000 34.320000 8.580000 125 89 70 0
34.540000 34.320000 8.580000 125 92 68 0
34.760000 34.320000 9.350000 125 92 68 0
34.980000 34.320000 8.690000 127 96 73 0
35.200000 34.320000 8.690000 127 96 73 0
35.420000 34.320000 8.690000 129 98 75 0
35.640000 34.320000 8.690000 130 99 76 0
35.860000 34.320000 9.460000 134 101 77 0
36.080000 34.320000 10.120000 134 101 77 0
36.300000 34.320000 10.120000 139 104 79 0
36.520000 34.320000 10.120000 139 104 79 0
36.740000 34.320000 10.120000 137 107 78 0
36.960000 34.320000 11.550000 138 108 79 0
37.180000 34.320000 11.550000 137 109 83 0
0.000000 34.540000 6.050000 200 215 207 0
0.220000 34.540000 5.390000 202 214 207 0
0.440000 34.540000 5.500000 201 213 206 0
0.660000 34.540000 6.050000 199 214 206 0
0.880000 34.540000 7.150000 199 214 206 0
1.100000 34.540000 7.590000 198 213 205 0
1.320000 34.540000 7.040000 196 211 203 0
1.540000 34.540000 7.040000 195 210 202 0
1.760000 34.540000 7.150000 192 207 199 0
1.980000 34.540000 7.150000 186 202 187 0
2.200000 34.540000 7.150000 175 191 176 0
2.420000 34.540000 7.260000 164 175 156 0
2.640000 34.540000 7.260000 152 163 144 0
2.860000 34.540000 7.260000 149 156 135 0
3.080000 34.540000 7.260000 145 152 131 0
3.300000 34.540000 7.920000 140 147 126 0
3.520000 34.540000 8.580000 138 145 124 0
3.740000 34.540000 8.580000 135 142 121 0
3.960000 34.540000 9.350000 134 141 120 0
4.180000 34.540000 10.120000 132 139 118 0
4.400000 34.540000 10.780000 132 139 118 0
4.620000 34.540000 10.890000 130 137 116 0
4.840000 34.540000 11.000000 129 136 115 0
5.060000 34.540000 8.910000 128 135 114 0
5.280000 34.540000 5.500000 129 136 115 0
5.500000 34.540000 1.980000 128 135 114 0
5.720000 34.540000 1.870000 127 134 113 0
5.940000 34.540000 2.970000 127 134 113 0
6.160000 34.540000 3.740000 126 133 112 0
6.380000 34.540000 4.620000 127 134 113 0
6.600000 34.540000 5.500000 125 132 111 0
6.820000 34.540000 6.050000 125 132 111 0
7.040000 34.540000 6.490000 125 132 111 0
7.260000 34.540000 7.040000 125 132 111 0
7.480000 34.540000 7.040000 125 132 111 0
7.700000 34.540000 6.930000 124 131 110 0
7.920000 34.540000 7.700000 125 132 111 0
8.140000 34.540000 7.810000 125 132 111 0
8.360000 34.540000 7.040000 124 131 110 0
8.580000 34.540000 7.040000 124 131 110 0
8.800000 34.540000 7.040000 124 131 110 0
9.020000 34.540000 7.700000 124 131 110 0
9.240000 34.540000 7.700000 123 130 109 0
9.460000 34.540000 7.150000 124 131 110 0
9.680000 34.540000 6.600000 124 131 110 0
9.900000 34.540000 7.260000 124 131 110 0
10.120000 34.540000 7.920000 124 131 110 0
10.340000 34.540000 6.490000 123 130 109 0
10.560000 34.540000 5.830000 124 131 110 0
10.780000 34.540000 5.280000 124 131 110 0
11.000000 34.540000 5.390000 124 131 110 0
11.220000 34.540000 6.050000 123 130 109 0
11.440000 34.540000 6.490000 123 130 109 0
11.660000 34.540000 6.930000 123 130 110 0
11.880000 34.540000 6.930000 124 131 111 0
12.100000 34.540000 6.380000 123 132 110 0
12.320000 34.540000 5.720000 134 143 121 0
12.540000 34.540000 5.060000 146 164 145 0
12.760000 34.540000 5.060000 158 176 157 0
12.980000 34.540000 4.400000 159 175 159 0
13.200000 34.540000 4.400000 157 173 157 0
13.420000 34.540000 3.740000 156 172 154 0
13.640000 34.540000 2.310000 156 172 154 0
13.860000 34.540000 1.650000 154 170 152 0
14.080000 34.540000 2.310000 154 170 152 0
14.300000 34.540000 5.060000 153 169 151 0
14.520000 34.540000 7.040000 154 170 152 0
14.740000 34.540000 8.470000 153 169 151 0
14.960000 34.540000 8.580000 152 168 150 0
15.180000 34.540000 7.920000 152 168 150 0
15.400000 34.540000 7.260000 153 169 151 0
15.620000 34.540000 7.370000 152 168 152 0
15.840000 34.540000 6.710000 153 169 153 0
16.060000 34.540000 6.710000 153 169 151 0
16.280000 34.540000 6.710000 154 170 152 0
16.500000 34.540000 6.710000 153 169 153 0
16.720000 34.540000 6.710000 152 168 152 0
16.940000 34.540000 6.820000 151 167 149 0
17.160000 34.540000 6.820000 151 167 149 0
17.380000 34.540000 7.480000 151 167 149 0
17.600000 34.540000 7.480000 151 167 149 0
17.820000 34.540000 7.370000 151 167 151 0
18.040000 34.540000 6.710000 152 168 152 0
18.260000 34.540000 5.390000 152 168 150 0
18.480000 34.540000 3.960000 151 167 149 0
18.700000 34.540000 3.300000 153 167 149 0
18.920000 34.540000 2.530000 152 166 148 0
19.140000 34.540000 2.530000 149 165 149 0
19.360000 34.540000 2.640000 150 166 150 0
19.580000 34.540000 1.210000 149 165 149 0
19.800000 34.540000 0.550000 149 165 149 0
20.020000 34.540000 0.550000 149 165 149 0
20.460000 34.540000 0.550000 150 164 146 0
20.680000 34.540000 1.980000 151 165 147 0
20.900000 34.540000 0.550000 150 163 148 0
21.560000 34.540000 0.550000 148 164 146 0
21.780000 34.540000 0.550000 147 163 145 0
22.000000 34.540000 0.550000 147 163 145 0
22.220000 34.540000 0.550000 148 162 144 0
22.660000 34.540000 4.620000 146 159 144 0
22.880000 34.540000 15.070000 146 159 144 0
23.100000 34.540000 16.500000 146 160 142 0
23.320000 34.540000 7.480000 144 158 140 0
23.540000 34.540000 2.640000 144 158 140 0
23.760000 34.540000 2.530000 143 157 139 0
23.980000 34.540000 3.300000 144 156 139 0
24.200000 34.540000 3.300000 144 156 139 0
24.420000 34.540000 3.300000 143 155 140 0
24.640000 34.540000 3.300000 143 155 140 0
24.860000 34.540000 3.960000 143 155 138 0
25.080000 34.540000 3.960000 142 154 137 0
25.300000 34.540000 3.850000 141 153 136 0
25.520000 34.540000 4.620000 142 154 137 0
25.740000 34.540000 4.620000 141 153 136 0
25.960000 34.540000 5.280000 141 153 136 0
26.180000 34.540000 5.280000 141 153 136 0
26.400000 34.540000 6.050000 142 154 137 0
26.620000 34.540000 6.710000 141 153 136 0
26.840000 34.540000 8.030000 141 153 136 0
27.060000 34.540000 8.690000 141 153 136 0
27.280000 34.540000 8.690000 142 154 137 0
27.500000 34.540000 9.350000 140 152 135 0
27.720000 34.540000 9.350000 139 151 134 0
27.940000 34.540000 8.690000 140 152 135 0
28.160000 34.540000 7.370000 139 151 134 0
28.380000 34.540000 6.600000 144 147 125 0
28.600000 34.540000 7.370000 138 141 119 0
28.820000 34.540000 7.370000 144 129 105 0
29.040000 34.540000 7.370000 138 123 99 0
29.260000 34.540000 5.940000 138 121 98 0
29.480000 34.540000 4.510000 138 121 98 0
29.700000 34.540000 4.510000 140 122 95 0
29.920000 34.540000 5.170000 140 122 95 0
30.140000 34.540000 5.280000 140 122 97 0
30.360000 34.540000 5.940000 139 121 96 0
30.580000 34.540000 6.710000 136 118 93 0
30.800000 34.540000 6.710000 136 118 93 0
31.020000 34.540000 6.050000 133 115 90 0
31.240000 34.540000 6.050000 133 115 90 0
31.460000 34.540000 5.940000 132 114 87 0
31.680000 34.540000 5.830000 131 113 86 0
31.900000 34.540000 5.830000 130 109 85 0
32.120000 34.540000 6.490000 130 109 85 0
32.340000 34.540000 7.040000 132 107 84 0
32.560000 34.540000 7.040000 129 104 81 0
32.780000 34.540000 7.040000 126 104 85 0
33.000000 34.540000 7.040000 123 101 82 0
33.220000 34.540000 7.150000 129 100 79 0
33.440000 34.540000 7.260000 126 97 76 0
33.660000 34.540000 7.260000 127 94 72 0
33.880000 34.540000 7.920000 122 89 67 0
34.100000 34.540000 7.920000 118 82 63 0
34.320000 34.540000 7.920000 119 83 64 0
34.540000 34.540000 8.690000 118 85 61 0
34.760000 34.540000 8.690000 120 87 63 0
34.980000 34.540000 8.690000 123 92 69 0
35.200000 34.540000 8.690000 127 96 73 0
35.420000 34.540000 8.690000 128 97 74 0
35.640000 34.540000 9.460000 130 99 76 0
35.860000 34.540000 10.120000 135 102 78 0
36.080000 34.540000 10.780000 136 103 79 0
36.300000 34.540000 10.120000 141 106 81 0
36.520000 34.540000 10.120000 142 107 82 0
36.740000 34.540000 10.120000 142 112 83 0
36.960000 34.540000 11.550000 143 113 84 0
37.180000 34.540000 11.550000 143 115 89 0
0.000000 34.760000 5.390000 201 216 208 0
0.220000 34.760000 5.390000 202 214 207 0
0.440000 34.760000 5.500000 202 214 207 0
0.660000 34.760000 6.050000 198 213 205 0
0.880000 34.760000 7.040000 198 213 205 0
1.100000 34.760000 7.590000 197 212 204 0
1.320000 34.760000 7.700000 197 212 204 0
1.540000 34.760000 7.040000 194 210 202 0
1.760000 34.760000 7.040000 191 207 199 0
1.980000 34.760000 7.040000 184 201 188 0
2.200000 34.760000 7.040000 173 190 177 0
2.420000 34.760000 7.810000 162 174 155 0
2.640000 34.760000 7.810000 152 164 145 0
2.860000 34.760000 7.150000 147 156 134 0
3.080000 34.760000 7.150000 144 153 131 0
3.300000 34.760000 7.920000 139 147 127 0
3.520000 34.760000 8.580000 138 146 126 0
3.740000 34.760000 9.240000 136 143 122 0
3.960000 34.760000 9.350000 134 141 120 0
4.180000 34.760000 10.010000 134 141 120 0
4.400000 34.760000 10.780000 132 139 118 0
4.620000 34.760000 10.890000 131 138 117 0
4.840000 34.760000 10.890000 130 137 116 0
5.060000 34.760000 10.340000 128 137 115 0
5.280000 34.760000 6.820000 127 136 114 0
5.500000 34.760000 2.640000 128 135 114 0
5.720000 34.760000 1.980000 128 135 114 0
5.940000 34.760000 2.640000 128 135 114 0
6.160000 34.760000 3.300000 127 134 113 0
6.380000 34.760000 4.070000 127 134 113 0
6.600000 34.760000 4.840000 126 133 112 0
6.820000 34.760000 6.050000 126 133 112 0
7.040000 34.760000 5.940000 125 132 111 0
7.260000 34.760000 5.830000 125 132 111 0
7.480000 34.760000 6.490000 125 132 111 0
7.700000 34.760000 7.040000 125 132 111 0
7.920000 34.760000 7.700000 125 132 111 0
8.140000 34.760000 7.150000 125 132 111 0
8.360000 34.760000 7.260000 125 132 111 0
8.580000 34.760000 6.710000 126 133 112 0
8.800000 34.760000 6.600000 124 131 110 0
9.020000 34.760000 7.150000 124 131 110 0
9.240000 34.760000 7.150000 124 131 110 0
9.460000 34.760000 6.490000 125 132 111 0
9.680000 34.760000 6.600000 124 131 110 0
9.900000 34.760000 7.370000 125 132 111 0
10.120000 34.760000 7.370000 124 131 110 0
10.340000 34.760000 6.600000 124 131 110 0
10.560000 34.760000 5.830000 125 132 111 0
10.780000 34.760000 5.280000 123 130 109 0
11.000000 34.760000 5.280000 124 131 110 0
11.220000 34.760000 5.390000 123 130 109 0
11.440000 34.760000 5.940000 124 131 110 0
11.660000 34.760000 7.150000 124 131 110 0
11.880000 34.760000 7.040000 124 131 110 0
12.100000 34.760000 6.270000 125 132 111 0
12.320000 34.760000 5.720000 133 140 119 0
12.540000 34.760000 5.060000 146 164 145 0
12.760000 34.760000 5.060000 157 175 156 0
12.980000 34.760000 4.400000 159 175 159 0
13.200000 34.760000 4.400000 158 174 158 0
13.420000 34.760000 2.970000 157 173 155 0
13.640000 34.760000 2.310000 154 170 152 0
13.860000 34.760000 0.990000 155 171 153 0
14.080000 34.760000 1.650000 154 170 152 0
14.300000 34.760000 4.400000 154 170 152 0
14.520000 34.760000 6.380000 152 168 150 0
14.740000 34.760000 7.810000 153 169 151 0
14.960000 34.760000 8.580000 152 168 150 0
15.180000 34.760000 7.920000 152 168 150 0
15.400000 34.760000 7.260000 152 168 150 0
15.620000 34.760000 6.710000 152 168 150 0
15.840000 34.760000 6.710000 153 169 151 0
16.060000 34.760000 6.050000 153 169 151 0
16.280000 34.760000 6.050000 154 170 152 0
16.500000 34.760000 6.050000 153 169 151 0
16.720000 34.760000 6.710000 152 168 150 0
16.940000 34.760000 6.820000 151 167 149 0
17.160000 34.760000 6.820000 151 167 149 0
17.380000 34.760000 6.820000 151 167 149 0
17.600000 34.760000 6.820000 152 168 150 0
17.820000 34.760000 6.050000 151 167 149 0
18.040000 34.760000 5.390000 151 167 149 0
18.260000 34.760000 4.620000 151 167 149 0
18.480000 34.760000 3.300000 150 166 148 0
18.700000 34.760000 1.870000 151 167 149 0
18.920000 34.760000 1.870000 150 166 148 0
19.140000 34.760000 1.870000 149 165 147 0
19.360000 34.760000 1.870000 149 165 147 0
19.580000 34.760000 1.210000 150 166 148 0
19.800000 34.760000 1.210000 150 166 148 0
20.020000 34.760000 0.550000 150 166 148 0
20.240000 34.760000 0.550000 150 166 148 0
22.000000 34.760000 0.550000 149 163 145 0
22.660000 34.760000 3.300000 147 161 143 0
22.880000 34.760000 12.320000 146 160 142 0
23.100000 34.760000 16.500000 146 160 142 0
23.320000 34.760000 10.230000 145 159 141 0
23.540000 34.760000 3.300000 145 159 141 0
23.760000 34.760000 1.870000 143 157 139 0
23.980000 34.760000 2.530000 143 155 138 0
24.200000 34.760000 2.530000 144 156 139 0
24.420000 34.760000 3.300000 143 155 138 0
24.640000 34.760000 3.300000 143 155 138 0
24.860000 34.760000 3.960000 143 155 138 0
25.080000 34.760000 4.620000 142 154 137 0
25.300000 34.760000 5.280000 142 154 137 0
25.520000 34.760000 5.280000 141 153 136 0
25.740000 34.760000 6.050000 142 154 137 0
25.960000 34.760000 6.050000 141 153 136 0
26.180000 34.760000 6.710000 141 153 136 0
26.400000 34.760000 6.710000 141 153 136 0
26.620000 34.760000 7.370000 142 154 137 0
26.840000 34.760000 8.030000 140 152 135 0
27.060000 34.760000 8.580000 140 152 135 0
27.280000 34.760000 9.240000 140 152 135 0
27.500000 34.760000 9.350000 140 152 135 0
27.720000 34.760000 9.350000 139 151 134 0
27.940000 34.760000 8.030000 140 151 132 0
28.160000 34.760000 7.260000 140 151 132 0
28.380000 34.760000 6.600000 148 146 128 0
28.600000 34.760000 7.260000 140 138 120 0
28.820000 34.760000 8.690000 142 129 105 0
29.040000 34.760000 8.690000 132 119 95 0
29.260000 34.760000 7.260000 133 116 93 0
29.480000 34.760000 5.830000 134 117 94 0
29.700000 34.760000 5.170000 130 117 96 0
29.920000 34.760000 5.170000 131 118 97 0
30.140000 34.760000 5.940000 132 116 95 0
30.360000 34.760000 6.600000 130 114 93 0
30.580000 34.760000 7.370000 129 112 91 0
30.800000 34.760000 7.480000 128 111 90 0
31.020000 34.760000 7.480000 128 105 84 0
31.240000 34.760000 6.710000 128 105 84 0
31.460000 34.760000 6.600000 126 103 84 0
31.680000 34.760000 5.940000 124 101 82 0
31.900000 34.760000 6.050000 122 96 79 0
32.120000 34.760000 5.940000 121 95 78 0
32.340000 34.760000 6.490000 119 91 74 0
32.560000 34.760000 6.380000 117 89 72 0
32.780000 34.760000 6.380000 112 88 71 0
33.000000 34.760000 6.380000 111 87 70 0
33.220000 34.760000 6.490000 109 86 67 0
33.440000 34.760000 6.600000 107 84 65 0
33.660000 34.760000 6.600000 110 82 63 0
33.880000 34.760000 7.370000 108 80 61 0
34.100000 34.760000 7.370000 110 82 63 0
34.320000 34.760000 8.030000 111 83 64 0
34.540000 34.760000 8.690000 112 86 66 0
34.760000 34.760000 8.690000 117 91 71 0
34.980000 34.760000 9.460000 120 95 72 0
35.200000 34.760000 9.460000 124 99 76 0
35.420000 34.760000 9.460000 126 104 78 0
35.640000 34.760000 10.120000 129 107 81 0
35.860000 34.760000 10.780000 132 110 84 0
36.080000 34.760000 11.440000 134 112 86 0
36.300000 34.760000 10.780000 137 112 87 0
36.520000 34.760000 9.460000 140 115 90 0
36.740000 34.760000 10.120000 145 117 91 0
36.960000 34.760000 10.890000 147 119 93 0
37.180000 34.760000 11.550000 147 121 93 0
0.000000 34.980000 5.390000 200 215 207 0
0.220000 34.980000 5.390000 201 213 206 0
0.440000 34.980000 5.500000 200 212 205 0
0.660000 34.980000 6.050000 198 213 205 0
0.880000 34.980000 6.380000 197 212 204 0
1.100000 34.980000 6.930000 197 212 204 0
1.320000 34.980000 6.930000 196 211 203 0
1.540000 34.980000 7.040000 194 210 202 0
1.760000 34.980000 7.040000 191 207 199 0
1.980000 34.980000 7.040000 185 202 189 0
2.200000 34.980000 7.040000 172 189 176 0
2.420000 34.980000 7.810000 161 173 154 0
2.640000 34.980000 7.810000 155 167 148 0
2.860000 34.980000 7.810000 149 158 136 0
3.080000 34.980000 7.150000 144 153 131 0
3.300000 34.980000 7.920000 140 148 128 0
3.520000 34.980000 8.580000 137 145 125 0
3.740000 34.980000 9.240000 136 143 122 0
3.960000 34.980000 9.240000 135 142 121 0
4.180000 34.980000 10.010000 134 141 120 0
4.400000 34.980000 10.780000 133 140 119 0
4.620000 34.980000 11.550000 130 137 116 0
4.840000 34.980000 11.550000 129 136 115 0
5.060000 34.980000 12.320000 127 136 114 0
5.280000 34.980000 10.230000 127 136 114 0
5.500000 34.980000 4.070000 129 136 115 0
5.720000 34.980000 1.320000 128 135 114 0
5.940000 34.980000 2.750000 128 135 114 0
6.160000 34.980000 3.410000 127 134 113 0
6.380000 34.980000 4.070000 126 133 112 0
6.600000 34.980000 4.840000 127 134 113 0
6.820000 34.980000 5.390000 126 133 112 0
7.040000 34.980000 6.050000 125 132 111 0
7.260000 34.980000 5.390000 126 133 112 0
7.480000 34.980000 5.940000 125 132 111 0
7.700000 34.980000 7.040000 126 133 112 0
7.920000 34.980000 7.040000 125 132 111 0
8.140000 34.980000 7.260000 125 132 111 0
8.360000 34.980000 6.710000 125 132 111 0
8.580000 34.980000 6.160000 125 132 111 0
8.800000 34.980000 6.820000 124 131 110 0
9.020000 34.980000 6.600000 125 132 111 0
9.240000 34.980000 7.260000 125 132 111 0
9.460000 34.980000 6.710000 125 132 111 0
9.680000 34.980000 6.050000 125 132 111 0
9.900000 34.980000 6.820000 125 132 111 0
10.120000 34.980000 7.370000 124 131 110 0
10.340000 34.980000 7.260000 124 131 110 0
10.560000 34.980000 5.830000 124 131 110 0
10.780000 34.980000 5.280000 124 131 110 0
11.000000 34.980000 5.280000 124 131 110 0
11.220000 34.980000 5.390000 124 131 110 0
11.440000 34.980000 6.160000 124 131 110 0
11.660000 34.980000 6.600000 125 132 111 0
11.880000 34.980000 7.040000 125 132 111 0
12.100000 34.980000 6.270000 125 132 111 0
12.320000 34.980000 5.720000 131 138 117 0
12.540000 34.980000 5.060000 145 163 144 0
12.760000 34.980000 5.060000 158 176 157 0
12.980000 34.980000 4.400000 159 175 159 0
13.200000 34.980000 4.400000 159 175 159 0
13.420000 34.980000 2.970000 157 173 155 0
13.640000 34.980000 1.650000 155 171 153 0
13.860000 34.980000 0.990000 155 171 153 0
14.080000 34.980000 1.650000 153 169 151 0
14.300000 34.980000 3.740000 153 169 151 0
14.520000 34.980000 6.380000 153 169 151 0
14.740000 34.980000 7.810000 153 169 151 0
14.960000 34.980000 8.580000 152 168 150 0
15.180000 34.980000 8.030000 152 168 150 0
15.400000 34.980000 7.370000 153 169 151 0
15.620000 34.980000 6.710000 152 168 150 0
15.840000 34.980000 6.050000 152 168 150 0
16.060000 34.980000 6.050000 153 169 151 0
16.280000 34.980000 5.390000 152 168 150 0
16.500000 34.980000 5.390000 153 169 151 0
16.720000 34.980000 5.390000 152 168 150 0
16.940000 34.980000 5.390000 152 168 150 0
17.160000 34.980000 5.390000 150 166 148 0
17.380000 34.980000 5.390000 151 167 149 0
17.600000 34.980000 4.730000 150 166 148 0
17.820000 34.980000 3.960000 150 166 148 0
18.040000 34.980000 6.050000 151 167 149 0
18.260000 34.980000 7.480000 151 167 149 0
18.480000 34.980000 6.050000 150 166 148 0
18.700000 34.980000 2.640000 151 167 149 0
18.920000 34.980000 1.210000 150 166 148 0
19.140000 34.980000 1.210000 151 167 149 0
19.360000 34.980000 1.210000 151 167 149 0
19.580000 34.980000 1.210000 149 165 147 0
19.800000 34.980000 1.210000 151 167 149 0
20.020000 34.980000 0.550000 150 166 148 0
20.240000 34.980000 0.550000 149 165 147 0
21.120000 34.980000 0.550000 150 164 146 0
21.560000 34.980000 1.210000 148 164 146 0
21.780000 34.980000 3.300000 149 163 145 0
22.000000 34.980000 4.730000 148 162 144 0
22.220000 34.980000 4.730000 149 163 145 0
22.440000 34.980000 3.300000 148 162 144 0
22.660000 34.980000 1.870000 147 161 143 0
22.880000 34.980000 6.820000 146 160 142 0
23.100000 34.980000 12.320000 146 160 142 0
23.320000 34.980000 7.480000 145 159 141 0
23.540000 34.980000 1.210000 145 159 141 0
23.760000 34.980000 0.550000 143 157 139 0
23.980000 34.980000 1.210000 144 156 139 0
24.200000 34.980000 1.870000 143 155 138 0
24.420000 34.980000 1.870000 143 155 138 0
24.640000 34.980000 3.300000 143 155 138 0
24.860000 34.980000 4.620000 142 154 137 0
25.080000 34.980000 5.390000 142 154 137 0
25.300000 34.980000 6.050000 141 153 136 0
25.520000 34.980000 6.710000 142 154 137 0
25.740000 34.980000 6.710000 141 153 136 0
25.960000 34.980000 6.710000 141 153 136 0
26.180000 34.980000 6.820000 140 152 135 0
26.400000 34.980000 7.480000 141 153 136 0
26.620000 34.980000 7.480000 141 153 136 0
26.840000 34.980000 8.800000 140 152 135 0
27.060000 34.980000 9.240000 140 152 135 0
27.280000 34.980000 9.130000 140 152 135 0
27.500000 34.980000 9.240000 138 150 133 0
27.720000 34.980000 8.580000 138 150 133 0
27.940000 34.980000 7.920000 138 149 130 0
28.160000 34.980000 7.260000 137 148 129 0
28.380000 34.980000 8.030000 143 141 123 0
28.600000 34.980000 9.350000 139 137 119 0
28.820000 34.980000 10.120000 138 125 101 0
29.040000 34.980000 10.780000 130 117 93 0
29.260000 34.980000 10.010000 129 112 89 0
29.480000 34.980000 7.920000 128 111 88 0
29.700000 34.980000 7.150000 124 111 90 0
29.920000 34.980000 6.490000 121 108 87 0
30.140000 34.980000 7.260000 123 107 86 0
30.360000 34.980000 7.370000 121 105 84 0
30.580000 34.980000 8.140000 119 102 81 0
30.800000 34.980000 8.140000 115 98 77 0
31.020000 34.980000 8.910000 115 92 71 0
31.240000 34.980000 7.480000 114 91 70 0
31.460000 34.980000 6.820000 112 89 70 0
31.680000 34.980000 5.390000 109 86 67 0
31.900000 34.980000 5.500000 109 83 66 0
32.120000 34.980000 5.390000 107 81 64 0
32.340000 34.980000 5.390000 107 79 62 0
32.560000 34.980000 5.170000 109 81 64 0
32.780000 34.980000 5.830000 104 80 63 0
33.000000 34.980000 5.830000 104 80 63 0
33.220000 34.980000 5.830000 104 81 62 0
33.440000 34.980000 5.940000 106 83 64 0
33.660000 34.980000 6.050000 110 82 63 0
33.880000 34.980000 7.370000 113 85 66 0
34.100000 34.980000 8.140000 114 86 67 0
34.320000 34.980000 9.460000 116 88 69 0
34.540000 34.980000 10.120000 119 93 73 0
34.760000 34.980000 10.120000 123 97 77 0
34.980000 34.980000 10.120000 127 102 79 0
35.200000 34.980000 10.120000 130 105 82 0
35.420000 34.980000 10.780000 131 109 83 0
35.640000 34.980000 10.780000 135 113 87 0
35.860000 34.980000 11.440000 137 115 89 0
36.080000 34.980000 11.440000 139 117 91 0
36.300000 34.980000 10.780000 143 118 93 0
36.520000 34.980000 9.350000 145 120 95 0
36.740000 34.980000 10.120000 150 122 96 0
36.960000 34.980000 10.780000 150 122 96 0
37.180000 34.980000 10.890000 151 125 97 0
0.000000 35.200000 5.390000 199 214 206 0
0.220000 35.200000 5.390000 199 214 206 0
0.440000 35.200000 5.500000 199 214 206 0
0.660000 35.200000 5.390000 198 213 205 0
0.880000 35.200000 6.490000 199 214 206 0
1.100000 35.200000 6.930000 197 212 204 0
1.320000 35.200000 6.930000 195 210 202 0
1.540000 35.200000 7.040000 194 210 202 0
1.760000 35.200000 7.040000 192 208 200 0
1.980000 35.200000 7.040000 188 203 191 0
2.200000 35.200000 7.040000 176 191 179 0
2.420000 35.200000 7.810000 163 176 154 0
2.640000 35.200000 7.810000 154 167 145 0
2.860000 35.200000 7.810000 148 156 136 0
3.080000 35.200000 7.810000 144 152 132 0
3.300000 35.200000 7.920000 140 147 127 0
3.520000 35.200000 8.580000 139 146 126 0
3.740000 35.200000 9.240000 135 143 123 0
3.960000 35.200000 9.240000 134 142 122 0
4.180000 35.200000 10.010000 133 140 119 0
4.400000 35.200000 10.670000 132 139 118 0
4.620000 35.200000 11.440000 130 139 117 0
4.840000 35.200000 12.210000 129 138 116 0
5.060000 35.200000 14.410000 129 138 116 0
5.280000 35.200000 12.320000 127 136 114 0
5.500000 35.200000 4.730000 128 137 115 0
5.720000 35.200000 1.320000 127 136 114 0
5.940000 35.200000 2.640000 128 135 114 0
6.160000 35.200000 4.070000 128 135 114 0
6.380000 35.200000 4.730000 126 135 113 0
6.600000 35.200000 4.840000 124 133 111 0
