ply
format ascii 1.0
element vertex 1123
property float x
property float y
property float z
property uchar red
property uchar green
property uchar blue
property uchar alpha
end_header
22.000000 24.200000 30.140000 199 115 110 0
22.220000 24.200000 31.460000 197 113 106 0
22.440000 24.200000 31.680000 196 112 105 0
22.660000 24.200000 31.460000 199 111 105 0
22.880000 24.200000 32.340000 198 110 104 0
23.100000 24.200000 33.440000 200 104 101 0
23.320000 24.200000 32.120000 193 97 94 0
23.540000 24.200000 32.560000 192 96 93 0
23.760000 24.200000 32.560000 192 96 93 0
23.980000 24.200000 33.440000 193 94 92 0
24.200000 24.200000 34.760000 193 94 92 0
24.420000 24.200000 34.980000 193 94 94 0
24.640000 24.200000 35.420000 193 94 94 0
24.860000 24.200000 36.960000 192 96 93 0
25.080000 24.200000 38.280000 192 96 93 0
25.300000 24.200000 38.280000 191 95 92 0
25.520000 24.200000 36.960000 192 96 93 0
25.740000 24.200000 36.960000 192 96 93 0
25.960000 24.200000 35.860000 192 96 93 0
26.180000 24.200000 36.960000 193 97 96 0
26.400000 24.200000 39.160000 193 97 96 0
26.620000 24.200000 41.580000 193 97 94 0
26.840000 24.200000 41.580000 193 97 94 0
27.060000 24.200000 41.580000 193 97 96 0
27.280000 24.200000 41.580000 193 97 96 0
27.500000 24.200000 41.580000 193 97 96 0
27.720000 24.200000 41.580000 194 98 97 0
27.940000 24.200000 41.580000 194 98 97 0
28.160000 24.200000 41.800000 194 98 97 0
28.380000 24.200000 34.980000 194 102 102 0
28.600000 24.200000 15.620000 196 104 104 0
28.820000 24.200000 3.300000 197 105 105 0
29.040000 24.200000 0.440000 196 104 104 0
29.260000 24.200000 0.660000 198 103 104 0
29.480000 24.200000 0.660000 197 102 103 0
29.700000 24.200000 0.880000 198 99 101 0
30.140000 24.200000 9.240000 195 98 100 0
30.360000 24.200000 28.820000 193 96 98 0
30.580000 24.200000 38.500000 193 96 98 0
30.800000 24.200000 37.180000 193 96 98 0
31.020000 24.200000 38.500000 195 98 100 0
31.240000 24.200000 38.720000 193 96 98 0
31.460000 24.200000 38.720000 194 95 95 0
31.680000 24.200000 40.040000 195 96 96 0
31.900000 24.200000 30.360000 193 94 94 0
32.120000 24.200000 8.140000 194 95 95 0
33.220000 24.200000 0.880000 192 91 92 0
33.440000 24.200000 1.760000 192 91 92 0
33.660000 24.200000 1.540000 193 92 93 0
33.880000 24.200000 1.540000 193 92 93 0
34.100000 24.200000 1.540000 194 91 93 0
34.320000 24.200000 1.760000 195 92 94 0
34.540000 24.200000 0.880000 194 91 93 0
34.760000 24.200000 2.420000 193 90 92 0
34.980000 24.200000 1.100000 195 90 92 0
35.640000 24.200000 1.320000 192 89 91 0
35.860000 24.200000 1.320000 194 89 91 0
36.080000 24.200000 2.640000 194 89 91 0
36.300000 24.200000 4.180000 194 89 91 0
36.520000 24.200000 4.180000 194 89 91 0
36.740000 24.200000 5.280000 195 90 92 0
36.960000 24.200000 5.940000 194 89 91 0
37.180000 24.200000 7.040000 193 88 90 0
0.000000 24.420000 18.920000 146 72 66 0
0.220000 24.420000 12.100000 146 77 67 0
0.440000 24.420000 5.060000 150 81 71 0
0.660000 24.420000 7.480000 148 89 80 0
0.880000 24.420000 8.580000 155 96 87 0
1.100000 24.420000 7.260000 155 102 91 0
1.320000 24.420000 8.580000 159 106 95 0
1.540000 24.420000 12.760000 158 108 96 0
1.760000 24.420000 15.620000 160 110 98 0
1.980000 24.420000 12.760000 160 110 96 0
2.200000 24.420000 8.800000 158 108 94 0
2.420000 24.420000 6.160000 158 104 91 0
2.640000 24.420000 6.380000 158 104 91 0
2.860000 24.420000 6.380000 158 101 87 0
3.080000 24.420000 9.020000 157 100 86 0
3.300000 24.420000 10.560000 153 99 86 0
3.520000 24.420000 11.880000 153 99 86 0
3.740000 24.420000 12.980000 152 103 91 0
3.960000 24.420000 12.760000 153 104 92 0
4.180000 24.420000 12.540000 144 115 102 0
4.400000 24.420000 12.760000 148 119 106 0
4.620000 24.420000 14.080000 146 128 111 0
4.840000 24.420000 15.620000 150 132 115 0
5.060000 24.420000 19.800000 146 135 124 0
5.280000 24.420000 23.760000 150 139 128 0
5.500000 24.420000 26.620000 153 146 133 0
5.720000 24.420000 28.160000 156 149 136 0
5.940000 24.420000 29.480000 156 150 133 0
6.160000 24.420000 29.480000 156 150 133 0
6.380000 24.420000 29.700000 158 149 127 0
6.600000 24.420000 29.700000 158 149 127 0
6.820000 24.420000 29.700000 164 149 125 0
7.040000 24.420000 29.920000 162 147 123 0
7.260000 24.420000 28.600000 164 143 117 0
7.480000 24.420000 28.600000 162 141 115 0
7.700000 24.420000 28.600000 159 139 110 0
7.920000 24.420000 28.600000 160 140 111 0
8.140000 24.420000 28.600000 159 137 108 0
8.360000 24.420000 28.600000 160 138 109 0
8.580000 24.420000 30.140000 162 137 110 0
8.800000 24.420000 30.140000 162 137 110 0
9.020000 24.420000 30.140000 160 138 110 0
9.240000 24.420000 31.680000 160 138 110 0
9.460000 24.420000 31.680000 161 141 112 0
9.680000 24.420000 31.680000 161 141 112 0
9.900000 24.420000 34.100000 163 142 110 0
10.120000 24.420000 36.300000 165 144 112 0
10.340000 24.420000 37.400000 165 143 115 0
10.560000 24.420000 38.720000 167 145 117 0
10.780000 24.420000 38.720000 168 148 119 0
11.000000 24.420000 40.260000 171 151 122 0
11.220000 24.420000 40.260000 170 156 125 0
11.440000 24.420000 40.260000 174 160 129 0
11.660000 24.420000 40.480000 177 162 134 0
11.880000 24.420000 40.480000 181 166 138 0
12.100000 24.420000 40.480000 178 173 139 0
12.320000 24.420000 39.160000 184 179 145 0
12.540000 24.420000 33.660000 185 183 155 0
12.760000 24.420000 31.020000 190 188 160 0
12.980000 24.420000 22.660000 191 192 169 0
13.200000 24.420000 7.700000 194 195 172 0
14.300000 24.420000 1.320000 199 205 190 0
14.520000 24.420000 1.320000 199 205 190 0
14.740000 24.420000 2.640000 200 203 187 0
14.960000 24.420000 2.640000 200 203 187 0
15.180000 24.420000 5.060000 201 204 188 0
15.400000 24.420000 5.940000 202 205 189 0
15.620000 24.420000 7.040000 203 206 192 0
15.840000 24.420000 7.260000 204 207 193 0
16.060000 24.420000 7.480000 205 208 194 0
16.280000 24.420000 7.480000 206 209 195 0
16.500000 24.420000 7.700000 204 210 195 0
16.720000 24.420000 7.700000 205 211 196 0
16.940000 24.420000 7.700000 207 210 196 0
17.160000 24.420000 9.240000 207 210 196 0
17.380000 24.420000 9.240000 206 209 195 0
17.600000 24.420000 9.240000 205 208 194 0
17.820000 24.420000 9.460000 203 199 182 0
18.040000 24.420000 10.780000 200 196 179 0
18.260000 24.420000 10.780000 206 187 168 0
18.480000 24.420000 12.320000 198 179 160 0
18.700000 24.420000 12.320000 202 168 153 0
18.920000 24.420000 14.960000 197 163 148 0
19.140000 24.420000 18.480000 197 159 145 0
19.360000 24.420000 22.220000 198 160 146 0
19.580000 24.420000 25.080000 195 162 150 0
19.800000 24.420000 25.080000 197 164 152 0
20.020000 24.420000 23.760000 194 164 149 0
20.240000 24.420000 23.980000 195 165 150 0
20.460000 24.420000 22.660000 202 162 147 0
20.680000 24.420000 22.660000 195 155 140 0
20.900000 24.420000 22.880000 203 145 136 0
21.120000 24.420000 22.880000 199 141 132 0
21.340000 24.420000 24.420000 203 127 122 0
21.560000 24.420000 27.280000 197 121 116 0
21.780000 24.420000 30.140000 197 113 108 0
22.000000 24.420000 31.460000 196 112 107 0
22.220000 24.420000 31.680000 196 112 105 0
22.440000 24.420000 31.680000 195 111 104 0
22.660000 24.420000 32.560000 197 109 103 0
22.880000 24.420000 33.440000 197 109 103 0
23.100000 24.420000 33.220000 195 99 96 0
23.320000 24.420000 32.120000 193 97 94 0
23.540000 24.420000 32.560000 191 95 92 0
23.760000 24.420000 32.340000 191 95 92 0
23.980000 24.420000 33.440000 192 93 91 0
24.200000 24.420000 34.760000 193 94 92 0
24.420000 24.420000 35.200000 193 94 94 0
24.640000 24.420000 35.420000 193 94 94 0
24.860000 24.420000 36.960000 191 95 92 0
25.080000 24.420000 36.960000 192 96 93 0
25.300000 24.420000 36.960000 192 96 93 0
25.520000 24.420000 36.960000 192 96 93 0
25.740000 24.420000 35.640000 192 96 93 0
25.960000 24.420000 35.860000 192 96 93 0
26.180000 24.420000 36.960000 192 96 95 0
26.400000 24.420000 39.160000 192 96 95 0
26.620000 24.420000 41.580000 193 97 94 0
26.840000 24.420000 41.580000 193 97 94 0
27.060000 24.420000 41.580000 192 96 95 0
27.280000 24.420000 41.580000 193 97 96 0
27.500000 24.420000 41.580000 193 97 96 0
27.720000 24.420000 41.580000 193 97 96 0
27.940000 24.420000 43.120000 193 97 96 0
28.160000 24.420000 43.120000 194 98 97 0
28.380000 24.420000 32.120000 193 101 101 0
28.600000 24.420000 10.120000 194 102 102 0
28.820000 24.420000 0.440000 195 103 103 0
29.040000 24.420000 0.440000 195 103 103 0
29.260000 24.420000 0.660000 196 101 102 0
29.480000 24.420000 0.660000 195 100 101 0
29.700000 24.420000 0.880000 197 98 100 0
30.140000 24.420000 7.920000 193 96 98 0
30.360000 24.420000 28.600000 193 96 98 0
30.580000 24.420000 38.500000 194 97 99 0
30.800000 24.420000 38.500000 194 97 99 0
31.020000 24.420000 38.500000 194 97 99 0
31.240000 24.420000 38.720000 194 97 99 0
31.460000 24.420000 38.720000 195 96 96 0
31.680000 24.420000 40.040000 194 95 95 0
31.900000 24.420000 30.360000 195 96 96 0
32.120000 24.420000 8.140000 195 96 96 0
32.560000 24.420000 2.640000 194 93 94 0
32.780000 24.420000 1.320000 194 93 94 0
33.220000 24.420000 1.980000 192 91 92 0
33.440000 24.420000 1.540000 193 92 93 0
33.660000 24.420000 1.540000 193 92 93 0
33.880000 24.420000 1.540000 193 92 93 0
34.100000 24.420000 1.540000 194 91 93 0
34.320000 24.420000 1.980000 194 91 93 0
34.540000 24.420000 0.880000 194 91 93 0
34.760000 24.420000 2.200000 193 90 92 0
34.980000 24.420000 2.420000 194 89 91 0
35.200000 24.420000 1.100000 194 89 91 0
35.640000 24.420000 1.100000 191 88 90 0
35.860000 24.420000 2.640000 193 88 90 0
36.080000 24.420000 2.640000 192 87 89 0
36.300000 24.420000 4.180000 194 89 91 0
36.520000 24.420000 4.180000 194 89 91 0
36.740000 24.420000 5.280000 194 89 91 0
36.960000 24.420000 5.940000 194 89 91 0
37.180000 24.420000 7.040000 194 89 91 0
0.000000 24.640000 17.380000 145 74 67 0
0.220000 24.640000 11.880000 143 82 72 0
0.440000 24.640000 6.380000 149 88 78 0
0.660000 24.640000 7.480000 149 94 84 0
0.880000 24.640000 8.800000 153 98 88 0
1.100000 24.640000 8.800000 153 104 92 0
1.320000 24.640000 8.800000 156 107 95 0
1.540000 24.640000 12.760000 161 108 97 0
1.760000 24.640000 16.940000 161 108 97 0
1.980000 24.640000 11.440000 164 107 95 0
2.200000 24.640000 5.940000 162 105 93 0
2.420000 24.640000 4.840000 158 103 93 0
2.640000 24.640000 4.840000 156 101 91 0
2.860000 24.640000 6.160000 149 102 89 0
3.080000 24.640000 8.800000 150 103 90 0
3.300000 24.640000 11.440000 140 112 96 0
3.520000 24.640000 11.440000 144 116 100 0
3.740000 24.640000 12.760000 138 121 109 0
3.960000 24.640000 12.760000 140 123 111 0
4.180000 24.640000 12.760000 139 129 115 0
4.400000 24.640000 12.760000 143 133 119 0
4.620000 24.640000 14.080000 137 138 127 0
4.840000 24.640000 18.260000 140 141 130 0
5.060000 24.640000 21.120000 144 147 135 0
5.280000 24.640000 25.300000 148 151 139 0
5.500000 24.640000 26.620000 150 152 136 0
5.720000 24.640000 28.160000 150 152 136 0
5.940000 24.640000 28.160000 157 151 132 0
6.160000 24.640000 29.700000 157 151 132 0
6.380000 24.640000 29.700000 160 147 126 0
6.600000 24.640000 29.700000 160 147 126 0
6.820000 24.640000 28.380000 161 144 119 0
7.040000 24.640000 28.600000 160 143 118 0
7.260000 24.640000 28.600000 159 141 114 0
7.480000 24.640000 28.600000 158 140 113 0
7.700000 24.640000 28.600000 157 139 114 0
7.920000 24.640000 28.600000 157 139 114 0
8.140000 24.640000 28.600000 159 138 112 0
8.360000 24.640000 28.820000 160 139 113 0
8.580000 24.640000 30.140000 159 141 112 0
8.800000 24.640000 30.140000 159 141 112 0
9.020000 24.640000 30.140000 161 141 112 0
9.240000 24.640000 31.680000 162 142 113 0
9.460000 24.640000 31.680000 160 142 113 0
9.680000 24.640000 33.000000 161 143 114 0
9.900000 24.640000 34.320000 164 142 113 0
10.120000 24.640000 36.520000 165 143 114 0
10.340000 24.640000 38.940000 166 146 116 0
10.560000 24.640000 38.720000 167 147 117 0
10.780000 24.640000 40.260000 166 152 120 0
11.000000 24.640000 40.260000 168 154 122 0
11.220000 24.640000 40.260000 168 156 127 0
11.440000 24.640000 40.260000 173 161 132 0
11.660000 24.640000 40.260000 178 163 137 0
11.880000 24.640000 40.480000 182 167 141 0
12.100000 24.640000 41.800000 180 174 147 0
12.320000 24.640000 42.020000 185 179 152 0
12.540000 24.640000 42.020000 188 186 160 0
12.760000 24.640000 42.020000 192 190 164 0
12.980000 24.640000 31.020000 189 195 178 0
13.200000 24.640000 10.340000 192 198 181 0
14.300000 24.640000 1.320000 201 204 190 0
14.520000 24.640000 1.320000 200 203 189 0
14.740000 24.640000 2.640000 200 203 187 0
14.960000 24.640000 2.640000 200 203 187 0
15.180000 24.640000 3.740000 201 204 188 0
15.400000 24.640000 5.940000 201 204 188 0
15.620000 24.640000 7.040000 203 206 190 0
15.840000 24.640000 7.260000 204 207 191 0
16.060000 24.640000 7.480000 205 208 194 0
16.280000 24.640000 7.480000 206 209 195 0
16.500000 24.640000 7.700000 204 210 195 0
16.720000 24.640000 7.700000 205 211 196 0
16.940000 24.640000 7.920000 207 210 194 0
17.160000 24.640000 7.920000 206 209 193 0
17.380000 24.640000 9.240000 206 208 192 0
17.600000 24.640000 9.240000 205 207 191 0
17.820000 24.640000 9.460000 203 203 186 0
18.040000 24.640000 10.780000 199 199 182 0
18.260000 24.640000 10.780000 203 190 169 0
18.480000 24.640000 12.320000 199 186 165 0
18.700000 24.640000 12.320000 201 173 156 0
18.920000 24.640000 14.740000 197 169 152 0
19.140000 24.640000 19.800000 198 160 146 0
19.360000 24.640000 23.540000 197 159 145 0
19.580000 24.640000 25.080000 201 158 146 0
19.800000 24.640000 25.300000 201 158 146 0
20.020000 24.640000 25.300000 199 156 145 0
20.240000 24.640000 23.980000 198 155 144 0
20.460000 24.640000 24.200000 205 148 136 0
20.680000 24.640000 24.200000 201 144 132 0
20.900000 24.640000 24.200000 206 135 128 0
21.120000 24.640000 24.420000 200 129 122 0
21.340000 24.640000 27.280000 203 118 118 0
21.560000 24.640000 28.600000 197 112 112 0
21.780000 24.640000 30.140000 197 109 103 0
22.000000 24.640000 31.680000 197 109 103 0
22.220000 24.640000 31.680000 199 107 103 0
22.440000 24.640000 31.240000 197 105 101 0
22.660000 24.640000 32.340000 199 105 101 0
22.880000 24.640000 33.440000 197 103 99 0
23.100000 24.640000 33.220000 195 99 96 0
23.320000 24.640000 33.440000 192 96 93 0
23.540000 24.640000 33.440000 194 95 93 0
23.760000 24.640000 33.440000 193 94 92 0
23.980000 24.640000 33.440000 193 94 92 0
24.200000 24.640000 34.980000 194 95 93 0
24.420000 24.640000 34.100000 192 96 93 0
24.640000 24.640000 35.640000 191 95 92 0
24.860000 24.640000 35.640000 192 96 93 0
25.080000 24.640000 36.960000 193 97 94 0
25.300000 24.640000 36.960000 193 94 92 0
25.520000 24.640000 36.960000 193 94 92 0
25.740000 24.640000 35.860000 193 94 92 0
25.960000 24.640000 35.860000 194 95 93 0
26.180000 24.640000 36.960000 193 94 92 0
26.400000 24.640000 39.160000 194 95 93 0
26.620000 24.640000 40.040000 194 95 93 0
26.840000 24.640000 40.040000 195 96 94 0
27.060000 24.640000 41.580000 193 94 92 0
27.280000 24.640000 41.580000 194 95 93 0
27.500000 24.640000 41.580000 194 95 95 0
27.720000 24.640000 41.580000 194 95 95 0
27.940000 24.640000 43.120000 195 96 96 0
28.160000 24.640000 43.120000 195 96 96 0
28.380000 24.640000 34.980000 196 97 97 0
28.600000 24.640000 15.620000 197 98 98 0
28.820000 24.640000 1.760000 195 99 98 0
29.040000 24.640000 0.440000 196 100 99 0
29.260000 24.640000 0.660000 195 99 98 0
29.480000 24.640000 0.660000 194 98 97 0
30.140000 24.640000 7.920000 194 93 94 0
30.360000 24.640000 28.600000 195 94 95 0
30.580000 24.640000 38.500000 195 96 96 0
30.800000 24.640000 38.500000 195 96 96 0
31.020000 24.640000 38.500000 195 96 98 0
31.240000 24.640000 38.720000 195 96 98 0
31.460000 24.640000 38.720000 196 97 97 0
31.680000 24.640000 40.040000 196 97 97 0
31.900000 24.640000 29.040000 196 95 96 0
32.120000 24.640000 8.140000 195 94 95 0
32.340000 24.640000 5.500000 194 93 94 0
32.560000 24.640000 13.640000 194 93 94 0
32.780000 24.640000 5.500000 194 93 94 0
33.220000 24.640000 1.760000 194 93 94 0
33.440000 24.640000 1.540000 194 93 94 0
33.660000 24.640000 1.540000 195 92 94 0
33.880000 24.640000 1.540000 194 91 93 0
34.100000 24.640000 1.760000 194 91 93 0
34.320000 24.640000 0.660000 195 92 94 0
34.540000 24.640000 0.880000 195 92 94 0
34.760000 24.640000 2.200000 193 90 92 0
34.980000 24.640000 2.420000 195 90 92 0
35.200000 24.640000 1.100000 194 89 91 0
35.420000 24.640000 1.100000 195 88 91 0
35.640000 24.640000 1.100000 195 88 91 0
35.860000 24.640000 2.640000 193 88 90 0
36.080000 24.640000 4.180000 192 87 89 0
36.300000 24.640000 4.180000 193 88 90 0
36.520000 24.640000 4.180000 194 89 91 0
36.740000 24.640000 5.280000 193 88 90 0
36.960000 24.640000 5.940000 194 89 91 0
37.180000 24.640000 7.040000 194 87 90 0
0.000000 24.860000 17.380000 148 77 70 0
0.220000 24.860000 13.200000 148 87 77 0
0.440000 24.860000 9.020000 152 91 81 0
0.660000 24.860000 8.800000 153 98 88 0
0.880000 24.860000 8.800000 156 101 91 0
1.100000 24.860000 8.800000 156 107 95 0
1.320000 24.860000 8.800000 158 109 97 0
1.540000 24.860000 11.440000 161 108 97 0
1.760000 24.860000 15.620000 160 107 96 0
1.980000 24.860000 10.120000 162 105 93 0
2.200000 24.860000 5.940000 161 104 92 0
2.420000 24.860000 6.160000 155 100 90 0
2.640000 24.860000 5.940000 155 100 90 0
2.860000 24.860000 8.580000 152 105 92 0
3.080000 24.860000 9.900000 154 107 94 0
3.300000 24.860000 11.220000 145 117 101 0
3.520000 24.860000 11.220000 150 122 106 0
3.740000 24.860000 11.440000 144 127 115 0
3.960000 24.860000 12.760000 147 130 118 0
4.180000 24.860000 12.760000 146 136 122 0
4.400000 24.860000 12.760000 149 139 125 0
4.620000 24.860000 15.620000 142 143 132 0
4.840000 24.860000 19.800000 146 147 136 0
5.060000 24.860000 22.440000 148 151 139 0
5.280000 24.860000 25.300000 149 152 140 0
5.500000 24.860000 26.840000 149 151 135 0
5.720000 24.860000 26.840000 149 151 135 0
5.940000 24.860000 28.160000 155 149 130 0
6.160000 24.860000 28.380000 154 148 129 0
6.380000 24.860000 28.380000 157 144 123 0
6.600000 24.860000 28.380000 155 142 121 0
6.820000 24.860000 27.060000 157 140 115 0
7.040000 24.860000 27.280000 158 141 116 0
7.260000 24.860000 27.280000 157 139 112 0
7.480000 24.860000 28.600000 157 139 112 0
7.700000 24.860000 28.600000 158 140 115 0
7.920000 24.860000 28.600000 156 138 113 0
8.140000 24.860000 28.820000 159 138 112 0
8.360000 24.860000 28.820000 159 138 112 0
8.580000 24.860000 30.140000 159 141 112 0
8.800000 24.860000 30.140000 160 142 113 0
9.020000 24.860000 30.140000 163 143 114 0
9.240000 24.860000 31.680000 164 144 115 0
9.460000 24.860000 31.680000 163 145 116 0
9.680000 24.860000 33.000000 163 145 116 0
9.900000 24.860000 34.320000 166 144 115 0
10.120000 24.860000 35.420000 167 145 116 0
10.340000 24.860000 37.840000 168 148 118 0
10.560000 24.860000 38.940000 169 149 119 0
10.780000 24.860000 40.260000 168 154 122 0
11.000000 24.860000 40.260000 170 156 124 0
11.220000 24.860000 40.260000 171 159 130 0
11.440000 24.860000 41.580000 175 163 134 0
11.660000 24.860000 41.800000 180 165 139 0
11.880000 24.860000 41.800000 183 168 142 0
12.100000 24.860000 41.800000 183 177 150 0
12.320000 24.860000 42.020000 189 183 156 0
12.540000 24.860000 42.020000 189 187 161 0
12.760000 24.860000 39.160000 194 192 166 0
12.980000 24.860000 25.520000 192 198 181 0
13.200000 24.860000 7.480000 194 200 183 0
14.300000 24.860000 1.320000 201 204 190 0
14.520000 24.860000 1.320000 201 204 190 0
14.740000 24.860000 2.640000 201 204 188 0
14.960000 24.860000 2.640000 201 204 188 0
15.180000 24.860000 3.740000 201 204 188 0
15.400000 24.860000 5.940000 202 205 189 0
15.620000 24.860000 7.040000 202 205 189 0
15.840000 24.860000 7.260000 203 206 190 0
16.060000 24.860000 7.480000 204 207 193 0
16.280000 24.860000 7.480000 205 208 194 0
16.500000 24.860000 7.700000 204 210 195 0
16.720000 24.860000 7.700000 205 211 196 0
16.940000 24.860000 7.920000 206 209 193 0
17.160000 24.860000 7.920000 206 209 193 0
17.380000 24.860000 9.240000 207 209 193 0
17.600000 24.860000 9.240000 206 208 192 0
17.820000 24.860000 9.460000 204 204 187 0
18.040000 24.860000 9.460000 202 202 185 0
18.260000 24.860000 11.000000 205 192 171 0
18.480000 24.860000 12.320000 199 186 165 0
18.700000 24.860000 12.320000 205 177 160 0
18.920000 24.860000 14.960000 199 171 154 0
19.140000 24.860000 18.480000 199 161 147 0
19.360000 24.860000 22.220000 196 158 144 0
19.580000 24.860000 25.080000 195 152 140 0
19.800000 24.860000 25.300000 194 151 139 0
20.020000 24.860000 23.980000 192 149 138 0
20.240000 24.860000 24.200000 190 147 136 0
20.460000 24.860000 24.200000 197 140 128 0
20.680000 24.860000 24.200000 194 137 125 0
20.900000 24.860000 24.200000 198 127 120 0
21.120000 24.860000 25.740000 192 121 114 0
21.340000 24.860000 28.600000 195 110 110 0
21.560000 24.860000 30.140000 195 110 110 0
21.780000 24.860000 31.460000 197 109 103 0
22.000000 24.860000 31.680000 195 107 101 0
22.220000 24.860000 31.460000 197 105 101 0
22.440000 24.860000 32.340000 196 104 100 0
22.660000 24.860000 33.220000 197 103 99 0
22.880000 24.860000 33.220000 193 99 95 0
23.100000 24.860000 33.440000 193 97 94 0
23.320000 24.860000 33.440000 193 97 94 0
23.540000 24.860000 33.440000 193 94 92 0
23.760000 24.860000 33.440000 193 94 92 0
23.980000 24.860000 33.440000 193 94 92 0
24.200000 24.860000 33.880000 193 94 92 0
24.420000 24.860000 34.100000 192 96 93 0
24.640000 24.860000 34.320000 192 96 93 0
24.860000 24.860000 35.640000 191 95 92 0
25.080000 24.860000 35.420000 191 95 92 0
25.300000 24.860000 36.960000 193 94 92 0
25.520000 24.860000 35.640000 192 93 91 0
25.740000 24.860000 35.860000 193 94 92 0
25.960000 24.860000 37.180000 193 94 92 0
26.180000 24.860000 38.280000 194 95 93 0
26.400000 24.860000 38.940000 194 95 93 0
26.620000 24.860000 40.040000 194 95 93 0
26.840000 24.860000 40.260000 193 94 92 0
27.060000 24.860000 40.260000 193 94 92 0
27.280000 24.860000 41.580000 194 95 93 0
27.500000 24.860000 41.580000 194 95 95 0
27.720000 24.860000 41.580000 195 96 96 0
27.940000 24.860000 43.120000 194 95 95 0
28.160000 24.860000 43.120000 195 96 96 0
28.380000 24.860000 40.480000 195 96 96 0
28.600000 24.860000 26.620000 195 96 96 0
28.820000 24.860000 7.260000 193 97 96 0
29.040000 24.860000 0.440000 194 98 97 0
29.260000 24.860000 0.660000 193 97 96 0
29.920000 24.860000 0.880000 193 94 94 0
30.140000 24.860000 13.420000 193 92 93 0
30.360000 24.860000 31.460000 194 93 94 0
30.580000 24.860000 38.500000 193 94 94 0
30.800000 24.860000 38.500000 195 96 96 0
31.020000 24.860000 38.500000 194 95 97 0
31.240000 24.860000 38.720000 195 96 98 0
31.460000 24.860000 40.040000 194 95 95 0
31.680000 24.860000 40.040000 195 96 96 0
31.900000 24.860000 29.040000 196 95 96 0
32.120000 24.860000 8.140000 195 94 95 0
32.340000 24.860000 8.140000 194 93 94 0
32.560000 24.860000 19.360000 194 93 94 0
32.780000 24.860000 8.140000 194 93 94 0
33.220000 24.860000 1.760000 194 93 94 0
33.440000 24.860000 1.540000 194 93 94 0
33.660000 24.860000 1.540000 194 91 93 0
33.880000 24.860000 1.760000 194 91 93 0
34.100000 24.860000 1.980000 193 90 92 0
34.320000 24.860000 0.660000 194 91 93 0
34.540000 24.860000 0.880000 194 91 93 0
34.760000 24.860000 2.200000 193 90 92 0
34.980000 24.860000 2.420000 195 90 92 0
35.200000 24.860000 1.100000 194 89 91 0
35.420000 24.860000 1.100000 193 86 89 0
35.640000 24.860000 2.640000 194 87 90 0
35.860000 24.860000 2.640000 193 88 90 0
36.080000 24.860000 4.180000 193 88 90 0
36.300000 24.860000 4.180000 193 88 90 0
36.520000 24.860000 4.180000 193 88 90 0
36.740000 24.860000 5.280000 193 88 90 0
36.960000 24.860000 5.940000 193 88 90 0
37.180000 24.860000 7.040000 193 86 89 0
0.000000 25.080000 17.380000 147 88 77 0
0.220000 25.080000 15.840000 149 94 84 0
0.440000 25.080000 14.520000 153 98 88 0
0.660000 25.080000 12.980000 153 102 93 0
0.880000 25.080000 11.660000 157 106 97 0
1.100000 25.080000 11.660000 157 107 95 0
1.320000 25.080000 11.660000 158 108 96 0
1.540000 25.080000 11.660000 163 106 92 0
1.760000 25.080000 12.980000 163 106 92 0
1.980000 25.080000 10.120000 158 105 96 0
2.200000 25.080000 7.260000 155 102 93 0
2.420000 25.080000 7.260000 148 104 98 0
2.640000 25.080000 8.580000 149 105 99 0
2.860000 25.080000 9.900000 143 116 102 0
3.080000 25.080000 11.220000 148 121 107 0
3.300000 25.080000 11.440000 143 131 114 0
3.520000 25.080000 11.440000 145 133 116 0
3.740000 25.080000 11.440000 139 139 124 0
3.960000 25.080000 12.760000 143 143 128 0
4.180000 25.080000 12.760000 145 146 135 0
4.400000 25.080000 12.760000 148 149 138 0
4.620000 25.080000 15.620000 146 148 138 0
4.840000 25.080000 19.800000 147 149 139 0
5.060000 25.080000 22.660000 149 148 139 0
5.280000 25.080000 23.980000 150 149 140 0
5.500000 25.080000 25.520000 151 148 134 0
5.720000 25.080000 25.520000 149 146 132 0
5.940000 25.080000 27.060000 153 144 126 0
6.160000 25.080000 27.060000 151 142 124 0
6.380000 25.080000 27.060000 156 138 119 0
6.600000 25.080000 27.060000 156 138 119 0
6.820000 25.080000 25.740000 153 140 119 0
7.040000 25.080000 27.280000 152 139 118 0
7.260000 25.080000 27.280000 153 138 112 0
7.480000 25.080000 27.280000 152 137 111 0
7.700000 25.080000 28.600000 157 136 110 0
7.920000 25.080000 28.820000 156 135 109 0
8.140000 25.080000 28.820000 158 138 109 0
8.360000 25.080000 28.820000 160 140 111 0
8.580000 25.080000 30.140000 162 142 112 0
8.800000 25.080000 30.140000 163 143 113 0
9.020000 25.080000 30.140000 166 146 116 0
9.240000 25.080000 31.680000 166 146 116 0
9.460000 25.080000 31.680000 165 147 118 0
9.680000 25.080000 33.000000 166 148 119 0
9.900000 25.080000 34.540000 165 149 121 0
10.120000 25.080000 35.860000 166 150 122 0
10.340000 25.080000 36.960000 165 151 120 0
10.560000 25.080000 39.160000 167 153 122 0
10.780000 25.080000 40.260000 170 154 123 0
11.000000 25.080000 40.260000 172 156 125 0
11.220000 25.080000 40.260000 171 161 133 0
11.440000 25.080000 41.580000 175 165 137 0
11.660000 25.080000 41.580000 176 172 142 0
11.880000 25.080000 41.800000 179 175 145 0
12.100000 25.080000 41.800000 184 182 154 0
12.320000 25.080000 41.800000 187 185 157 0
12.540000 25.080000 42.020000 189 190 167 0
12.760000 25.080000 33.660000 193 194 171 0
12.980000 25.080000 15.840000 195 198 182 0
13.200000 25.080000 1.980000 197 200 184 0
14.300000 25.080000 1.320000 201 204 188 0
14.520000 25.080000 1.320000 201 204 188 0
14.740000 25.080000 1.320000 201 204 188 0
14.960000 25.080000 2.640000 200 203 187 0
15.180000 25.080000 3.740000 201 204 188 0
15.400000 25.080000 5.940000 201 204 188 0
15.620000 25.080000 7.040000 202 204 188 0
15.840000 25.080000 7.260000 205 207 191 0
16.060000 25.080000 7.480000 205 208 194 0
16.280000 25.080000 7.480000 206 209 195 0
16.500000 25.080000 7.700000 206 209 195 0
16.720000 25.080000 7.700000 206 209 195 0
16.940000 25.080000 7.920000 206 209 193 0
17.160000 25.080000 7.920000 206 209 193 0
17.380000 25.080000 7.920000 206 208 192 0
17.600000 25.080000 9.240000 205 207 191 0
17.820000 25.080000 9.460000 205 207 191 0
18.040000 25.080000 9.460000 202 204 188 0
18.260000 25.080000 11.000000 203 197 176 0
18.480000 25.080000 11.000000 198 192 171 0
18.700000 25.080000 12.320000 202 182 166 0
18.920000 25.080000 13.420000 196 176 160 0
19.140000 25.080000 16.940000 202 165 151 0
19.360000 25.080000 20.900000 194 157 143 0
19.580000 25.080000 22.440000 198 148 136 0
19.800000 25.080000 23.980000 195 145 133 0
20.020000 25.080000 24.200000 206 138 132 0
20.240000 25.080000 22.880000 201 133 127 0
20.460000 25.080000 22.880000 206 127 127 0
20.680000 25.080000 24.200000 202 123 123 0
20.900000 25.080000 25.740000 199 115 108 0
21.120000 25.080000 28.600000 197 113 106 0
21.340000 25.080000 30.140000 199 109 104 0
21.560000 25.080000 31.460000 196 106 101 0
21.780000 25.080000 31.680000 196 104 100 0
22.000000 25.080000 31.680000 197 105 101 0
22.220000 25.080000 31.240000 198 104 100 0
22.440000 25.080000 33.440000 196 102 98 0
22.660000 25.080000 33.220000 196 100 96 0
22.880000 25.080000 33.220000 194 98 94 0
23.100000 25.080000 33.440000 192 96 93 0
23.320000 25.080000 33.440000 193 97 94 0
23.540000 25.080000 33.440000 192 96 93 0
23.760000 25.080000 33.440000 193 97 94 0
23.980000 25.080000 33.660000 193 94 92 0
24.200000 25.080000 34.100000 194 95 93 0
24.420000 25.080000 34.320000 194 94 92 0
24.640000 25.080000 34.320000 194 94 92 0
24.860000 25.080000 35.420000 193 94 92 0
25.080000 25.080000 35.420000 192 93 91 0
25.300000 25.080000 35.640000 193 94 92 0
25.520000 25.080000 35.640000 193 94 92 0
25.740000 25.080000 35.860000 193 94 92 0
25.960000 25.080000 36.960000 193 94 92 0
26.180000 25.080000 39.160000 193 94 92 0
26.400000 25.080000 40.260000 193 94 92 0
26.620000 25.080000 40.040000 193 94 94 0
26.840000 25.080000 40.260000 194 95 95 0
27.060000 25.080000 40.260000 192 96 93 0
27.280000 25.080000 41.580000 192 96 93 0
27.500000 25.080000 41.580000 194 95 95 0
27.720000 25.080000 43.120000 195 96 96 0
27.940000 25.080000 40.260000 195 94 95 0
28.160000 25.080000 34.760000 195 94 95 0
28.380000 25.080000 32.120000 194 93 94 0
28.600000 25.080000 23.760000 195 94 95 0
28.820000 25.080000 7.260000 194 95 93 0
29.920000 25.080000 6.380000 193 92 93 0
30.140000 25.080000 24.420000 193 92 93 0
30.360000 25.080000 36.960000 194 93 94 0
30.580000 25.080000 38.500000 193 92 93 0
30.800000 25.080000 38.500000 195 94 95 0
31.020000 25.080000 38.500000 194 93 94 0
31.240000 25.080000 38.720000 195 94 95 0
31.460000 25.080000 40.040000 195 94 95 0
31.680000 25.080000 37.180000 195 94 95 0
31.900000 25.080000 23.540000 195 94 95 0
32.120000 25.080000 5.500000 194 93 94 0
32.340000 25.080000 8.140000 196 93 95 0
32.560000 25.080000 22.000000 195 92 94 0
32.780000 25.080000 13.860000 196 91 93 0
33.000000 25.080000 1.100000 196 91 93 0
33.220000 25.080000 1.760000 195 92 94 0
33.440000 25.080000 1.540000 194 91 93 0
33.660000 25.080000 1.540000 194 91 93 0
33.880000 25.080000 1.760000 193 90 92 0
34.100000 25.080000 1.980000 193 90 92 0
34.320000 25.080000 0.880000 193 90 92 0
34.540000 25.080000 0.880000 195 90 92 0
34.760000 25.080000 2.200000 196 91 93 0
34.980000 25.080000 2.420000 195 90 92 0
35.200000 25.080000 1.100000 193 88 90 0
35.420000 25.080000 1.100000 193 88 90 0
35.640000 25.080000 2.640000 193 88 90 0
35.860000 25.080000 2.640000 195 88 91 0
36.080000 25.080000 4.180000 195 88 91 0
36.300000 25.080000 4.180000 194 87 90 0
36.520000 25.080000 5.500000 194 87 90 0
36.740000 25.080000 5.280000 193 86 89 0
36.960000 25.080000 5.940000 193 86 89 0
37.180000 25.080000 7.040000 193 86 89 0
0.000000 25.300000 18.700000 152 93 82 0
0.220000 25.300000 18.700000 152 97 87 0
0.440000 25.300000 18.700000 155 100 90 0
0.660000 25.300000 15.840000 155 104 95 0
0.880000 25.300000 12.980000 155 104 95 0
1.100000 25.300000 14.300000 158 108 96 0
1.320000 25.300000 14.300000 157 107 95 0
1.540000 25.300000 14.300000 160 103 89 0
1.760000 25.300000 12.980000 160 103 89 0
1.980000 25.300000 11.440000 154 101 92 0
2.200000 25.300000 9.900000 155 102 93 0
2.420000 25.300000 9.900000 149 105 99 0
2.640000 25.300000 11.220000 155 111 105 0
2.860000 25.300000 11.440000 149 122 108 0
3.080000 25.300000 12.760000 154 127 113 0
3.300000 25.300000 12.760000 147 135 118 0
3.520000 25.300000 11.440000 151 139 122 0
3.740000 25.300000 11.440000 145 145 130 0
3.960000 25.300000 11.440000 147 147 132 0
4.180000 25.300000 11.440000 147 148 137 0
4.400000 25.300000 12.760000 147 148 137 0
4.620000 25.300000 15.620000 147 149 139 0
4.840000 25.300000 19.800000 145 147 137 0
5.060000 25.300000 22.660000 148 147 138 0
5.280000 25.300000 24.200000 147 146 137 0
5.500000 25.300000 25.520000 148 145 131 0
5.720000 25.300000 25.740000 145 142 128 0
5.940000 25.300000 25.740000 148 139 121 0
6.160000 25.300000 25.740000 148 139 121 0
6.380000 25.300000 25.740000 154 136 117 0
6.600000 25.300000 24.420000 152 134 115 0
6.820000 25.300000 24.420000 150 137 116 0
7.040000 25.300000 25.960000 150 137 116 0
7.260000 25.300000 27.280000 152 137 111 0
7.480000 25.300000 27.280000 152 137 111 0
7.700000 25.300000 28.600000 155 134 108 0
7.920000 25.300000 28.820000 156 135 109 0
8.140000 25.300000 28.820000 157 137 108 0
8.360000 25.300000 30.140000 160 140 111 0
8.580000 25.300000 30.140000 163 143 113 0
8.800000 25.300000 30.140000 164 144 114 0
9.020000 25.300000 30.140000 165 145 115 0
9.240000 25.300000 31.680000 168 148 118 0
9.460000 25.300000 33.000000 166 148 119 0
9.680000 25.300000 33.000000 167 149 120 0
9.900000 25.300000 34.540000 167 151 123 0
10.120000 25.300000 35.860000 167 151 123 0
10.340000 25.300000 35.860000 166 152 121 0
10.560000 25.300000 38.280000 169 155 124 0
10.780000 25.300000 38.940000 170 154 123 0
11.000000 25.300000 40.040000 174 158 127 0
11.220000 25.300000 40.260000 173 163 135 0
11.440000 25.300000 41.580000 176 166 138 0
11.660000 25.300000 41.580000 178 174 144 0
11.880000 25.300000 41.800000 182 178 148 0
12.100000 25.300000 41.800000 185 183 155 0
12.320000 25.300000 41.800000 189 187 159 0
12.540000 25.300000 41.800000 190 191 168 0
12.760000 25.300000 30.800000 194 195 172 0
12.980000 25.300000 10.120000 196 199 183 0
14.300000 25.300000 1.320000 202 205 189 0
14.520000 25.300000 1.320000 201 204 188 0
14.740000 25.300000 1.320000 200 203 187 0
14.960000 25.300000 2.640000 200 203 187 0
15.180000 25.300000 3.740000 201 204 188 0
15.400000 25.300000 5.940000 202 205 189 0
15.620000 25.300000 7.040000 203 205 189 0
15.840000 25.300000 7.260000 204 206 190 0
16.060000 25.300000 7.480000 204 207 193 0
16.280000 25.300000 7.700000 205 208 194 0
16.500000 25.300000 7.700000 207 210 196 0
16.720000 25.300000 7.700000 206 209 195 0
16.940000 25.300000 7.920000 205 208 192 0
17.160000 25.300000 7.920000 206 209 193 0
17.380000 25.300000 7.920000 206 208 192 0
17.600000 25.300000 9.460000 205 207 191 0
17.820000 25.300000 9.460000 204 206 190 0
18.040000 25.300000 9.460000 203 205 189 0
18.260000 25.300000 11.000000 205 199 178 0
18.480000 25.300000 11.000000 200 194 173 0
18.700000 25.300000 12.320000 204 184 168 0
18.920000 25.300000 13.420000 199 179 163 0
19.140000 25.300000 16.940000 205 168 154 0
19.360000 25.300000 19.580000 199 162 148 0
19.580000 25.300000 21.120000 200 150 138 0
19.800000 25.300000 21.120000 195 145 133 0
20.020000 25.300000 21.340000 201 133 127 0
20.240000 25.300000 22.660000 197 129 123 0
20.460000 25.300000 22.880000 199 120 120 0
20.680000 25.300000 22.880000 196 117 117 0
20.900000 25.300000 25.740000 198 114 107 0
21.120000 25.300000 28.600000 196 112 105 0
21.340000 25.300000 30.140000 198 108 103 0
21.560000 25.300000 30.140000 196 106 101 0
21.780000 25.300000 30.360000 196 104 100 0
22.000000 25.300000 31.460000 196 104 100 0
22.220000 25.300000 32.340000 196 102 98 0
22.440000 25.300000 33.220000 195 101 97 0
22.660000 25.300000 33.220000 195 99 95 0
22.880000 25.300000 33.220000 194 98 94 0
23.100000 25.300000 33.440000 192 96 93 0
23.320000 25.300000 33.440000 192 96 93 0
23.540000 25.300000 33.440000 192 96 93 0
23.760000 25.300000 33.440000 192 96 93 0
23.980000 25.300000 33.880000 193 94 92 0
24.200000 25.300000 34.100000 193 94 92 0
24.420000 25.300000 34.320000 194 94 92 0
24.640000 25.300000 34.100000 193 93 91 0
24.860000 25.300000 35.640000 192 93 91 0
25.080000 25.300000 35.640000 193 94 92 0
25.300000 25.300000 35.640000 192 93 91 0
25.520000 25.300000 35.860000 193 94 92 0
25.740000 25.300000 37.180000 192 93 91 0
25.960000 25.300000 38.060000 192 93 91 0
26.180000 25.300000 38.940000 192 93 91 0
26.400000 25.300000 40.040000 193 94 92 0
26.620000 25.300000 40.260000 193 94 94 0
26.840000 25.300000 40.260000 193 94 94 0
27.060000 25.300000 40.260000 191 95 92 0
27.280000 25.300000 41.580000 192 96 93 0
27.500000 25.300000 41.580000 194 95 95 0
27.720000 25.300000 40.260000 194 95 95 0
27.940000 25.300000 29.260000 194 93 94 0
28.160000 25.300000 15.400000 194 93 94 0
28.380000 25.300000 9.900000 194 93 94 0
28.600000 25.300000 7.260000 193 92 93 0
28.820000 25.300000 1.760000 193 94 92 0
29.920000 25.300000 9.240000 193 92 93 0
30.140000 25.300000 30.140000 192 91 92 0
30.360000 25.300000 39.820000 193 92 93 0
30.580000 25.300000 38.500000 193 92 93 0
30.800000 25.300000 38.500000 194 93 94 0
31.020000 25.300000 38.500000 194 93 94 0
31.240000 25.300000 38.720000 193 92 93 0
31.460000 25.300000 40.040000 194 93 94 0
31.680000 25.300000 33.000000 194 93 94 0
31.900000 25.300000 13.640000 193 92 93 0
32.340000 25.300000 5.500000 195 92 94 0
32.560000 25.300000 19.360000 193 90 92 0
32.780000 25.300000 16.500000 196 91 93 0
33.000000 25.300000 3.740000 195 90 92 0
33.220000 25.300000 0.440000 193 90 92 0
33.440000 25.300000 1.540000 194 91 93 0
33.660000 25.300000 1.540000 193 90 92 0
33.880000 25.300000 1.760000 192 89 91 0
34.100000 25.300000 1.980000 192 89 91 0
34.320000 25.300000 0.880000 192 89 91 0
34.540000 25.300000 0.880000 194 89 91 0
34.760000 25.300000 2.200000 194 89 91 0
34.980000 25.300000 2.420000 194 89 91 0
35.200000 25.300000 1.100000 194 89 91 0
35.420000 25.300000 1.100000 193 88 90 0
35.640000 25.300000 2.640000 192 87 89 0
35.860000 25.300000 2.640000 193 86 89 0
36.080000 25.300000 4.180000 193 86 89 0
36.300000 25.300000 4.180000 193 86 89 0
36.520000 25.300000 5.500000 194 87 90 0
36.740000 25.300000 6.380000 193 86 89 0
36.960000 25.300000 7.260000 194 87 90 0
37.180000 25.300000 7.040000 193 86 89 0
0.000000 25.520000 18.480000 152 99 90 0
0.220000 25.520000 20.020000 155 102 91 0
0.440000 25.520000 21.340000 156 103 92 0
0.660000 25.520000 18.700000 155 104 95 0
0.880000 25.520000 15.840000 155 104 95 0
1.100000 25.520000 15.840000 158 103 93 0
1.320000 25.520000 17.160000 155 100 90 0
1.540000 25.520000 17.160000 152 99 90 0
1.760000 25.520000 15.620000 153 100 91 0
1.980000 25.520000 14.080000 147 102 94 0
2.200000 25.520000 12.760000 150 105 97 0
2.420000 25.520000 12.760000 136 119 106 0
2.640000 25.520000 12.760000 141 124 111 0
2.860000 25.520000 12.760000 143 132 121 0
3.080000 25.520000 12.760000 146 135 124 0
3.300000 25.520000 12.760000 145 142 130 0
3.520000 25.520000 11.440000 147 144 132 0
3.740000 25.520000 11.440000 145 147 137 0
3.960000 25.520000 11.440000 145 147 137 0
4.180000 25.520000 11.440000 151 146 135 0
4.400000 25.520000 12.980000 150 145 134 0
4.620000 25.520000 15.840000 148 145 135 0
4.840000 25.520000 20.020000 146 143 133 0
5.060000 25.520000 22.880000 148 142 125 0
5.280000 25.520000 24.420000 148 142 125 0
5.500000 25.520000 25.740000 149 137 120 0
5.720000 25.520000 25.740000 148 136 119 0
5.940000 25.520000 25.740000 147 135 118 0
6.160000 25.520000 24.420000 147 135 118 0
6.380000 25.520000 23.100000 146 135 113 0
6.600000 25.520000 21.560000 147 136 114 0
6.820000 25.520000 23.100000 147 134 112 0
7.040000 25.520000 25.960000 147 134 112 0
7.260000 25.520000 27.280000 147 134 113 0
7.480000 25.520000 27.280000 146 133 112 0
7.700000 25.520000 28.600000 149 134 110 0
7.920000 25.520000 28.820000 150 135 111 0
8.140000 25.520000 28.820000 153 135 108 0
8.360000 25.520000 30.140000 156 138 111 0
8.580000 25.520000 30.140000 159 141 112 0
8.800000 25.520000 30.140000 162 144 115 0
9.020000 25.520000 30.140000 165 145 116 0
9.240000 25.520000 31.460000 167 147 118 0
9.460000 25.520000 33.000000 167 151 123 0
9.680000 25.520000 33.000000 167 151 123 0
9.900000 25.520000 34.540000 165 150 122 0
10.120000 25.520000 35.860000 166 151 123 0
10.340000 25.520000 35.860000 169 152 127 0
10.560000 25.520000 36.960000 169 152 127 0
10.780000 25.520000 39.160000 168 158 128 0
11.000000 25.520000 40.260000 171 161 131 0
11.220000 25.520000 40.260000 172 164 138 0
11.440000 25.520000 41.580000 176 168 142 0
11.660000 25.520000 41.580000 176 175 152 0
11.880000 25.520000 41.580000 178 177 154 0
12.100000 25.520000 41.800000 179 186 165 0
12.320000 25.520000 41.800000 185 192 171 0
12.540000 25.520000 39.160000 190 194 175 0
12.760000 25.520000 25.300000 195 199 180 0
12.980000 25.520000 7.480000 195 201 184 0
14.300000 25.520000 1.100000 202 204 186 0
14.520000 25.520000 1.320000 202 204 186 0
14.740000 25.520000 1.320000 200 204 185 0
14.960000 25.520000 2.640000 200 204 185 0
15.180000 25.520000 3.740000 200 203 187 0
15.400000 25.520000 5.940000 201 204 188 0
15.620000 25.520000 7.040000 203 205 187 0
15.840000 25.520000 7.260000 204 206 188 0
16.060000 25.520000 7.480000 204 207 193 0
16.280000 25.520000 7.700000 204 207 193 0
16.500000 25.520000 7.700000 206 209 195 0
16.720000 25.520000 7.700000 206 209 195 0
16.940000 25.520000 7.920000 206 209 193 0
17.160000 25.520000 7.920000 206 209 193 0
17.380000 25.520000 7.920000 205 207 189 0
17.600000 25.520000 9.240000 204 206 188 0
17.820000 25.520000 9.460000 205 205 188 0
18.040000 25.520000 9.460000 203 203 186 0
18.260000 25.520000 10.780000 203 201 183 0
18.480000 25.520000 11.000000 198 196 178 0
18.700000 25.520000 12.320000 202 190 173 0
18.920000 25.520000 13.640000 197 185 168 0
19.140000 25.520000 15.840000 201 172 159 0
19.360000 25.520000 18.260000 196 167 154 0
19.580000 25.520000 19.580000 202 155 142 0
19.800000 25.520000 19.580000 196 149 136 0
20.020000 25.520000 19.800000 196 137 124 0
20.240000 25.520000 19.800000 191 132 119 0
20.460000 25.520000 21.340000 197 119 112 0
20.680000 25.520000 22.880000 194 116 109 0
20.900000 25.520000 24.420000 193 112 104 0
21.120000 25.520000 25.960000 194 113 105 0
21.340000 25.520000 27.280000 198 108 103 0
21.560000 25.520000 28.820000 197 107 102 0
21.780000 25.520000 28.820000 198 102 101 0
22.000000 25.520000 29.920000 197 101 100 0
22.220000 25.520000 32.120000 198 99 97 0
22.440000 25.520000 33.220000 198 99 97 0
22.660000 25.520000 33.220000 194 98 95 0
22.880000 25.520000 33.220000 193 97 94 0
23.100000 25.520000 33.440000 194 95 93 0
23.320000 25.520000 33.440000 194 95 93 0
23.540000 25.520000 33.440000 193 94 92 0
23.760000 25.520000 33.660000 193 94 92 0
23.980000 25.520000 33.880000 192 93 91 0
24.200000 25.520000 32.780000 193 94 92 0
24.420000 25.520000 34.320000 192 93 91 0
24.640000 25.520000 34.100000 192 93 91 0
24.860000 25.520000 35.640000 192 93 91 0
25.080000 25.520000 35.640000 192 93 91 0
25.300000 25.520000 35.640000 191 92 90 0
25.520000 25.520000 35.860000 192 93 91 0
25.740000 25.520000 36.960000 192 92 90 0
25.960000 25.520000 39.160000 193 93 91 0
26.180000 25.520000 40.260000 192 93 91 0
26.400000 25.520000 40.040000 192 93 91 0
26.620000 25.520000 40.260000 193 94 92 0
26.840000 25.520000 40.260000 193 94 92 0
27.060000 25.520000 40.260000 192 93 93 0
27.280000 25.520000 41.580000 193 94 94 0
27.500000 25.520000 41.580000 194 95 95 0
27.720000 25.520000 34.760000 195 96 96 0
27.940000 25.520000 15.400000 194 93 94 0
28.160000 25.520000 3.080000 194 93 94 0
29.920000 25.520000 6.380000 193 90 92 0
30.140000 25.520000 24.640000 193 90 92 0
30.360000 25.520000 36.960000 193 90 92 0
30.580000 25.520000 38.500000 193 90 92 0
30.800000 25.520000 38.500000 193 90 92 0
31.020000 25.520000 38.500000 193 92 93 0
31.240000 25.520000 38.720000 192 91 92 0
31.460000 25.520000 39.820000 195 92 94 0
31.680000 25.520000 31.240000 194 91 93 0
31.900000 25.520000 9.020000 193 92 93 0
32.340000 25.520000 1.100000 193 90 92 0
32.560000 25.520000 5.500000 193 90 92 0
32.780000 25.520000 5.500000 192 89 91 0
33.000000 25.520000 1.100000 193 90 92 0
33.220000 25.520000 0.440000 192 89 91 0
33.440000 25.520000 1.540000 192 89 91 0
33.660000 25.520000 1.540000 195 90 92 0
33.880000 25.520000 1.760000 196 91 93 0
34.100000 25.520000 1.980000 194 89 91 0
34.320000 25.520000 0.880000 194 89 91 0
34.540000 25.520000 0.880000 194 89 91 0
34.760000 25.520000 2.420000 195 90 92 0
34.980000 25.520000 2.420000 193 88 90 0
35.200000 25.520000 2.420000 193 88 90 0
35.420000 25.520000 2.640000 193 86 89 0
35.640000 25.520000 2.640000 193 86 89 0
35.860000 25.520000 3.960000 192 85 88 0
36.080000 25.520000 4.180000 193 86 89 0
36.300000 25.520000 4.180000 193 86 89 0
36.520000 25.520000 5.280000 193 86 89 0
36.740000 25.520000 6.160000 193 86 89 0
36.960000 25.520000 7.040000 193 86 89 0
37.180000 25.520000 7.040000 191 84 87 0
0.000000 25.740000 18.480000 155 102 93 0
0.220000 25.740000 18.700000 156 103 92 0
0.440000 25.740000 20.020000 158 105 94 0
0.660000 25.740000 18.700000 155 104 95 0
0.880000 25.740000 17.160000 154 103 94 0
1.100000 25.740000 17.160000 155 100 90 0
1.320000 25.740000 17.160000 151 96 86 0
1.540000 25.740000 16.940000 150 97 88 0
1.760000 25.740000 15.620000 153 100 91 0
1.980000 25.740000 14.080000 150 105 97 0
2.200000 25.740000 12.760000 155 110 102 0
2.420000 25.740000 12.760000 140 123 110 0
2.640000 25.740000 12.760000 147 130 117 0
2.860000 25.740000 12.760000 146 135 124 0
3.080000 25.740000 12.760000 148 137 126 0
3.300000 25.740000 11.440000 146 143 131 0
3.520000 25.740000 11.440000 148 145 133 0
3.740000 25.740000 11.440000 145 147 137 0
3.960000 25.740000 10.120000 144 146 136 0
4.180000 25.740000 11.440000 149 144 133 0
4.400000 25.740000 12.980000 148 143 132 0
4.620000 25.740000 17.380000 143 140 130 0
4.840000 25.740000 21.560000 142 139 129 0
5.060000 25.740000 24.420000 144 138 121 0
5.280000 25.740000 25.960000 144 138 121 0
5.500000 25.740000 25.960000 146 134 117 0
5.720000 25.740000 25.960000 145 133 116 0
5.940000 25.740000 24.420000 144 132 115 0
6.160000 25.740000 23.100000 143 131 114 0
6.380000 25.740000 21.560000 144 133 111 0
6.600000 25.740000 20.240000 143 132 110 0
6.820000 25.740000 23.100000 144 131 109 0
7.040000 25.740000 25.960000 145 132 110 0
7.260000 25.740000 27.280000 144 131 110 0
7.480000 25.740000 28.600000 143 130 109 0
7.700000 25.740000 28.600000 146 131 107 0
7.920000 25.740000 30.140000 147 132 108 0
8.140000 25.740000 30.140000 150 132 105 0
8.360000 25.740000 30.140000 153 135 108 0
8.580000 25.740000 30.140000 155 137 108 0
8.800000 25.740000 30.140000 160 142 113 0
9.020000 25.740000 31.460000 166 146 117 0
9.240000 25.740000 31.460000 168 148 119 0
9.460000 25.740000 33.000000 166 150 122 0
9.680000 25.740000 34.320000 165 149 121 0
9.900000 25.740000 34.320000 164 149 121 0
10.120000 25.740000 35.860000 166 151 123 0
10.340000 25.740000 35.860000 168 151 126 0
10.560000 25.740000 37.180000 169 152 127 0
10.780000 25.740000 38.280000 167 157 127 0
11.000000 25.740000 38.940000 171 161 131 0
11.220000 25.740000 40.040000 173 165 139 0
11.440000 25.740000 41.580000 177 169 143 0
11.660000 25.740000 41.580000 177 176 153 0
11.880000 25.740000 41.580000 182 181 158 0
12.100000 25.740000 41.800000 179 186 165 0
12.320000 25.740000 38.940000 183 190 169 0
12.540000 25.740000 27.940000 191 195 176 0
12.760000 25.740000 12.760000 194 198 179 0
12.980000 25.740000 1.760000 195 201 184 0
14.300000 25.740000 1.320000 202 204 186 0
14.520000 25.740000 1.320000 201 203 185 0
14.740000 25.740000 1.320000 200 204 185 0
14.960000 25.740000 2.640000 199 203 184 0
15.180000 25.740000 3.740000 199 202 186 0
15.400000 25.740000 5.940000 200 203 187 0
15.620000 25.740000 7.040000 202 204 186 0
15.840000 25.740000 7.260000 204 206 188 0
16.060000 25.740000 7.480000 203 206 192 0
16.280000 25.740000 7.700000 205 208 194 0
16.500000 25.740000 7.700000 207 210 196 0
16.720000 25.740000 7.700000 207 210 196 0
16.940000 25.740000 7.920000 206 209 193 0
17.160000 25.740000 7.920000 206 209 193 0
17.380000 25.740000 7.920000 205 207 189 0
17.600000 25.740000 9.240000 204 206 188 0
17.820000 25.740000 9.460000 203 203 186 0
18.040000 25.740000 9.460000 203 203 186 0
18.260000 25.740000 9.460000 203 201 183 0
18.480000 25.740000 11.000000 201 199 181 0
18.700000 25.740000 11.000000 204 192 175 0
18.920000 25.740000 12.320000 200 188 171 0
19.140000 25.740000 14.740000 205 176 163 0
19.360000 25.740000 16.940000 200 171 158 0
19.580000 25.740000 18.040000 208 161 148 0
19.800000 25.740000 18.260000 202 155 142 0
20.020000 25.740000 18.260000 201 142 129 0
20.240000 25.740000 19.800000 197 138 125 0
20.460000 25.740000 21.120000 203 125 118 0
20.680000 25.740000 21.340000 198 120 113 0
20.900000 25.740000 22.880000 196 115 107 0
21.120000 25.740000 24.420000 194 113 105 0
21.340000 25.740000 25.960000 198 108 103 0
