ply
format ascii 1.0
element vertex 1158
property float x
property float y
property float z
property uchar red
property uchar green
property uchar blue
property uchar alpha
end_header
26.840000 1.980000 32.120000 193 91 90 0
27.060000 1.980000 10.120000 195 90 90 0
27.280000 1.980000 0.440000 194 89 89 0
27.500000 1.980000 0.440000 193 88 87 0
27.940000 1.980000 9.240000 193 86 87 0
28.160000 1.980000 28.820000 194 87 88 0
28.380000 1.980000 39.820000 194 85 86 0
28.600000 1.980000 39.380000 192 83 84 0
28.820000 1.980000 40.260000 193 82 84 0
29.040000 1.980000 41.580000 192 81 83 0
29.260000 1.980000 33.220000 193 80 83 0
29.480000 1.980000 15.400000 193 80 83 0
29.700000 1.980000 3.300000 192 79 82 0
29.920000 1.980000 1.100000 191 78 81 0
30.580000 1.980000 0.440000 191 78 81 0
30.800000 1.980000 2.860000 191 78 81 0
31.020000 1.980000 2.860000 194 79 82 0
31.240000 1.980000 2.860000 194 79 82 0
31.460000 1.980000 1.760000 192 81 83 0
31.680000 1.980000 1.980000 191 80 82 0
31.900000 1.980000 0.880000 192 79 82 0
32.120000 1.980000 1.100000 192 79 82 0
32.340000 1.980000 1.100000 192 79 82 0
32.560000 1.980000 1.100000 193 80 83 0
32.780000 1.980000 1.100000 193 80 83 0
33.000000 1.980000 1.100000 193 80 83 0
33.220000 1.980000 1.100000 192 79 82 0
33.440000 1.980000 1.320000 193 80 83 0
33.660000 1.980000 1.320000 193 80 83 0
33.880000 1.980000 2.640000 193 80 83 0
34.100000 1.980000 2.640000 193 80 85 0
34.320000 1.980000 3.960000 192 79 84 0
34.540000 1.980000 6.380000 192 79 82 0
34.760000 1.980000 7.260000 192 79 82 0
34.980000 1.980000 8.360000 193 80 83 0
35.200000 1.980000 9.680000 192 79 82 0
35.420000 1.980000 9.680000 192 79 84 0
35.640000 1.980000 9.900000 192 79 84 0
35.860000 1.980000 9.900000 193 77 83 0
36.080000 1.980000 9.900000 193 77 83 0
36.300000 1.980000 9.900000 193 78 81 0
36.520000 1.980000 8.580000 193 78 81 0
36.740000 1.980000 8.580000 191 78 83 0
36.960000 1.980000 8.800000 190 77 82 0
37.180000 1.980000 8.800000 191 78 83 0
0.000000 2.200000 22.880000 148 92 74 0
0.220000 2.200000 24.200000 146 92 77 0
0.440000 2.200000 25.740000 146 92 77 0
0.660000 2.200000 24.420000 144 94 80 0
0.880000 2.200000 22.880000 143 93 79 0
1.100000 2.200000 20.240000 139 90 78 0
1.320000 2.200000 18.920000 139 90 78 0
1.540000 2.200000 21.780000 131 91 76 0
1.760000 2.200000 24.420000 132 92 77 0
1.980000 2.200000 24.640000 127 95 79 0
2.200000 2.200000 22.000000 128 96 80 0
2.420000 2.200000 19.140000 126 100 82 0
2.640000 2.200000 17.820000 128 102 84 0
2.860000 2.200000 20.460000 124 106 87 0
3.080000 2.200000 23.320000 124 106 87 0
3.300000 2.200000 24.860000 125 108 87 0
3.520000 2.200000 26.180000 126 109 88 0
3.740000 2.200000 26.180000 128 112 91 0
3.960000 2.200000 27.060000 128 112 91 0
4.180000 2.200000 29.260000 127 111 91 0
4.400000 2.200000 29.040000 127 111 91 0
4.620000 2.200000 29.260000 128 112 92 0
4.840000 2.200000 28.380000 130 114 94 0
5.060000 2.200000 27.280000 131 114 93 0
5.280000 2.200000 28.600000 131 114 93 0
5.500000 2.200000 28.600000 129 113 92 0
5.720000 2.200000 29.920000 129 113 92 0
5.940000 2.200000 29.920000 129 113 93 0
6.160000 2.200000 29.920000 129 113 93 0
6.380000 2.200000 29.920000 129 113 93 0
6.600000 2.200000 29.920000 130 114 94 0
6.820000 2.200000 29.920000 130 113 92 0
7.040000 2.200000 29.920000 131 114 93 0
7.260000 2.200000 31.460000 132 116 95 0
7.480000 2.200000 31.460000 133 117 96 0
7.700000 2.200000 32.780000 134 118 97 0
7.920000 2.200000 34.100000 137 121 100 0
8.140000 2.200000 34.320000 140 124 103 0
8.360000 2.200000 35.640000 143 127 106 0
8.580000 2.200000 35.640000 144 131 107 0
8.800000 2.200000 35.640000 149 136 112 0
9.020000 2.200000 35.640000 153 142 117 0
9.240000 2.200000 37.180000 158 147 122 0
9.460000 2.200000 37.180000 160 153 129 0
9.680000 2.200000 37.180000 164 157 133 0
9.900000 2.200000 37.180000 165 164 139 0
10.120000 2.200000 38.280000 170 169 144 0
10.340000 2.200000 40.480000 174 177 153 0
10.560000 2.200000 41.580000 179 182 158 0
10.780000 2.200000 41.580000 181 188 167 0
11.000000 2.200000 41.580000 184 191 170 0
11.220000 2.200000 41.800000 189 193 173 0
11.440000 2.200000 41.800000 191 195 175 0
11.660000 2.200000 39.160000 191 195 175 0
11.880000 2.200000 26.620000 193 197 177 0
12.100000 2.200000 8.800000 191 198 177 0
12.320000 2.200000 0.660000 192 199 178 0
12.540000 2.200000 1.980000 195 199 179 0
12.760000 2.200000 2.200000 195 199 179 0
12.980000 2.200000 2.200000 196 199 177 0
13.200000 2.200000 2.420000 196 199 177 0
13.420000 2.200000 3.740000 196 199 177 0
13.640000 2.200000 3.960000 196 199 177 0
13.860000 2.200000 3.960000 196 199 177 0
14.080000 2.200000 3.960000 197 200 178 0
14.300000 2.200000 3.960000 198 201 179 0
14.520000 2.200000 3.960000 199 202 180 0
14.740000 2.200000 5.060000 200 202 183 0
14.960000 2.200000 5.940000 200 202 183 0
15.180000 2.200000 5.720000 200 203 181 0
15.400000 2.200000 5.720000 200 203 181 0
15.620000 2.200000 5.720000 201 202 181 0
15.840000 2.200000 7.260000 201 202 181 0
16.060000 2.200000 7.260000 199 200 179 0
16.280000 2.200000 7.260000 200 201 180 0
16.500000 2.200000 7.260000 201 200 177 0
16.720000 2.200000 7.480000 201 200 177 0
16.940000 2.200000 7.480000 198 199 176 0
17.160000 2.200000 7.480000 199 200 177 0
17.380000 2.200000 7.480000 201 200 177 0
17.600000 2.200000 7.700000 201 200 177 0
17.820000 2.200000 7.700000 202 200 180 0
18.040000 2.200000 7.700000 202 200 180 0
18.260000 2.200000 7.700000 203 201 181 0
18.480000 2.200000 7.700000 202 200 180 0
18.700000 2.200000 7.700000 201 202 181 0
18.920000 2.200000 7.920000 202 203 182 0
19.140000 2.200000 9.240000 204 202 182 0
19.360000 2.200000 9.240000 204 202 182 0
19.580000 2.200000 9.460000 204 202 182 0
19.800000 2.200000 9.460000 204 202 182 0
20.020000 2.200000 9.460000 203 204 185 0
20.240000 2.200000 10.780000 204 205 186 0
20.460000 2.200000 11.000000 204 206 190 0
20.680000 2.200000 11.000000 211 213 197 0
20.900000 2.200000 12.320000 215 221 206 0
21.120000 2.200000 13.420000 213 219 204 0
21.340000 2.200000 16.940000 217 220 208 0
21.560000 2.200000 18.040000 217 220 208 0
21.780000 2.200000 18.040000 219 220 207 0
22.000000 2.200000 18.040000 214 215 202 0
22.220000 2.200000 18.040000 210 207 185 0
22.440000 2.200000 19.580000 202 199 177 0
22.660000 2.200000 20.900000 213 179 165 0
22.880000 2.200000 22.440000 201 167 153 0
23.100000 2.200000 23.980000 211 144 133 0
23.320000 2.200000 23.980000 197 130 119 0
23.540000 2.200000 26.840000 204 102 101 0
23.760000 2.200000 29.700000 195 93 92 0
23.980000 2.200000 32.560000 193 91 89 0
24.200000 2.200000 34.100000 193 91 89 0
24.420000 2.200000 32.780000 193 91 90 0
24.640000 2.200000 33.000000 193 91 90 0
24.860000 2.200000 33.000000 192 92 89 0
25.080000 2.200000 33.000000 193 93 90 0
25.300000 2.200000 33.000000 195 90 90 0
25.520000 2.200000 35.640000 195 90 90 0
25.740000 2.200000 37.620000 193 91 89 0
25.960000 2.200000 38.720000 193 91 89 0
26.180000 2.200000 40.260000 195 90 90 0
26.400000 2.200000 41.580000 195 90 90 0
26.620000 2.200000 41.800000 193 91 90 0
26.840000 2.200000 32.120000 192 90 89 0
27.060000 2.200000 9.900000 195 90 90 0
27.280000 2.200000 0.220000 195 90 90 0
27.500000 2.200000 0.440000 194 89 88 0
27.720000 2.200000 2.200000 194 89 88 0
27.940000 2.200000 14.740000 194 87 88 0
28.160000 2.200000 31.460000 194 87 88 0
28.380000 2.200000 38.500000 195 86 87 0
28.600000 2.200000 39.600000 193 84 85 0
28.820000 2.200000 40.700000 193 82 84 0
29.040000 2.200000 40.480000 192 81 83 0
29.260000 2.200000 31.020000 192 79 82 0
29.480000 2.200000 10.560000 192 79 82 0
30.360000 2.200000 0.880000 192 77 80 0
30.580000 2.200000 1.760000 190 77 80 0
30.800000 2.200000 2.860000 191 78 81 0
31.020000 2.200000 2.860000 193 78 81 0
31.240000 2.200000 1.760000 192 77 80 0
31.460000 2.200000 0.660000 191 80 82 0
31.680000 2.200000 0.880000 192 81 83 0
31.900000 2.200000 1.100000 192 79 82 0
32.120000 2.200000 1.100000 191 78 81 0
32.340000 2.200000 1.100000 192 79 82 0
32.560000 2.200000 1.100000 192 79 82 0
32.780000 2.200000 1.100000 193 80 83 0
33.000000 2.200000 1.100000 194 81 84 0
33.220000 2.200000 1.100000 193 80 83 0
33.440000 2.200000 1.320000 193 80 83 0
33.660000 2.200000 2.640000 193 80 83 0
33.880000 2.200000 2.640000 193 80 83 0
34.100000 2.200000 3.960000 192 79 84 0
34.320000 2.200000 5.060000 192 79 84 0
34.540000 2.200000 7.260000 192 79 82 0
34.760000 2.200000 8.360000 191 78 81 0
34.980000 2.200000 8.360000 192 79 82 0
35.200000 2.200000 9.680000 192 79 82 0
35.420000 2.200000 9.900000 191 78 83 0
35.640000 2.200000 9.900000 192 79 84 0
35.860000 2.200000 9.900000 193 77 83 0
36.080000 2.200000 9.900000 192 76 82 0
36.300000 2.200000 9.900000 192 77 80 0
36.520000 2.200000 8.580000 192 77 80 0
36.740000 2.200000 8.580000 190 77 82 0
36.960000 2.200000 8.800000 192 79 84 0
37.180000 2.200000 8.800000 191 78 83 0
0.000000 2.420000 21.340000 146 90 73 0
0.220000 2.420000 24.200000 147 91 73 0
0.440000 2.420000 25.740000 147 91 73 0
0.660000 2.420000 24.420000 145 92 73 0
0.880000 2.420000 22.880000 144 91 72 0
1.100000 2.420000 21.560000 144 88 71 0
1.320000 2.420000 20.240000 143 87 70 0
1.540000 2.420000 21.780000 137 87 73 0
1.760000 2.420000 24.420000 136 86 72 0
1.980000 2.420000 24.640000 132 89 77 0
2.200000 2.420000 21.780000 133 90 78 0
2.420000 2.420000 19.140000 128 95 83 0
2.640000 2.420000 17.820000 129 96 84 0
2.860000 2.420000 20.460000 127 100 86 0
3.080000 2.420000 23.320000 128 101 87 0
3.300000 2.420000 24.860000 125 107 88 0
3.520000 2.420000 26.180000 125 107 88 0
3.740000 2.420000 25.960000 127 110 89 0
3.960000 2.420000 28.160000 128 111 90 0
4.180000 2.420000 29.040000 127 111 91 0
4.400000 2.420000 29.040000 128 112 92 0
4.620000 2.420000 29.260000 131 112 93 0
4.840000 2.420000 29.260000 132 113 94 0
5.060000 2.420000 29.480000 131 114 93 0
5.280000 2.420000 28.600000 131 114 93 0
5.500000 2.420000 28.600000 131 114 93 0
5.720000 2.420000 29.920000 130 113 92 0
5.940000 2.420000 29.920000 129 113 92 0
6.160000 2.420000 29.920000 129 113 92 0
6.380000 2.420000 29.920000 130 112 93 0
6.600000 2.420000 29.920000 130 112 93 0
6.820000 2.420000 29.920000 131 114 93 0
7.040000 2.420000 29.920000 131 114 93 0
7.260000 2.420000 31.460000 133 116 93 0
7.480000 2.420000 31.460000 135 118 95 0
7.700000 2.420000 32.780000 134 118 97 0
7.920000 2.420000 34.100000 138 122 101 0
8.140000 2.420000 34.320000 141 126 102 0
8.360000 2.420000 35.640000 144 129 105 0
8.580000 2.420000 35.640000 142 134 108 0
8.800000 2.420000 35.640000 147 139 113 0
9.020000 2.420000 37.180000 151 143 117 0
9.240000 2.420000 37.180000 157 149 123 0
9.460000 2.420000 37.180000 161 154 130 0
9.680000 2.420000 37.180000 166 159 135 0
9.900000 2.420000 36.960000 164 166 140 0
10.120000 2.420000 39.160000 170 172 146 0
10.340000 2.420000 40.260000 173 180 157 0
10.560000 2.420000 41.580000 177 184 161 0
10.780000 2.420000 41.580000 178 189 168 0
11.000000 2.420000 41.580000 181 192 171 0
11.220000 2.420000 41.800000 186 194 174 0
11.440000 2.420000 41.800000 188 196 176 0
11.660000 2.420000 33.660000 193 197 177 0
11.880000 2.420000 15.620000 192 196 176 0
12.100000 2.420000 3.300000 194 197 175 0
12.320000 2.420000 1.980000 196 199 177 0
12.540000 2.420000 1.980000 197 198 177 0
12.760000 2.420000 2.200000 197 198 177 0
12.980000 2.420000 2.200000 196 199 177 0
13.200000 2.420000 2.420000 196 199 177 0
13.420000 2.420000 3.740000 196 199 177 0
13.640000 2.420000 3.960000 197 200 178 0
13.860000 2.420000 3.960000 197 200 178 0
14.080000 2.420000 3.960000 197 200 178 0
14.300000 2.420000 3.960000 199 200 179 0
14.520000 2.420000 3.740000 199 200 179 0
14.740000 2.420000 4.620000 201 202 181 0
14.960000 2.420000 5.720000 201 202 181 0
15.180000 2.420000 5.720000 200 203 181 0
15.400000 2.420000 5.720000 200 203 181 0
15.620000 2.420000 5.720000 200 201 180 0
15.840000 2.420000 7.260000 200 201 180 0
16.060000 2.420000 7.260000 198 199 178 0
16.280000 2.420000 7.260000 198 199 178 0
16.500000 2.420000 7.260000 199 200 179 0
16.720000 2.420000 7.480000 199 200 179 0
16.940000 2.420000 7.480000 198 199 178 0
17.160000 2.420000 7.480000 198 199 178 0
17.380000 2.420000 7.480000 199 200 179 0
17.600000 2.420000 7.700000 199 200 179 0
17.820000 2.420000 7.700000 200 201 180 0
18.040000 2.420000 7.700000 200 201 180 0
18.260000 2.420000 7.700000 201 202 181 0
18.480000 2.420000 7.700000 201 202 181 0
18.700000 2.420000 7.700000 201 202 181 0
18.920000 2.420000 7.920000 201 202 181 0
19.140000 2.420000 9.240000 202 203 184 0
19.360000 2.420000 9.240000 202 203 184 0
19.580000 2.420000 9.460000 203 204 185 0
19.800000 2.420000 9.460000 203 204 185 0
20.020000 2.420000 9.460000 202 204 185 0
20.240000 2.420000 10.780000 203 205 186 0
20.460000 2.420000 11.000000 200 207 194 0
20.680000 2.420000 11.000000 211 218 205 0
20.900000 2.420000 12.320000 212 222 208 0
21.120000 2.420000 13.420000 211 221 207 0
21.340000 2.420000 16.940000 210 221 210 0
21.560000 2.420000 18.040000 210 221 210 0
21.780000 2.420000 18.040000 217 224 212 0
22.000000 2.420000 18.040000 217 224 212 0
22.220000 2.420000 18.040000 212 210 192 0
22.440000 2.420000 19.580000 202 200 182 0
22.660000 2.420000 20.900000 210 182 166 0
22.880000 2.420000 22.440000 197 169 153 0
23.100000 2.420000 22.440000 209 144 137 0
23.320000 2.420000 23.980000 195 130 123 0
23.540000 2.420000 26.840000 204 105 103 0
23.760000 2.420000 29.700000 193 94 92 0
23.980000 2.420000 33.880000 193 93 91 0
24.200000 2.420000 34.100000 191 91 89 0
24.420000 2.420000 34.100000 196 91 90 0
24.640000 2.420000 33.000000 195 90 89 0
24.860000 2.420000 33.000000 193 91 89 0
25.080000 2.420000 33.000000 193 91 89 0
25.300000 2.420000 34.540000 192 92 90 0
25.520000 2.420000 35.640000 193 93 91 0
25.740000 2.420000 37.620000 192 90 89 0
25.960000 2.420000 38.720000 192 90 89 0
26.180000 2.420000 40.260000 194 89 89 0
26.400000 2.420000 41.580000 194 89 89 0
26.620000 2.420000 41.800000 194 89 88 0
26.840000 2.420000 32.120000 195 90 89 0
27.060000 2.420000 9.900000 192 90 89 0
27.280000 2.420000 0.220000 193 91 90 0
27.500000 2.420000 0.440000 195 90 90 0
27.720000 2.420000 6.380000 195 90 90 0
27.940000 2.420000 24.640000 193 86 87 0
28.160000 2.420000 37.180000 193 86 87 0
28.380000 2.420000 38.500000 196 85 87 0
28.600000 2.420000 38.500000 194 83 85 0
28.820000 2.420000 38.500000 193 80 83 0
29.040000 2.420000 39.820000 192 79 82 0
29.260000 2.420000 30.140000 191 78 81 0
29.480000 2.420000 9.680000 192 79 82 0
30.360000 2.420000 1.980000 191 76 79 0
30.580000 2.420000 2.860000 189 76 79 0
30.800000 2.420000 2.860000 191 78 81 0
31.020000 2.420000 2.860000 192 77 80 0
31.240000 2.420000 1.760000 193 78 81 0
31.460000 2.420000 0.880000 193 77 83 0
31.680000 2.420000 1.100000 193 77 83 0
31.900000 2.420000 1.100000 194 79 82 0
32.120000 2.420000 1.100000 193 78 81 0
32.340000 2.420000 1.100000 194 79 82 0
32.560000 2.420000 1.100000 195 80 83 0
32.780000 2.420000 1.100000 195 80 83 0
33.000000 2.420000 2.420000 195 80 83 0
33.220000 2.420000 2.640000 195 80 83 0
33.440000 2.420000 2.640000 195 80 83 0
33.660000 2.420000 2.640000 195 80 83 0
33.880000 2.420000 2.640000 194 79 82 0
34.100000 2.420000 5.280000 194 79 82 0
34.320000 2.420000 5.940000 193 78 81 0
34.540000 2.420000 8.360000 194 79 82 0
34.760000 2.420000 8.360000 194 79 82 0
34.980000 2.420000 8.360000 193 77 83 0
35.200000 2.420000 9.680000 193 77 83 0
35.420000 2.420000 9.900000 193 78 81 0
35.640000 2.420000 9.900000 193 78 81 0
35.860000 2.420000 9.900000 192 77 80 0
36.080000 2.420000 9.900000 192 77 80 0
36.300000 2.420000 9.900000 192 77 80 0
36.520000 2.420000 9.900000 192 77 80 0
36.740000 2.420000 8.580000 193 77 83 0
36.960000 2.420000 8.800000 193 77 83 0
37.180000 2.420000 8.800000 193 78 81 0
0.000000 2.640000 21.340000 145 89 72 0
0.220000 2.640000 24.200000 146 90 72 0
0.440000 2.640000 25.740000 145 89 71 0
0.660000 2.640000 24.420000 143 90 71 0
0.880000 2.640000 24.200000 141 88 69 0
1.100000 2.640000 21.560000 141 85 68 0
1.320000 2.640000 21.560000 140 84 67 0
1.540000 2.640000 23.100000 135 85 71 0
1.760000 2.640000 25.960000 135 85 71 0
1.980000 2.640000 25.960000 129 86 74 0
2.200000 2.640000 23.320000 130 87 75 0
2.420000 2.640000 19.140000 125 92 80 0
2.640000 2.640000 17.820000 126 93 81 0
2.860000 2.640000 19.140000 125 98 84 0
3.080000 2.640000 22.000000 127 100 86 0
3.300000 2.640000 24.860000 122 104 85 0
3.520000 2.640000 26.180000 123 105 86 0
3.740000 2.640000 25.960000 125 108 87 0
3.960000 2.640000 27.940000 126 109 88 0
4.180000 2.640000 29.040000 128 112 92 0
4.400000 2.640000 29.040000 127 111 91 0
4.620000 2.640000 29.040000 131 112 93 0
4.840000 2.640000 29.040000 131 112 93 0
5.060000 2.640000 29.480000 130 113 92 0
5.280000 2.640000 28.380000 130 113 92 0
5.500000 2.640000 28.600000 130 113 92 0
5.720000 2.640000 29.920000 130 113 92 0
5.940000 2.640000 29.920000 129 113 92 0
6.160000 2.640000 29.920000 129 113 92 0
6.380000 2.640000 29.920000 131 113 94 0
6.600000 2.640000 29.920000 131 113 94 0
6.820000 2.640000 29.920000 131 114 93 0
7.040000 2.640000 29.920000 133 116 95 0
7.260000 2.640000 31.460000 134 117 94 0
7.480000 2.640000 31.460000 135 118 95 0
7.700000 2.640000 32.780000 136 120 99 0
7.920000 2.640000 34.320000 138 122 101 0
8.140000 2.640000 34.320000 143 128 104 0
8.360000 2.640000 35.640000 145 130 106 0
8.580000 2.640000 35.640000 143 135 109 0
8.800000 2.640000 35.640000 148 140 114 0
9.020000 2.640000 37.180000 151 143 117 0
9.240000 2.640000 37.180000 156 148 122 0
9.460000 2.640000 37.180000 162 155 131 0
9.680000 2.640000 37.180000 166 159 135 0
9.900000 2.640000 36.960000 165 167 141 0
10.120000 2.640000 40.480000 170 172 146 0
10.340000 2.640000 41.580000 171 178 155 0
10.560000 2.640000 41.580000 177 184 161 0
10.780000 2.640000 40.260000 178 189 168 0
11.000000 2.640000 41.580000 180 191 170 0
11.220000 2.640000 41.800000 187 195 175 0
11.440000 2.640000 41.800000 188 196 176 0
11.660000 2.640000 30.800000 192 196 176 0
11.880000 2.640000 10.120000 193 197 177 0
12.100000 2.640000 0.660000 195 198 176 0
12.320000 2.640000 1.980000 196 199 177 0
12.540000 2.640000 2.200000 197 198 177 0
12.760000 2.640000 2.200000 197 198 177 0
12.980000 2.640000 2.420000 196 199 177 0
13.200000 2.640000 2.420000 196 199 177 0
13.420000 2.640000 3.740000 196 199 177 0
13.640000 2.640000 3.960000 196 199 177 0
13.860000 2.640000 3.960000 196 199 177 0
14.080000 2.640000 3.960000 196 199 177 0
14.300000 2.640000 4.180000 198 199 178 0
14.520000 2.640000 3.740000 199 200 179 0
14.740000 2.640000 5.940000 199 200 179 0
14.960000 2.640000 7.040000 200 201 180 0
15.180000 2.640000 5.720000 198 201 179 0
15.400000 2.640000 5.720000 199 202 180 0
15.620000 2.640000 5.720000 199 200 179 0
15.840000 2.640000 5.720000 198 199 178 0
16.060000 2.640000 5.940000 198 199 178 0
16.280000 2.640000 5.940000 198 199 178 0
16.500000 2.640000 7.480000 197 198 177 0
16.720000 2.640000 7.480000 198 199 178 0
16.940000 2.640000 7.480000 197 198 177 0
17.160000 2.640000 7.480000 197 198 177 0
17.380000 2.640000 7.480000 198 199 178 0
17.600000 2.640000 7.700000 199 200 179 0
17.820000 2.640000 7.700000 199 200 179 0
18.040000 2.640000 7.700000 199 200 179 0
18.260000 2.640000 7.700000 200 201 180 0
18.480000 2.640000 7.700000 201 202 181 0
18.700000 2.640000 7.700000 201 202 181 0
18.920000 2.640000 7.920000 201 202 181 0
19.140000 2.640000 9.240000 201 202 183 0
19.360000 2.640000 9.240000 201 202 183 0
19.580000 2.640000 9.460000 202 203 184 0
19.800000 2.640000 9.460000 203 204 185 0
20.020000 2.640000 9.460000 203 205 186 0
20.240000 2.640000 10.780000 203 205 186 0
20.460000 2.640000 11.000000 201 208 195 0
20.680000 2.640000 11.000000 211 218 205 0
20.900000 2.640000 12.320000 211 221 207 0
21.120000 2.640000 13.420000 212 222 208 0
21.340000 2.640000 16.940000 210 221 210 0
21.560000 2.640000 18.040000 209 220 209 0
21.780000 2.640000 18.040000 216 223 211 0
22.000000 2.640000 18.040000 221 228 216 0
22.220000 2.640000 19.580000 214 212 194 0
22.440000 2.640000 20.900000 202 200 182 0
22.660000 2.640000 20.900000 209 181 165 0
22.880000 2.640000 22.440000 197 169 153 0
23.100000 2.640000 22.440000 209 144 137 0
23.320000 2.640000 23.980000 195 130 123 0
23.540000 2.640000 26.840000 203 104 102 0
23.760000 2.640000 29.700000 194 95 93 0
23.980000 2.640000 33.880000 193 93 91 0
24.200000 2.640000 34.100000 192 92 90 0
24.420000 2.640000 34.100000 194 89 88 0
24.640000 2.640000 33.000000 194 89 88 0
24.860000 2.640000 33.000000 192 90 88 0
25.080000 2.640000 33.000000 193 91 89 0
25.300000 2.640000 34.540000 191 91 89 0
25.520000 2.640000 35.640000 192 92 90 0
25.740000 2.640000 37.620000 193 91 90 0
25.960000 2.640000 40.260000 192 90 89 0
26.180000 2.640000 40.260000 194 89 89 0
26.400000 2.640000 41.580000 194 89 89 0
26.620000 2.640000 38.940000 195 90 89 0
26.840000 2.640000 26.620000 195 90 89 0
27.060000 2.640000 7.260000 191 89 88 0
27.280000 2.640000 0.220000 192 90 89 0
27.500000 2.640000 1.980000 194 89 89 0
27.720000 2.640000 14.740000 193 88 88 0
27.940000 2.640000 31.460000 193 86 87 0
28.160000 2.640000 38.500000 193 86 87 0
28.380000 2.640000 38.500000 194 83 85 0
28.600000 2.640000 38.720000 193 82 84 0
28.820000 2.640000 38.720000 193 80 83 0
29.040000 2.640000 35.860000 192 79 82 0
29.260000 2.640000 24.860000 190 77 80 0
29.480000 2.640000 6.820000 191 78 81 0
30.140000 2.640000 0.880000 192 77 80 0
30.360000 2.640000 1.760000 192 77 80 0
30.580000 2.640000 2.860000 190 77 80 0
30.800000 2.640000 3.080000 190 77 80 0
31.020000 2.640000 1.760000 193 78 81 0
31.240000 2.640000 1.980000 192 77 80 0
31.460000 2.640000 0.880000 192 76 82 0
31.680000 2.640000 0.880000 194 78 84 0
31.900000 2.640000 1.100000 194 79 82 0
32.120000 2.640000 1.100000 194 79 82 0
32.340000 2.640000 1.100000 194 79 82 0
32.560000 2.640000 1.100000 195 80 83 0
32.780000 2.640000 2.420000 195 80 83 0
33.000000 2.640000 2.420000 195 80 83 0
33.220000 2.640000 2.640000 194 79 82 0
33.440000 2.640000 2.640000 195 80 83 0
33.660000 2.640000 2.640000 194 79 82 0
33.880000 2.640000 4.180000 194 79 82 0
34.100000 2.640000 5.280000 195 80 83 0
34.320000 2.640000 7.260000 193 78 81 0
34.540000 2.640000 8.360000 194 79 82 0
34.760000 2.640000 8.360000 195 80 83 0
34.980000 2.640000 8.360000 193 77 83 0
35.200000 2.640000 8.360000 192 76 82 0
35.420000 2.640000 9.900000 192 77 80 0
35.640000 2.640000 9.900000 192 77 80 0
35.860000 2.640000 9.900000 193 78 81 0
36.080000 2.640000 9.900000 192 77 80 0
36.300000 2.640000 9.900000 191 76 79 0
36.520000 2.640000 9.900000 192 77 80 0
36.740000 2.640000 8.580000 192 76 82 0
36.960000 2.640000 8.800000 192 76 82 0
37.180000 2.640000 8.800000 193 78 81 0
0.000000 2.860000 21.340000 145 85 70 0
0.220000 2.860000 24.200000 145 87 71 0
0.440000 2.860000 25.740000 145 87 71 0
0.660000 2.860000 24.200000 143 85 68 0
0.880000 2.860000 24.200000 142 84 67 0
1.100000 2.860000 22.880000 141 81 66 0
1.320000 2.860000 21.560000 139 79 64 0
1.540000 2.860000 23.100000 139 79 63 0
1.760000 2.860000 25.960000 138 78 62 0
1.980000 2.860000 27.280000 136 82 69 0
2.200000 2.860000 23.320000 137 83 70 0
2.420000 2.860000 19.140000 132 88 70 0
2.640000 2.860000 16.280000 133 89 71 0
2.860000 2.860000 19.140000 126 92 77 0
3.080000 2.860000 22.000000 129 95 80 0
3.300000 2.860000 24.860000 126 100 83 0
3.520000 2.860000 26.180000 128 102 85 0
3.740000 2.860000 25.960000 123 104 82 0
3.960000 2.860000 27.940000 127 108 86 0
4.180000 2.860000 29.040000 126 108 89 0
4.400000 2.860000 29.040000 128 110 91 0
4.620000 2.860000 29.040000 129 110 90 0
4.840000 2.860000 29.480000 130 111 91 0
5.060000 2.860000 28.600000 130 113 92 0
5.280000 2.860000 28.600000 130 113 92 0
5.500000 2.860000 29.920000 131 112 90 0
5.720000 2.860000 29.920000 132 113 91 0
5.940000 2.860000 29.920000 131 114 93 0
6.160000 2.860000 29.920000 131 114 93 0
6.380000 2.860000 29.920000 132 113 93 0
6.600000 2.860000 29.920000 132 113 93 0
6.820000 2.860000 29.920000 131 115 94 0
7.040000 2.860000 29.920000 132 116 95 0
7.260000 2.860000 31.460000 135 117 92 0
7.480000 2.860000 31.460000 138 120 95 0
7.700000 2.860000 32.780000 137 122 96 0
7.920000 2.860000 32.780000 140 125 99 0
8.140000 2.860000 34.320000 139 129 101 0
8.360000 2.860000 35.640000 142 132 104 0
8.580000 2.860000 35.640000 148 135 111 0
8.800000 2.860000 35.860000 151 138 114 0
9.020000 2.860000 37.180000 153 142 117 0
9.240000 2.860000 37.180000 158 147 122 0
9.460000 2.860000 37.180000 160 155 130 0
9.680000 2.860000 37.180000 165 160 135 0
9.900000 2.860000 38.280000 165 168 146 0
10.120000 2.860000 40.480000 170 173 151 0
10.340000 2.860000 41.580000 173 182 158 0
10.560000 2.860000 40.260000 177 186 162 0
10.780000 2.860000 40.260000 176 189 167 0
11.000000 2.860000 41.800000 180 193 171 0
11.220000 2.860000 41.800000 187 196 174 0
11.440000 2.860000 39.160000 188 197 175 0
11.660000 2.860000 26.620000 193 198 175 0
11.880000 2.860000 8.800000 194 199 176 0
12.100000 2.860000 1.980000 195 198 176 0
12.320000 2.860000 1.980000 196 199 177 0
12.540000 2.860000 2.200000 197 200 178 0
12.760000 2.860000 2.200000 196 199 177 0
12.980000 2.860000 2.420000 197 200 176 0
13.200000 2.860000 2.420000 197 200 176 0
13.420000 2.860000 2.420000 196 199 177 0
13.640000 2.860000 3.960000 196 199 177 0
13.860000 2.860000 3.960000 196 199 175 0
14.080000 2.860000 3.960000 197 200 176 0
14.300000 2.860000 4.180000 198 199 178 0
14.520000 2.860000 3.740000 198 199 178 0
14.740000 2.860000 5.940000 198 199 176 0
14.960000 2.860000 7.040000 199 200 177 0
15.180000 2.860000 5.720000 198 199 176 0
15.400000 2.860000 5.720000 198 199 176 0
15.620000 2.860000 5.720000 197 198 175 0
15.840000 2.860000 5.940000 197 198 175 0
16.060000 2.860000 5.940000 196 197 174 0
16.280000 2.860000 5.940000 196 197 174 0
16.500000 2.860000 5.940000 198 197 174 0
16.720000 2.860000 5.940000 198 197 174 0
16.940000 2.860000 6.160000 197 198 175 0
17.160000 2.860000 6.160000 197 198 175 0
17.380000 2.860000 6.160000 197 198 175 0
17.600000 2.860000 6.160000 199 200 177 0
17.820000 2.860000 7.700000 199 200 179 0
18.040000 2.860000 7.700000 199 200 179 0
18.260000 2.860000 7.700000 199 200 179 0
18.480000 2.860000 7.700000 200 201 180 0
18.700000 2.860000 7.700000 203 201 181 0
18.920000 2.860000 7.920000 202 200 180 0
19.140000 2.860000 9.240000 201 202 181 0
19.360000 2.860000 9.240000 202 203 182 0
19.580000 2.860000 9.460000 202 203 182 0
19.800000 2.860000 9.460000 202 203 182 0
20.020000 2.860000 9.460000 202 204 185 0
20.240000 2.860000 10.780000 203 205 186 0
20.460000 2.860000 11.000000 204 206 196 0
20.680000 2.860000 11.000000 212 214 204 0
20.900000 2.860000 12.320000 213 225 208 0
21.120000 2.860000 14.740000 212 224 207 0
21.340000 2.860000 16.940000 211 222 209 0
21.560000 2.860000 18.040000 211 222 209 0
21.780000 2.860000 18.040000 217 224 212 0
22.000000 2.860000 18.040000 220 227 215 0
22.220000 2.860000 19.580000 214 212 192 0
22.440000 2.860000 20.900000 202 200 180 0
22.660000 2.860000 22.440000 211 179 163 0
22.880000 2.860000 22.440000 201 169 153 0
23.100000 2.860000 23.980000 210 143 132 0
23.320000 2.860000 23.980000 196 129 118 0
23.540000 2.860000 25.520000 204 105 103 0
23.760000 2.860000 29.700000 193 94 92 0
23.980000 2.860000 33.880000 193 91 90 0
24.200000 2.860000 35.420000 194 92 91 0
24.420000 2.860000 34.100000 195 90 90 0
24.640000 2.860000 33.000000 194 89 89 0
24.860000 2.860000 33.000000 193 91 90 0
25.080000 2.860000 34.540000 194 92 91 0
25.300000 2.860000 34.540000 193 91 90 0
25.520000 2.860000 35.640000 193 91 90 0
25.740000 2.860000 37.620000 196 89 90 0
25.960000 2.860000 40.260000 194 87 88 0
26.180000 2.860000 40.260000 195 88 89 0
26.400000 2.860000 41.580000 194 87 88 0
26.620000 2.860000 34.760000 193 88 88 0
26.840000 2.860000 15.400000 194 89 89 0
27.060000 2.860000 1.760000 195 88 89 0
27.500000 2.860000 6.380000 195 86 87 0
27.720000 2.860000 24.640000 195 86 87 0
27.940000 2.860000 36.960000 195 86 87 0
28.160000 2.860000 38.500000 195 86 87 0
28.380000 2.860000 38.500000 194 85 86 0
28.600000 2.860000 38.500000 192 83 84 0
28.820000 2.860000 38.720000 192 79 82 0
29.040000 2.860000 31.680000 192 79 82 0
29.260000 2.860000 13.860000 193 78 81 0
29.480000 2.860000 2.640000 192 77 80 0
29.700000 2.860000 0.880000 191 78 81 0
29.920000 2.860000 1.980000 189 76 79 0
30.140000 2.860000 1.760000 190 77 80 0
30.360000 2.860000 2.860000 190 77 80 0
30.580000 2.860000 2.860000 190 77 80 0
30.800000 2.860000 3.080000 190 77 80 0
31.020000 2.860000 1.760000 193 78 81 0
31.240000 2.860000 1.980000 192 77 80 0
31.460000 2.860000 0.880000 192 77 80 0
31.680000 2.860000 0.880000 194 79 82 0
31.900000 2.860000 0.880000 194 79 82 0
32.120000 2.860000 1.100000 194 79 82 0
32.340000 2.860000 1.100000 195 80 83 0
32.560000 2.860000 1.100000 195 80 83 0
32.780000 2.860000 2.420000 195 80 83 0
33.000000 2.860000 2.640000 195 80 83 0
33.220000 2.860000 2.640000 195 80 83 0
33.440000 2.860000 3.960000 195 80 83 0
33.660000 2.860000 4.180000 194 79 82 0
33.880000 2.860000 3.960000 193 78 81 0
34.100000 2.860000 5.060000 193 78 81 0
34.320000 2.860000 7.260000 193 78 81 0
34.540000 2.860000 8.360000 194 77 81 0
34.760000 2.860000 8.360000 194 77 81 0
34.980000 2.860000 8.360000 192 77 80 0
35.200000 2.860000 8.360000 192 77 80 0
35.420000 2.860000 9.900000 192 77 80 0
35.640000 2.860000 9.900000 192 77 80 0
35.860000 2.860000 9.900000 191 76 79 0
36.080000 2.860000 9.900000 192 77 80 0
36.300000 2.860000 9.900000 192 75 79 0
36.520000 2.860000 9.900000 193 76 80 0
36.740000 2.860000 8.580000 193 78 81 0
36.960000 2.860000 8.800000 192 77 80 0
37.180000 2.860000 8.800000 192 77 80 0
0.000000 3.080000 21.340000 139 79 64 0
0.220000 3.080000 24.200000 142 84 68 0
0.440000 3.080000 25.740000 142 84 68 0
0.660000 3.080000 24.200000 141 83 66 0
0.880000 3.080000 24.200000 139 81 64 0
1.100000 3.080000 24.200000 139 79 64 0
1.320000 3.080000 23.100000 138 78 63 0
1.540000 3.080000 24.420000 137 77 61 0
1.760000 3.080000 25.960000 137 77 61 0
1.980000 3.080000 27.280000 134 80 67 0
2.200000 3.080000 24.640000 134 80 67 0
2.420000 3.080000 19.140000 129 85 67 0
2.640000 3.080000 16.280000 130 86 68 0
2.860000 3.080000 19.140000 124 90 75 0
3.080000 3.080000 22.000000 126 92 77 0
3.300000 3.080000 24.640000 123 97 80 0
3.520000 3.080000 26.180000 125 99 82 0
3.740000 3.080000 27.280000 121 102 80 0
3.960000 3.080000 27.940000 124 105 83 0
4.180000 3.080000 29.040000 124 106 87 0
4.400000 3.080000 29.040000 126 108 89 0
4.620000 3.080000 29.260000 128 109 89 0
4.840000 3.080000 28.600000 129 110 90 0
5.060000 3.080000 28.820000 129 112 91 0
5.280000 3.080000 28.820000 129 112 91 0
5.500000 3.080000 29.920000 131 112 90 0
5.720000 3.080000 29.920000 132 113 91 0
5.940000 3.080000 29.920000 131 114 93 0
6.160000 3.080000 29.920000 131 114 93 0
6.380000 3.080000 29.920000 132 113 93 0
6.600000 3.080000 29.920000 133 114 94 0
6.820000 3.080000 29.920000 132 116 95 0
7.040000 3.080000 29.920000 132 116 95 0
7.260000 3.080000 31.460000 135 117 92 0
7.480000 3.080000 31.460000 137 119 94 0
7.700000 3.080000 32.780000 137 122 96 0
7.920000 3.080000 32.780000 141 126 100 0
8.140000 3.080000 34.320000 141 131 103 0
8.360000 3.080000 34.320000 143 133 105 0
8.580000 3.080000 35.640000 148 135 111 0
8.800000 3.080000 35.860000 153 140 116 0
9.020000 3.080000 37.180000 156 145 120 0
9.240000 3.080000 37.180000 159 148 123 0
9.460000 3.080000 37.180000 161 156 131 0
9.680000 3.080000 36.960000 166 161 136 0
9.900000 3.080000 39.160000 164 167 145 0
10.120000 3.080000 40.260000 170 173 151 0
10.340000 3.080000 40.260000 172 181 157 0
10.560000 3.080000 40.260000 177 186 162 0
10.780000 3.080000 40.260000 176 189 167 0
11.000000 3.080000 41.800000 180 193 171 0
11.220000 3.080000 41.800000 186 195 173 0
11.440000 3.080000 33.660000 188 197 175 0
11.660000 3.080000 15.620000 193 198 175 0
11.880000 3.080000 3.300000 194 199 176 0
12.100000 3.080000 1.980000 196 199 177 0
12.320000 3.080000 1.980000 196 199 177 0
12.540000 3.080000 2.200000 197 200 178 0
12.760000 3.080000 2.200000 197 200 178 0
12.980000 3.080000 2.420000 197 200 176 0
13.200000 3.080000 2.420000 197 200 176 0
13.420000 3.080000 3.960000 196 199 177 0
13.640000 3.080000 3.960000 197 200 178 0
13.860000 3.080000 3.960000 197 200 176 0
14.080000 3.080000 3.960000 197 200 176 0
14.300000 3.080000 3.960000 198 199 178 0
14.520000 3.080000 5.060000 198 199 178 0
14.740000 3.080000 5.940000 198 199 176 0
14.960000 3.080000 5.720000 198 199 176 0
15.180000 3.080000 5.720000 197 198 175 0
15.400000 3.080000 5.720000 197 198 175 0
15.620000 3.080000 5.720000 196 197 174 0
15.840000 3.080000 5.940000 195 196 173 0
16.060000 3.080000 5.940000 194 195 172 0
16.280000 3.080000 5.940000 194 195 172 0
16.500000 3.080000 5.940000 197 196 173 0
16.720000 3.080000 6.160000 197 196 173 0
16.940000 3.080000 6.160000 196 197 174 0
17.160000 3.080000 6.160000 197 198 175 0
17.380000 3.080000 6.160000 197 198 175 0
17.600000 3.080000 6.160000 198 199 176 0
17.820000 3.080000 7.700000 198 199 178 0
18.040000 3.080000 7.700000 199 200 179 0
18.260000 3.080000 7.700000 198 199 178 0
18.480000 3.080000 7.700000 200 201 180 0
18.700000 3.080000 7.920000 202 200 180 0
18.920000 3.080000 7.920000 202 200 180 0
19.140000 3.080000 9.240000 200 201 180 0
19.360000 3.080000 9.460000 201 202 181 0
19.580000 3.080000 9.460000 201 202 181 0
19.800000 3.080000 9.460000 202 203 182 0
20.020000 3.080000 9.460000 201 203 184 0
20.240000 3.080000 10.780000 203 205 186 0
20.460000 3.080000 11.000000 203 205 195 0
20.680000 3.080000 11.000000 210 212 202 0
20.900000 3.080000 12.320000 213 225 208 0
21.120000 3.080000 14.740000 213 225 208 0
21.340000 3.080000 16.940000 213 224 211 0
21.560000 3.080000 18.040000 212 223 210 0
21.780000 3.080000 18.040000 216 223 211 0
22.000000 3.080000 18.040000 215 222 210 0
22.220000 3.080000 19.580000 212 210 190 0
22.440000 3.080000 20.900000 200 198 178 0
22.660000 3.080000 22.440000 210 178 162 0
22.880000 3.080000 22.440000 198 166 150 0
23.100000 3.080000 23.980000 210 143 132 0
23.320000 3.080000 23.980000 196 129 118 0
23.540000 3.080000 25.520000 201 102 100 0
23.760000 3.080000 29.700000 194 95 93 0
23.980000 3.080000 33.880000 193 91 90 0
24.200000 3.080000 35.420000 194 92 91 0
24.420000 3.080000 34.100000 195 90 90 0
24.640000 3.080000 33.000000 195 90 90 0
24.860000 3.080000 34.320000 193 91 90 0
25.080000 3.080000 34.540000 192 90 89 0
25.300000 3.080000 35.860000 192 90 89 0
25.520000 3.080000 36.740000 193 91 90 0
25.740000 3.080000 38.940000 195 88 89 0
25.960000 3.080000 40.260000 194 87 88 0
26.180000 3.080000 40.260000 194 87 88 0
26.400000 3.080000 38.940000 194 87 88 0
26.620000 3.080000 26.620000 194 89 89 0
26.840000 3.080000 7.260000 193 88 88 0
27.060000 3.080000 1.760000 194 87 88 0
27.280000 3.080000 7.480000 194 87 88 0
27.500000 3.080000 17.380000 196 87 88 0
27.720000 3.080000 32.780000 195 86 87 0
27.940000 3.080000 38.500000 194 85 86 0
28.160000 3.080000 38.500000 193 84 85 0
28.380000 3.080000 38.500000 192 83 84 0
28.600000 3.080000 38.500000 192 83 84 0
28.820000 3.080000 35.860000 192 79 82 0
29.040000 3.080000 23.320000 191 78 81 0
29.260000 3.080000 6.820000 192 77 80 0
29.700000 3.080000 1.980000 190 77 80 0
29.920000 3.080000 2.860000 189 76 79 0
30.140000 3.080000 2.860000 189 76 79 0
30.360000 3.080000 2.860000 189 76 79 0
30.580000 3.080000 3.080000 190 77 80 0
30.800000 3.080000 1.760000 191 78 81 0
31.020000 3.080000 1.980000 192 77 80 0
31.240000 3.080000 2.200000 194 79 82 0
31.460000 3.080000 2.200000 194 79 82 0
31.680000 3.080000 0.880000 194 79 82 0
31.900000 3.080000 0.880000 194 79 82 0
32.120000 3.080000 0.880000 194 79 82 0
32.340000 3.080000 1.100000 195 80 83 0
32.560000 3.080000 2.420000 195 80 83 0
32.780000 3.080000 2.640000 195 80 83 0
33.000000 3.080000 2.640000 194 79 82 0
33.220000 3.080000 3.960000 195 80 83 0
33.440000 3.080000 3.960000 195 80 83 0
33.660000 3.080000 4.180000 194 79 82 0
33.880000 3.080000 3.960000 193 78 81 0
34.100000 3.080000 6.160000 192 77 80 0
34.320000 3.080000 7.040000 192 77 80 0
34.540000 3.080000 8.360000 192 75 79 0
34.760000 3.080000 8.360000 192 75 79 0
34.980000 3.080000 8.360000 191 76 79 0
35.200000 3.080000 9.900000 191 76 79 0
35.420000 3.080000 9.900000 191 76 79 0
35.640000 3.080000 9.900000 192 77 80 0
35.860000 3.080000 9.900000 190 75 78 0
36.080000 3.080000 9.900000 191 76 79 0
36.300000 3.080000 9.900000 192 75 79 0
36.520000 3.080000 9.900000 192 75 79 0
36.740000 3.080000 10.120000 191 76 79 0
36.960000 3.080000 8.800000 193 78 81 0
37.180000 3.080000 8.800000 193 78 81 0
0.000000 3.300000 21.340000 139 76 62 0
0.220000 3.300000 24.200000 142 78 64 0
0.440000 3.300000 25.740000 141 77 63 0
0.660000 3.300000 24.200000 141 77 62 0
0.880000 3.300000 23.980000 141 77 62 0
1.100000 3.300000 24.200000 142 75 62 0
1.320000 3.300000 24.420000 140 73 60 0
1.540000 3.300000 24.420000 136 73 59 0
1.760000 3.300000 27.280000 136 73 59 0
1.980000 3.300000 27.280000 135 75 60 0
2.200000 3.300000 24.640000 136 76 61 0
2.420000 3.300000 20.460000 136 78 61 0
2.640000 3.300000 17.820000 138 80 63 0
2.860000 3.300000 17.820000 136 82 65 0
3.080000 3.300000 20.460000 138 84 67 0
3.300000 3.300000 24.640000 130 91 71 0
3.520000 3.300000 26.180000 132 93 73 0
3.740000 3.300000 27.280000 127 98 79 0
3.960000 3.300000 28.160000 129 100 81 0
4.180000 3.300000 29.260000 125 103 84 0
4.400000 3.300000 29.040000 128 106 87 0
4.620000 3.300000 29.480000 127 108 88 0
4.840000 3.300000 28.600000 128 109 89 0
5.060000 3.300000 28.820000 129 110 90 0
5.280000 3.300000 28.600000 131 112 92 0
5.500000 3.300000 29.920000 130 111 91 0
5.720000 3.300000 29.920000 131 112 92 0
5.940000 3.300000 29.920000 131 112 92 0
6.160000 3.300000 29.920000 132 113 93 0
6.380000 3.300000 29.920000 131 114 91 0
6.600000 3.300000 29.920000 131 114 91 0
6.820000 3.300000 29.920000 134 115 95 0
7.040000 3.300000 29.920000 134 115 95 0
7.260000 3.300000 31.460000 134 117 96 0
7.480000 3.300000 31.460000 136 119 98 0
7.700000 3.300000 32.780000 139 123 102 0
7.920000 3.300000 32.780000 141 125 104 0
8.140000 3.300000 34.320000 141 130 105 0
8.360000 3.300000 34.320000 145 134 109 0
8.580000 3.300000 35.640000 149 136 114 0
8.800000 3.300000 35.860000 154 141 119 0
9.020000 3.300000 35.860000 157 147 119 0
9.240000 3.300000 37.180000 161 151 123 0
9.460000 3.300000 37.180000 161 156 131 0
9.680000 3.300000 36.960000 167 162 137 0
9.900000 3.300000 39.160000 164 168 141 0
10.120000 3.300000 40.040000 172 176 149 0
10.340000 3.300000 40.260000 173 182 156 0
10.560000 3.300000 40.260000 176 185 159 0
10.780000 3.300000 40.260000 180 192 167 0
11.000000 3.300000 41.800000 182 194 169 0
11.220000 3.300000 41.800000 189 196 175 0
11.440000 3.300000 30.800000 190 197 176 0
11.660000 3.300000 10.120000 195 198 176 0
11.880000 3.300000 0.440000 196 199 177 0
12.100000 3.300000 1.980000 196 199 177 0
12.320000 3.300000 3.520000 197 200 178 0
12.540000 3.300000 3.520000 197 200 178 0
12.760000 3.300000 2.200000 197 200 178 0
12.980000 3.300000 2.420000 197 200 176 0
13.200000 3.300000 2.420000 197 200 176 0
13.420000 3.300000 3.960000 198 199 176 0
13.640000 3.300000 3.960000 199 200 177 0
13.860000 3.300000 3.960000 198 199 176 0
14.080000 3.300000 3.960000 198 199 176 0
14.300000 3.300000 3.960000 198 199 176 0
14.520000 3.300000 4.620000 198 199 176 0
14.740000 3.300000 5.720000 197 198 175 0
14.960000 3.300000 5.720000 197 198 175 0
15.180000 3.300000 5.720000 198 197 172 0
15.400000 3.300000 5.720000 198 197 172 0
15.620000 3.300000 5.720000 195 194 169 0
15.840000 3.300000 5.940000 195 194 169 0
16.060000 3.300000 5.940000 195 194 169 0
16.280000 3.300000 5.940000 196 195 170 0
16.500000 3.300000 5.940000 196 195 170 0
16.720000 3.300000 6.160000 196 195 170 0
16.940000 3.300000 6.160000 196 195 170 0
17.160000 3.300000 6.160000 198 197 172 0
17.380000 3.300000 6.160000 198 197 174 0
17.600000 3.300000 6.160000 199 198 175 0
17.820000 3.300000 7.700000 199 198 175 0
18.040000 3.300000 7.700000 199 198 175 0
18.260000 3.300000 7.700000 198 199 176 0
18.480000 3.300000 7.700000 198 199 176 0
18.700000 3.300000 7.920000 201 200 177 0
18.920000 3.300000 7.920000 202 201 178 0
19.140000 3.300000 9.240000 200 201 178 0
19.360000 3.300000 9.460000 200 201 178 0
19.580000 3.300000 9.460000 201 202 181 0
19.800000 3.300000 9.460000 201 202 181 0
20.020000 3.300000 9.460000 202 203 182 0
20.240000 3.300000 10.780000 202 203 182 0
20.460000 3.300000 11.000000 202 204 185 0
20.680000 3.300000 11.000000 206 208 189 0
20.900000 3.300000 12.320000 210 220 204 0
21.120000 3.300000 13.420000 215 225 209 0
21.340000 3.300000 15.620000 217 224 212 0
21.560000 3.300000 18.040000 215 222 210 0
21.780000 3.300000 18.040000 218 221 207 0
22.000000 3.300000 19.580000 212 215 201 0
22.220000 3.300000 20.900000 211 205 184 0
22.440000 3.300000 22.440000 202 196 175 0
22.660000 3.300000 22.440000 213 173 161 0
22.880000 3.300000 23.760000 201 161 149 0
23.100000 3.300000 23.980000 215 137 130 0
23.320000 3.300000 23.980000 201 123 116 0
23.540000 3.300000 25.520000 202 100 98 0
23.760000 3.300000 29.700000 196 94 92 0
23.980000 3.300000 33.880000 197 91 90 0
24.200000 3.300000 34.100000 196 90 89 0
24.420000 3.300000 34.100000 195 90 92 0
24.640000 3.300000 33.000000 194 89 91 0
24.860000 3.300000 34.320000 195 88 89 0
25.080000 3.300000 34.540000 195 88 89 0
25.300000 3.300000 35.640000 194 89 88 0
25.520000 3.300000 37.840000 194 89 88 0
25.740000 3.300000 38.940000 195 89 88 0
25.960000 3.300000 40.260000 193 87 86 0
26.180000 3.300000 40.260000 195 85 89 0
26.400000 3.300000 33.440000 196 86 90 0
26.620000 3.300000 15.400000 194 87 88 0
26.840000 3.300000 4.400000 195 88 89 0
27.060000 3.300000 12.760000 193 86 87 0
27.280000 3.300000 25.520000 193 86 87 0
27.500000 3.300000 32.560000 196 85 86 0
27.720000 3.300000 36.740000 196 85 86 0
27.940000 3.300000 38.280000 194 83 85 0
28.160000 3.300000 38.500000 193 82 84 0
28.380000 3.300000 38.500000 194 81 86 0
28.600000 3.300000 38.500000 192 79 84 0
28.820000 3.300000 31.680000 192 79 84 0
29.040000 3.300000 13.640000 190 77 82 0
29.260000 3.300000 1.320000 191 76 79 0
29.480000 3.300000 0.880000 191 76 79 0
29.700000 3.300000 1.760000 190 75 78 0
29.920000 3.300000 2.860000 191 76 79 0
30.140000 3.300000 2.860000 190 74 80 0
30.360000 3.300000 2.860000 190 74 80 0
30.580000 3.300000 3.080000 192 76 82 0
30.800000 3.300000 1.760000 193 77 83 0
31.020000 3.300000 1.980000 192 77 80 0
31.240000 3.300000 2.200000 193 78 81 0
31.460000 3.300000 2.200000 193 78 81 0
31.680000 3.300000 2.200000 194 79 82 0
31.900000 3.300000 2.200000 194 78 84 0
32.120000 3.300000 1.100000 194 78 84 0
32.340000 3.300000 2.420000 194 78 84 0
32.560000 3.300000 2.420000 195 79 85 0
32.780000 3.300000 2.640000 194 78 84 0
33.000000 3.300000 3.960000 194 78 84 0
33.220000 3.300000 3.960000 193 78 81 0
33.440000 3.300000 4.180000 194 79 82 0
33.660000 3.300000 4.180000 193 77 83 0
33.880000 3.300000 5.280000 193 77 83 0
34.100000 3.300000 7.260000 191 75 81 0
34.320000 3.300000 8.360000 192 76 82 0
34.540000 3.300000 8.360000 191 75 81 0
34.760000 3.300000 8.360000 192 76 82 0
34.980000 3.300000 8.360000 191 76 79 0
35.200000 3.300000 9.900000 192 77 80 0
35.420000 3.300000 9.900000 191 75 81 0
35.640000 3.300000 9.900000 191 75 81 0
35.860000 3.300000 9.900000 191 75 81 0
36.080000 3.300000 9.900000 191 75 81 0
36.300000 3.300000 9.900000 191 75 81 0
36.520000 3.300000 9.900000 191 75 81 0
36.740000 3.300000 9.900000 191 76 79 0
36.960000 3.300000 8.580000 191 76 79 0
37.180000 3.300000 10.120000 193 77 83 0
0.000000 3.520000 21.340000 138 75 61 0
0.220000 3.520000 24.200000 139 75 61 0
0.440000 3.520000 24.420000 139 75 61 0
0.660000 3.520000 22.880000 138 74 59 0
0.880000 3.520000 22.660000 137 73 58 0
1.100000 3.520000 23.980000 138 71 58 0
1.320000 3.520000 24.420000 139 72 59 0
1.540000 3.520000 25.960000 134 71 57 0
1.760000 3.520000 28.600000 135 72 58 0
1.980000 3.520000 28.820000 133 73 58 0
2.200000 3.520000 25.960000 135 75 60 0
2.420000 3.520000 20.460000 135 77 60 0
2.640000 3.520000 17.600000 136 78 61 0
2.860000 3.520000 17.820000 133 79 62 0
3.080000 3.520000 20.460000 134 80 63 0
3.300000 3.520000 23.320000 126 87 67 0
3.520000 3.520000 26.180000 128 89 69 0
3.740000 3.520000 27.500000 124 95 76 0
3.960000 3.520000 27.280000 127 98 79 0
4.180000 3.520000 28.380000 123 101 82 0
4.400000 3.520000 29.260000 125 103 84 0
4.620000 3.520000 29.260000 124 105 85 0
4.840000 3.520000 28.380000 126 107 87 0
5.060000 3.520000 28.820000 127 108 88 0
5.280000 3.520000 28.600000 129 110 90 0
5.500000 3.520000 29.920000 129 110 90 0
5.720000 3.520000 29.920000 130 111 91 0
5.940000 3.520000 29.920000 131 112 92 0
6.160000 3.520000 29.920000 130 111 91 0
6.380000 3.520000 29.920000 130 113 90 0
6.600000 3.520000 29.920000 130 113 90 0
6.820000 3.520000 29.920000 132 113 93 0
7.040000 3.520000 29.920000 135 116 96 0
7.260000 3.520000 31.460000 135 118 97 0
7.480000 3.520000 31.460000 137 120 99 0
7.700000 3.520000 32.780000 139 123 102 0
7.920000 3.520000 33.000000 143 127 106 0
8.140000 3.520000 34.320000 143 132 107 0
8.360000 3.520000 34.320000 146 135 110 0
8.580000 3.520000 35.860000 150 137 115 0
8.800000 3.520000 35.860000 154 141 119 0
9.020000 3.520000 35.860000 157 147 119 0
9.240000 3.520000 35.860000 161 151 123 0
9.460000 3.520000 37.180000 162 157 132 0
9.680000 3.520000 38.280000 167 162 137 0
9.900000 3.520000 38.940000 166 170 143 0
10.120000 3.520000 40.260000 170 174 147 0
10.340000 3.520000 40.260000 173 182 156 0
10.560000 3.520000 41.580000 177 186 160 0
10.780000 3.520000 41.800000 179 191 166 0
11.000000 3.520000 41.800000 183 195 170 0
11.220000 3.520000 39.160000 190 197 176 0
11.440000 3.520000 26.620000 190 197 176 0
11.660000 3.520000 8.800000 195 198 176 0
11.880000 3.520000 1.980000 196 199 177 0
12.100000 3.520000 1.980000 197 200 178 0
12.320000 3.520000 3.520000 197 200 178 0
12.540000 3.520000 3.520000 198 201 179 0
12.760000 3.520000 2.420000 198 201 179 0
12.980000 3.520000 2.420000 198 201 177 0
13.200000 3.520000 2.420000 197 200 176 0
13.420000 3.520000 3.960000 199 200 177 0
13.640000 3.520000 3.960000 199 200 177 0
13.860000 3.520000 3.960000 199 200 177 0
14.080000 3.520000 4.180000 199 200 177 0
14.300000 3.520000 3.740000 199 200 177 0
14.520000 3.520000 5.940000 199 200 177 0
14.740000 3.520000 5.720000 198 199 176 0
14.960000 3.520000 5.720000 197 198 175 0
15.180000 3.520000 5.720000 198 197 172 0
15.400000 3.520000 5.720000 197 196 171 0
15.620000 3.520000 5.940000 195 194 169 0
15.840000 3.520000 5.940000 195 194 169 0
16.060000 3.520000 5.940000 195 194 169 0
16.280000 3.520000 5.940000 195 194 169 0
16.500000 3.520000 5.940000 195 194 169 0
16.720000 3.520000 6.160000 195 194 169 0
16.940000 3.520000 6.160000 197 196 171 0
17.160000 3.520000 6.160000 197 196 171 0
17.380000 3.520000 6.160000 198 197 174 0
17.600000 3.520000 7.700000 198 197 174 0
17.820000 3.520000 7.700000 199 198 175 0
18.040000 3.520000 7.700000 199 198 175 0
18.260000 3.520000 7.700000 197 198 175 0
18.480000 3.520000 7.700000 198 199 176 0
18.700000 3.520000 7.920000 200 199 176 0
18.920000 3.520000 7.920000 201 200 177 0
19.140000 3.520000 9.240000 199 200 177 0
19.360000 3.520000 9.460000 200 201 178 0
19.580000 3.520000 9.460000 201 202 181 0
19.800000 3.520000 9.460000 201 202 181 0
20.020000 3.520000 9.460000 201 202 181 0
20.240000 3.520000 10.780000 201 202 181 0
20.460000 3.520000 11.000000 201 203 184 0
20.680000 3.520000 12.320000 203 205 186 0
20.900000 3.520000 12.320000 202 212 196 0
21.120000 3.520000 13.420000 209 219 203 0
21.340000 3.520000 15.620000 215 222 210 0
21.560000 3.520000 18.040000 211 218 206 0
21.780000 3.520000 18.040000 210 213 199 0
22.000000 3.520000 19.580000 207 210 196 0
22.220000 3.520000 20.900000 208 202 181 0
22.440000 3.520000 22.440000 198 192 171 0
