ply
format ascii 1.0
element vertex 1164
property float x
property float y
property float z
property uchar red
property uchar green
property uchar blue
property uchar alpha
end_header
18.920000 12.540000 19.580000 184 68 74 0
19.140000 12.540000 19.690000 186 70 76 0
19.360000 12.540000 19.800000 184 68 74 0
19.580000 12.540000 19.910000 187 71 77 0
19.800000 12.540000 20.020000 184 71 76 0
20.020000 12.540000 15.840000 186 73 78 0
20.240000 12.540000 6.820000 186 73 78 0
20.460000 12.540000 1.320000 187 74 79 0
20.680000 12.540000 6.820000 187 74 79 0
20.900000 12.540000 12.320000 187 74 79 0
21.120000 12.540000 6.820000 185 72 77 0
21.340000 12.540000 0.550000 183 70 75 0
22.220000 12.540000 2.750000 182 69 74 0
22.440000 12.540000 4.070000 182 69 74 0
22.660000 12.540000 3.300000 183 70 75 0
22.880000 12.540000 1.540000 183 70 75 0
23.100000 12.540000 0.660000 184 71 76 0
23.320000 12.540000 0.770000 183 72 76 0
23.540000 12.540000 1.430000 183 72 76 0
23.760000 12.540000 1.430000 184 73 77 0
23.980000 12.540000 1.430000 184 73 77 0
24.200000 12.540000 1.430000 182 71 75 0
24.420000 12.540000 1.430000 183 72 76 0
24.640000 12.540000 0.770000 184 73 77 0
24.860000 12.540000 0.770000 184 73 77 0
25.080000 12.540000 0.770000 183 73 77 0
25.300000 12.540000 0.880000 184 74 78 0
25.520000 12.540000 0.880000 183 73 77 0
25.740000 12.540000 0.880000 182 72 76 0
25.960000 12.540000 0.880000 183 73 77 0
26.180000 12.540000 0.880000 184 74 78 0
26.400000 12.540000 0.880000 185 75 79 0
26.620000 12.540000 0.880000 183 73 77 0
26.840000 12.540000 0.880000 183 76 79 0
27.060000 12.540000 1.540000 181 74 77 0
27.280000 12.540000 1.540000 182 75 78 0
27.500000 12.540000 1.540000 182 75 78 0
27.720000 12.540000 0.990000 182 75 78 0
27.940000 12.540000 0.990000 183 76 79 0
28.160000 12.540000 1.100000 182 75 78 0
28.380000 12.540000 0.550000 182 75 78 0
28.600000 12.540000 0.550000 183 78 80 0
28.820000 12.540000 0.660000 182 77 79 0
29.040000 12.540000 0.660000 184 79 81 0
29.260000 12.540000 0.660000 183 78 80 0
29.480000 12.540000 0.660000 182 77 79 0
29.700000 12.540000 0.660000 182 77 79 0
29.920000 12.540000 1.210000 182 77 79 0
30.140000 12.540000 1.650000 183 78 80 0
30.360000 12.540000 2.860000 181 76 78 0
30.580000 12.540000 2.750000 183 78 80 0
30.800000 12.540000 3.520000 181 78 80 0
31.020000 12.540000 4.180000 181 78 80 0
31.240000 12.540000 4.290000 182 79 81 0
31.460000 12.540000 4.290000 183 80 82 0
31.680000 12.540000 4.400000 184 81 83 0
31.900000 12.540000 4.290000 184 81 83 0
32.120000 12.540000 4.290000 184 81 83 0
32.340000 12.540000 4.180000 185 82 84 0
32.560000 12.540000 3.520000 184 83 84 0
32.780000 12.540000 3.520000 185 84 85 0
33.000000 12.540000 2.860000 185 86 86 0
33.220000 12.540000 2.860000 186 87 87 0
33.440000 12.540000 2.090000 188 89 89 0
33.660000 12.540000 2.090000 188 89 89 0
33.880000 12.540000 1.430000 189 90 90 0
34.100000 12.540000 0.110000 189 90 90 0
34.320000 12.540000 0.110000 186 90 89 0
34.760000 12.540000 0.330000 186 91 90 0
34.980000 12.540000 0.330000 187 92 91 0
35.200000 12.540000 4.620000 186 94 94 0
35.420000 12.540000 12.210000 187 95 95 0
35.640000 12.540000 14.960000 189 94 95 0
35.860000 12.540000 12.210000 188 93 94 0
36.080000 12.540000 4.620000 186 94 94 0
36.740000 12.540000 0.550000 183 94 95 0
36.960000 12.540000 0.880000 177 96 97 0
37.180000 12.540000 0.770000 177 96 97 0
0.000000 12.760000 3.080000 186 71 71 0
0.220000 12.760000 3.630000 186 71 71 0
0.440000 12.760000 3.630000 185 70 72 0
0.660000 12.760000 3.190000 186 71 73 0
0.880000 12.760000 3.300000 185 70 72 0
1.100000 12.760000 3.300000 186 71 73 0
1.320000 12.760000 3.300000 186 71 71 0
1.540000 12.760000 3.300000 187 72 72 0
1.760000 12.760000 3.300000 186 71 73 0
1.980000 12.760000 3.410000 186 71 73 0
2.200000 12.760000 3.960000 187 72 74 0
2.420000 12.760000 3.960000 186 71 73 0
2.640000 12.760000 4.620000 186 71 73 0
2.860000 12.760000 4.730000 186 71 73 0
3.080000 12.760000 4.070000 186 71 73 0
3.300000 12.760000 4.070000 186 71 73 0
3.520000 12.760000 4.070000 186 71 73 0
3.740000 12.760000 4.730000 186 71 73 0
3.960000 12.760000 5.280000 186 71 73 0
4.180000 12.760000 5.720000 185 70 72 0
4.400000 12.760000 6.270000 185 70 72 0
4.620000 12.760000 6.270000 185 70 72 0
4.840000 12.760000 6.270000 185 70 72 0
5.060000 12.760000 6.270000 185 70 72 0
5.280000 12.760000 6.270000 185 70 72 0
5.500000 12.760000 6.380000 185 70 72 0
5.720000 12.760000 5.720000 185 70 72 0
5.940000 12.760000 5.720000 186 71 73 0
6.160000 12.760000 5.720000 186 71 73 0
6.380000 12.760000 5.830000 185 70 72 0
6.600000 12.760000 5.830000 184 69 71 0
6.820000 12.760000 5.940000 185 70 72 0
7.040000 12.760000 5.940000 184 69 72 0
7.260000 12.760000 6.600000 184 69 72 0
7.480000 12.760000 7.370000 184 69 72 0
7.700000 12.760000 7.370000 184 69 72 0
7.920000 12.760000 7.370000 183 68 71 0
8.140000 12.760000 7.480000 183 68 71 0
8.360000 12.760000 7.480000 184 69 72 0
8.580000 12.760000 7.590000 183 68 71 0
8.800000 12.760000 7.590000 183 68 71 0
9.020000 12.760000 7.480000 184 69 72 0
9.240000 12.760000 7.920000 184 69 72 0
9.460000 12.760000 8.360000 182 67 70 0
9.680000 12.760000 9.020000 184 69 72 0
9.900000 12.760000 10.450000 183 68 71 0
10.120000 12.760000 10.450000 184 69 72 0
10.340000 12.760000 9.790000 184 69 72 0
10.560000 12.760000 9.130000 184 69 72 0
10.780000 12.760000 9.130000 184 69 72 0
11.000000 12.760000 10.560000 184 69 72 0
11.220000 12.760000 11.990000 183 68 71 0
11.440000 12.760000 11.990000 184 69 72 0
11.660000 12.760000 11.990000 184 69 72 0
11.880000 12.760000 11.330000 184 68 74 0
12.100000 12.760000 10.670000 184 68 74 0
12.320000 12.760000 10.780000 183 68 71 0
12.540000 12.760000 11.440000 184 69 72 0
12.760000 12.760000 12.210000 183 67 73 0
12.980000 12.760000 12.870000 183 67 73 0
13.200000 12.760000 13.640000 184 68 74 0
13.420000 12.760000 12.980000 184 68 74 0
13.640000 12.760000 12.980000 184 68 74 0
13.860000 12.760000 12.980000 182 66 72 0
14.080000 12.760000 13.090000 181 65 71 0
14.300000 12.760000 13.090000 182 66 72 0
14.520000 12.760000 13.750000 181 65 71 0
14.740000 12.760000 13.750000 179 63 69 0
14.960000 12.760000 14.300000 180 64 70 0
15.180000 12.760000 15.290000 180 64 70 0
15.400000 12.760000 15.180000 178 62 68 0
15.620000 12.760000 15.290000 178 62 68 0
15.840000 12.760000 15.290000 178 62 68 0
16.060000 12.760000 15.950000 178 62 68 0
16.280000 12.760000 15.950000 179 63 69 0
16.500000 12.760000 16.720000 179 63 69 0
16.720000 12.760000 16.720000 180 64 70 0
16.940000 12.760000 17.490000 180 64 70 0
17.160000 12.760000 17.490000 180 64 70 0
17.380000 12.760000 18.150000 180 64 70 0
17.600000 12.760000 18.260000 179 63 69 0
17.820000 12.760000 18.260000 180 64 70 0
18.040000 12.760000 18.920000 180 64 70 0
18.260000 12.760000 19.580000 181 65 71 0
18.480000 12.760000 19.580000 180 64 70 0
18.700000 12.760000 19.580000 183 67 73 0
18.920000 12.760000 19.580000 183 67 73 0
19.140000 12.760000 19.690000 184 68 74 0
19.360000 12.760000 20.460000 184 68 74 0
19.580000 12.760000 19.910000 185 69 75 0
19.800000 12.760000 20.020000 185 72 77 0
20.020000 12.760000 15.840000 186 73 78 0
20.240000 12.760000 8.140000 187 74 79 0
20.460000 12.760000 6.820000 186 73 78 0
20.680000 12.760000 13.640000 187 74 79 0
20.900000 12.760000 17.820000 186 73 78 0
21.120000 12.760000 12.320000 185 72 77 0
21.340000 12.760000 3.300000 185 72 77 0
22.880000 12.760000 0.220000 182 69 74 0
23.100000 12.760000 0.660000 182 69 74 0
23.320000 12.760000 0.770000 182 71 75 0
23.540000 12.760000 1.430000 183 72 76 0
23.760000 12.760000 1.430000 183 72 76 0
23.980000 12.760000 1.430000 182 71 75 0
24.200000 12.760000 1.430000 183 72 76 0
24.420000 12.760000 0.770000 183 72 76 0
24.640000 12.760000 0.770000 184 73 77 0
24.860000 12.760000 0.770000 184 73 77 0
25.080000 12.760000 0.880000 183 73 77 0
25.300000 12.760000 0.880000 183 73 77 0
25.520000 12.760000 0.880000 183 73 77 0
25.740000 12.760000 0.880000 184 74 78 0
25.960000 12.760000 0.880000 184 74 78 0
26.180000 12.760000 0.880000 184 74 78 0
26.400000 12.760000 0.880000 183 73 77 0
26.620000 12.760000 0.880000 184 74 78 0
26.840000 12.760000 0.990000 182 75 78 0
27.060000 12.760000 0.880000 182 75 78 0
27.280000 12.760000 0.990000 183 76 79 0
27.500000 12.760000 0.990000 182 75 78 0
27.720000 12.760000 1.100000 183 76 79 0
27.940000 12.760000 0.440000 182 75 78 0
28.160000 12.760000 0.440000 184 77 80 0
28.380000 12.760000 0.550000 184 77 80 0
28.600000 12.760000 0.550000 182 77 79 0
28.820000 12.760000 0.660000 183 78 80 0
29.040000 12.760000 0.660000 184 79 81 0
29.260000 12.760000 0.660000 183 78 80 0
29.480000 12.760000 0.660000 183 78 80 0
29.700000 12.760000 0.660000 181 76 78 0
29.920000 12.760000 0.660000 181 76 78 0
30.140000 12.760000 1.100000 182 77 79 0
30.360000 12.760000 2.200000 184 79 81 0
30.580000 12.760000 2.750000 183 78 80 0
30.800000 12.760000 3.520000 182 79 81 0
31.020000 12.760000 4.180000 182 79 81 0
31.240000 12.760000 4.290000 182 79 81 0
31.460000 12.760000 4.290000 182 79 81 0
31.680000 12.760000 4.400000 183 80 82 0
31.900000 12.760000 4.290000 184 81 83 0
32.120000 12.760000 4.290000 186 83 85 0
32.340000 12.760000 4.290000 186 83 85 0
32.560000 12.760000 3.520000 184 83 84 0
32.780000 12.760000 2.970000 185 84 85 0
33.000000 12.760000 2.420000 185 86 86 0
33.220000 12.760000 2.310000 187 88 88 0
33.440000 12.760000 2.310000 187 88 88 0
33.660000 12.760000 1.540000 189 90 90 0
33.880000 12.760000 0.770000 188 89 89 0
34.100000 12.760000 0.770000 188 89 89 0
34.320000 12.760000 1.540000 186 90 89 0
34.540000 12.760000 3.740000 187 91 90 0
34.760000 12.760000 5.170000 186 91 90 0
34.980000 12.760000 4.620000 187 92 91 0
35.200000 12.760000 8.690000 185 93 93 0
35.420000 12.760000 15.510000 187 95 95 0
35.640000 12.760000 18.260000 190 95 96 0
35.860000 12.760000 14.850000 189 94 95 0
36.080000 12.760000 7.260000 186 94 94 0
36.300000 12.760000 1.100000 187 95 95 0
36.520000 12.760000 0.550000 184 95 96 0
36.740000 12.760000 0.440000 184 95 96 0
36.960000 12.760000 0.880000 177 96 97 0
37.180000 12.760000 0.770000 177 96 97 0
0.000000 12.980000 3.080000 186 71 73 0
0.220000 12.980000 3.630000 185 70 72 0
0.440000 12.980000 3.630000 185 70 72 0
0.660000 12.980000 3.190000 185 70 72 0
0.880000 12.980000 3.300000 185 70 72 0
1.100000 12.980000 3.300000 186 71 73 0
1.320000 12.980000 3.300000 185 70 72 0
1.540000 12.980000 3.300000 186 71 73 0
1.760000 12.980000 3.300000 185 70 72 0
1.980000 12.980000 3.410000 186 71 73 0
2.200000 12.980000 3.960000 186 71 73 0
2.420000 12.980000 3.960000 187 72 74 0
2.640000 12.980000 4.620000 187 72 74 0
2.860000 12.980000 4.730000 185 70 72 0
3.080000 12.980000 4.070000 187 72 74 0
3.300000 12.980000 4.070000 186 71 73 0
3.520000 12.980000 4.070000 186 71 73 0
3.740000 12.980000 4.730000 185 70 72 0
3.960000 12.980000 5.060000 184 72 73 0
4.180000 12.980000 5.610000 183 71 72 0
4.400000 12.980000 6.270000 185 70 72 0
4.620000 12.980000 6.270000 185 70 72 0
4.840000 12.980000 6.270000 185 70 72 0
5.060000 12.980000 6.270000 185 70 72 0
5.280000 12.980000 6.270000 186 71 74 0
5.500000 12.980000 5.610000 186 71 74 0
5.720000 12.980000 5.720000 183 71 72 0
5.940000 12.980000 5.720000 183 71 72 0
6.160000 12.980000 5.830000 185 70 72 0
6.380000 12.980000 5.830000 185 70 72 0
6.600000 12.980000 5.170000 185 70 72 0
6.820000 12.980000 5.170000 184 69 71 0
7.040000 12.980000 5.940000 184 69 72 0
7.260000 12.980000 5.940000 184 69 72 0
7.480000 12.980000 6.710000 182 70 71 0
7.700000 12.980000 7.370000 183 71 72 0
7.920000 12.980000 7.480000 184 69 72 0
8.140000 12.980000 7.480000 183 68 71 0
8.360000 12.980000 7.480000 184 69 72 0
8.580000 12.980000 7.590000 183 68 71 0
8.800000 12.980000 7.590000 184 69 72 0
9.020000 12.980000 7.370000 184 69 72 0
9.240000 12.980000 7.700000 184 69 71 0
9.460000 12.980000 8.360000 185 70 72 0
9.680000 12.980000 9.020000 184 69 72 0
9.900000 12.980000 10.450000 184 69 72 0
10.120000 12.980000 10.450000 184 69 72 0
10.340000 12.980000 9.790000 183 68 71 0
10.560000 12.980000 9.130000 183 68 71 0
10.780000 12.980000 9.130000 184 69 72 0
11.000000 12.980000 10.560000 184 69 72 0
11.220000 12.980000 11.990000 184 69 72 0
11.440000 12.980000 11.990000 184 69 72 0
11.660000 12.980000 11.330000 184 69 72 0
11.880000 12.980000 11.440000 183 67 73 0
12.100000 12.980000 10.780000 184 68 74 0
12.320000 12.980000 11.440000 184 69 72 0
12.540000 12.980000 11.440000 182 67 70 0
12.760000 12.980000 12.210000 184 69 72 0
12.980000 12.980000 12.870000 182 67 70 0
13.200000 12.980000 13.640000 185 69 75 0
13.420000 12.980000 12.980000 183 67 73 0
13.640000 12.980000 12.980000 182 66 72 0
13.860000 12.980000 13.090000 182 66 72 0
14.080000 12.980000 13.090000 182 66 72 0
14.300000 12.980000 13.090000 182 66 72 0
14.520000 12.980000 13.750000 182 66 72 0
14.740000 12.980000 14.410000 179 63 69 0
14.960000 12.980000 14.740000 180 64 70 0
15.180000 12.980000 15.290000 179 63 69 0
15.400000 12.980000 15.290000 179 63 69 0
15.620000 12.980000 15.290000 179 63 69 0
15.840000 12.980000 15.950000 179 63 69 0
16.060000 12.980000 15.950000 178 62 68 0
16.280000 12.980000 16.060000 177 61 67 0
16.500000 12.980000 16.720000 179 63 69 0
16.720000 12.980000 16.720000 180 64 70 0
16.940000 12.980000 17.490000 180 64 70 0
17.160000 12.980000 17.490000 179 63 69 0
17.380000 12.980000 18.150000 180 64 70 0
17.600000 12.980000 18.260000 180 64 70 0
17.820000 12.980000 18.260000 180 64 70 0
18.040000 12.980000 18.920000 180 64 70 0
18.260000 12.980000 18.920000 181 65 71 0
18.480000 12.980000 18.920000 181 65 71 0
18.700000 12.980000 19.470000 182 66 72 0
18.920000 12.980000 20.240000 185 69 75 0
19.140000 12.980000 20.350000 184 68 74 0
19.360000 12.980000 20.460000 183 70 75 0
19.580000 12.980000 19.910000 184 71 76 0
19.800000 12.980000 20.020000 186 73 78 0
20.020000 12.980000 18.590000 185 72 77 0
20.240000 12.980000 16.390000 186 73 78 0
20.460000 12.980000 16.390000 185 72 77 0
20.680000 12.980000 19.140000 186 73 78 0
20.900000 12.980000 19.910000 186 73 78 0
21.120000 12.980000 16.390000 185 72 77 0
21.340000 12.980000 6.820000 185 72 77 0
21.560000 12.980000 1.980000 184 71 76 0
21.780000 12.980000 2.640000 185 72 77 0
22.000000 12.980000 2.750000 184 71 76 0
22.880000 12.980000 0.110000 180 69 73 0
23.100000 12.980000 0.660000 182 71 75 0
23.320000 12.980000 0.770000 181 70 74 0
23.540000 12.980000 1.430000 181 70 74 0
23.760000 12.980000 1.430000 181 70 74 0
23.980000 12.980000 1.430000 181 70 74 0
24.200000 12.980000 1.430000 183 72 76 0
24.420000 12.980000 0.770000 183 72 76 0
24.640000 12.980000 0.770000 184 73 77 0
24.860000 12.980000 0.770000 185 74 78 0
25.080000 12.980000 0.880000 184 74 78 0
25.300000 12.980000 0.880000 183 73 77 0
25.520000 12.980000 0.880000 183 73 77 0
25.740000 12.980000 0.880000 184 74 78 0
25.960000 12.980000 0.880000 183 73 77 0
26.180000 12.980000 0.880000 184 74 78 0
26.400000 12.980000 0.880000 184 74 78 0
26.620000 12.980000 0.990000 185 75 79 0
26.840000 12.980000 0.990000 182 75 78 0
27.060000 12.980000 0.990000 182 75 78 0
27.280000 12.980000 0.990000 183 76 79 0
27.500000 12.980000 0.440000 183 76 79 0
27.720000 12.980000 0.440000 183 76 79 0
27.940000 12.980000 0.440000 183 76 79 0
28.160000 12.980000 0.550000 183 76 79 0
28.380000 12.980000 0.550000 184 77 80 0
28.600000 12.980000 0.550000 183 76 79 0
28.820000 12.980000 0.660000 184 77 80 0
29.040000 12.980000 0.660000 184 79 81 0
29.260000 12.980000 1.320000 183 78 80 0
29.480000 12.980000 1.320000 184 77 80 0
29.700000 12.980000 0.660000 183 76 79 0
29.920000 12.980000 0.660000 182 77 79 0
30.140000 12.980000 1.210000 181 76 78 0
30.360000 12.980000 2.310000 183 78 80 0
30.580000 12.980000 2.750000 184 79 81 0
30.800000 12.980000 3.520000 184 79 81 0
31.020000 12.980000 4.180000 184 79 81 0
31.240000 12.980000 4.290000 183 80 82 0
31.460000 12.980000 4.290000 182 79 81 0
31.680000 12.980000 4.400000 184 81 83 0
31.900000 12.980000 4.400000 184 81 83 0
32.120000 12.980000 4.290000 185 82 84 0
32.340000 12.980000 4.290000 186 83 85 0
32.560000 12.980000 3.630000 185 84 85 0
32.780000 12.980000 3.080000 184 83 84 0
33.000000 12.980000 2.530000 185 84 85 0
33.220000 12.980000 1.870000 186 85 86 0
33.440000 12.980000 1.210000 189 88 89 0
33.660000 12.980000 1.100000 189 88 89 0
33.880000 12.980000 0.880000 188 89 89 0
34.100000 12.980000 1.540000 188 89 89 0
34.320000 12.980000 6.380000 187 91 90 0
34.540000 12.980000 12.760000 186 90 89 0
34.760000 12.980000 14.960000 187 91 90 0
34.980000 12.980000 14.960000 187 91 90 0
35.200000 12.980000 16.390000 187 95 95 0
35.420000 12.980000 19.580000 187 95 95 0
35.640000 12.980000 20.790000 187 95 95 0
35.860000 12.980000 19.470000 187 95 95 0
36.080000 12.980000 13.200000 188 93 94 0
36.300000 12.980000 3.630000 188 93 94 0
36.520000 12.980000 0.330000 186 95 95 0
36.740000 12.980000 0.990000 185 94 94 0
36.960000 12.980000 0.880000 183 94 93 0
37.180000 12.980000 0.880000 184 95 94 0
0.000000 13.200000 3.080000 184 69 71 0
0.220000 13.200000 3.630000 185 70 72 0
0.440000 13.200000 3.740000 184 69 71 0
0.660000 13.200000 3.190000 185 70 72 0
0.880000 13.200000 3.300000 186 71 73 0
1.100000 13.200000 3.300000 185 70 72 0
1.320000 13.200000 3.300000 185 70 72 0
1.540000 13.200000 3.300000 185 70 72 0
1.760000 13.200000 3.410000 186 71 73 0
1.980000 13.200000 3.410000 186 71 73 0
2.200000 13.200000 4.070000 187 72 74 0
2.420000 13.200000 3.960000 187 72 74 0
2.640000 13.200000 4.730000 187 72 74 0
2.860000 13.200000 4.730000 186 71 73 0
3.080000 13.200000 4.070000 186 71 73 0
3.300000 13.200000 4.070000 186 71 73 0
3.520000 13.200000 4.070000 185 70 72 0
3.740000 13.200000 4.620000 185 70 72 0
3.960000 13.200000 5.720000 183 71 72 0
4.180000 13.200000 6.270000 184 72 73 0
4.400000 13.200000 6.270000 185 70 72 0
4.620000 13.200000 6.270000 186 71 73 0
4.840000 13.200000 6.270000 185 70 72 0
5.060000 13.200000 6.270000 186 71 73 0
5.280000 13.200000 5.610000 185 70 73 0
5.500000 13.200000 5.720000 185 70 73 0
5.720000 13.200000 5.720000 184 72 73 0
5.940000 13.200000 5.720000 184 72 73 0
6.160000 13.200000 5.830000 186 71 73 0
6.380000 13.200000 5.830000 186 71 73 0
6.600000 13.200000 5.170000 185 70 72 0
6.820000 13.200000 5.280000 185 70 72 0
7.040000 13.200000 5.940000 184 69 72 0
7.260000 13.200000 5.940000 184 69 72 0
7.480000 13.200000 6.710000 181 69 70 0
7.700000 13.200000 7.370000 183 71 72 0
7.920000 13.200000 7.480000 185 70 73 0
8.140000 13.200000 7.480000 184 69 72 0
8.360000 13.200000 7.590000 184 69 72 0
8.580000 13.200000 6.930000 183 68 71 0
8.800000 13.200000 6.820000 183 68 71 0
9.020000 13.200000 7.150000 183 68 71 0
9.240000 13.200000 7.700000 183 68 70 0
9.460000 13.200000 8.360000 184 69 71 0
9.680000 13.200000 9.020000 184 69 72 0
9.900000 13.200000 10.450000 183 68 71 0
10.120000 13.200000 10.450000 184 69 72 0
10.340000 13.200000 9.790000 184 69 72 0
10.560000 13.200000 8.470000 182 67 70 0
10.780000 13.200000 9.130000 182 67 70 0
11.000000 13.200000 11.220000 183 68 71 0
11.220000 13.200000 11.990000 182 67 70 0
11.440000 13.200000 11.990000 183 68 71 0
11.660000 13.200000 11.440000 184 69 72 0
11.880000 13.200000 11.440000 183 67 73 0
12.100000 13.200000 10.780000 184 68 74 0
12.320000 13.200000 11.440000 183 68 71 0
12.540000 13.200000 12.210000 183 68 71 0
12.760000 13.200000 12.870000 183 68 71 0
12.980000 13.200000 12.870000 182 67 70 0
13.200000 13.200000 13.640000 183 67 73 0
13.420000 13.200000 12.980000 182 66 72 0
13.640000 13.200000 12.980000 182 66 72 0
13.860000 13.200000 13.090000 180 64 70 0
14.080000 13.200000 13.090000 180 64 70 0
14.300000 13.200000 13.090000 180 64 70 0
14.520000 13.200000 13.750000 179 63 69 0
14.740000 13.200000 14.300000 179 63 69 0
14.960000 13.200000 15.290000 180 64 70 0
15.180000 13.200000 15.950000 180 64 70 0
15.400000 13.200000 15.950000 178 62 68 0
15.620000 13.200000 15.950000 178 62 68 0
15.840000 13.200000 15.950000 178 62 68 0
16.060000 13.200000 15.950000 178 62 68 0
16.280000 13.200000 16.060000 178 62 68 0
16.500000 13.200000 16.720000 180 64 70 0
16.720000 13.200000 16.720000 180 64 70 0
16.940000 13.200000 17.490000 180 64 70 0
17.160000 13.200000 17.490000 180 64 70 0
17.380000 13.200000 17.490000 179 63 69 0
17.600000 13.200000 17.600000 179 63 69 0
17.820000 13.200000 18.260000 181 65 71 0
18.040000 13.200000 18.260000 180 64 70 0
18.260000 13.200000 18.920000 181 65 71 0
18.480000 13.200000 18.810000 180 64 70 0
18.700000 13.200000 19.470000 182 66 72 0
18.920000 13.200000 20.240000 184 68 74 0
19.140000 13.200000 20.350000 184 68 74 0
19.360000 13.200000 20.460000 184 71 76 0
19.580000 13.200000 19.910000 185 72 77 0
19.800000 13.200000 19.910000 185 72 77 0
20.020000 13.200000 19.910000 185 72 77 0
20.240000 13.200000 20.570000 183 70 75 0
20.460000 13.200000 20.570000 184 71 76 0
20.680000 13.200000 19.910000 184 71 76 0
20.900000 13.200000 19.910000 185 72 77 0
21.120000 13.200000 18.480000 185 72 77 0
21.340000 13.200000 13.640000 186 73 78 0
21.560000 13.200000 9.570000 187 74 79 0
21.780000 13.200000 12.320000 184 71 76 0
22.000000 13.200000 12.430000 184 71 76 0
22.220000 13.200000 5.500000 182 69 74 0
22.440000 13.200000 0.550000 181 68 73 0
22.880000 13.200000 0.110000 181 70 74 0
23.100000 13.200000 0.770000 181 70 74 0
23.320000 13.200000 0.770000 180 69 73 0
23.540000 13.200000 1.430000 183 72 76 0
23.760000 13.200000 1.430000 183 72 76 0
23.980000 13.200000 1.430000 183 72 76 0
24.200000 13.200000 1.430000 181 70 74 0
24.420000 13.200000 0.770000 183 72 76 0
24.640000 13.200000 0.770000 183 72 76 0
24.860000 13.200000 0.880000 184 73 77 0
25.080000 13.200000 0.880000 183 73 77 0
25.300000 13.200000 0.880000 183 73 77 0
25.520000 13.200000 0.880000 184 74 78 0
25.740000 13.200000 0.880000 184 74 78 0
25.960000 13.200000 0.880000 182 72 76 0
26.180000 13.200000 0.880000 183 73 77 0
26.400000 13.200000 0.880000 184 74 78 0
26.620000 13.200000 0.990000 185 75 79 0
26.840000 13.200000 0.990000 182 75 78 0
27.060000 13.200000 0.990000 183 76 79 0
27.280000 13.200000 1.100000 182 75 78 0
27.500000 13.200000 0.440000 184 77 80 0
27.720000 13.200000 0.440000 183 76 79 0
27.940000 13.200000 0.440000 184 77 80 0
28.160000 13.200000 0.550000 182 75 78 0
28.380000 13.200000 0.550000 183 76 79 0
28.600000 13.200000 0.660000 184 77 80 0
28.820000 13.200000 0.660000 183 76 79 0
29.040000 13.200000 1.320000 183 78 80 0
29.260000 13.200000 1.320000 184 79 81 0
29.480000 13.200000 1.320000 185 78 81 0
29.700000 13.200000 0.660000 183 76 79 0
29.920000 13.200000 0.660000 182 77 79 0
30.140000 13.200000 1.100000 183 78 80 0
30.360000 13.200000 2.200000 183 78 80 0
30.580000 13.200000 2.750000 184 79 81 0
30.800000 13.200000 3.520000 184 79 81 0
31.020000 13.200000 3.520000 184 79 81 0
31.240000 13.200000 4.290000 182 79 81 0
31.460000 13.200000 4.290000 184 81 83 0
31.680000 13.200000 4.400000 184 81 83 0
31.900000 13.200000 4.400000 185 82 84 0
32.120000 13.200000 4.290000 185 82 84 0
32.340000 13.200000 4.290000 186 83 85 0
32.560000 13.200000 3.740000 185 84 85 0
32.780000 13.200000 3.080000 185 84 85 0
33.000000 13.200000 2.530000 184 83 84 0
33.220000 13.200000 1.870000 187 86 87 0
33.440000 13.200000 0.550000 188 87 88 0
33.880000 13.200000 1.210000 188 89 89 0
34.100000 13.200000 5.830000 189 90 90 0
34.320000 13.200000 13.530000 187 91 90 0
34.540000 13.200000 19.140000 188 92 91 0
34.760000 13.200000 19.800000 188 92 91 0
34.980000 13.200000 19.910000 187 91 90 0
35.200000 13.200000 19.800000 187 95 95 0
35.420000 13.200000 20.240000 189 97 97 0
35.640000 13.200000 20.790000 187 95 95 0
35.860000 13.200000 20.790000 188 96 96 0
36.080000 13.200000 17.380000 189 94 95 0
36.300000 13.200000 8.360000 189 94 95 0
36.520000 13.200000 2.200000 187 96 96 0
36.740000 13.200000 0.880000 186 95 95 0
36.960000 13.200000 0.880000 184 95 94 0
37.180000 13.200000 0.110000 184 95 94 0
0.000000 13.420000 3.080000 186 71 73 0
0.220000 13.420000 3.740000 185 70 72 0
0.440000 13.420000 3.190000 183 71 70 0
0.660000 13.420000 3.300000 183 71 70 0
0.880000 13.420000 3.300000 184 72 73 0
1.100000 13.420000 3.300000 183 71 72 0
1.320000 13.420000 3.300000 186 71 73 0
1.540000 13.420000 3.410000 186 71 73 0
1.760000 13.420000 3.410000 185 70 72 0
1.980000 13.420000 4.070000 186 71 73 0
2.200000 13.420000 4.070000 185 73 72 0
2.420000 13.420000 3.960000 185 73 72 0
2.640000 13.420000 4.730000 185 73 74 0
2.860000 13.420000 4.070000 185 73 74 0
3.080000 13.420000 4.070000 187 72 75 0
3.300000 13.420000 4.070000 185 70 73 0
3.520000 13.420000 4.730000 186 71 73 0
3.740000 13.420000 5.060000 185 70 72 0
3.960000 13.420000 5.610000 183 71 72 0
4.180000 13.420000 6.270000 185 73 74 0
4.400000 13.420000 6.270000 182 70 71 0
4.620000 13.420000 6.270000 182 70 71 0
4.840000 13.420000 6.270000 185 70 73 0
5.060000 13.420000 6.270000 186 71 74 0
5.280000 13.420000 5.610000 185 70 72 0
5.500000 13.420000 5.720000 185 70 72 0
5.720000 13.420000 5.720000 182 70 71 0
5.940000 13.420000 5.720000 183 71 72 0
6.160000 13.420000 5.830000 183 71 72 0
6.380000 13.420000 5.170000 183 71 72 0
6.600000 13.420000 5.170000 185 70 73 0
6.820000 13.420000 5.280000 185 70 73 0
7.040000 13.420000 5.280000 184 69 72 0
7.260000 13.420000 6.050000 183 68 71 0
7.480000 13.420000 6.710000 181 69 70 0
7.700000 13.420000 6.710000 182 70 71 0
7.920000 13.420000 7.480000 182 69 72 0
8.140000 13.420000 7.480000 181 68 71 0
8.360000 13.420000 7.590000 184 69 72 0
8.580000 13.420000 6.820000 184 69 72 0
8.800000 13.420000 7.370000 183 68 71 0
9.020000 13.420000 7.040000 183 68 71 0
9.240000 13.420000 7.590000 183 68 71 0
9.460000 13.420000 8.360000 184 69 72 0
9.680000 13.420000 9.020000 182 69 72 0
9.900000 13.420000 10.450000 181 68 71 0
10.120000 13.420000 10.450000 182 67 70 0
10.340000 13.420000 9.130000 183 68 71 0
10.560000 13.420000 8.470000 182 67 70 0
10.780000 13.420000 9.900000 182 67 70 0
11.000000 13.420000 11.330000 183 68 71 0
11.220000 13.420000 11.990000 182 67 70 0
11.440000 13.420000 12.100000 183 67 73 0
11.660000 13.420000 11.440000 182 66 72 0
11.880000 13.420000 11.440000 182 66 72 0
12.100000 13.420000 11.440000 182 66 72 0
12.320000 13.420000 11.440000 182 66 72 0
12.540000 13.420000 12.210000 182 66 72 0
12.760000 13.420000 12.870000 181 65 71 0
12.980000 13.420000 12.980000 181 65 71 0
13.200000 13.420000 13.640000 181 65 71 0
13.420000 13.420000 12.980000 182 66 72 0
13.640000 13.420000 13.090000 181 65 71 0
13.860000 13.420000 13.090000 181 65 71 0
14.080000 13.420000 13.090000 180 64 70 0
14.300000 13.420000 13.750000 179 63 69 0
14.520000 13.420000 14.410000 178 62 68 0
14.740000 13.420000 14.740000 179 63 69 0
14.960000 13.420000 15.950000 180 64 70 0
15.180000 13.420000 15.950000 179 63 69 0
15.400000 13.420000 15.950000 178 62 68 0
15.620000 13.420000 15.950000 177 61 67 0
15.840000 13.420000 15.950000 178 62 68 0
16.060000 13.420000 16.060000 178 62 68 0
16.280000 13.420000 16.060000 179 63 69 0
16.500000 13.420000 16.720000 178 62 68 0
16.720000 13.420000 16.830000 179 63 69 0
16.940000 13.420000 16.830000 179 63 69 0
17.160000 13.420000 17.490000 180 64 70 0
17.380000 13.420000 17.490000 179 63 69 0
17.600000 13.420000 17.600000 180 64 70 0
17.820000 13.420000 18.260000 180 64 70 0
18.040000 13.420000 18.260000 179 63 69 0
18.260000 13.420000 18.260000 180 64 70 0
18.480000 13.420000 18.920000 180 67 72 0
18.700000 13.420000 19.470000 180 67 72 0
18.920000 13.420000 20.240000 182 66 72 0
19.140000 13.420000 20.350000 183 67 73 0
19.360000 13.420000 20.460000 185 69 75 0
19.580000 13.420000 19.800000 186 70 76 0
19.800000 13.420000 19.910000 184 71 76 0
20.020000 13.420000 19.910000 184 71 76 0
20.240000 13.420000 19.910000 184 71 76 0
20.460000 13.420000 19.910000 185 72 77 0
20.680000 13.420000 19.910000 184 71 76 0
20.900000 13.420000 19.910000 184 71 76 0
21.120000 13.420000 19.910000 185 72 77 0
21.340000 13.420000 18.590000 185 72 77 0
21.560000 13.420000 17.160000 186 73 78 0
21.780000 13.420000 18.590000 186 73 78 0
22.000000 13.420000 18.590000 183 72 76 0
22.220000 13.420000 13.090000 182 71 75 0
22.440000 13.420000 6.050000 180 69 73 0
22.660000 13.420000 1.540000 180 69 73 0
23.100000 13.420000 0.770000 180 69 73 0
23.320000 13.420000 0.770000 182 69 74 0
23.540000 13.420000 1.430000 183 70 75 0
23.760000 13.420000 1.430000 182 71 75 0
23.980000 13.420000 1.430000 182 71 75 0
24.200000 13.420000 0.770000 182 72 76 0
24.420000 13.420000 0.770000 182 72 76 0
24.640000 13.420000 0.770000 181 71 75 0
24.860000 13.420000 0.880000 183 73 77 0
25.080000 13.420000 0.110000 183 73 77 0
25.300000 13.420000 0.880000 183 73 77 0
25.520000 13.420000 0.880000 183 73 77 0
25.740000 13.420000 0.880000 181 71 75 0
25.960000 13.420000 0.880000 183 73 77 0
26.180000 13.420000 0.880000 183 73 77 0
26.400000 13.420000 0.990000 182 75 78 0
26.620000 13.420000 0.990000 180 73 76 0
26.840000 13.420000 0.990000 182 75 78 0
27.060000 13.420000 0.990000 183 76 79 0
27.280000 13.420000 1.100000 184 77 80 0
27.500000 13.420000 0.440000 183 76 79 0
27.720000 13.420000 0.440000 184 77 80 0
27.940000 13.420000 0.440000 182 75 78 0
28.160000 13.420000 0.550000 182 77 79 0
28.380000 13.420000 0.550000 181 76 78 0
28.600000 13.420000 0.660000 181 76 78 0
28.820000 13.420000 0.660000 182 77 79 0
29.040000 13.420000 1.320000 183 78 80 0
29.260000 13.420000 1.320000 183 78 80 0
29.480000 13.420000 1.320000 183 78 80 0
29.700000 13.420000 0.660000 181 76 78 0
29.920000 13.420000 1.210000 183 78 80 0
30.140000 13.420000 1.650000 182 77 79 0
30.360000 13.420000 2.090000 180 77 79 0
30.580000 13.420000 2.860000 182 79 81 0
30.800000 13.420000 2.860000 181 78 80 0
31.020000 13.420000 3.520000 182 79 81 0
31.240000 13.420000 4.290000 182 79 81 0
31.460000 13.420000 4.290000 182 79 81 0
31.680000 13.420000 4.400000 182 81 82 0
31.900000 13.420000 4.400000 184 83 84 0
32.120000 13.420000 4.290000 185 84 85 0
32.340000 13.420000 3.630000 185 84 85 0
32.560000 13.420000 3.740000 184 85 85 0
32.780000 13.420000 3.080000 183 84 84 0
33.000000 13.420000 2.530000 186 85 86 0
33.220000 13.420000 1.210000 187 86 87 0
33.440000 13.420000 0.550000 186 87 87 0
33.660000 13.420000 0.660000 188 89 89 0
33.880000 13.420000 5.500000 186 89 91 0
34.100000 13.420000 13.750000 187 90 92 0
34.320000 13.420000 18.590000 187 91 90 0
34.540000 13.420000 19.910000 187 91 90 0
34.760000 13.420000 19.910000 186 91 92 0
34.980000 13.420000 19.250000 187 92 93 0
35.200000 13.420000 19.800000 186 94 94 0
35.420000 13.420000 20.240000 188 96 96 0
35.640000 13.420000 20.130000 188 96 96 0
35.860000 13.420000 20.790000 189 97 97 0
36.080000 13.420000 19.360000 188 96 96 0
36.300000 13.420000 13.200000 188 96 96 0
36.520000 13.420000 4.950000 189 97 97 0
36.740000 13.420000 0.880000 188 96 96 0
36.960000 13.420000 0.220000 186 97 98 0
37.180000 13.420000 0.220000 184 95 96 0
0.000000 13.640000 3.190000 185 70 72 0
0.220000 13.640000 3.190000 185 70 72 0
0.440000 13.640000 3.300000 183 71 70 0
0.660000 13.640000 3.300000 183 71 70 0
0.880000 13.640000 3.300000 183 71 72 0
1.100000 13.640000 3.300000 184 72 73 0
1.320000 13.640000 3.300000 187 72 74 0
1.540000 13.640000 3.410000 187 72 74 0
1.760000 13.640000 4.070000 186 71 73 0
1.980000 13.640000 4.070000 185 70 72 0
2.200000 13.640000 4.070000 185 73 72 0
2.420000 13.640000 3.960000 185 73 72 0
2.640000 13.640000 4.730000 184 72 73 0
2.860000 13.640000 4.070000 183 71 72 0
3.080000 13.640000 4.070000 186 71 74 0
3.300000 13.640000 4.070000 186 71 74 0
3.520000 13.640000 4.620000 186 71 73 0
3.740000 13.640000 5.720000 185 70 72 0
3.960000 13.640000 6.270000 184 72 73 0
4.180000 13.640000 6.270000 183 71 72 0
4.400000 13.640000 6.270000 183 71 72 0
4.620000 13.640000 6.270000 183 71 72 0
4.840000 13.640000 6.270000 186 71 74 0
5.060000 13.640000 6.270000 184 69 72 0
5.280000 13.640000 5.610000 185 70 72 0
5.500000 13.640000 5.720000 184 69 71 0
5.720000 13.640000 5.720000 183 71 72 0
5.940000 13.640000 5.830000 183 71 72 0
6.160000 13.640000 5.830000 183 71 72 0
6.380000 13.640000 5.170000 184 72 73 0
6.600000 13.640000 5.170000 185 70 73 0
6.820000 13.640000 5.280000 185 70 73 0
7.040000 13.640000 5.280000 186 71 74 0
7.260000 13.640000 6.050000 185 70 73 0
7.480000 13.640000 6.050000 182 70 71 0
7.700000 13.640000 6.820000 182 70 71 0
7.920000 13.640000 7.480000 181 68 71 0
8.140000 13.640000 7.590000 181 68 71 0
8.360000 13.640000 7.590000 184 69 72 0
8.580000 13.640000 7.480000 184 69 72 0
8.800000 13.640000 7.150000 183 68 71 0
9.020000 13.640000 7.700000 183 68 71 0
9.240000 13.640000 7.590000 182 67 70 0
9.460000 13.640000 8.360000 184 69 72 0
9.680000 13.640000 9.680000 181 68 71 0
9.900000 13.640000 10.450000 182 69 72 0
10.120000 13.640000 10.450000 183 68 71 0
10.340000 13.640000 9.130000 181 66 69 0
10.560000 13.640000 9.130000 182 67 70 0
10.780000 13.640000 9.900000 182 67 70 0
11.000000 13.640000 11.330000 182 67 70 0
11.220000 13.640000 11.990000 181 66 69 0
11.440000 13.640000 12.100000 182 66 72 0
11.660000 13.640000 11.440000 182 66 72 0
11.880000 13.640000 11.440000 181 65 71 0
12.100000 13.640000 11.440000 182 66 72 0
12.320000 13.640000 12.210000 181 65 71 0
12.540000 13.640000 12.210000 180 64 70 0
12.760000 13.640000 12.870000 181 65 71 0
12.980000 13.640000 12.980000 180 64 70 0
13.200000 13.640000 13.640000 181 65 71 0
13.420000 13.640000 13.750000 180 64 70 0
13.640000 13.640000 13.750000 180 64 70 0
13.860000 13.640000 13.750000 180 64 70 0
14.080000 13.640000 13.750000 180 64 70 0
14.300000 13.640000 13.750000 179 63 69 0
14.520000 13.640000 14.960000 180 64 70 0
14.740000 13.640000 15.290000 178 62 68 0
14.960000 13.640000 15.950000 179 63 69 0
15.180000 13.640000 15.950000 180 64 70 0
15.400000 13.640000 15.950000 179 63 69 0
15.620000 13.640000 15.950000 178 62 68 0
15.840000 13.640000 15.950000 178 62 68 0
16.060000 13.640000 16.060000 178 62 68 0
16.280000 13.640000 16.720000 178 62 68 0
16.500000 13.640000 16.720000 178 62 68 0
16.720000 13.640000 16.830000 180 64 70 0
16.940000 13.640000 16.830000 180 64 70 0
17.160000 13.640000 16.830000 179 63 69 0
17.380000 13.640000 16.830000 181 65 71 0
17.600000 13.640000 17.600000 181 65 71 0
17.820000 13.640000 17.600000 180 64 70 0
18.040000 13.640000 17.600000 181 65 71 0
18.260000 13.640000 17.710000 180 64 70 0
18.480000 13.640000 17.710000 180 67 72 0
18.700000 13.640000 18.920000 181 68 73 0
18.920000 13.640000 19.580000 183 67 73 0
19.140000 13.640000 19.690000 183 67 73 0
19.360000 13.640000 19.800000 184 68 74 0
19.580000 13.640000 19.800000 186 70 76 0
19.800000 13.640000 19.910000 183 70 75 0
20.020000 13.640000 19.910000 185 72 77 0
20.240000 13.640000 19.910000 185 72 77 0
20.460000 13.640000 19.910000 184 71 76 0
20.680000 13.640000 19.910000 184 71 76 0
20.900000 13.640000 19.910000 183 70 75 0
21.120000 13.640000 19.910000 183 70 75 0
21.340000 13.640000 19.910000 184 71 76 0
21.560000 13.640000 19.910000 184 71 76 0
21.780000 13.640000 20.020000 184 71 76 0
22.000000 13.640000 20.020000 182 71 75 0
22.220000 13.640000 18.590000 182 71 75 0
22.440000 13.640000 12.870000 180 69 73 0
22.660000 13.640000 4.290000 181 70 74 0
23.100000 13.640000 0.770000 180 69 73 0
23.320000 13.640000 0.770000 183 70 75 0
23.540000 13.640000 0.770000 181 68 73 0
23.760000 13.640000 1.430000 182 71 75 0
23.980000 13.640000 1.430000 181 70 74 0
24.200000 13.640000 0.770000 181 71 75 0
24.420000 13.640000 0.770000 182 72 76 0
24.640000 13.640000 0.880000 182 72 76 0
24.860000 13.640000 0.880000 182 72 76 0
25.080000 13.640000 0.110000 183 73 77 0
25.300000 13.640000 0.880000 183 73 77 0
25.520000 13.640000 0.880000 183 73 77 0
25.740000 13.640000 0.880000 182 72 76 0
25.960000 13.640000 0.880000 183 73 77 0
26.180000 13.640000 0.880000 183 73 77 0
26.400000 13.640000 0.990000 181 74 77 0
26.620000 13.640000 0.990000 181 74 77 0
26.840000 13.640000 0.990000 181 74 77 0
27.060000 13.640000 0.990000 183 76 79 0
27.280000 13.640000 1.100000 183 76 79 0
27.500000 13.640000 0.440000 185 78 81 0
27.720000 13.640000 0.440000 184 77 80 0
27.940000 13.640000 0.440000 184 77 80 0
28.160000 13.640000 0.550000 181 76 78 0
28.380000 13.640000 0.550000 183 78 80 0
28.600000 13.640000 0.550000 184 79 81 0
28.820000 13.640000 0.660000 183 78 80 0
29.040000 13.640000 0.660000 183 78 80 0
29.260000 13.640000 1.320000 183 78 80 0
29.480000 13.640000 1.320000 184 79 81 0
29.700000 13.640000 0.660000 182 77 79 0
29.920000 13.640000 1.210000 182 77 79 0
30.140000 13.640000 1.540000 182 77 79 0
30.360000 13.640000 2.090000 180 77 79 0
30.580000 13.640000 2.090000 182 79 81 0
30.800000 13.640000 2.860000 182 79 81 0
31.020000 13.640000 3.520000 182 79 81 0
31.240000 13.640000 4.290000 182 79 81 0
31.460000 13.640000 4.290000 182 79 81 0
31.680000 13.640000 4.400000 183 82 83 0
31.900000 13.640000 3.740000 184 83 84 0
32.120000 13.640000 3.740000 185 84 85 0
32.340000 13.640000 3.740000 185 84 85 0
32.560000 13.640000 3.080000 186 87 87 0
32.780000 13.640000 3.080000 185 86 86 0
33.000000 13.640000 2.530000 186 85 86 0
33.220000 13.640000 1.100000 187 86 87 0
33.440000 13.640000 1.210000 187 88 88 0
33.660000 13.640000 5.390000 187 88 88 0
33.880000 13.640000 13.090000 187 90 92 0
34.100000 13.640000 17.930000 186 89 91 0
34.320000 13.640000 19.250000 187 91 90 0
34.540000 13.640000 19.250000 187 91 90 0
34.760000 13.640000 19.250000 187 92 93 0
34.980000 13.640000 19.800000 187 92 93 0
35.200000 13.640000 19.580000 187 95 95 0
35.420000 13.640000 20.130000 187 95 95 0
35.640000 13.640000 20.130000 188 96 96 0
35.860000 13.640000 20.790000 188 96 96 0
36.080000 13.640000 20.790000 188 96 96 0
36.300000 13.640000 15.950000 189 97 97 0
36.520000 13.640000 5.610000 189 97 97 0
36.740000 13.640000 0.880000 188 96 96 0
36.960000 13.640000 0.220000 187 98 99 0
37.180000 13.640000 0.220000 187 98 99 0
0.000000 13.860000 2.640000 183 71 72 0
0.220000 13.860000 2.640000 183 71 72 0
0.440000 13.860000 3.410000 183 71 70 0
0.660000 13.860000 3.300000 184 72 71 0
0.880000 13.860000 3.300000 184 72 73 0
1.100000 13.860000 3.300000 183 71 72 0
1.320000 13.860000 3.300000 185 73 74 0
1.540000 13.860000 3.410000 184 72 73 0
1.760000 13.860000 4.070000 184 72 73 0
1.980000 13.860000 4.070000 184 72 73 0
2.200000 13.860000 4.070000 187 72 74 0
2.420000 13.860000 4.730000 186 71 73 0
2.640000 13.860000 4.730000 184 72 73 0
2.860000 13.860000 4.070000 184 72 73 0
3.080000 13.860000 4.070000 185 70 72 0
3.300000 13.860000 4.730000 184 69 71 0
3.520000 13.860000 4.620000 184 72 73 0
3.740000 13.860000 5.720000 183 71 72 0
3.960000 13.860000 6.270000 183 71 72 0
4.180000 13.860000 6.270000 184 72 73 0
4.400000 13.860000 6.270000 183 71 72 0
4.620000 13.860000 6.270000 183 71 72 0
4.840000 13.860000 6.270000 185 70 72 0
5.060000 13.860000 6.270000 186 71 73 0
5.280000 13.860000 5.720000 184 72 73 0
5.500000 13.860000 5.720000 183 71 72 0
5.720000 13.860000 5.720000 182 70 71 0
5.940000 13.860000 5.830000 184 72 73 0
6.160000 13.860000 5.830000 184 72 73 0
6.380000 13.860000 5.170000 184 72 73 0
6.600000 13.860000 5.280000 185 70 72 0
6.820000 13.860000 5.280000 184 69 71 0
7.040000 13.860000 5.280000 182 69 72 0
7.260000 13.860000 6.050000 181 68 71 0
7.480000 13.860000 6.050000 184 69 72 0
7.700000 13.860000 6.820000 184 69 72 0
7.920000 13.860000 7.480000 183 68 71 0
8.140000 13.860000 7.590000 184 69 72 0
8.360000 13.860000 7.590000 182 69 72 0
8.580000 13.860000 7.370000 182 69 72 0
8.800000 13.860000 7.040000 183 68 71 0
9.020000 13.860000 7.590000 184 69 72 0
9.240000 13.860000 7.590000 184 69 72 0
9.460000 13.860000 8.360000 183 68 71 0
9.680000 13.860000 9.680000 184 69 72 0
9.900000 13.860000 10.450000 183 68 71 0
10.120000 13.860000 9.790000 183 68 71 0
10.340000 13.860000 9.130000 182 67 70 0
10.560000 13.860000 9.130000 183 67 73 0
10.780000 13.860000 10.560000 182 66 72 0
11.000000 13.860000 11.990000 183 67 73 0
11.220000 13.860000 11.990000 182 66 72 0
11.440000 13.860000 12.100000 182 66 72 0
11.660000 13.860000 12.100000 181 65 71 0
11.880000 13.860000 11.440000 181 65 71 0
12.100000 13.860000 11.440000 181 65 71 0
12.320000 13.860000 12.210000 180 64 70 0
12.540000 13.860000 12.210000 181 65 71 0
12.760000 13.860000 12.980000 178 65 70 0
12.980000 13.860000 12.980000 178 65 70 0
13.200000 13.860000 12.980000 180 64 70 0
13.420000 13.860000 13.750000 180 64 70 0
13.640000 13.860000 13.750000 181 65 71 0
13.860000 13.860000 13.750000 180 64 70 0
14.080000 13.860000 13.750000 180 64 70 0
14.300000 13.860000 14.300000 179 63 69 0
14.520000 13.860000 15.400000 179 63 69 0
14.740000 13.860000 15.950000 180 64 70 0
14.960000 13.860000 15.950000 181 65 71 0
15.180000 13.860000 15.950000 179 63 69 0
15.400000 13.860000 15.950000 179 63 71 0
15.620000 13.860000 16.720000 179 63 71 0
15.840000 13.860000 16.720000 178 62 68 0
16.060000 13.860000 16.720000 178 62 68 0
16.280000 13.860000 16.720000 179 63 69 0
16.500000 13.860000 16.720000 179 63 69 0
16.720000 13.860000 16.830000 180 64 70 0
16.940000 13.860000 16.830000 180 64 70 0
17.160000 13.860000 16.830000 179 63 71 0
17.380000 13.860000 16.830000 180 64 72 0
17.600000 13.860000 16.940000 180 64 70 0
17.820000 13.860000 17.600000 180 64 70 0
18.040000 13.860000 17.600000 181 65 71 0
18.260000 13.860000 17.050000 181 65 71 0
18.480000 13.860000 17.050000 181 65 71 0
18.700000 13.860000 18.480000 182 66 72 0
18.920000 13.860000 19.030000 184 68 74 0
19.140000 13.860000 19.800000 184 68 74 0
19.360000 13.860000 19.800000 185 69 77 0
19.580000 13.860000 19.140000 184 68 76 0
19.800000 13.860000 19.140000 183 70 75 0
20.020000 13.860000 19.910000 183 70 75 0
20.240000 13.860000 19.910000 185 72 79 0
20.460000 13.860000 19.910000 185 72 79 0
20.680000 13.860000 19.910000 184 71 78 0
20.900000 13.860000 19.910000 185 72 79 0
21.120000 13.860000 19.910000 185 72 79 0
21.340000 13.860000 19.910000 183 70 77 0
21.560000 13.860000 19.910000 182 71 75 0
21.780000 13.860000 19.250000 182 71 75 0
22.000000 13.860000 19.250000 184 71 76 0
22.220000 13.860000 19.910000 182 69 74 0
22.440000 13.860000 15.510000 183 70 77 0
22.660000 13.860000 5.610000 180 67 74 0
23.100000 13.860000 0.770000 181 69 76 0
23.320000 13.860000 0.770000 181 70 74 0
23.540000 13.860000 0.770000 183 72 76 0
23.760000 13.860000 1.430000 184 72 79 0
23.980000 13.860000 0.770000 183 71 78 0
24.200000 13.860000 0.770000 183 71 78 0
24.420000 13.860000 0.770000 182 70 77 0
24.640000 13.860000 0.880000 181 71 77 0
24.860000 13.860000 0.880000 182 72 78 0
25.080000 13.860000 0.220000 182 72 78 0
25.300000 13.860000 0.880000 184 74 80 0
25.520000 13.860000 0.880000 182 72 78 0
25.740000 13.860000 0.880000 182 72 78 0
25.960000 13.860000 0.880000 182 72 78 0
26.180000 13.860000 0.880000 182 72 78 0
26.400000 13.860000 0.990000 182 75 78 0
26.620000 13.860000 0.990000 181 74 77 0
26.840000 13.860000 0.990000 181 74 77 0
27.060000 13.860000 0.990000 183 76 79 0
27.280000 13.860000 1.100000 183 76 81 0
27.500000 13.860000 0.440000 183 76 81 0
27.720000 13.860000 0.440000 185 78 83 0
27.940000 13.860000 0.440000 183 76 81 0
28.160000 13.860000 0.550000 184 77 82 0
28.380000 13.860000 0.550000 183 76 81 0
28.600000 13.860000 0.550000 182 77 79 0
28.820000 13.860000 0.660000 183 78 80 0
29.040000 13.860000 0.660000 184 79 81 0
29.260000 13.860000 1.320000 184 79 81 0
29.480000 13.860000 1.320000 182 76 81 0
29.700000 13.860000 0.660000 182 76 81 0
29.920000 13.860000 1.210000 181 76 78 0
30.140000 13.860000 1.540000 183 78 80 0
30.360000 13.860000 2.090000 180 77 79 0
30.580000 13.860000 2.090000 181 78 80 0
30.800000 13.860000 2.860000 181 78 80 0
31.020000 13.860000 3.520000 182 79 81 0
31.240000 13.860000 3.630000 182 79 81 0
31.460000 13.860000 4.290000 183 80 82 0
31.680000 13.860000 3.740000 184 81 83 0
31.900000 13.860000 3.740000 186 83 85 0
32.120000 13.860000 3.740000 185 84 85 0
32.340000 13.860000 3.740000 184 83 84 0
32.560000 13.860000 3.080000 186 85 86 0
32.780000 13.860000 3.190000 186 85 86 0
33.000000 13.860000 1.760000 185 86 86 0
33.220000 13.860000 1.870000 186 87 87 0
33.440000 13.860000 6.050000 187 88 88 0
33.660000 13.860000 12.980000 187 88 88 0
33.880000 13.860000 17.930000 185 89 88 0
34.100000 13.860000 19.360000 188 92 91 0
34.320000 13.860000 19.250000 187 91 90 0
34.540000 13.860000 19.250000 188 92 91 0
34.760000 13.860000 19.250000 186 91 92 0
34.980000 13.860000 19.800000 188 93 94 0
35.200000 13.860000 20.240000 188 93 94 0
35.420000 13.860000 20.790000 189 94 95 0
35.640000 13.860000 20.790000 188 96 96 0
35.860000 13.860000 20.790000 188 96 96 0
36.080000 13.860000 21.450000 188 97 97 0
36.300000 13.860000 15.950000 189 98 98 0
36.520000 13.860000 5.610000 189 97 97 0
36.740000 13.860000 0.110000 188 96 96 0
36.960000 13.860000 0.220000 187 98 99 0
37.180000 13.860000 0.220000 187 98 99 0
0.000000 14.080000 2.750000 183 71 72 0
0.220000 14.080000 2.750000 183 71 72 0
0.440000 14.080000 3.410000 184 72 71 0
0.660000 14.080000 3.300000 184 72 71 0
0.880000 14.080000 3.300000 184 72 73 0
1.100000 14.080000 3.300000 183 71 72 0
1.320000 14.080000 3.300000 185 73 74 0
1.540000 14.080000 3.410000 185 73 74 0
1.760000 14.080000 4.070000 184 72 73 0
1.980000 14.080000 4.070000 183 71 72 0
2.200000 14.080000 4.070000 186 71 73 0
2.420000 14.080000 4.070000 186 71 73 0
2.640000 14.080000 4.730000 184 72 73 0
2.860000 14.080000 4.070000 183 71 72 0
3.080000 14.080000 4.070000 186 71 73 0
3.300000 14.080000 4.730000 186 71 73 0
3.520000 14.080000 5.060000 183 71 72 0
3.740000 14.080000 5.610000 184 72 73 0
3.960000 14.080000 6.270000 184 72 73 0
4.180000 14.080000 6.270000 183 71 72 0
4.400000 14.080000 6.270000 184 72 73 0
4.620000 14.080000 6.270000 184 72 73 0
4.840000 14.080000 6.270000 185 70 72 0
5.060000 14.080000 5.610000 185 70 72 0
5.280000 14.080000 5.720000 183 71 72 0
5.500000 14.080000 5.720000 184 72 73 0
5.720000 14.080000 5.830000 184 72 73 0
5.940000 14.080000 5.830000 183 71 72 0
6.160000 14.080000 5.170000 183 71 72 0
6.380000 14.080000 5.170000 184 72 73 0
6.600000 14.080000 5.280000 185 70 72 0
6.820000 14.080000 5.280000 185 70 72 0
7.040000 14.080000 5.280000 181 68 71 0
7.260000 14.080000 6.050000 182 69 72 0
7.480000 14.080000 6.710000 184 69 72 0
7.700000 14.080000 6.820000 185 70 73 0
7.920000 14.080000 7.480000 185 70 73 0
8.140000 14.080000 7.590000 183 68 71 0
8.360000 14.080000 7.590000 181 68 71 0
8.580000 14.080000 7.370000 182 69 72 0
8.800000 14.080000 7.700000 183 68 71 0
9.020000 14.080000 7.590000 184 69 72 0
9.240000 14.080000 7.590000 184 69 72 0
9.460000 14.080000 8.360000 183 68 71 0
9.680000 14.080000 9.680000 183 68 71 0
9.900000 14.080000 10.450000 182 67 70 0
10.120000 14.080000 9.790000 182 67 70 0
10.340000 14.080000 9.790000 182 67 70 0
10.560000 14.080000 9.900000 182 66 72 0
10.780000 14.080000 11.330000 182 66 72 0
11.000000 14.080000 11.990000 183 67 73 0
11.220000 14.080000 12.100000 183 67 73 0
11.440000 14.080000 12.100000 183 67 73 0
11.660000 14.080000 12.100000 180 64 70 0
11.880000 14.080000 12.100000 181 65 71 0
12.100000 14.080000 12.210000 180 64 70 0
12.320000 14.080000 12.210000 180 64 70 0
12.540000 14.080000 12.210000 181 65 71 0
12.760000 14.080000 12.980000 178 65 70 0
12.980000 14.080000 12.980000 178 65 70 0
13.200000 14.080000 12.980000 180 64 70 0
13.420000 14.080000 13.750000 181 65 71 0
13.640000 14.080000 13.750000 180 64 70 0
13.860000 14.080000 13.750000 180 64 70 0
14.080000 14.080000 14.410000 179 63 69 0
14.300000 14.080000 15.510000 180 64 70 0
14.520000 14.080000 15.950000 181 65 71 0
14.740000 14.080000 15.950000 180 64 70 0
14.960000 14.080000 15.950000 180 64 70 0
15.180000 14.080000 15.950000 179 63 69 0
15.400000 14.080000 16.610000 179 63 71 0
15.620000 14.080000 16.720000 179 63 71 0
15.840000 14.080000 16.720000 178 62 68 0
16.060000 14.080000 16.720000 179 63 69 0
16.280000 14.080000 16.720000 179 63 69 0
16.500000 14.080000 16.720000 180 64 70 0
16.720000 14.080000 16.830000 180 64 70 0
16.940000 14.080000 16.830000 180 64 70 0
17.160000 14.080000 16.830000 180 64 72 0
17.380000 14.080000 16.940000 180 64 72 0
