ply
format ascii 1.0
element vertex 1148
property float x
property float y
property float z
property uchar red
property uchar green
property uchar blue
property uchar alpha
end_header
20.460000 6.380000 0.660000 197 113 108 0
22.000000 6.380000 0.220000 187 82 84 0
22.220000 6.380000 1.760000 188 83 85 0
22.440000 6.380000 1.760000 189 84 86 0
22.660000 6.380000 1.760000 189 86 90 0
22.880000 6.380000 0.440000 191 88 92 0
23.100000 6.380000 0.440000 188 92 98 0
23.320000 6.380000 3.300000 198 102 108 0
23.540000 6.380000 6.160000 194 125 125 0
23.760000 6.380000 7.700000 213 144 144 0
23.980000 6.380000 7.920000 212 188 197 0
24.200000 6.380000 6.600000 250 226 235 0
24.420000 6.380000 6.380000 240 241 240 0
24.640000 6.380000 7.260000 240 241 240 0
24.860000 6.380000 8.580000 247 238 240 0
25.080000 6.380000 7.480000 239 230 232 0
25.300000 6.380000 6.160000 243 205 213 0
25.520000 6.380000 7.700000 217 179 187 0
25.740000 6.380000 7.700000 212 165 168 0
25.960000 6.380000 9.240000 203 156 159 0
26.180000 6.380000 10.560000 210 144 143 0
26.400000 6.380000 13.420000 202 136 135 0
26.620000 6.380000 13.420000 205 115 120 0
26.840000 6.380000 13.420000 196 106 111 0
27.060000 6.380000 12.100000 196 94 100 0
27.280000 6.380000 10.780000 195 93 99 0
27.500000 6.380000 10.780000 194 93 96 0
27.720000 6.380000 10.780000 195 94 97 0
27.940000 6.380000 10.780000 193 90 94 0
28.160000 6.380000 12.320000 193 90 94 0
28.380000 6.380000 12.320000 191 88 92 0
28.600000 6.380000 15.180000 190 87 91 0
28.820000 6.380000 16.500000 192 86 91 0
29.040000 6.380000 15.180000 191 85 90 0
29.260000 6.380000 13.860000 191 85 90 0
29.480000 6.380000 12.320000 190 84 89 0
29.700000 6.380000 10.560000 191 84 87 0
29.920000 6.380000 10.120000 190 83 86 0
30.140000 6.380000 7.260000 190 83 88 0
30.360000 6.380000 5.940000 190 83 88 0
30.580000 6.380000 5.940000 190 83 88 0
30.800000 6.380000 6.160000 190 83 88 0
31.020000 6.380000 5.060000 190 84 89 0
31.240000 6.380000 10.560000 191 85 90 0
31.460000 6.380000 25.300000 192 87 89 0
31.680000 6.380000 34.540000 194 89 91 0
31.900000 6.380000 33.220000 194 88 93 0
32.120000 6.380000 29.260000 195 89 94 0
32.340000 6.380000 29.480000 193 87 92 0
32.560000 6.380000 31.020000 192 86 91 0
32.780000 6.380000 33.660000 192 86 91 0
33.000000 6.380000 32.120000 192 86 91 0
33.220000 6.380000 19.360000 190 89 92 0
33.440000 6.380000 13.860000 191 90 93 0
33.660000 6.380000 25.080000 187 96 106 0
33.880000 6.380000 35.200000 189 98 108 0
34.100000 6.380000 36.740000 179 115 124 0
34.320000 6.380000 39.600000 198 134 143 0
34.540000 6.380000 36.960000 212 154 161 0
34.760000 6.380000 24.640000 219 161 168 0
34.980000 6.380000 8.140000 228 138 143 0
35.200000 6.380000 1.100000 209 119 124 0
35.420000 6.380000 3.960000 198 92 97 0
35.640000 6.380000 5.500000 189 83 88 0
35.860000 6.380000 5.500000 187 81 88 0
36.080000 6.380000 9.240000 184 78 85 0
36.300000 6.380000 15.620000 185 79 86 0
36.520000 6.380000 19.580000 186 80 87 0
36.740000 6.380000 19.800000 185 85 92 0
36.960000 6.380000 20.020000 189 89 96 0
37.180000 6.380000 21.340000 189 103 111 0
0.000000 6.600000 32.780000 180 182 153 0
0.220000 6.600000 33.000000 184 188 161 0
0.440000 6.600000 33.000000 192 196 169 0
0.660000 6.600000 33.000000 194 198 171 0
0.880000 6.600000 33.000000 195 199 172 0
1.100000 6.600000 34.320000 197 201 174 0
1.320000 6.600000 36.520000 199 203 176 0
1.540000 6.600000 37.400000 200 204 176 0
1.760000 6.600000 38.720000 200 204 176 0
1.980000 6.600000 40.260000 199 201 174 0
2.200000 6.600000 40.260000 200 202 175 0
2.420000 6.600000 40.480000 200 202 175 0
2.640000 6.600000 40.480000 201 203 176 0
2.860000 6.600000 40.480000 201 205 177 0
3.080000 6.600000 40.480000 201 205 177 0
3.300000 6.600000 40.480000 203 205 178 0
3.520000 6.600000 42.020000 203 205 178 0
3.740000 6.600000 39.160000 204 206 179 0
3.960000 6.600000 25.520000 205 207 180 0
4.180000 6.600000 6.160000 205 207 180 0
4.840000 6.600000 0.880000 206 208 182 0
5.060000 6.600000 0.880000 206 208 181 0
5.280000 6.600000 2.420000 205 207 180 0
5.500000 6.600000 3.740000 205 207 180 0
5.720000 6.600000 3.740000 202 204 177 0
5.940000 6.600000 3.520000 200 202 173 0
6.160000 6.600000 3.520000 198 200 171 0
6.380000 6.600000 1.980000 199 197 167 0
6.600000 6.600000 2.200000 196 194 164 0
6.820000 6.600000 0.660000 194 190 158 0
7.040000 6.600000 0.880000 191 187 155 0
7.260000 6.600000 0.880000 190 186 154 0
7.480000 6.600000 0.880000 188 184 152 0
7.700000 6.600000 0.880000 189 183 152 0
8.140000 6.600000 5.060000 188 182 153 0
8.360000 6.600000 20.240000 188 182 153 0
8.580000 6.600000 35.420000 188 182 151 0
8.800000 6.600000 39.600000 189 183 152 0
9.020000 6.600000 38.280000 189 185 155 0
9.240000 6.600000 36.960000 188 184 154 0
9.460000 6.600000 36.960000 190 186 156 0
9.680000 6.600000 37.180000 190 186 156 0
9.900000 6.600000 37.180000 190 186 156 0
10.120000 6.600000 37.180000 190 186 156 0
10.340000 6.600000 35.860000 189 187 159 0
10.560000 6.600000 36.960000 190 188 160 0
10.780000 6.600000 37.840000 190 188 160 0
11.000000 6.600000 38.940000 191 189 161 0
11.220000 6.600000 40.260000 192 190 164 0
11.440000 6.600000 40.260000 193 191 165 0
11.660000 6.600000 40.260000 194 192 166 0
11.880000 6.600000 41.800000 194 192 166 0
12.100000 6.600000 41.800000 194 193 168 0
12.320000 6.600000 42.020000 195 194 169 0
12.540000 6.600000 33.660000 195 194 169 0
12.760000 6.600000 18.480000 197 196 171 0
12.980000 6.600000 10.340000 198 195 171 0
13.200000 6.600000 14.520000 199 196 172 0
13.420000 6.600000 28.380000 198 197 174 0
13.640000 6.600000 39.380000 198 197 174 0
13.860000 6.600000 40.920000 198 197 172 0
14.080000 6.600000 38.280000 198 197 172 0
14.300000 6.600000 24.420000 199 198 173 0
14.520000 6.600000 6.600000 201 200 175 0
14.960000 6.600000 1.100000 199 197 171 0
15.180000 6.600000 10.780000 212 178 164 0
15.400000 6.600000 23.320000 204 170 156 0
15.620000 6.600000 31.680000 212 152 146 0
15.840000 6.600000 28.820000 203 143 137 0
16.060000 6.600000 20.680000 213 119 115 0
16.280000 6.600000 26.180000 197 103 99 0
16.500000 6.600000 34.540000 191 95 94 0
16.720000 6.600000 35.640000 191 95 94 0
16.940000 6.600000 36.300000 193 92 93 0
17.160000 6.600000 36.080000 192 91 92 0
17.380000 6.600000 40.260000 191 90 93 0
17.600000 6.600000 41.800000 191 90 93 0
17.820000 6.600000 40.480000 191 90 91 0
18.040000 6.600000 39.380000 192 91 92 0
18.260000 6.600000 29.700000 191 95 94 0
18.480000 6.600000 10.560000 192 96 95 0
18.920000 6.600000 2.420000 193 92 93 0
19.140000 6.600000 13.640000 192 91 94 0
19.360000 6.600000 28.820000 191 90 93 0
19.580000 6.600000 27.500000 191 88 90 0
19.800000 6.600000 13.640000 190 87 89 0
20.020000 6.600000 6.600000 186 91 90 0
20.240000 6.600000 1.100000 198 103 102 0
21.340000 6.600000 0.660000 188 83 83 0
21.560000 6.600000 1.760000 187 82 82 0
21.780000 6.600000 0.220000 187 82 84 0
22.000000 6.600000 0.220000 187 82 84 0
22.220000 6.600000 1.540000 188 83 85 0
22.440000 6.600000 2.860000 189 84 86 0
22.660000 6.600000 1.540000 187 84 88 0
22.880000 6.600000 3.080000 189 86 90 0
23.100000 6.600000 7.260000 189 93 99 0
23.320000 6.600000 5.940000 196 100 106 0
23.540000 6.600000 7.260000 192 123 123 0
23.760000 6.600000 8.800000 202 133 133 0
23.980000 6.600000 10.340000 198 174 183 0
24.200000 6.600000 9.020000 234 210 219 0
24.420000 6.600000 8.800000 231 232 231 0
24.640000 6.600000 10.120000 240 241 240 0
24.860000 6.600000 10.120000 246 237 239 0
25.080000 6.600000 9.020000 238 229 231 0
25.300000 6.600000 7.700000 255 217 225 0
25.520000 6.600000 7.700000 223 185 193 0
25.740000 6.600000 9.240000 222 175 178 0
25.960000 6.600000 10.560000 215 168 171 0
26.180000 6.600000 13.420000 215 149 148 0
26.400000 6.600000 13.420000 205 139 138 0
26.620000 6.600000 13.420000 209 119 124 0
26.840000 6.600000 13.420000 200 110 115 0
27.060000 6.600000 12.100000 199 97 103 0
27.280000 6.600000 10.780000 197 95 101 0
27.500000 6.600000 10.780000 197 96 99 0
27.720000 6.600000 10.780000 197 96 99 0
27.940000 6.600000 10.780000 196 93 97 0
28.160000 6.600000 12.320000 194 91 95 0
28.380000 6.600000 13.640000 191 88 92 0
28.600000 6.600000 15.180000 191 88 92 0
28.820000 6.600000 17.820000 192 86 91 0
29.040000 6.600000 16.500000 192 86 91 0
29.260000 6.600000 13.640000 192 86 91 0
29.480000 6.600000 11.000000 191 85 90 0
29.700000 6.600000 9.460000 191 84 87 0
29.920000 6.600000 7.920000 190 83 86 0
30.140000 6.600000 6.600000 191 84 89 0
30.360000 6.600000 5.280000 190 83 88 0
30.580000 6.600000 3.740000 190 83 88 0
30.800000 6.600000 5.280000 190 83 88 0
31.020000 6.600000 3.960000 189 83 88 0
31.240000 6.600000 5.060000 191 85 90 0
31.460000 6.600000 16.940000 193 88 90 0
31.680000 6.600000 30.360000 194 89 91 0
31.900000 6.600000 34.760000 194 88 93 0
32.120000 6.600000 32.120000 193 87 92 0
32.340000 6.600000 32.120000 194 88 93 0
32.560000 6.600000 32.340000 192 86 91 0
32.780000 6.600000 33.660000 191 85 90 0
33.000000 6.600000 29.260000 192 86 91 0
33.220000 6.600000 15.400000 190 89 92 0
33.440000 6.600000 7.040000 193 92 95 0
33.660000 6.600000 15.620000 187 96 106 0
33.880000 6.600000 29.700000 192 101 111 0
34.100000 6.600000 34.100000 183 119 128 0
34.320000 6.600000 34.100000 208 144 153 0
34.540000 6.600000 28.820000 220 162 169 0
34.760000 6.600000 13.640000 212 154 161 0
34.980000 6.600000 2.420000 225 135 140 0
35.200000 6.600000 2.420000 196 106 111 0
35.420000 6.600000 3.960000 193 87 92 0
35.640000 6.600000 3.960000 189 83 88 0
35.860000 6.600000 3.960000 186 80 87 0
36.080000 6.600000 9.240000 186 80 87 0
36.300000 6.600000 17.160000 185 79 86 0
36.520000 6.600000 21.120000 186 80 87 0
36.740000 6.600000 19.800000 185 85 92 0
36.960000 6.600000 20.020000 189 89 96 0
37.180000 6.600000 21.340000 186 100 108 0
0.000000 6.820000 32.780000 180 182 153 0
0.220000 6.820000 32.780000 184 188 158 0
0.440000 6.820000 33.000000 189 193 163 0
0.660000 6.820000 31.680000 192 197 170 0
0.880000 6.820000 31.680000 195 200 173 0
1.100000 6.820000 34.100000 196 201 174 0
1.320000 6.820000 36.300000 198 203 176 0
1.540000 6.820000 37.400000 200 204 177 0
1.760000 6.820000 38.720000 199 203 176 0
1.980000 6.820000 40.260000 198 202 172 0
2.200000 6.820000 40.260000 198 202 172 0
2.420000 6.820000 40.480000 201 203 176 0
2.640000 6.820000 40.480000 202 204 177 0
2.860000 6.820000 40.480000 201 205 177 0
3.080000 6.820000 40.480000 203 207 179 0
3.300000 6.820000 40.480000 204 206 180 0
3.520000 6.820000 40.700000 204 206 180 0
3.740000 6.820000 42.020000 205 207 180 0
3.960000 6.820000 33.880000 206 208 181 0
4.180000 6.820000 14.520000 205 207 181 0
4.400000 6.820000 1.980000 206 208 182 0
5.060000 6.820000 0.880000 206 210 183 0
5.280000 6.820000 2.200000 205 209 182 0
5.500000 6.820000 3.740000 204 208 180 0
5.720000 6.820000 3.740000 203 207 179 0
5.940000 6.820000 3.740000 202 204 175 0
6.160000 6.820000 3.520000 200 202 173 0
6.380000 6.820000 2.200000 198 198 167 0
6.600000 6.820000 2.200000 197 197 166 0
6.820000 6.820000 0.880000 194 192 162 0
7.040000 6.820000 0.880000 191 189 159 0
7.260000 6.820000 0.880000 189 187 157 0
7.480000 6.820000 0.880000 188 186 156 0
8.140000 6.820000 0.880000 188 184 154 0
8.360000 6.820000 14.740000 187 183 153 0
8.580000 6.820000 32.780000 189 185 155 0
8.800000 6.820000 39.600000 188 184 154 0
9.020000 6.820000 38.280000 187 185 155 0
9.240000 6.820000 36.960000 187 185 155 0
9.460000 6.820000 35.640000 187 185 155 0
9.680000 6.820000 35.640000 188 186 156 0
9.900000 6.820000 35.860000 190 186 156 0
10.120000 6.820000 35.860000 191 187 157 0
10.340000 6.820000 35.860000 189 187 159 0
10.560000 6.820000 36.740000 190 188 160 0
10.780000 6.820000 38.940000 190 189 163 0
11.000000 6.820000 40.260000 191 190 164 0
11.220000 6.820000 40.260000 193 191 163 0
11.440000 6.820000 40.260000 193 191 163 0
11.660000 6.820000 40.260000 193 191 163 0
11.880000 6.820000 41.800000 195 193 165 0
12.100000 6.820000 41.800000 195 194 168 0
12.320000 6.820000 42.020000 194 193 167 0
12.540000 6.820000 31.020000 196 195 169 0
12.760000 6.820000 10.340000 196 195 169 0
13.200000 6.820000 1.980000 197 196 171 0
13.420000 6.820000 11.660000 198 197 172 0
13.640000 6.820000 28.380000 198 197 172 0
13.860000 6.820000 38.060000 198 198 169 0
14.080000 6.820000 40.920000 198 198 169 0
14.300000 6.820000 29.920000 199 198 173 0
14.520000 6.820000 9.240000 201 200 175 0
14.740000 6.820000 1.100000 204 199 175 0
14.960000 6.820000 10.780000 200 195 171 0
15.180000 6.820000 25.960000 215 178 164 0
15.400000 6.820000 35.640000 205 168 154 0
15.620000 6.820000 37.180000 216 151 142 0
15.840000 6.820000 34.540000 205 140 131 0
16.060000 6.820000 33.000000 212 116 112 0
16.280000 6.820000 34.540000 197 101 97 0
16.500000 6.820000 35.860000 195 96 96 0
16.720000 6.820000 34.320000 193 94 94 0
16.940000 6.820000 26.840000 193 92 95 0
17.160000 6.820000 23.760000 192 91 94 0
17.380000 6.820000 34.760000 192 91 92 0
17.600000 6.820000 41.800000 191 90 91 0
17.820000 6.820000 40.480000 191 90 91 0
18.040000 6.820000 39.380000 192 91 92 0
18.260000 6.820000 29.700000 191 92 92 0
18.480000 6.820000 9.020000 193 94 94 0
19.140000 6.820000 6.820000 193 90 92 0
19.360000 6.820000 16.280000 191 88 90 0
19.580000 6.820000 12.320000 192 87 89 0
19.800000 6.820000 1.100000 191 86 88 0
20.680000 6.820000 1.100000 200 111 110 0
20.900000 6.820000 1.320000 202 99 101 0
21.120000 6.820000 1.100000 190 87 89 0
21.340000 6.820000 0.660000 188 83 83 0
21.560000 6.820000 1.760000 187 82 82 0
21.780000 6.820000 1.540000 187 82 84 0
22.000000 6.820000 1.540000 187 82 84 0
22.220000 6.820000 2.860000 187 82 84 0
22.440000 6.820000 2.860000 188 83 85 0
22.660000 6.820000 1.540000 188 85 87 0
22.880000 6.820000 8.580000 188 85 87 0
23.100000 6.820000 16.720000 186 91 94 0
23.320000 6.820000 9.900000 196 101 104 0
23.540000 6.820000 4.400000 191 122 122 0
23.760000 6.820000 8.800000 203 134 134 0
23.980000 6.820000 11.660000 194 174 168 0
24.200000 6.820000 11.660000 228 208 202 0
24.420000 6.820000 11.660000 240 228 227 0
24.640000 6.820000 11.660000 247 235 234 0
24.860000 6.820000 10.340000 246 224 224 0
25.080000 6.820000 9.020000 239 217 217 0
25.300000 6.820000 9.020000 241 213 204 0
25.520000 6.820000 9.020000 223 195 186 0
25.740000 6.820000 10.560000 220 177 179 0
25.960000 6.820000 12.100000 208 165 167 0
26.180000 6.820000 13.420000 215 148 150 0
26.400000 6.820000 13.420000 205 138 140 0
26.620000 6.820000 13.420000 209 122 125 0
26.840000 6.820000 12.100000 199 112 115 0
27.060000 6.820000 12.100000 199 102 108 0
27.280000 6.820000 10.780000 195 98 104 0
27.500000 6.820000 10.780000 197 100 106 0
27.720000 6.820000 10.780000 195 98 104 0
27.940000 6.820000 12.320000 197 96 99 0
28.160000 6.820000 12.320000 194 93 96 0
28.380000 6.820000 13.640000 191 90 91 0
28.600000 6.820000 16.500000 192 91 92 0
28.820000 6.820000 17.820000 192 89 93 0
29.040000 6.820000 16.500000 192 89 93 0
29.260000 6.820000 13.640000 193 88 90 0
29.480000 6.820000 11.000000 192 87 89 0
29.700000 6.820000 9.460000 190 85 87 0
29.920000 6.820000 8.140000 190 85 87 0
30.140000 6.820000 5.500000 191 84 87 0
30.360000 6.820000 4.180000 190 83 86 0
30.580000 6.820000 4.180000 190 83 86 0
30.800000 6.820000 4.180000 190 83 86 0
31.020000 6.820000 4.180000 191 86 88 0
31.240000 6.820000 3.960000 192 87 89 0
31.460000 6.820000 11.660000 194 89 91 0
31.680000 6.820000 30.580000 194 89 91 0
31.900000 6.820000 37.400000 193 90 92 0
32.120000 6.820000 36.080000 193 90 92 0
32.340000 6.820000 34.980000 195 90 92 0
32.560000 6.820000 33.660000 194 89 91 0
32.780000 6.820000 34.760000 192 87 89 0
33.000000 6.820000 27.720000 192 87 89 0
33.220000 6.820000 11.220000 188 91 93 0
33.440000 6.820000 3.080000 191 94 96 0
33.660000 6.820000 11.440000 187 101 107 0
33.880000 6.820000 26.840000 194 108 114 0
34.100000 6.820000 28.600000 185 139 144 0
34.320000 6.820000 23.100000 216 170 175 0
34.540000 6.820000 22.000000 230 189 192 0
34.760000 6.820000 8.140000 215 174 177 0
35.200000 6.820000 1.100000 194 107 110 0
35.420000 6.820000 2.420000 191 88 94 0
35.640000 6.820000 2.640000 187 84 90 0
35.860000 6.820000 2.640000 187 81 86 0
36.080000 6.820000 10.560000 186 80 85 0
36.300000 6.820000 18.260000 184 81 85 0
36.520000 6.820000 22.440000 185 82 86 0
36.740000 6.820000 21.120000 186 86 91 0
36.960000 6.820000 20.020000 189 89 94 0
37.180000 6.820000 21.340000 186 94 102 0
0.000000 7.040000 31.460000 180 182 153 0
0.220000 7.040000 31.240000 185 189 159 0
0.440000 7.040000 32.560000 188 192 162 0
0.660000 7.040000 31.460000 191 196 169 0
0.880000 7.040000 31.680000 194 199 172 0
1.100000 7.040000 32.780000 195 200 173 0
1.320000 7.040000 36.300000 197 202 175 0
1.540000 7.040000 37.400000 198 202 175 0
1.760000 7.040000 37.400000 199 203 176 0
1.980000 7.040000 38.940000 199 203 173 0
2.200000 7.040000 38.940000 199 203 173 0
2.420000 7.040000 38.940000 201 203 176 0
2.640000 7.040000 39.160000 203 205 178 0
2.860000 7.040000 39.160000 203 207 179 0
3.080000 7.040000 39.160000 203 207 179 0
3.300000 7.040000 40.480000 205 207 181 0
3.520000 7.040000 40.480000 206 208 182 0
3.740000 7.040000 40.700000 206 208 181 0
3.960000 7.040000 39.380000 206 208 181 0
4.180000 7.040000 28.380000 206 208 182 0
4.400000 7.040000 11.660000 206 208 182 0
4.620000 7.040000 2.200000 206 210 183 0
5.060000 7.040000 0.880000 206 210 183 0
5.280000 7.040000 2.200000 207 211 184 0
5.500000 7.040000 3.740000 206 210 182 0
5.720000 7.040000 3.740000 205 209 181 0
5.940000 7.040000 3.740000 204 206 177 0
6.160000 7.040000 3.520000 202 204 175 0
6.380000 7.040000 2.200000 201 201 170 0
6.600000 7.040000 2.200000 198 198 167 0
6.820000 7.040000 0.880000 197 195 165 0
7.040000 7.040000 0.880000 193 191 161 0
7.260000 7.040000 0.880000 190 188 158 0
8.360000 7.040000 9.240000 189 185 155 0
8.580000 7.040000 29.920000 189 185 155 0
8.800000 7.040000 39.600000 189 185 155 0
9.020000 7.040000 38.280000 186 184 154 0
9.240000 7.040000 36.960000 187 185 155 0
9.460000 7.040000 37.180000 188 186 156 0
9.680000 7.040000 35.860000 189 187 157 0
9.900000 7.040000 35.860000 190 186 156 0
10.120000 7.040000 35.860000 191 187 157 0
10.340000 7.040000 36.960000 190 188 160 0
10.560000 7.040000 39.160000 190 188 160 0
10.780000 7.040000 40.260000 190 189 163 0
11.000000 7.040000 40.260000 190 189 163 0
11.220000 7.040000 40.260000 193 191 163 0
11.440000 7.040000 40.260000 193 191 163 0
11.660000 7.040000 41.800000 194 192 164 0
11.880000 7.040000 41.800000 194 192 164 0
12.100000 7.040000 42.020000 194 193 167 0
12.320000 7.040000 39.160000 195 194 168 0
12.540000 7.040000 25.520000 196 195 169 0
12.760000 7.040000 7.480000 196 195 169 0
13.420000 7.040000 4.840000 197 196 171 0
13.640000 7.040000 20.240000 197 196 171 0
13.860000 7.040000 35.420000 197 197 168 0
14.080000 7.040000 40.920000 197 197 168 0
14.300000 7.040000 29.920000 199 198 173 0
14.520000 7.040000 12.100000 200 199 174 0
14.740000 7.040000 10.780000 204 199 175 0
14.960000 7.040000 25.960000 198 193 169 0
15.180000 7.040000 35.640000 213 176 162 0
15.400000 7.040000 37.180000 205 168 154 0
15.620000 7.040000 35.860000 215 150 141 0
15.840000 7.040000 35.860000 203 138 129 0
16.060000 7.040000 35.860000 205 109 105 0
16.280000 7.040000 35.860000 196 100 96 0
16.500000 7.040000 35.860000 194 95 95 0
16.720000 7.040000 28.820000 192 93 93 0
16.940000 7.040000 13.420000 192 91 94 0
17.160000 7.040000 13.200000 192 91 94 0
17.380000 7.040000 29.480000 190 89 90 0
17.600000 7.040000 36.300000 191 90 91 0
17.820000 7.040000 37.840000 190 89 90 0
18.040000 7.040000 39.380000 191 90 91 0
18.260000 7.040000 32.560000 191 92 92 0
18.480000 7.040000 14.740000 191 92 92 0
18.700000 7.040000 2.420000 192 91 94 0
19.140000 7.040000 1.100000 193 90 92 0
19.360000 7.040000 3.960000 192 89 91 0
19.580000 7.040000 2.420000 191 86 88 0
20.680000 7.040000 1.320000 197 108 107 0
20.900000 7.040000 1.320000 203 100 102 0
21.120000 7.040000 1.100000 189 86 88 0
21.340000 7.040000 2.420000 188 83 83 0
21.560000 7.040000 2.200000 188 83 83 0
21.780000 7.040000 1.760000 187 82 84 0
22.000000 7.040000 1.540000 187 82 84 0
22.220000 7.040000 2.860000 187 82 84 0
22.440000 7.040000 4.180000 189 84 86 0
22.660000 7.040000 2.860000 187 84 86 0
22.880000 7.040000 12.540000 188 85 87 0
23.100000 7.040000 22.220000 188 93 96 0
23.320000 7.040000 11.220000 195 100 103 0
23.540000 7.040000 3.080000 191 122 122 0
23.760000 7.040000 7.260000 201 132 132 0
23.980000 7.040000 10.120000 192 172 166 0
24.200000 7.040000 11.660000 221 201 195 0
24.420000 7.040000 11.660000 227 215 214 0
24.640000 7.040000 11.660000 236 224 223 0
24.860000 7.040000 10.340000 240 218 218 0
25.080000 7.040000 9.020000 234 212 212 0
25.300000 7.040000 9.020000 233 205 196 0
25.520000 7.040000 9.240000 230 202 193 0
25.740000 7.040000 10.560000 227 184 186 0
25.960000 7.040000 12.100000 213 170 172 0
26.180000 7.040000 13.420000 216 149 151 0
26.400000 7.040000 13.420000 202 135 137 0
26.620000 7.040000 12.100000 205 118 121 0
26.840000 7.040000 12.100000 198 111 114 0
27.060000 7.040000 12.100000 201 104 110 0
27.280000 7.040000 12.100000 198 101 107 0
27.500000 7.040000 10.780000 197 100 106 0
27.720000 7.040000 10.780000 197 100 106 0
27.940000 7.040000 12.320000 200 99 102 0
28.160000 7.040000 12.320000 197 96 99 0
28.380000 7.040000 13.640000 195 94 95 0
28.600000 7.040000 16.500000 194 93 94 0
28.820000 7.040000 19.140000 194 91 95 0
29.040000 7.040000 17.820000 193 90 94 0
29.260000 7.040000 14.960000 195 90 92 0
29.480000 7.040000 10.780000 193 88 90 0
29.700000 7.040000 9.460000 191 86 88 0
29.920000 7.040000 8.140000 191 86 88 0
30.140000 7.040000 5.500000 190 83 86 0
30.360000 7.040000 3.960000 189 82 85 0
30.580000 7.040000 2.640000 190 83 86 0
30.800000 7.040000 4.180000 191 84 87 0
31.020000 7.040000 4.180000 190 85 87 0
31.240000 7.040000 3.960000 192 87 89 0
31.460000 7.040000 9.240000 193 88 90 0
31.680000 7.040000 25.080000 194 89 91 0
31.900000 7.040000 36.080000 192 89 91 0
32.120000 7.040000 37.620000 194 91 93 0
32.340000 7.040000 36.300000 195 90 92 0
32.560000 7.040000 36.300000 193 88 90 0
32.780000 7.040000 36.080000 193 88 90 0
33.000000 7.040000 31.900000 193 88 90 0
33.220000 7.040000 16.720000 190 93 95 0
33.440000 7.040000 8.580000 193 96 98 0
33.660000 7.040000 15.620000 190 104 110 0
33.880000 7.040000 28.380000 200 114 120 0
34.100000 7.040000 25.740000 194 148 153 0
34.320000 7.040000 17.600000 214 168 173 0
34.540000 7.040000 19.140000 238 197 200 0
34.760000 7.040000 8.140000 228 187 190 0
35.420000 7.040000 2.420000 189 86 92 0
35.640000 7.040000 3.960000 186 83 89 0
35.860000 7.040000 7.920000 187 81 86 0
36.080000 7.040000 14.300000 187 81 86 0
36.300000 7.040000 20.900000 185 82 86 0
36.520000 7.040000 23.760000 186 83 87 0
36.740000 7.040000 22.660000 187 87 92 0
36.960000 7.040000 21.340000 190 90 95 0
37.180000 7.040000 21.340000 186 94 102 0
0.000000 7.260000 31.460000 179 183 155 0
0.220000 7.260000 31.240000 182 188 157 0
0.440000 7.260000 31.240000 186 192 161 0
0.660000 7.260000 31.460000 188 194 165 0
0.880000 7.260000 31.680000 191 197 168 0
1.100000 7.260000 32.780000 194 199 172 0
1.320000 7.260000 34.980000 196 201 174 0
1.540000 7.260000 36.080000 198 202 175 0
1.760000 7.260000 37.400000 198 202 175 0
1.980000 7.260000 38.940000 199 203 176 0
2.200000 7.260000 38.940000 200 204 177 0
2.420000 7.260000 38.940000 201 205 178 0
2.640000 7.260000 38.940000 203 207 180 0
2.860000 7.260000 39.160000 203 207 180 0
3.080000 7.260000 39.160000 203 207 180 0
3.300000 7.260000 39.160000 204 208 181 0
3.520000 7.260000 40.480000 205 209 182 0
3.740000 7.260000 40.700000 205 208 184 0
3.960000 7.260000 40.700000 205 208 184 0
4.180000 7.260000 39.380000 206 210 183 0
4.400000 7.260000 25.520000 206 210 183 0
4.620000 7.260000 7.700000 206 210 183 0
5.060000 7.260000 0.880000 206 210 183 0
5.280000 7.260000 2.200000 207 211 184 0
5.500000 7.260000 2.200000 206 209 185 0
5.720000 7.260000 2.200000 205 208 184 0
5.940000 7.260000 3.740000 203 207 180 0
6.160000 7.260000 3.520000 203 207 180 0
6.380000 7.260000 2.200000 200 202 175 0
6.600000 7.260000 2.200000 198 200 173 0
6.820000 7.260000 0.880000 197 197 168 0
8.360000 7.260000 6.600000 190 186 156 0
8.580000 7.260000 24.420000 190 185 158 0
8.800000 7.260000 36.960000 189 184 157 0
9.020000 7.260000 39.820000 187 185 155 0
9.240000 7.260000 38.500000 187 185 155 0
9.460000 7.260000 37.180000 188 186 156 0
9.680000 7.260000 37.180000 188 186 156 0
9.900000 7.260000 35.860000 191 187 157 0
10.120000 7.260000 36.960000 191 187 157 0
10.340000 7.260000 39.160000 190 188 160 0
10.560000 7.260000 40.260000 191 189 161 0
10.780000 7.260000 40.260000 191 189 161 0
11.000000 7.260000 40.260000 191 189 161 0
11.220000 7.260000 40.260000 193 191 163 0
11.440000 7.260000 41.800000 193 191 163 0
11.660000 7.260000 41.800000 194 192 164 0
11.880000 7.260000 39.160000 194 192 164 0
12.100000 7.260000 33.660000 195 193 167 0
12.320000 7.260000 25.520000 196 194 168 0
12.540000 7.260000 12.980000 195 195 166 0
12.760000 7.260000 1.980000 196 196 167 0
13.420000 7.260000 6.380000 197 196 170 0
13.640000 7.260000 25.740000 197 196 170 0
13.860000 7.260000 38.280000 197 196 170 0
14.080000 7.260000 38.280000 197 196 170 0
14.300000 7.260000 24.420000 199 197 169 0
14.520000 7.260000 14.740000 201 199 171 0
14.740000 7.260000 23.100000 213 189 172 0
14.960000 7.260000 35.640000 207 183 166 0
15.180000 7.260000 37.180000 220 172 157 0
15.400000 7.260000 35.640000 210 162 147 0
15.620000 7.260000 35.860000 220 138 135 0
15.840000 7.260000 35.860000 209 127 124 0
16.060000 7.260000 35.860000 201 105 104 0
16.280000 7.260000 35.860000 194 98 97 0
16.500000 7.260000 37.180000 192 96 95 0
16.720000 7.260000 27.500000 191 95 94 0
16.940000 7.260000 9.460000 191 92 92 0
17.160000 7.260000 10.560000 190 91 91 0
17.380000 7.260000 26.620000 191 88 90 0
17.600000 7.260000 32.120000 190 87 89 0
17.820000 7.260000 35.200000 190 89 90 0
18.040000 7.260000 39.380000 190 89 90 0
18.260000 7.260000 36.740000 190 91 91 0
18.480000 7.260000 27.060000 192 93 93 0
18.700000 7.260000 12.100000 191 94 96 0
18.920000 7.260000 1.100000 191 94 96 0
19.580000 7.260000 0.880000 189 86 88 0
19.800000 7.260000 3.740000 188 85 87 0
20.020000 7.260000 5.280000 185 88 90 0
20.240000 7.260000 2.640000 196 99 101 0
20.460000 7.260000 1.320000 200 105 106 0
20.680000 7.260000 1.320000 199 104 105 0
20.900000 7.260000 2.640000 200 98 97 0
21.120000 7.260000 2.420000 189 87 86 0
21.340000 7.260000 2.420000 188 83 83 0
21.560000 7.260000 2.200000 187 82 82 0
21.780000 7.260000 1.760000 186 81 83 0
22.000000 7.260000 2.860000 188 83 85 0
22.220000 7.260000 4.180000 187 82 82 0
22.440000 7.260000 5.720000 189 84 84 0
22.660000 7.260000 4.180000 189 84 86 0
22.880000 7.260000 11.220000 190 85 87 0
23.100000 7.260000 16.720000 189 89 94 0
23.320000 7.260000 8.580000 199 99 104 0
23.540000 7.260000 3.080000 197 118 118 0
23.760000 7.260000 5.940000 206 127 127 0
23.980000 7.260000 8.800000 200 161 161 0
24.200000 7.260000 10.340000 230 191 191 0
24.420000 7.260000 10.340000 232 199 203 0
24.640000 7.260000 10.340000 236 203 207 0
24.860000 7.260000 9.020000 242 201 200 0
25.080000 7.260000 9.020000 236 195 194 0
25.300000 7.260000 9.020000 232 193 191 0
25.520000 7.260000 9.240000 230 191 189 0
25.740000 7.260000 10.560000 235 175 178 0
25.960000 7.260000 10.560000 224 164 167 0
26.180000 7.260000 10.780000 219 140 141 0
26.400000 7.260000 10.780000 207 128 129 0
26.620000 7.260000 10.780000 209 119 123 0
26.840000 7.260000 12.100000 200 110 114 0
27.060000 7.260000 12.100000 202 102 107 0
27.280000 7.260000 12.100000 201 101 106 0
27.500000 7.260000 12.100000 195 102 105 0
27.720000 7.260000 12.100000 196 103 106 0
27.940000 7.260000 12.320000 198 101 103 0
28.160000 7.260000 12.320000 196 99 101 0
28.380000 7.260000 13.640000 195 94 97 0
28.600000 7.260000 17.820000 195 94 97 0
28.820000 7.260000 19.140000 195 94 97 0
29.040000 7.260000 17.820000 195 94 97 0
29.260000 7.260000 14.960000 195 92 94 0
29.480000 7.260000 12.320000 193 90 92 0
29.700000 7.260000 9.460000 193 88 90 0
29.920000 7.260000 8.140000 191 86 88 0
30.140000 7.260000 5.500000 190 85 87 0
30.360000 7.260000 3.960000 189 84 86 0
30.580000 7.260000 2.640000 189 84 86 0
30.800000 7.260000 4.180000 189 84 86 0
31.020000 7.260000 4.180000 190 84 89 0
31.240000 7.260000 2.640000 192 86 91 0
31.460000 7.260000 3.740000 191 88 92 0
31.680000 7.260000 15.620000 191 88 92 0
31.900000 7.260000 31.900000 193 90 94 0
32.120000 7.260000 38.940000 193 90 94 0
32.340000 7.260000 37.620000 195 89 94 0
32.560000 7.260000 36.300000 193 87 92 0
32.780000 7.260000 37.620000 193 87 92 0
33.000000 7.260000 36.080000 192 86 91 0
33.220000 7.260000 25.080000 191 91 96 0
33.440000 7.260000 16.940000 198 98 103 0
33.660000 7.260000 23.980000 190 107 112 0
33.880000 7.260000 33.880000 199 116 121 0
34.100000 7.260000 28.380000 195 145 151 0
34.320000 7.260000 23.100000 221 171 177 0
34.540000 7.260000 21.780000 245 179 186 0
34.760000 7.260000 9.460000 238 172 179 0
35.200000 7.260000 2.420000 199 97 103 0
35.420000 7.260000 5.280000 188 86 92 0
35.640000 7.260000 13.640000 187 85 91 0
35.860000 7.260000 20.240000 185 82 88 0
36.080000 7.260000 21.120000 186 83 89 0
36.300000 7.260000 20.900000 185 83 89 0
36.520000 7.260000 23.760000 186 84 90 0
36.740000 7.260000 22.660000 187 87 94 0
36.960000 7.260000 21.340000 189 89 96 0
37.180000 7.260000 21.340000 184 96 103 0
0.000000 7.480000 31.460000 179 183 155 0
0.220000 7.480000 31.460000 182 188 157 0
0.440000 7.480000 31.460000 185 191 160 0
0.660000 7.480000 31.460000 189 195 166 0
0.880000 7.480000 31.680000 193 199 170 0
1.100000 7.480000 33.000000 193 198 171 0
1.320000 7.480000 34.100000 195 200 173 0
1.540000 7.480000 34.760000 197 201 174 0
1.760000 7.480000 36.080000 198 202 175 0
1.980000 7.480000 37.400000 199 203 176 0
2.200000 7.480000 37.400000 201 205 178 0
2.420000 7.480000 37.620000 201 205 178 0
2.640000 7.480000 37.620000 202 206 179 0
2.860000 7.480000 39.160000 204 208 181 0
3.080000 7.480000 39.160000 204 208 181 0
3.300000 7.480000 39.160000 204 208 181 0
3.520000 7.480000 39.160000 205 209 182 0
3.740000 7.480000 39.160000 205 208 184 0
3.960000 7.480000 40.700000 206 209 185 0
4.180000 7.480000 40.700000 206 210 183 0
4.400000 7.480000 33.880000 206 210 183 0
4.620000 7.480000 17.380000 206 210 183 0
4.840000 7.480000 10.340000 206 210 183 0
5.060000 7.480000 7.700000 207 211 184 0
5.280000 7.480000 3.520000 206 210 183 0
5.500000 7.480000 0.880000 206 209 185 0
5.720000 7.480000 2.200000 206 209 185 0
5.940000 7.480000 2.200000 204 208 181 0
6.160000 7.480000 2.200000 203 207 180 0
6.380000 7.480000 2.200000 203 205 178 0
6.600000 7.480000 3.520000 201 203 176 0
6.820000 7.480000 7.700000 202 202 173 0
7.040000 7.480000 9.240000 199 199 170 0
7.260000 7.480000 9.240000 197 195 165 0
7.480000 7.480000 6.380000 192 190 160 0
7.700000 7.480000 0.880000 192 190 160 0
8.360000 7.480000 0.880000 190 186 156 0
8.580000 7.480000 12.100000 189 184 157 0
8.800000 7.480000 24.640000 188 183 156 0
9.020000 7.480000 30.140000 187 185 155 0
9.240000 7.480000 31.680000 188 186 156 0
9.460000 7.480000 35.860000 189 187 157 0
9.680000 7.480000 37.180000 189 187 157 0
9.900000 7.480000 36.960000 191 187 157 0
10.120000 7.480000 37.840000 191 187 157 0
10.340000 7.480000 38.940000 189 187 159 0
10.560000 7.480000 40.260000 191 189 161 0
10.780000 7.480000 40.260000 190 188 160 0
11.000000 7.480000 40.260000 192 190 162 0
11.220000 7.480000 41.800000 193 191 163 0
11.440000 7.480000 41.800000 192 190 162 0
11.660000 7.480000 41.800000 194 192 164 0
11.880000 7.480000 33.660000 194 192 164 0
12.100000 7.480000 17.160000 195 193 167 0
12.320000 7.480000 7.480000 195 193 167 0
12.540000 7.480000 1.980000 194 194 165 0
13.420000 7.480000 9.020000 196 195 169 0
13.640000 7.480000 29.920000 196 195 169 0
13.860000 7.480000 38.280000 196 195 169 0
14.080000 7.480000 27.280000 196 195 169 0
14.300000 7.480000 12.100000 198 196 168 0
14.520000 7.480000 10.780000 198 196 168 0
14.740000 7.480000 28.600000 208 184 167 0
14.960000 7.480000 36.960000 201 177 160 0
15.180000 7.480000 37.180000 213 165 150 0
15.400000 7.480000 34.320000 203 155 140 0
15.620000 7.480000 28.820000 216 134 131 0
15.840000 7.480000 30.360000 202 120 117 0
16.060000 7.480000 34.320000 198 102 101 0
16.280000 7.480000 37.180000 193 97 96 0
16.500000 7.480000 38.500000 192 96 95 0
16.720000 7.480000 28.820000 192 96 95 0
16.940000 7.480000 12.100000 192 93 93 0
17.160000 7.480000 15.620000 191 92 92 0
17.380000 7.480000 31.900000 191 88 90 0
17.600000 7.480000 36.300000 190 87 89 0
17.820000 7.480000 38.060000 190 89 90 0
18.040000 7.480000 39.600000 191 90 91 0
18.260000 7.480000 38.280000 190 91 91 0
18.480000 7.480000 36.960000 192 93 93 0
18.700000 7.480000 24.640000 193 96 98 0
18.920000 7.480000 6.600000 193 96 98 0
19.580000 7.480000 0.880000 188 85 87 0
19.800000 7.480000 9.240000 188 85 87 0
20.020000 7.480000 14.960000 186 89 91 0
20.240000 7.480000 8.140000 194 97 99 0
20.460000 7.480000 1.320000 199 104 105 0
20.680000 7.480000 1.320000 197 102 103 0
20.900000 7.480000 2.640000 197 95 94 0
21.120000 7.480000 3.740000 188 86 85 0
21.340000 7.480000 3.740000 188 83 83 0
21.560000 7.480000 3.520000 188 83 83 0
21.780000 7.480000 3.080000 188 83 85 0
22.000000 7.480000 2.860000 187 82 84 0
22.220000 7.480000 4.180000 187 82 82 0
22.440000 7.480000 5.500000 187 82 82 0
22.660000 7.480000 5.720000 188 83 85 0
22.880000 7.480000 7.040000 190 85 87 0
23.100000 7.480000 8.360000 188 88 93 0
23.320000 7.480000 5.720000 197 97 102 0
23.540000 7.480000 4.400000 194 115 115 0
23.760000 7.480000 7.260000 202 123 123 0
23.980000 7.480000 8.800000 189 150 150 0
24.200000 7.480000 10.120000 218 179 179 0
24.420000 7.480000 10.340000 222 189 193 0
24.640000 7.480000 9.020000 223 190 194 0
24.860000 7.480000 9.020000 224 183 182 0
25.080000 7.480000 9.020000 221 180 179 0
25.300000 7.480000 9.020000 222 183 181 0
25.520000 7.480000 9.020000 224 185 183 0
25.740000 7.480000 9.240000 226 166 169 0
25.960000 7.480000 9.240000 212 152 155 0
26.180000 7.480000 7.920000 210 131 132 0
26.400000 7.480000 9.460000 206 127 128 0
26.620000 7.480000 10.780000 206 116 120 0
26.840000 7.480000 10.780000 199 109 113 0
27.060000 7.480000 12.100000 203 103 108 0
27.280000 7.480000 12.100000 198 98 103 0
27.500000 7.480000 12.100000 195 102 105 0
27.720000 7.480000 12.100000 196 103 106 0
27.940000 7.480000 12.100000 200 103 105 0
28.160000 7.480000 12.320000 196 99 101 0
28.380000 7.480000 13.640000 197 96 99 0
28.600000 7.480000 16.500000 196 95 98 0
28.820000 7.480000 19.140000 195 94 97 0
29.040000 7.480000 17.820000 196 95 98 0
29.260000 7.480000 13.640000 195 92 94 0
29.480000 7.480000 12.320000 193 90 92 0
29.700000 7.480000 9.460000 194 89 91 0
29.920000 7.480000 8.140000 190 85 87 0
30.140000 7.480000 5.500000 190 85 87 0
30.360000 7.480000 3.960000 190 85 87 0
30.580000 7.480000 2.640000 190 85 87 0
30.800000 7.480000 3.960000 190 85 87 0
31.020000 7.480000 3.960000 191 85 90 0
31.240000 7.480000 3.960000 192 86 91 0
31.460000 7.480000 5.060000 192 89 93 0
31.680000 7.480000 15.620000 193 90 94 0
31.900000 7.480000 33.220000 194 91 95 0
32.120000 7.480000 38.940000 193 90 94 0
32.340000 7.480000 37.620000 194 88 93 0
32.560000 7.480000 36.080000 193 87 92 0
32.780000 7.480000 36.080000 193 87 92 0
33.000000 7.480000 37.400000 194 88 93 0
33.220000 7.480000 32.120000 193 93 98 0
33.440000 7.480000 25.300000 197 97 102 0
33.660000 7.480000 31.020000 191 108 113 0
33.880000 7.480000 35.200000 199 116 121 0
34.100000 7.480000 31.240000 192 142 148 0
34.320000 7.480000 27.060000 217 167 173 0
34.540000 7.480000 21.780000 233 167 174 0
34.760000 7.480000 10.780000 215 149 156 0
34.980000 7.480000 5.280000 219 117 123 0
35.200000 7.480000 6.600000 192 90 96 0
35.420000 7.480000 12.100000 188 86 92 0
35.640000 7.480000 25.960000 187 85 91 0
35.860000 7.480000 29.700000 187 84 90 0
36.080000 7.480000 24.200000 187 84 90 0
36.300000 7.480000 21.120000 186 84 90 0
36.520000 7.480000 22.440000 188 86 92 0
36.740000 7.480000 22.660000 188 88 95 0
36.960000 7.480000 21.340000 189 89 96 0
37.180000 7.480000 21.340000 186 98 105 0
0.000000 7.700000 31.460000 179 181 152 0
0.220000 7.700000 30.140000 181 185 155 0
0.440000 7.700000 30.140000 185 189 159 0
0.660000 7.700000 31.680000 190 194 166 0
0.880000 7.700000 31.680000 192 196 168 0
1.100000 7.700000 31.680000 194 199 172 0
1.320000 7.700000 32.780000 195 200 173 0
1.540000 7.700000 34.980000 197 201 174 0
1.760000 7.700000 36.080000 199 203 176 0
1.980000 7.700000 37.400000 199 203 176 0
2.200000 7.700000 37.400000 201 205 178 0
2.420000 7.700000 37.620000 201 205 178 0
2.640000 7.700000 37.620000 202 206 179 0
2.860000 7.700000 37.620000 202 207 180 0
3.080000 7.700000 39.160000 202 207 180 0
3.300000 7.700000 39.160000 205 209 182 0
3.520000 7.700000 39.160000 205 209 182 0
3.740000 7.700000 39.160000 206 210 183 0
3.960000 7.700000 40.700000 205 209 182 0
4.180000 7.700000 40.700000 207 209 183 0
4.400000 7.700000 38.060000 207 209 183 0
4.620000 7.700000 32.560000 205 210 183 0
4.840000 7.700000 31.240000 205 210 183 0
5.060000 7.700000 25.740000 206 209 185 0
5.280000 7.700000 13.200000 206 209 185 0
5.500000 7.700000 2.200000 206 209 185 0
5.720000 7.700000 0.880000 207 210 186 0
5.940000 7.700000 0.880000 206 208 182 0
6.160000 7.700000 0.880000 204 206 180 0
6.380000 7.700000 3.520000 202 207 182 0
6.600000 7.700000 13.200000 203 208 183 0
6.820000 7.700000 25.740000 209 211 185 0
7.040000 7.700000 29.920000 207 209 183 0
7.260000 7.700000 29.920000 204 208 181 0
7.480000 7.700000 24.420000 197 201 174 0
7.700000 7.700000 14.740000 194 192 162 0
7.920000 7.700000 9.240000 191 189 159 0
8.140000 7.700000 6.600000 189 187 159 0
8.360000 7.700000 1.100000 188 186 158 0
8.580000 7.700000 1.100000 190 186 156 0
8.800000 7.700000 6.600000 190 186 156 0
9.020000 7.700000 10.780000 190 186 156 0
9.240000 7.700000 22.000000 190 186 156 0
9.460000 7.700000 33.000000 191 187 157 0
9.680000 7.700000 36.960000 191 187 157 0
9.900000 7.700000 37.840000 189 187 159 0
10.120000 7.700000 38.940000 190 188 160 0
10.340000 7.700000 38.720000 191 189 159 0
10.560000 7.700000 40.260000 191 189 159 0
10.780000 7.700000 40.260000 190 188 160 0
11.000000 7.700000 40.260000 192 190 162 0
11.220000 7.700000 40.480000 192 190 162 0
11.440000 7.700000 41.800000 193 191 163 0
11.660000 7.700000 42.020000 194 192 166 0
11.880000 7.700000 31.020000 194 192 166 0
12.100000 7.700000 10.340000 193 193 164 0
12.760000 7.700000 0.660000 195 194 168 0
12.980000 7.700000 0.660000 197 195 169 0
13.420000 7.700000 7.700000 196 194 168 0
13.640000 7.700000 23.100000 196 194 168 0
13.860000 7.700000 24.420000 195 194 168 0
14.080000 7.700000 12.100000 196 195 169 0
14.300000 7.700000 5.060000 200 195 168 0
14.520000 7.700000 13.420000 197 192 165 0
14.740000 7.700000 30.140000 214 176 158 0
14.960000 7.700000 38.500000 205 167 149 0
15.180000 7.700000 35.640000 215 152 138 0
15.400000 7.700000 25.960000 205 142 128 0
15.620000 7.700000 13.640000 216 124 120 0
15.840000 7.700000 16.500000 203 111 107 0
16.060000 7.700000 27.500000 196 100 97 0
16.280000 7.700000 30.140000 192 96 93 0
16.500000 7.700000 31.680000 192 97 96 0
16.720000 7.700000 30.360000 191 96 95 0
16.940000 7.700000 23.100000 193 94 94 0
17.160000 7.700000 29.480000 191 92 92 0
17.380000 7.700000 40.260000 192 90 89 0
17.600000 7.700000 41.800000 191 89 88 0
17.820000 7.700000 39.380000 191 88 90 0
18.040000 7.700000 38.060000 192 89 91 0
18.260000 7.700000 38.280000 188 93 92 0
18.480000 7.700000 38.500000 191 96 95 0
18.700000 7.700000 31.680000 191 99 95 0
18.920000 7.700000 13.640000 191 99 95 0
19.140000 7.700000 1.100000 196 95 96 0
19.580000 7.700000 0.880000 190 85 87 0
19.800000 7.700000 11.880000 190 85 87 0
20.020000 7.700000 21.560000 188 89 89 0
20.240000 7.700000 10.780000 194 95 95 0
20.460000 7.700000 1.100000 198 99 99 0
20.680000 7.700000 2.420000 196 97 97 0
20.900000 7.700000 3.740000 193 88 88 0
21.120000 7.700000 3.740000 189 84 84 0
21.340000 7.700000 3.740000 188 83 85 0
21.560000 7.700000 3.740000 186 81 83 0
21.780000 7.700000 1.980000 185 80 82 0
22.000000 7.700000 1.760000 186 81 83 0
22.220000 7.700000 3.080000 188 83 83 0
22.440000 7.700000 4.620000 188 83 83 0
22.660000 7.700000 4.400000 188 83 83 0
22.880000 7.700000 4.400000 190 85 85 0
23.100000 7.700000 4.180000 190 87 91 0
23.320000 7.700000 4.400000 195 92 96 0
23.540000 7.700000 5.720000 199 108 110 0
23.760000 7.700000 8.580000 204 113 115 0
23.980000 7.700000 8.800000 200 139 141 0
24.200000 7.700000 10.120000 222 161 163 0
24.420000 7.700000 8.800000 220 170 174 0
24.640000 7.700000 9.020000 218 168 172 0
24.860000 7.700000 9.020000 224 165 164 0
25.080000 7.700000 9.020000 218 159 158 0
25.300000 7.700000 9.020000 232 167 166 0
25.520000 7.700000 9.020000 226 161 160 0
25.740000 7.700000 9.240000 224 145 146 0
25.960000 7.700000 7.920000 213 134 135 0
26.180000 7.700000 7.920000 209 120 121 0
26.400000 7.700000 7.920000 206 117 118 0
26.620000 7.700000 9.460000 202 111 113 0
26.840000 7.700000 10.780000 200 109 111 0
27.060000 7.700000 12.100000 200 105 106 0
27.280000 7.700000 12.100000 198 103 104 0
27.500000 7.700000 12.100000 198 101 105 0
27.720000 7.700000 12.100000 199 102 106 0
27.940000 7.700000 10.780000 200 101 103 0
28.160000 7.700000 10.780000 198 99 101 0
28.380000 7.700000 12.320000 196 95 98 0
28.600000 7.700000 16.500000 196 95 98 0
28.820000 7.700000 17.820000 197 94 98 0
29.040000 7.700000 16.280000 197 94 98 0
29.260000 7.700000 13.640000 198 93 95 0
29.480000 7.700000 10.780000 196 91 93 0
29.700000 7.700000 11.000000 192 87 89 0
29.920000 7.700000 8.140000 191 86 88 0
30.140000 7.700000 5.500000 191 86 88 0
30.360000 7.700000 4.180000 190 85 87 0
30.580000 7.700000 2.640000 189 83 88 0
30.800000 7.700000 3.960000 190 84 89 0
31.020000 7.700000 3.960000 191 86 88 0
31.240000 7.700000 2.420000 193 88 90 0
31.460000 7.700000 10.120000 192 89 93 0
31.680000 7.700000 26.400000 194 91 95 0
31.900000 7.700000 38.720000 193 90 94 0
32.120000 7.700000 38.940000 193 90 94 0
32.340000 7.700000 37.620000 193 87 92 0
32.560000 7.700000 36.080000 192 86 91 0
32.780000 7.700000 36.080000 193 88 90 0
33.000000 7.700000 37.620000 195 90 92 0
33.220000 7.700000 36.300000 193 92 95 0
33.440000 7.700000 34.980000 197 96 99 0
33.660000 7.700000 36.520000 191 108 113 0
33.880000 7.700000 36.520000 196 113 118 0
34.100000 7.700000 31.020000 198 138 133 0
34.320000 7.700000 21.560000 210 150 145 0
34.540000 7.700000 16.060000 225 145 141 0
34.760000 7.700000 11.880000 213 133 129 0
34.980000 7.700000 9.240000 207 106 109 0
35.200000 7.700000 9.460000 192 91 94 0
35.420000 7.700000 14.960000 190 87 93 0
35.640000 7.700000 25.740000 188 85 91 0
35.860000 7.700000 28.380000 187 84 90 0
36.080000 7.700000 21.340000 187 84 90 0
36.300000 7.700000 21.120000 186 86 91 0
36.520000 7.700000 22.440000 188 88 93 0
36.740000 7.700000 21.120000 187 91 98 0
36.960000 7.700000 21.340000 191 95 102 0
37.180000 7.700000 20.020000 185 103 110 0
0.000000 7.920000 31.460000 177 179 150 0
0.220000 7.920000 31.460000 179 183 153 0
0.440000 7.920000 31.460000 184 188 158 0
0.660000 7.920000 31.460000 190 194 166 0
0.880000 7.920000 33.000000 191 195 167 0
1.100000 7.920000 33.000000 192 197 170 0
1.320000 7.920000 32.780000 195 200 173 0
1.540000 7.920000 34.980000 197 201 174 0
1.760000 7.920000 36.080000 198 202 175 0
1.980000 7.920000 37.400000 199 203 176 0
2.200000 7.920000 37.400000 200 204 177 0
2.420000 7.920000 37.620000 201 205 178 0
2.640000 7.920000 37.620000 202 206 179 0
2.860000 7.920000 37.620000 201 206 179 0
3.080000 7.920000 37.620000 202 207 180 0
3.300000 7.920000 39.160000 204 208 181 0
3.520000 7.920000 39.160000 204 208 181 0
3.740000 7.920000 39.160000 205 209 182 0
3.960000 7.920000 39.160000 203 207 180 0
4.180000 7.920000 39.380000 205 207 181 0
4.400000 7.920000 40.700000 205 207 181 0
4.620000 7.920000 40.700000 204 209 182 0
4.840000 7.920000 40.920000 204 209 182 0
5.060000 7.920000 38.060000 205 208 184 0
5.280000 7.920000 25.740000 206 209 185 0
5.500000 7.920000 7.700000 206 209 185 0
6.160000 7.920000 0.880000 205 207 181 0
6.380000 7.920000 7.700000 207 212 187 0
6.600000 7.920000 25.740000 208 213 188 0
6.820000 7.920000 36.740000 206 208 182 0
7.040000 7.920000 39.600000 201 203 177 0
7.260000 7.920000 39.600000 202 206 179 0
7.480000 7.920000 38.280000 204 208 181 0
7.700000 7.920000 32.780000 199 197 167 0
7.920000 7.920000 29.920000 191 189 159 0
8.140000 7.920000 24.420000 189 187 159 0
8.360000 7.920000 14.740000 190 188 160 0
8.580000 7.920000 9.460000 191 187 157 0
8.800000 7.920000 7.920000 192 188 158 0
9.020000 7.920000 13.640000 190 186 156 0
9.240000 7.920000 26.180000 191 187 157 0
9.460000 7.920000 35.860000 191 187 157 0
9.680000 7.920000 36.960000 191 187 157 0
9.900000 7.920000 37.620000 189 187 159 0
10.120000 7.920000 38.720000 190 188 160 0
10.340000 7.920000 38.720000 190 188 158 0
10.560000 7.920000 40.260000 191 189 159 0
10.780000 7.920000 40.260000 191 189 161 0
11.000000 7.920000 40.480000 192 190 162 0
11.220000 7.920000 40.480000 192 190 162 0
11.440000 7.920000 42.020000 193 191 163 0
11.660000 7.920000 42.020000 193 191 165 0
11.880000 7.920000 33.660000 194 192 166 0
12.100000 7.920000 17.160000 192 192 163 0
12.320000 7.920000 10.340000 193 193 164 0
12.540000 7.920000 7.700000 194 193 167 0
12.760000 7.920000 2.200000 196 195 169 0
12.980000 7.920000 0.880000 196 194 168 0
13.200000 7.920000 0.880000 196 194 168 0
13.420000 7.920000 2.200000 196 194 168 0
13.640000 7.920000 7.700000 195 193 167 0
13.860000 7.920000 7.920000 196 195 169 0
14.080000 7.920000 2.420000 195 194 168 0
14.300000 7.920000 7.920000 197 192 165 0
14.520000 7.920000 24.420000 194 189 162 0
14.740000 7.920000 36.960000 211 173 155 0
14.960000 7.920000 35.640000 202 164 146 0
15.180000 7.920000 25.960000 210 147 133 0
15.400000 7.920000 12.320000 203 140 126 0
15.620000 7.920000 2.640000 210 118 114 0
15.840000 7.920000 9.460000 200 108 104 0
16.060000 7.920000 22.000000 197 101 98 0
16.280000 7.920000 16.500000 195 99 96 0
16.500000 7.920000 16.500000 194 99 98 0
16.720000 7.920000 28.820000 194 99 98 0
16.940000 7.920000 35.420000 194 95 95 0
17.160000 7.920000 39.160000 192 93 93 0
17.380000 7.920000 41.800000 193 91 90 0
17.600000 7.920000 40.480000 190 88 87 0
17.820000 7.920000 39.380000 190 87 89 0
18.040000 7.920000 38.060000 192 89 91 0
18.260000 7.920000 38.280000 189 94 93 0
18.480000 7.920000 38.500000 194 99 98 0
18.700000 7.920000 35.860000 196 104 100 0
18.920000 7.920000 24.640000 195 103 99 0
19.140000 7.920000 7.700000 197 96 97 0
19.360000 7.920000 0.660000 193 92 93 0
19.580000 7.920000 0.660000 190 85 87 0
19.800000 7.920000 9.020000 190 85 87 0
20.020000 7.920000 15.840000 189 90 90 0
20.240000 7.920000 7.700000 193 94 94 0
20.460000 7.920000 0.880000 194 95 95 0
20.680000 7.920000 3.300000 193 94 94 0
20.900000 7.920000 3.300000 192 87 87 0
21.120000 7.920000 3.520000 189 84 84 0
21.340000 7.920000 3.520000 187 82 84 0
21.560000 7.920000 2.420000 188 83 85 0
21.780000 7.920000 0.880000 184 79 81 0
22.000000 7.920000 0.880000 186 81 83 0
22.220000 7.920000 0.880000 187 82 82 0
22.440000 7.920000 2.420000 187 82 82 0
22.660000 7.920000 3.520000 188 83 83 0
22.880000 7.920000 3.300000 190 85 85 0
23.100000 7.920000 3.080000 190 87 91 0
23.320000 7.920000 4.400000 193 90 94 0
23.540000 7.920000 5.720000 191 100 102 0
23.760000 7.920000 8.580000 198 107 109 0
23.980000 7.920000 8.580000 190 129 131 0
24.200000 7.920000 8.800000 209 148 150 0
24.420000 7.920000 8.800000 209 159 163 0
24.640000 7.920000 8.800000 217 167 171 0
24.860000 7.920000 8.800000 217 158 157 0
25.080000 7.920000 9.020000 211 152 151 0
25.300000 7.920000 9.020000 218 153 152 0
