ply
format ascii 1.0
element vertex 1171
property float x
property float y
property float z
property uchar red
property uchar green
property uchar blue
property uchar alpha
end_header
3.740000 9.460000 2.860000 192 87 89 0
3.960000 9.460000 1.430000 190 87 89 0
4.180000 9.460000 2.200000 190 87 89 0
4.400000 9.460000 3.630000 191 90 93 0
4.620000 9.460000 5.060000 192 91 94 0
4.840000 9.460000 5.720000 187 97 101 0
5.060000 9.460000 5.720000 191 101 105 0
5.280000 9.460000 6.380000 188 119 119 0
5.500000 9.460000 6.490000 195 126 126 0
5.720000 9.460000 6.490000 189 136 139 0
5.940000 9.460000 6.600000 204 151 154 0
6.160000 9.460000 6.600000 191 186 187 0
6.380000 9.460000 6.600000 239 234 235 0
6.600000 9.460000 6.710000 240 241 240 0
6.820000 9.460000 6.050000 240 241 240 0
7.040000 9.460000 6.160000 240 241 240 0
7.260000 9.460000 6.160000 240 241 240 0
7.480000 9.460000 6.160000 240 241 240 0
7.700000 9.460000 6.160000 240 241 240 0
7.920000 9.460000 6.160000 248 237 238 0
8.140000 9.460000 6.930000 235 224 225 0
8.360000 9.460000 8.800000 236 180 188 0
8.580000 9.460000 9.900000 220 164 172 0
8.800000 9.460000 10.450000 218 149 149 0
9.020000 9.460000 10.450000 207 138 138 0
9.240000 9.460000 9.790000 206 109 115 0
9.460000 9.460000 10.560000 190 93 99 0
9.680000 9.460000 11.220000 188 86 94 0
9.900000 9.460000 11.990000 185 83 91 0
10.120000 9.460000 12.650000 185 84 87 0
10.340000 9.460000 13.420000 184 83 86 0
10.560000 9.460000 13.420000 186 78 86 0
10.780000 9.460000 14.080000 183 75 83 0
11.000000 9.460000 14.080000 182 75 80 0
11.220000 9.460000 14.850000 180 73 78 0
11.440000 9.460000 15.510000 182 72 78 0
11.660000 9.460000 16.280000 181 71 77 0
11.880000 9.460000 16.280000 179 67 74 0
12.100000 9.460000 16.280000 179 67 74 0
12.320000 9.460000 16.390000 179 67 74 0
12.540000 9.460000 16.390000 178 66 73 0
12.760000 9.460000 17.050000 177 65 72 0
12.980000 9.460000 17.160000 177 65 72 0
13.200000 9.460000 17.160000 177 65 72 0
13.420000 9.460000 17.160000 176 64 71 0
13.640000 9.460000 17.160000 176 64 71 0
13.860000 9.460000 17.930000 176 64 71 0
14.080000 9.460000 18.590000 177 64 71 0
14.300000 9.460000 19.360000 177 64 71 0
14.520000 9.460000 19.360000 178 65 72 0
14.740000 9.460000 18.480000 178 65 72 0
14.960000 9.460000 13.310000 178 65 70 0
15.180000 9.460000 4.180000 179 66 71 0
15.400000 9.460000 0.660000 178 65 70 0
15.620000 9.460000 0.770000 179 66 71 0
16.060000 9.460000 0.110000 177 64 71 0
16.280000 9.460000 0.110000 179 63 71 0
16.500000 9.460000 0.110000 179 63 71 0
16.720000 9.460000 0.110000 179 63 69 0
16.940000 9.460000 0.110000 179 63 69 0
17.160000 9.460000 0.110000 179 63 69 0
17.380000 9.460000 0.110000 179 63 69 0
17.600000 9.460000 0.110000 179 63 71 0
17.820000 9.460000 0.220000 179 63 71 0
18.040000 9.460000 0.220000 179 63 71 0
18.260000 9.460000 0.220000 179 63 71 0
18.480000 9.460000 0.220000 179 61 68 0
19.360000 9.460000 0.220000 177 59 66 0
19.580000 9.460000 0.220000 177 59 66 0
19.800000 9.460000 0.220000 177 59 68 0
20.020000 9.460000 0.220000 177 59 68 0
20.240000 9.460000 0.880000 177 59 66 0
20.460000 9.460000 0.990000 177 59 66 0
20.680000 9.460000 0.990000 178 60 67 0
20.900000 9.460000 0.990000 179 61 68 0
21.120000 9.460000 0.990000 179 61 70 0
21.340000 9.460000 1.100000 180 62 71 0
21.560000 9.460000 1.100000 180 62 71 0
21.780000 9.460000 1.100000 180 62 71 0
22.000000 9.460000 1.100000 183 63 70 0
22.220000 9.460000 0.440000 184 64 71 0
22.440000 9.460000 0.440000 181 63 70 0
22.660000 9.460000 0.440000 181 63 70 0
23.100000 9.460000 0.550000 180 62 69 0
23.320000 9.460000 0.550000 182 61 71 0
23.540000 9.460000 0.550000 183 62 72 0
23.760000 9.460000 0.550000 182 61 71 0
23.980000 9.460000 1.210000 181 60 70 0
24.200000 9.460000 1.320000 179 61 68 0
24.420000 9.460000 1.320000 180 62 69 0
24.640000 9.460000 1.980000 181 63 72 0
24.860000 9.460000 1.980000 181 63 72 0
25.080000 9.460000 2.750000 181 63 70 0
25.300000 9.460000 2.750000 181 63 70 0
25.520000 9.460000 2.530000 183 62 72 0
25.740000 9.460000 2.970000 183 62 72 0
25.960000 9.460000 2.090000 181 63 70 0
26.180000 9.460000 2.090000 181 63 70 0
26.400000 9.460000 2.200000 182 64 71 0
26.620000 9.460000 2.860000 184 66 73 0
26.840000 9.460000 2.970000 180 67 72 0
27.060000 9.460000 2.310000 184 71 76 0
27.280000 9.460000 2.200000 187 71 79 0
27.500000 9.460000 2.200000 185 69 77 0
27.720000 9.460000 2.200000 185 67 74 0
27.940000 9.460000 2.310000 185 67 74 0
28.160000 9.460000 1.760000 184 68 76 0
28.380000 9.460000 1.760000 186 70 78 0
28.600000 9.460000 2.530000 188 77 81 0
28.820000 9.460000 3.300000 192 81 85 0
29.040000 9.460000 4.070000 193 80 85 0
29.260000 9.460000 4.730000 190 77 82 0
29.480000 9.460000 5.280000 187 74 79 0
29.700000 9.460000 5.280000 187 74 79 0
29.920000 9.460000 3.960000 188 72 78 0
30.140000 9.460000 7.480000 189 73 79 0
30.360000 9.460000 15.730000 188 77 81 0
30.580000 9.460000 14.410000 188 77 81 0
30.800000 9.460000 4.730000 189 76 81 0
33.220000 9.460000 0.220000 189 76 79 0
33.440000 9.460000 0.770000 189 76 81 0
33.660000 9.460000 0.770000 190 77 82 0
33.880000 9.460000 0.770000 189 78 82 0
34.100000 9.460000 0.770000 190 79 83 0
34.320000 9.460000 0.880000 191 80 84 0
34.540000 9.460000 0.990000 191 80 84 0
34.760000 9.460000 1.100000 191 80 82 0
34.980000 9.460000 1.100000 190 79 81 0
35.200000 9.460000 0.880000 192 79 82 0
35.420000 9.460000 0.770000 193 80 83 0
35.640000 9.460000 0.110000 192 81 83 0
35.860000 9.460000 0.110000 193 82 84 0
36.080000 9.460000 0.110000 193 82 84 0
36.300000 9.460000 0.880000 194 83 85 0
36.520000 9.460000 0.990000 194 85 86 0
36.740000 9.460000 0.990000 194 85 86 0
36.960000 9.460000 0.880000 193 86 87 0
37.180000 9.460000 0.880000 194 87 88 0
0.000000 9.680000 1.980000 192 85 88 0
0.220000 9.680000 1.980000 193 86 89 0
0.440000 9.680000 1.980000 191 86 86 0
0.660000 9.680000 2.640000 191 86 86 0
0.880000 9.680000 2.640000 191 86 86 0
1.100000 9.680000 3.300000 190 85 85 0
1.320000 9.680000 2.640000 192 87 89 0
1.540000 9.680000 1.980000 192 87 89 0
1.760000 9.680000 2.750000 191 88 90 0
1.980000 9.680000 2.750000 193 90 92 0
2.200000 9.680000 2.750000 192 89 91 0
2.420000 9.680000 2.750000 193 90 92 0
2.640000 9.680000 3.300000 193 90 92 0
2.860000 9.680000 3.630000 193 90 92 0
3.080000 9.680000 4.840000 193 90 92 0
3.300000 9.680000 4.840000 191 88 90 0
3.520000 9.680000 4.180000 193 88 90 0
3.740000 9.680000 3.520000 192 87 89 0
3.960000 9.680000 3.520000 190 87 89 0
4.180000 9.680000 4.290000 190 87 89 0
4.400000 9.680000 4.950000 191 90 93 0
4.620000 9.680000 5.720000 192 91 94 0
4.840000 9.680000 5.720000 187 97 101 0
5.060000 9.680000 5.720000 193 103 107 0
5.280000 9.680000 5.720000 188 119 119 0
5.500000 9.680000 6.490000 204 135 135 0
5.720000 9.680000 6.490000 198 145 148 0
5.940000 9.680000 6.490000 212 159 162 0
6.160000 9.680000 6.600000 189 184 185 0
6.380000 9.680000 6.710000 241 236 237 0
6.600000 9.680000 6.710000 240 241 240 0
6.820000 9.680000 5.390000 240 241 240 0
7.040000 9.680000 4.730000 240 241 240 0
7.260000 9.680000 4.070000 240 241 240 0
7.480000 9.680000 4.070000 240 241 240 0
7.700000 9.680000 4.730000 240 241 240 0
7.920000 9.680000 6.160000 248 237 238 0
8.140000 9.680000 7.590000 241 230 231 0
8.360000 9.680000 8.800000 235 179 187 0
8.580000 9.680000 10.560000 216 160 168 0
8.800000 9.680000 11.110000 213 144 144 0
9.020000 9.680000 10.450000 200 131 131 0
9.240000 9.680000 10.450000 207 110 116 0
9.460000 9.680000 10.560000 190 93 99 0
9.680000 9.680000 11.220000 189 87 95 0
9.900000 9.680000 11.990000 188 86 94 0
10.120000 9.680000 12.650000 186 85 88 0
10.340000 9.680000 13.420000 186 85 88 0
10.560000 9.680000 13.420000 187 79 87 0
10.780000 9.680000 14.080000 184 76 84 0
11.000000 9.680000 14.080000 181 74 79 0
11.220000 9.680000 14.850000 182 75 80 0
11.440000 9.680000 15.510000 182 72 78 0
11.660000 9.680000 16.280000 181 71 77 0
11.880000 9.680000 16.280000 180 68 75 0
12.100000 9.680000 16.280000 179 67 74 0
12.320000 9.680000 16.390000 179 67 74 0
12.540000 9.680000 16.390000 178 66 73 0
12.760000 9.680000 17.050000 178 66 73 0
12.980000 9.680000 17.160000 176 64 71 0
13.200000 9.680000 17.160000 176 64 71 0
13.420000 9.680000 17.160000 176 64 71 0
13.640000 9.680000 17.160000 177 65 72 0
13.860000 9.680000 17.930000 177 65 72 0
14.080000 9.680000 17.930000 178 65 72 0
14.300000 9.680000 18.590000 177 64 71 0
14.520000 9.680000 19.360000 178 65 72 0
14.740000 9.680000 19.910000 177 64 71 0
14.960000 9.680000 16.720000 178 65 70 0
15.180000 9.680000 8.360000 178 65 70 0
15.400000 9.680000 1.430000 179 66 71 0
16.060000 9.680000 0.110000 177 64 71 0
16.280000 9.680000 0.110000 179 63 71 0
16.500000 9.680000 0.110000 179 63 71 0
16.720000 9.680000 0.110000 180 64 70 0
16.940000 9.680000 0.110000 180 64 70 0
17.160000 9.680000 0.110000 179 63 69 0
17.380000 9.680000 0.110000 179 63 69 0
17.600000 9.680000 0.110000 179 63 71 0
17.820000 9.680000 0.220000 178 62 70 0
18.040000 9.680000 0.220000 179 63 71 0
18.260000 9.680000 0.220000 179 63 71 0
18.480000 9.680000 0.220000 180 62 69 0
18.700000 9.680000 0.220000 179 61 68 0
18.920000 9.680000 0.220000 179 61 68 0
19.140000 9.680000 0.220000 178 60 67 0
19.360000 9.680000 0.220000 177 59 66 0
19.580000 9.680000 0.880000 178 60 67 0
19.800000 9.680000 0.880000 177 59 68 0
20.020000 9.680000 0.220000 178 60 69 0
20.240000 9.680000 0.220000 177 59 66 0
20.460000 9.680000 0.990000 178 60 67 0
20.680000 9.680000 0.990000 179 61 68 0
20.900000 9.680000 0.990000 180 62 69 0
21.120000 9.680000 1.100000 180 62 71 0
21.340000 9.680000 1.100000 180 62 71 0
21.560000 9.680000 1.100000 179 61 70 0
21.780000 9.680000 1.100000 180 62 71 0
22.000000 9.680000 1.100000 182 62 69 0
22.220000 9.680000 0.440000 182 62 69 0
22.440000 9.680000 0.440000 181 63 70 0
23.320000 9.680000 0.550000 182 61 71 0
23.540000 9.680000 0.550000 181 60 70 0
23.760000 9.680000 0.550000 180 59 69 0
23.980000 9.680000 0.550000 182 61 71 0
24.200000 9.680000 0.550000 179 61 68 0
24.420000 9.680000 1.320000 179 61 68 0
24.640000 9.680000 1.980000 181 63 72 0
24.860000 9.680000 1.980000 182 64 73 0
25.080000 9.680000 2.750000 181 63 70 0
25.300000 9.680000 2.750000 181 63 70 0
25.520000 9.680000 2.530000 184 63 73 0
25.740000 9.680000 2.970000 182 61 71 0
25.960000 9.680000 2.750000 180 62 69 0
26.180000 9.680000 2.090000 181 63 70 0
26.400000 9.680000 2.200000 182 64 71 0
26.620000 9.680000 2.860000 183 65 72 0
26.840000 9.680000 2.310000 183 70 75 0
27.060000 9.680000 2.420000 186 73 78 0
27.280000 9.680000 1.760000 190 74 82 0
27.500000 9.680000 1.540000 187 71 79 0
27.720000 9.680000 1.540000 187 69 76 0
27.940000 9.680000 1.650000 186 68 75 0
28.160000 9.680000 1.760000 185 69 77 0
28.380000 9.680000 1.760000 185 69 77 0
28.600000 9.680000 1.870000 182 71 75 0
28.820000 9.680000 2.640000 188 77 81 0
29.040000 9.680000 3.410000 189 76 81 0
29.260000 9.680000 4.730000 188 75 80 0
29.480000 9.680000 4.620000 188 75 80 0
29.700000 9.680000 4.620000 186 73 78 0
29.920000 9.680000 3.960000 190 74 80 0
30.140000 9.680000 7.480000 189 73 79 0
30.360000 9.680000 15.840000 188 77 81 0
30.580000 9.680000 15.840000 189 78 82 0
30.800000 9.680000 6.820000 190 77 82 0
31.020000 9.680000 0.550000 190 77 82 0
33.000000 9.680000 0.220000 189 76 79 0
33.220000 9.680000 0.770000 188 75 78 0
33.440000 9.680000 0.770000 188 75 80 0
33.660000 9.680000 0.770000 189 76 81 0
33.880000 9.680000 0.770000 190 79 83 0
34.100000 9.680000 0.770000 189 78 82 0
34.320000 9.680000 0.880000 189 78 82 0
34.540000 9.680000 0.990000 190 79 83 0
34.760000 9.680000 0.990000 190 79 81 0
34.980000 9.680000 0.990000 191 80 82 0
35.200000 9.680000 0.880000 192 79 82 0
35.420000 9.680000 0.770000 192 79 82 0
35.640000 9.680000 0.770000 193 82 84 0
35.860000 9.680000 0.220000 192 81 83 0
36.080000 9.680000 0.330000 193 82 84 0
36.300000 9.680000 0.990000 194 83 85 0
36.520000 9.680000 1.100000 195 86 87 0
36.740000 9.680000 1.650000 195 86 87 0
36.960000 9.680000 1.540000 194 87 88 0
37.180000 9.680000 1.540000 193 86 87 0
0.000000 9.900000 1.980000 191 84 87 0
0.220000 9.900000 1.980000 192 85 88 0
0.440000 9.900000 1.980000 192 85 88 0
0.660000 9.900000 1.980000 191 84 87 0
0.880000 9.900000 2.640000 190 85 87 0
1.100000 9.900000 3.300000 192 87 89 0
1.320000 9.900000 2.640000 192 87 87 0
1.540000 9.900000 2.750000 193 88 88 0
1.760000 9.900000 2.750000 193 88 90 0
1.980000 9.900000 3.410000 196 91 93 0
2.200000 9.900000 3.410000 197 92 94 0
2.420000 9.900000 3.410000 196 91 93 0
2.640000 9.900000 3.960000 193 90 92 0
2.860000 9.900000 4.290000 193 90 92 0
3.080000 9.900000 4.840000 193 90 92 0
3.300000 9.900000 5.610000 193 90 92 0
3.520000 9.900000 5.610000 193 90 92 0
3.740000 9.900000 6.270000 191 88 90 0
3.960000 9.900000 6.270000 193 88 90 0
4.180000 9.900000 7.040000 193 88 90 0
4.400000 9.900000 6.380000 190 89 92 0
4.620000 9.900000 6.380000 192 91 94 0
4.840000 9.900000 5.720000 192 97 100 0
5.060000 9.900000 5.720000 196 101 104 0
5.280000 9.900000 5.720000 191 114 119 0
5.500000 9.900000 6.490000 206 129 134 0
5.720000 9.900000 6.490000 202 144 151 0
5.940000 9.900000 6.490000 211 153 160 0
6.160000 9.900000 6.600000 191 182 182 0
6.380000 9.900000 7.370000 242 233 233 0
6.600000 9.900000 6.050000 240 241 240 0
6.820000 9.900000 4.730000 240 241 240 0
7.040000 9.900000 3.410000 240 241 240 0
7.260000 9.900000 2.640000 240 241 240 0
7.480000 9.900000 2.750000 240 241 240 0
7.700000 9.900000 4.070000 240 241 240 0
7.920000 9.900000 5.500000 251 236 236 0
8.140000 9.900000 7.480000 241 226 226 0
8.360000 9.900000 9.460000 247 177 182 0
8.580000 9.900000 11.220000 215 145 150 0
8.800000 9.900000 11.110000 213 128 131 0
9.020000 9.900000 10.450000 202 117 120 0
9.240000 9.900000 10.450000 205 105 112 0
9.460000 9.900000 11.220000 192 92 99 0
9.680000 9.900000 11.220000 189 89 94 0
9.900000 9.900000 11.990000 187 87 92 0
10.120000 9.900000 12.650000 189 86 92 0
10.340000 9.900000 12.650000 186 83 89 0
10.560000 9.900000 13.420000 185 79 84 0
10.780000 9.900000 13.420000 184 78 83 0
11.000000 9.900000 14.080000 184 77 82 0
11.220000 9.900000 14.850000 182 75 80 0
11.440000 9.900000 15.510000 183 73 81 0
11.660000 9.900000 16.280000 181 71 79 0
11.880000 9.900000 16.280000 182 70 77 0
12.100000 9.900000 16.280000 181 69 76 0
12.320000 9.900000 16.390000 179 67 74 0
12.540000 9.900000 16.390000 178 66 73 0
12.760000 9.900000 17.050000 178 66 73 0
12.980000 9.900000 17.160000 177 65 72 0
13.200000 9.900000 17.160000 177 65 72 0
13.420000 9.900000 17.160000 177 65 72 0
13.640000 9.900000 17.160000 178 65 72 0
13.860000 9.900000 17.160000 178 65 72 0
14.080000 9.900000 17.930000 178 65 72 0
14.300000 9.900000 18.590000 177 64 71 0
14.520000 9.900000 19.360000 177 64 71 0
14.740000 9.900000 19.910000 177 64 71 0
14.960000 9.900000 19.580000 177 64 71 0
15.180000 9.900000 13.200000 177 64 71 0
15.400000 9.900000 4.180000 179 66 73 0
16.060000 9.900000 0.110000 177 64 71 0
16.280000 9.900000 0.110000 180 64 72 0
16.500000 9.900000 0.110000 182 66 74 0
16.720000 9.900000 0.110000 181 65 73 0
16.940000 9.900000 0.110000 180 64 72 0
17.160000 9.900000 0.110000 179 63 71 0
17.380000 9.900000 0.110000 180 64 72 0
17.600000 9.900000 0.110000 180 64 72 0
17.820000 9.900000 0.220000 179 63 71 0
18.040000 9.900000 0.220000 179 63 71 0
18.260000 9.900000 0.220000 180 64 72 0
18.480000 9.900000 0.220000 179 61 68 0
18.700000 9.900000 0.220000 179 61 68 0
18.920000 9.900000 0.220000 179 61 70 0
19.140000 9.900000 0.220000 179 61 70 0
19.360000 9.900000 0.220000 178 60 69 0
19.580000 9.900000 0.880000 177 59 68 0
19.800000 9.900000 0.880000 177 59 68 0
20.020000 9.900000 0.220000 178 60 69 0
20.240000 9.900000 0.220000 178 60 67 0
20.460000 9.900000 0.990000 177 59 66 0
20.680000 9.900000 0.990000 180 62 71 0
20.900000 9.900000 1.100000 178 60 69 0
21.120000 9.900000 1.100000 180 62 71 0
21.340000 9.900000 1.100000 179 61 70 0
21.560000 9.900000 1.100000 179 61 70 0
21.780000 9.900000 1.100000 178 60 69 0
22.000000 9.900000 1.100000 181 61 68 0
22.220000 9.900000 0.440000 183 63 70 0
22.440000 9.900000 0.440000 181 63 74 0
23.320000 9.900000 0.550000 182 62 69 0
23.540000 9.900000 0.550000 182 62 69 0
23.760000 9.900000 0.550000 181 61 68 0
23.980000 9.900000 0.550000 182 62 69 0
24.200000 9.900000 0.660000 180 62 71 0
24.420000 9.900000 1.320000 180 62 71 0
24.640000 9.900000 1.980000 180 62 69 0
24.860000 9.900000 1.980000 182 64 71 0
25.080000 9.900000 2.750000 184 64 71 0
25.300000 9.900000 2.750000 183 63 70 0
25.520000 9.900000 2.530000 182 62 69 0
25.740000 9.900000 2.970000 182 62 69 0
25.960000 9.900000 2.750000 181 63 72 0
26.180000 9.900000 2.090000 182 64 73 0
26.400000 9.900000 2.200000 184 66 73 0
26.620000 9.900000 2.860000 183 65 72 0
26.840000 9.900000 2.310000 186 70 78 0
27.060000 9.900000 2.420000 189 73 81 0
27.280000 9.900000 1.760000 189 76 83 0
27.500000 9.900000 1.540000 185 72 79 0
27.720000 9.900000 1.540000 186 70 78 0
27.940000 9.900000 0.990000 186 70 78 0
28.160000 9.900000 0.990000 185 69 77 0
28.380000 9.900000 1.100000 185 69 77 0
28.600000 9.900000 1.870000 187 71 79 0
28.820000 9.900000 2.640000 188 72 80 0
29.040000 9.900000 3.410000 187 76 80 0
29.260000 9.900000 3.960000 189 78 82 0
29.480000 9.900000 4.620000 189 76 83 0
29.700000 9.900000 4.620000 188 75 82 0
29.920000 9.900000 4.070000 187 74 79 0
30.140000 9.900000 7.480000 188 75 80 0
30.360000 9.900000 15.840000 189 78 82 0
30.580000 9.900000 18.590000 190 79 83 0
30.800000 9.900000 12.320000 190 79 83 0
31.020000 9.900000 3.300000 189 78 82 0
33.000000 9.900000 0.220000 189 76 81 0
33.220000 9.900000 0.770000 188 75 80 0
33.440000 9.900000 0.770000 188 75 80 0
33.660000 9.900000 0.770000 189 76 81 0
33.880000 9.900000 0.110000 190 77 82 0
34.100000 9.900000 0.770000 190 77 82 0
34.320000 9.900000 0.880000 190 79 81 0
34.540000 9.900000 0.880000 189 78 80 0
34.760000 9.900000 0.990000 191 80 82 0
34.980000 9.900000 0.990000 191 80 82 0
35.200000 9.900000 0.880000 192 81 83 0
35.420000 9.900000 0.880000 191 80 82 0
35.640000 9.900000 0.880000 193 82 84 0
35.860000 9.900000 0.220000 192 81 83 0
36.080000 9.900000 0.330000 194 85 86 0
36.300000 9.900000 0.990000 193 84 85 0
36.520000 9.900000 1.100000 195 86 87 0
36.740000 9.900000 1.650000 195 86 87 0
36.960000 9.900000 1.540000 194 87 88 0
37.180000 9.900000 1.540000 193 86 87 0
0.000000 10.120000 4.070000 190 83 86 0
0.220000 10.120000 2.640000 192 85 88 0
0.440000 10.120000 1.980000 191 84 87 0
0.660000 10.120000 1.980000 192 85 88 0
0.880000 10.120000 2.640000 191 86 88 0
1.100000 10.120000 3.300000 191 86 88 0
1.320000 10.120000 3.410000 191 86 86 0
1.540000 10.120000 3.410000 192 87 87 0
1.760000 10.120000 3.410000 192 87 89 0
1.980000 10.120000 3.410000 195 90 92 0
2.200000 10.120000 3.410000 195 90 92 0
2.420000 10.120000 3.410000 194 89 91 0
2.640000 10.120000 3.960000 193 90 92 0
2.860000 10.120000 5.060000 192 89 91 0
3.080000 10.120000 5.500000 193 90 92 0
3.300000 10.120000 6.270000 193 90 92 0
3.520000 10.120000 6.270000 192 89 91 0
3.740000 10.120000 6.930000 192 89 91 0
3.960000 10.120000 7.700000 192 87 89 0
4.180000 10.120000 7.700000 192 87 89 0
4.400000 10.120000 7.040000 190 89 92 0
4.620000 10.120000 6.380000 193 92 95 0
4.840000 10.120000 6.380000 191 96 99 0
5.060000 10.120000 5.720000 194 99 102 0
5.280000 10.120000 5.720000 188 111 116 0
5.500000 10.120000 6.490000 200 123 128 0
5.720000 10.120000 6.490000 198 140 147 0
5.940000 10.120000 6.490000 210 152 159 0
6.160000 10.120000 7.260000 188 179 179 0
6.380000 10.120000 7.370000 240 231 231 0
6.600000 10.120000 6.050000 240 241 240 0
6.820000 10.120000 4.070000 240 241 240 0
7.040000 10.120000 2.640000 240 241 240 0
7.260000 10.120000 1.980000 240 241 240 0
7.480000 10.120000 1.980000 240 241 240 0
7.700000 10.120000 3.410000 240 241 240 0
7.920000 10.120000 5.500000 251 236 236 0
8.140000 10.120000 8.140000 239 224 224 0
8.360000 10.120000 10.670000 246 176 181 0
8.580000 10.120000 11.770000 212 142 147 0
8.800000 10.120000 11.770000 204 119 122 0
9.020000 10.120000 11.110000 195 110 113 0
9.240000 10.120000 11.220000 196 96 103 0
9.460000 10.120000 11.220000 191 91 98 0
9.680000 10.120000 11.880000 189 89 94 0
9.900000 10.120000 11.990000 188 88 93 0
10.120000 10.120000 12.650000 188 85 91 0
10.340000 10.120000 12.650000 185 82 88 0
10.560000 10.120000 12.650000 186 80 85 0
10.780000 10.120000 13.420000 185 79 84 0
11.000000 10.120000 14.080000 185 78 83 0
11.220000 10.120000 14.850000 181 74 79 0
11.440000 10.120000 15.510000 183 73 81 0
11.660000 10.120000 16.280000 181 71 79 0
11.880000 10.120000 16.280000 180 68 75 0
12.100000 10.120000 16.280000 181 69 76 0
12.320000 10.120000 16.390000 180 68 75 0
12.540000 10.120000 16.390000 179 67 74 0
12.760000 10.120000 16.390000 178 66 73 0
12.980000 10.120000 17.160000 178 66 73 0
13.200000 10.120000 17.160000 178 66 73 0
13.420000 10.120000 17.160000 177 65 72 0
13.640000 10.120000 17.160000 177 64 71 0
13.860000 10.120000 17.160000 178 65 72 0
14.080000 10.120000 17.930000 178 65 72 0
14.300000 10.120000 18.590000 177 64 71 0
14.520000 10.120000 19.360000 176 63 70 0
14.740000 10.120000 19.910000 178 65 72 0
14.960000 10.120000 20.240000 177 64 71 0
15.180000 10.120000 17.270000 178 65 72 0
15.400000 10.120000 8.360000 177 64 71 0
15.620000 10.120000 1.430000 178 65 72 0
16.060000 10.120000 0.110000 177 64 71 0
16.280000 10.120000 0.110000 180 64 72 0
16.500000 10.120000 0.110000 180 64 72 0
16.720000 10.120000 0.110000 180 64 72 0
16.940000 10.120000 0.110000 180 64 72 0
17.160000 10.120000 0.110000 180 64 72 0
17.380000 10.120000 0.110000 181 65 73 0
17.600000 10.120000 0.110000 179 63 71 0
17.820000 10.120000 0.220000 179 63 71 0
18.040000 10.120000 0.220000 179 63 71 0
18.260000 10.120000 0.220000 179 63 71 0
18.480000 10.120000 0.220000 179 61 68 0
18.700000 10.120000 0.220000 178 60 67 0
18.920000 10.120000 0.220000 179 61 70 0
19.140000 10.120000 0.220000 178 60 69 0
19.360000 10.120000 0.990000 178 60 69 0
19.580000 10.120000 0.990000 178 60 69 0
19.800000 10.120000 0.220000 177 59 68 0
20.020000 10.120000 0.220000 179 61 70 0
20.240000 10.120000 0.220000 179 61 68 0
20.460000 10.120000 0.330000 178 60 67 0
20.680000 10.120000 0.990000 178 60 69 0
20.900000 10.120000 1.100000 178 60 69 0
21.120000 10.120000 1.100000 179 61 70 0
21.340000 10.120000 1.100000 180 62 71 0
21.560000 10.120000 1.100000 179 61 70 0
21.780000 10.120000 0.990000 179 61 70 0
22.000000 10.120000 1.100000 182 62 69 0
22.220000 10.120000 0.440000 183 63 70 0
22.440000 10.120000 0.440000 186 68 79 0
23.320000 10.120000 0.550000 182 62 69 0
23.540000 10.120000 0.550000 182 62 69 0
23.760000 10.120000 0.550000 181 61 68 0
24.200000 10.120000 0.660000 179 61 70 0
24.420000 10.120000 1.320000 181 63 72 0
24.640000 10.120000 1.980000 180 62 69 0
24.860000 10.120000 1.980000 181 63 70 0
25.080000 10.120000 1.980000 184 64 71 0
25.300000 10.120000 2.090000 183 63 70 0
25.520000 10.120000 2.530000 182 62 69 0
25.740000 10.120000 2.970000 181 61 68 0
25.960000 10.120000 2.750000 179 61 70 0
26.180000 10.120000 2.090000 181 63 72 0
26.400000 10.120000 2.200000 182 64 71 0
26.620000 10.120000 2.860000 184 66 73 0
26.840000 10.120000 2.200000 185 69 77 0
27.060000 10.120000 2.310000 189 73 81 0
27.280000 10.120000 1.650000 189 76 83 0
27.500000 10.120000 1.540000 188 75 82 0
27.720000 10.120000 1.540000 184 68 76 0
27.940000 10.120000 0.990000 184 68 76 0
28.160000 10.120000 0.990000 184 68 76 0
28.380000 10.120000 1.100000 185 69 77 0
28.600000 10.120000 1.210000 187 71 79 0
28.820000 10.120000 2.640000 188 72 80 0
29.040000 10.120000 3.190000 188 77 81 0
29.260000 10.120000 4.400000 189 78 82 0
29.480000 10.120000 4.400000 189 76 83 0
29.700000 10.120000 4.620000 187 74 81 0
29.920000 10.120000 4.070000 186 73 78 0
30.140000 10.120000 6.820000 188 75 80 0
30.360000 10.120000 15.180000 187 76 80 0
30.580000 10.120000 20.020000 190 79 83 0
30.800000 10.120000 15.840000 190 79 83 0
31.020000 10.120000 7.480000 191 80 84 0
31.240000 10.120000 1.210000 191 78 83 0
33.000000 10.120000 0.220000 188 75 80 0
33.220000 10.120000 0.660000 188 75 80 0
33.440000 10.120000 0.770000 189 76 81 0
33.660000 10.120000 0.770000 189 76 81 0
33.880000 10.120000 0.110000 189 76 81 0
34.100000 10.120000 0.770000 189 76 81 0
34.320000 10.120000 0.770000 188 77 79 0
34.540000 10.120000 0.880000 190 79 81 0
34.760000 10.120000 0.990000 192 81 83 0
34.980000 10.120000 0.990000 191 80 82 0
35.200000 10.120000 0.880000 192 81 83 0
35.420000 10.120000 0.880000 192 81 83 0
35.640000 10.120000 0.880000 193 82 84 0
35.860000 10.120000 0.220000 193 82 84 0
36.080000 10.120000 0.220000 193 84 85 0
36.300000 10.120000 0.990000 193 84 85 0
36.520000 10.120000 1.650000 195 86 87 0
36.740000 10.120000 1.540000 195 86 87 0
36.960000 10.120000 1.540000 193 86 87 0
37.180000 10.120000 1.540000 194 87 88 0
0.000000 10.340000 7.480000 191 84 87 0
0.220000 10.340000 4.730000 191 84 87 0
0.440000 10.340000 1.980000 190 85 85 0
0.660000 10.340000 1.980000 190 85 85 0
0.880000 10.340000 2.640000 190 85 87 0
1.100000 10.340000 3.300000 191 86 88 0
1.320000 10.340000 4.070000 190 85 87 0
1.540000 10.340000 3.410000 192 87 89 0
1.760000 10.340000 3.410000 192 87 89 0
1.980000 10.340000 3.410000 193 88 90 0
2.200000 10.340000 3.410000 194 89 91 0
2.420000 10.340000 3.410000 194 89 91 0
2.640000 10.340000 3.960000 193 90 92 0
2.860000 10.340000 5.060000 193 90 92 0
3.080000 10.340000 5.500000 194 89 91 0
3.300000 10.340000 6.270000 195 90 92 0
3.520000 10.340000 6.930000 192 89 91 0
3.740000 10.340000 7.700000 191 88 90 0
3.960000 10.340000 8.360000 191 88 92 0
4.180000 10.340000 7.700000 191 88 92 0
4.400000 10.340000 7.040000 190 89 92 0
4.620000 10.340000 7.040000 191 90 93 0
4.840000 10.340000 6.380000 192 95 101 0
5.060000 10.340000 5.720000 195 98 104 0
5.280000 10.340000 5.720000 188 105 110 0
5.500000 10.340000 6.490000 197 114 119 0
5.720000 10.340000 6.490000 190 129 139 0
5.940000 10.340000 6.490000 206 145 155 0
6.160000 10.340000 7.260000 196 176 173 0
6.380000 10.340000 7.370000 243 223 220 0
6.600000 10.340000 6.050000 240 241 240 0
6.820000 10.340000 4.730000 240 241 240 0
7.040000 10.340000 2.640000 241 240 240 0
7.260000 10.340000 1.980000 241 240 240 0
7.480000 10.340000 1.980000 240 241 240 0
7.700000 10.340000 2.750000 240 241 240 0
7.920000 10.340000 5.500000 255 233 232 0
8.140000 10.340000 8.800000 249 224 223 0
8.360000 10.340000 11.220000 255 172 175 0
8.580000 10.340000 11.770000 213 128 131 0
8.800000 10.340000 11.770000 205 108 114 0
9.020000 10.340000 11.110000 196 99 105 0
9.240000 10.340000 11.220000 189 92 98 0
9.460000 10.340000 11.220000 187 90 96 0
9.680000 10.340000 11.880000 188 88 93 0
9.900000 10.340000 12.650000 187 87 92 0
10.120000 10.340000 12.650000 187 84 90 0
10.340000 10.340000 12.650000 185 82 88 0
10.560000 10.340000 12.650000 187 79 87 0
10.780000 10.340000 13.420000 186 78 86 0
11.000000 10.340000 14.850000 187 77 85 0
11.220000 10.340000 15.510000 184 74 82 0
11.440000 10.340000 15.510000 181 71 77 0
11.660000 10.340000 16.280000 181 71 77 0
11.880000 10.340000 16.280000 180 70 78 0
12.100000 10.340000 16.280000 179 69 77 0
12.320000 10.340000 16.390000 181 69 76 0
12.540000 10.340000 16.390000 179 67 74 0
12.760000 10.340000 16.390000 181 69 76 0
12.980000 10.340000 16.390000 178 66 73 0
13.200000 10.340000 17.160000 178 66 73 0
13.420000 10.340000 17.160000 178 66 73 0
13.640000 10.340000 17.160000 177 64 71 0
13.860000 10.340000 17.160000 177 64 71 0
14.080000 10.340000 17.930000 178 65 72 0
14.300000 10.340000 18.590000 179 66 73 0
14.520000 10.340000 18.590000 178 65 72 0
14.740000 10.340000 19.140000 177 64 71 0
14.960000 10.340000 20.240000 177 64 71 0
15.180000 10.340000 19.360000 177 64 71 0
15.400000 10.340000 14.520000 178 65 72 0
15.620000 10.340000 6.930000 179 66 73 0
15.840000 10.340000 1.430000 177 64 71 0
16.060000 10.340000 0.110000 178 65 72 0
16.280000 10.340000 0.110000 178 65 72 0
16.500000 10.340000 0.110000 177 64 71 0
16.720000 10.340000 0.110000 179 63 71 0
16.940000 10.340000 0.110000 180 64 72 0
17.160000 10.340000 0.110000 180 64 72 0
17.380000 10.340000 0.110000 180 64 72 0
17.600000 10.340000 0.110000 179 63 71 0
17.820000 10.340000 0.110000 179 63 71 0
18.040000 10.340000 0.220000 180 64 72 0
18.260000 10.340000 0.220000 179 63 71 0
18.480000 10.340000 0.220000 178 60 69 0
18.700000 10.340000 0.220000 179 61 70 0
18.920000 10.340000 0.220000 178 62 70 0
19.140000 10.340000 0.220000 177 61 69 0
19.360000 10.340000 0.220000 177 59 68 0
19.580000 10.340000 0.990000 177 59 68 0
19.800000 10.340000 0.220000 178 60 69 0
20.020000 10.340000 0.330000 178 60 69 0
20.240000 10.340000 0.330000 178 60 67 0
20.460000 10.340000 0.990000 178 60 67 0
20.680000 10.340000 0.990000 179 61 70 0
20.900000 10.340000 1.760000 178 60 69 0
21.120000 10.340000 1.100000 180 62 71 0
21.340000 10.340000 1.100000 180 62 71 0
21.560000 10.340000 0.990000 179 61 70 0
21.780000 10.340000 1.650000 179 61 70 0
22.000000 10.340000 0.990000 180 62 69 0
22.220000 10.340000 0.440000 187 69 76 0
22.440000 10.340000 0.440000 187 73 83 0
23.540000 10.340000 0.550000 181 63 72 0
24.200000 10.340000 0.660000 181 63 72 0
24.420000 10.340000 1.320000 181 63 72 0
24.640000 10.340000 1.980000 181 63 72 0
24.860000 10.340000 1.980000 183 65 74 0
25.080000 10.340000 1.320000 184 66 75 0
25.300000 10.340000 1.320000 182 64 73 0
25.520000 10.340000 1.870000 183 62 72 0
25.740000 10.340000 2.970000 181 60 70 0
25.960000 10.340000 2.750000 180 62 71 0
26.180000 10.340000 2.090000 180 62 71 0
26.400000 10.340000 2.200000 181 63 72 0
26.620000 10.340000 2.200000 182 64 73 0
26.840000 10.340000 2.200000 184 68 76 0
27.060000 10.340000 2.200000 188 72 80 0
27.280000 10.340000 2.200000 188 72 78 0
27.500000 10.340000 1.430000 189 73 79 0
27.720000 10.340000 1.540000 185 69 77 0
27.940000 10.340000 0.990000 186 70 78 0
28.160000 10.340000 0.990000 185 69 77 0
28.380000 10.340000 1.100000 185 69 77 0
28.600000 10.340000 1.210000 186 70 78 0
28.820000 10.340000 2.530000 188 72 80 0
29.040000 10.340000 3.740000 188 75 80 0
29.260000 10.340000 4.290000 189 76 81 0
29.480000 10.340000 4.400000 190 77 82 0
29.700000 10.340000 4.510000 188 75 80 0
29.920000 10.340000 3.300000 186 73 80 0
30.140000 10.340000 6.160000 187 74 81 0
30.360000 10.340000 15.070000 187 76 80 0
30.580000 10.340000 19.910000 189 78 82 0
30.800000 10.340000 18.590000 191 80 84 0
31.020000 10.340000 12.210000 191 80 84 0
31.240000 10.340000 3.300000 192 79 84 0
33.000000 10.340000 0.220000 189 76 81 0
33.220000 10.340000 0.660000 188 75 80 0
33.440000 10.340000 0.770000 189 76 81 0
33.660000 10.340000 0.770000 190 77 82 0
34.100000 10.340000 0.110000 187 76 80 0
34.320000 10.340000 0.770000 189 78 80 0
34.540000 10.340000 0.880000 190 79 81 0
34.760000 10.340000 0.880000 190 79 81 0
34.980000 10.340000 0.990000 191 80 82 0
35.200000 10.340000 0.880000 192 81 83 0
35.420000 10.340000 0.880000 193 82 84 0
35.640000 10.340000 0.770000 192 83 84 0
35.860000 10.340000 0.770000 193 84 85 0
36.080000 10.340000 0.770000 194 85 86 0
36.300000 10.340000 1.540000 193 84 85 0
36.520000 10.340000 1.540000 195 86 87 0
36.740000 10.340000 1.540000 194 85 86 0
36.960000 10.340000 1.540000 195 86 87 0
37.180000 10.340000 1.540000 194 85 86 0
0.000000 10.560000 8.910000 191 84 87 0
0.220000 10.560000 6.820000 191 84 87 0
0.440000 10.560000 4.070000 190 85 85 0
0.660000 10.560000 2.640000 190 85 85 0
0.880000 10.560000 2.640000 190 85 87 0
1.100000 10.560000 3.300000 190 85 87 0
1.320000 10.560000 4.070000 191 86 88 0
1.540000 10.560000 4.070000 192 87 89 0
1.760000 10.560000 4.070000 192 87 89 0
1.980000 10.560000 4.070000 193 88 90 0
2.200000 10.560000 4.180000 193 88 90 0
2.420000 10.560000 4.180000 193 88 90 0
2.640000 10.560000 3.960000 192 89 91 0
2.860000 10.560000 5.060000 192 89 91 0
3.080000 10.560000 6.270000 194 89 91 0
3.300000 10.560000 6.930000 193 88 90 0
3.520000 10.560000 7.700000 190 87 89 0
3.740000 10.560000 8.360000 190 87 89 0
3.960000 10.560000 8.360000 191 88 92 0
4.180000 10.560000 7.700000 191 88 92 0
4.400000 10.560000 7.810000 191 90 93 0
4.620000 10.560000 7.040000 192 91 94 0
4.840000 10.560000 6.380000 192 95 101 0
5.060000 10.560000 5.720000 195 98 104 0
5.280000 10.560000 5.720000 190 107 112 0
5.500000 10.560000 6.380000 198 115 120 0
5.720000 10.560000 7.150000 190 129 139 0
5.940000 10.560000 7.260000 206 145 155 0
6.160000 10.560000 7.260000 205 185 182 0
6.380000 10.560000 7.370000 233 213 210 0
6.600000 10.560000 6.710000 240 241 240 0
6.820000 10.560000 4.730000 240 241 240 0
7.040000 10.560000 3.410000 241 240 240 0
7.260000 10.560000 1.980000 241 240 240 0
7.480000 10.560000 2.750000 240 241 240 0
7.700000 10.560000 3.410000 240 241 240 0
7.920000 10.560000 5.500000 255 233 232 0
8.140000 10.560000 8.800000 236 211 210 0
8.360000 10.560000 11.990000 239 154 157 0
8.580000 10.560000 12.430000 203 118 121 0
8.800000 10.560000 11.110000 201 104 110 0
9.020000 10.560000 11.110000 193 96 102 0
9.240000 10.560000 11.220000 189 92 98 0
9.460000 10.560000 11.880000 186 89 95 0
9.680000 10.560000 11.880000 186 86 91 0
9.900000 10.560000 12.650000 185 85 90 0
10.120000 10.560000 12.650000 187 84 90 0
10.340000 10.560000 12.650000 186 83 89 0
10.560000 10.560000 12.650000 187 79 87 0
10.780000 10.560000 14.080000 186 78 86 0
11.000000 10.560000 14.850000 186 76 84 0
11.220000 10.560000 15.510000 183 73 81 0
11.440000 10.560000 15.510000 180 70 76 0
11.660000 10.560000 16.280000 181 71 77 0
11.880000 10.560000 16.280000 181 71 79 0
12.100000 10.560000 16.280000 180 70 78 0
12.320000 10.560000 16.390000 181 69 76 0
12.540000 10.560000 16.390000 179 67 74 0
12.760000 10.560000 16.390000 179 67 74 0
12.980000 10.560000 16.390000 179 67 74 0
13.200000 10.560000 16.390000 179 67 74 0
13.420000 10.560000 17.160000 179 67 74 0
13.640000 10.560000 17.160000 178 65 72 0
13.860000 10.560000 17.160000 178 65 72 0
14.080000 10.560000 17.930000 178 65 72 0
14.300000 10.560000 18.590000 178 65 72 0
14.520000 10.560000 18.590000 178 65 72 0
14.740000 10.560000 19.140000 177 64 71 0
14.960000 10.560000 20.240000 177 64 71 0
15.180000 10.560000 20.790000 177 64 71 0
15.400000 10.560000 20.020000 178 65 72 0
15.620000 10.560000 13.200000 178 65 72 0
15.840000 10.560000 4.180000 179 66 73 0
16.060000 10.560000 0.110000 178 65 72 0
16.280000 10.560000 0.110000 178 65 72 0
16.500000 10.560000 0.110000 178 65 72 0
16.720000 10.560000 0.110000 179 63 71 0
16.940000 10.560000 0.110000 180 64 72 0
17.160000 10.560000 0.110000 180 64 72 0
17.380000 10.560000 0.110000 181 65 73 0
17.600000 10.560000 0.110000 180 64 72 0
17.820000 10.560000 0.110000 179 63 71 0
18.040000 10.560000 0.220000 179 63 71 0
18.260000 10.560000 0.220000 180 64 72 0
18.480000 10.560000 0.220000 179 61 70 0
18.700000 10.560000 0.220000 179 61 70 0
18.920000 10.560000 0.220000 179 63 71 0
19.140000 10.560000 0.220000 177 61 69 0
19.360000 10.560000 0.220000 179 61 70 0
19.580000 10.560000 0.990000 178 60 69 0
19.800000 10.560000 0.990000 178 60 69 0
20.020000 10.560000 0.330000 178 60 69 0
20.240000 10.560000 0.990000 178 60 67 0
20.460000 10.560000 1.650000 178 60 67 0
20.680000 10.560000 1.760000 179 61 70 0
20.900000 10.560000 1.760000 178 60 69 0
21.120000 10.560000 1.100000 177 59 68 0
21.340000 10.560000 1.100000 178 60 69 0
21.560000 10.560000 1.650000 180 62 71 0
21.780000 10.560000 1.650000 180 62 71 0
22.000000 10.560000 1.100000 181 63 70 0
22.220000 10.560000 1.100000 188 70 77 0
22.440000 10.560000 0.440000 187 73 83 0
24.200000 10.560000 0.660000 180 62 71 0
24.420000 10.560000 1.320000 181 63 72 0
24.640000 10.560000 2.090000 183 65 74 0
24.860000 10.560000 1.320000 184 66 75 0
25.080000 10.560000 1.320000 185 67 76 0
25.300000 10.560000 1.320000 184 66 75 0
25.520000 10.560000 1.870000 184 63 73 0
25.740000 10.560000 2.310000 182 61 71 0
25.960000 10.560000 2.090000 180 62 71 0
26.180000 10.560000 2.090000 180 62 71 0
26.400000 10.560000 2.200000 182 64 73 0
26.620000 10.560000 2.200000 184 66 75 0
26.840000 10.560000 2.200000 185 69 77 0
27.060000 10.560000 2.200000 189 73 81 0
27.280000 10.560000 2.200000 188 72 78 0
27.500000 10.560000 2.200000 187 71 77 0
27.720000 10.560000 1.540000 185 69 77 0
27.940000 10.560000 0.880000 184 68 76 0
28.160000 10.560000 0.990000 184 68 76 0
28.380000 10.560000 1.100000 185 69 77 0
28.600000 10.560000 1.210000 185 69 77 0
28.820000 10.560000 2.530000 187 71 79 0
29.040000 10.560000 3.630000 186 73 78 0
29.260000 10.560000 4.180000 188 75 80 0
29.480000 10.560000 4.400000 187 74 79 0
29.700000 10.560000 3.850000 188 75 80 0
29.920000 10.560000 3.960000 187 74 81 0
30.140000 10.560000 8.140000 187 74 81 0
30.360000 10.560000 15.730000 188 77 81 0
30.580000 10.560000 19.910000 189 78 82 0
30.800000 10.560000 19.910000 191 80 84 0
31.020000 10.560000 15.070000 190 79 83 0
31.240000 10.560000 4.620000 191 78 83 0
33.000000 10.560000 0.220000 190 77 82 0
33.220000 10.560000 0.660000 189 76 81 0
33.440000 10.560000 0.770000 189 76 81 0
33.660000 10.560000 0.770000 191 78 83 0
34.100000 10.560000 0.110000 188 77 81 0
34.320000 10.560000 0.770000 188 77 79 0
34.540000 10.560000 0.880000 191 80 82 0
34.760000 10.560000 0.880000 191 80 82 0
34.980000 10.560000 0.880000 192 81 83 0
35.200000 10.560000 0.880000 192 81 83 0
35.420000 10.560000 0.770000 193 82 84 0
35.640000 10.560000 0.770000 193 84 85 0
35.860000 10.560000 0.770000 194 85 86 0
36.080000 10.560000 1.430000 194 85 86 0
36.300000 10.560000 1.430000 194 85 86 0
36.520000 10.560000 2.200000 195 86 87 0
36.740000 10.560000 2.200000 194 85 86 0
36.960000 10.560000 1.540000 194 85 86 0
37.180000 10.560000 1.540000 195 86 87 0
0.000000 10.780000 8.910000 190 85 87 0
0.220000 10.780000 8.910000 190 85 87 0
0.440000 10.780000 8.250000 189 84 86 0
0.660000 10.780000 4.730000 189 84 86 0
0.880000 10.780000 1.980000 190 85 87 0
1.100000 10.780000 3.300000 190 85 87 0
1.320000 10.780000 3.410000 191 86 88 0
1.540000 10.780000 3.410000 193 88 90 0
1.760000 10.780000 4.070000 191 88 90 0
1.980000 10.780000 4.070000 191 88 90 0
2.200000 10.780000 4.180000 194 89 91 0
2.420000 10.780000 4.180000 193 88 90 0
2.640000 10.780000 4.620000 193 88 90 0
2.860000 10.780000 5.060000 192 87 89 0
3.080000 10.780000 6.270000 193 88 90 0
3.300000 10.780000 6.930000 192 87 89 0
3.520000 10.780000 7.700000 192 87 89 0
3.740000 10.780000 8.360000 192 87 89 0
3.960000 10.780000 8.360000 191 88 90 0
4.180000 10.780000 8.470000 191 88 90 0
4.400000 10.780000 7.810000 191 90 93 0
4.620000 10.780000 7.040000 193 92 95 0
4.840000 10.780000 6.380000 188 97 99 0
5.060000 10.780000 6.380000 193 102 104 0
5.280000 10.780000 6.380000 185 112 114 0
5.500000 10.780000 7.150000 193 120 122 0
5.720000 10.780000 7.150000 192 132 137 0
5.940000 10.780000 7.260000 211 151 156 0
6.160000 10.780000 7.260000 213 186 188 0
6.380000 10.780000 7.370000 238 211 213 0
6.600000 10.780000 6.710000 240 241 240 0
6.820000 10.780000 5.390000 240 241 240 0
7.040000 10.780000 3.410000 240 241 240 0
7.260000 10.780000 2.750000 240 241 240 0
7.480000 10.780000 2.750000 240 241 240 0
7.700000 10.780000 4.070000 240 241 240 0
7.920000 10.780000 6.160000 255 228 222 0
8.140000 10.780000 9.460000 244 200 194 0
8.360000 10.780000 11.990000 215 132 135 0
8.580000 10.780000 12.430000 201 118 121 0
8.800000 10.780000 11.110000 199 103 109 0
9.020000 10.780000 11.110000 193 97 103 0
9.240000 10.780000 11.220000 191 91 96 0
9.460000 10.780000 11.880000 188 88 93 0
9.680000 10.780000 11.880000 188 85 91 0
9.900000 10.780000 12.650000 187 84 90 0
10.120000 10.780000 12.650000 187 84 88 0
10.340000 10.780000 12.650000 185 82 86 0
10.560000 10.780000 13.420000 188 78 84 0
10.780000 10.780000 14.080000 187 77 83 0
11.000000 10.780000 14.850000 184 77 82 0
11.220000 10.780000 15.510000 181 74 79 0
11.440000 10.780000 16.280000 184 74 80 0
11.660000 10.780000 16.280000 182 72 78 0
11.880000 10.780000 16.280000 182 70 77 0
12.100000 10.780000 16.280000 181 69 76 0
12.320000 10.780000 16.390000 180 68 75 0
12.540000 10.780000 16.390000 180 68 75 0
12.760000 10.780000 16.390000 179 67 74 0
12.980000 10.780000 16.390000 178 66 73 0
13.200000 10.780000 16.390000 178 66 73 0
13.420000 10.780000 17.160000 177 65 72 0
13.640000 10.780000 17.160000 179 66 73 0
13.860000 10.780000 17.160000 178 65 72 0
14.080000 10.780000 17.930000 177 64 71 0
14.300000 10.780000 18.590000 178 65 72 0
14.520000 10.780000 18.590000 177 64 71 0
14.740000 10.780000 19.140000 178 65 72 0
14.960000 10.780000 20.240000 177 64 71 0
15.180000 10.780000 20.790000 178 65 72 0
15.400000 10.780000 21.450000 178 65 72 0
15.620000 10.780000 15.950000 179 66 73 0
15.840000 10.780000 5.610000 179 66 73 0
16.060000 10.780000 0.110000 178 65 72 0
16.280000 10.780000 0.110000 178 65 70 0
16.500000 10.780000 0.110000 177 64 69 0
16.720000 10.780000 0.110000 179 63 71 0
16.940000 10.780000 0.110000 178 62 70 0
17.160000 10.780000 0.110000 179 63 71 0
17.380000 10.780000 0.110000 179 63 71 0
17.600000 10.780000 0.110000 181 65 73 0
17.820000 10.780000 0.110000 179 63 71 0
18.040000 10.780000 0.220000 180 64 70 0
18.260000 10.780000 0.220000 179 63 69 0
18.480000 10.780000 0.220000 180 64 70 0
18.700000 10.780000 0.220000 179 63 69 0
18.920000 10.780000 0.220000 178 62 70 0
19.140000 10.780000 0.220000 178 62 70 0
19.360000 10.780000 0.220000 179 61 68 0
19.580000 10.780000 0.990000 179 61 68 0
19.800000 10.780000 0.990000 177 59 68 0
20.020000 10.780000 0.990000 178 60 69 0
20.240000 10.780000 0.990000 178 60 67 0
20.460000 10.780000 1.650000 177 59 66 0
20.680000 10.780000 1.650000 179 61 70 0
20.900000 10.780000 1.760000 179 61 70 0
21.120000 10.780000 1.100000 178 60 67 0
21.340000 10.780000 1.100000 178 60 67 0
21.560000 10.780000 1.760000 180 62 69 0
21.780000 10.780000 1.650000 180 62 69 0
22.000000 10.780000 1.100000 180 62 69 0
22.220000 10.780000 1.100000 186 68 75 0
22.440000 10.780000 0.440000 188 70 79 0
24.200000 10.780000 0.660000 180 62 71 0
24.420000 10.780000 1.320000 182 64 73 0
24.640000 10.780000 1.320000 183 65 74 0
24.860000 10.780000 1.320000 186 68 77 0
25.080000 10.780000 1.320000 186 68 77 0
25.300000 10.780000 0.660000 186 68 77 0
25.520000 10.780000 1.100000 183 65 72 0
25.740000 10.780000 2.200000 182 64 71 0
25.960000 10.780000 2.090000 181 63 72 0
26.180000 10.780000 2.090000 181 63 72 0
26.400000 10.780000 2.090000 183 65 72 0
26.620000 10.780000 2.200000 183 65 72 0
26.840000 10.780000 2.200000 188 70 79 0
27.060000 10.780000 2.860000 189 71 80 0
27.280000 10.780000 2.860000 188 72 80 0
27.500000 10.780000 2.090000 185 69 77 0
27.720000 10.780000 2.200000 185 67 74 0
27.940000 10.780000 1.540000 185 67 74 0
28.160000 10.780000 0.990000 184 66 75 0
28.380000 10.780000 1.100000 185 67 76 0
28.600000 10.780000 1.210000 186 68 77 0
28.820000 10.780000 2.530000 186 68 77 0
29.040000 10.780000 3.630000 185 69 77 0
29.260000 10.780000 4.290000 187 71 79 0
29.480000 10.780000 3.740000 188 72 78 0
29.700000 10.780000 3.850000 188 72 78 0
29.920000 10.780000 6.710000 189 73 79 0
30.140000 10.780000 12.980000 189 73 79 0
30.360000 10.780000 18.480000 188 75 80 0
30.580000 10.780000 19.910000 190 77 82 0
30.800000 10.780000 19.910000 191 78 83 0
31.020000 10.780000 15.070000 190 77 82 0
31.240000 10.780000 4.620000 190 77 82 0
33.000000 10.780000 0.110000 191 78 81 0
33.220000 10.780000 0.770000 190 77 80 0
33.440000 10.780000 0.770000 189 78 80 0
33.660000 10.780000 0.770000 190 79 81 0
34.100000 10.780000 0.110000 189 78 80 0
34.320000 10.780000 0.110000 190 79 81 0
34.540000 10.780000 0.770000 191 80 82 0
34.760000 10.780000 0.880000 192 81 83 0
34.980000 10.780000 0.880000 192 81 83 0
35.200000 10.780000 0.770000 194 83 85 0
35.420000 10.780000 0.770000 193 82 84 0
35.640000 10.780000 0.770000 193 84 85 0
35.860000 10.780000 0.770000 193 84 85 0
36.080000 10.780000 1.430000 193 84 85 0
36.300000 10.780000 1.430000 195 86 87 0
36.520000 10.780000 2.200000 196 85 87 0
36.740000 10.780000 2.200000 194 83 85 0
36.960000 10.780000 1.540000 193 84 85 0
37.180000 10.780000 1.540000 195 86 87 0
0.000000 11.000000 8.910000 190 85 87 0
0.220000 11.000000 9.570000 191 86 88 0
0.440000 11.000000 10.340000 191 86 88 0
0.660000 11.000000 6.160000 190 85 87 0
0.880000 11.000000 1.980000 191 86 88 0
1.100000 11.000000 2.640000 191 86 88 0
1.320000 11.000000 3.410000 192 87 89 0
1.540000 11.000000 3.410000 193 88 90 0
1.760000 11.000000 4.070000 191 88 90 0
1.980000 11.000000 4.070000 193 90 92 0
2.200000 11.000000 4.180000 194 89 91 0
2.420000 11.000000 4.180000 193 88 90 0
2.640000 11.000000 4.620000 192 87 89 0
2.860000 11.000000 5.060000 192 87 89 0
3.080000 11.000000 6.270000 191 86 88 0
3.300000 11.000000 6.930000 192 87 89 0
3.520000 11.000000 8.360000 192 87 89 0
3.740000 11.000000 8.360000 192 87 89 0
3.960000 11.000000 9.130000 190 87 89 0
4.180000 11.000000 8.470000 192 89 91 0
4.400000 11.000000 8.470000 190 89 92 0
4.620000 11.000000 7.040000 193 92 95 0
4.840000 11.000000 6.380000 189 98 100 0
5.060000 11.000000 6.380000 196 105 107 0
5.280000 11.000000 6.380000 187 114 116 0
5.500000 11.000000 7.150000 200 127 129 0
5.720000 11.000000 7.810000 199 139 144 0
5.940000 11.000000 7.260000 211 151 156 0
6.160000 11.000000 7.260000 207 180 182 0
6.380000 11.000000 7.370000 231 204 206 0
6.600000 11.000000 7.480000 236 237 236 0
6.820000 11.000000 5.390000 240 241 240 0
7.040000 11.000000 3.410000 240 241 240 0
7.260000 11.000000 2.750000 240 241 240 0
7.480000 11.000000 3.410000 240 241 240 0
7.700000 11.000000 4.840000 240 241 240 0
7.920000 11.000000 7.590000 255 228 222 0
8.140000 11.000000 10.230000 231 187 181 0
8.360000 11.000000 11.990000 213 130 133 0
8.580000 11.000000 12.430000 200 117 120 0
8.800000 11.000000 11.110000 200 104 110 0
9.020000 11.000000 11.110000 192 96 102 0
9.240000 11.000000 11.880000 191 91 96 0
9.460000 11.000000 11.880000 187 87 92 0
9.680000 11.000000 12.650000 188 85 91 0
9.900000 11.000000 12.650000 186 83 89 0
10.120000 11.000000 12.650000 186 83 87 0
10.340000 11.000000 12.650000 185 82 86 0
10.560000 11.000000 13.420000 187 77 83 0
10.780000 11.000000 14.080000 185 75 81 0
11.000000 11.000000 14.850000 182 75 80 0
11.220000 11.000000 15.510000 182 75 80 0
11.440000 11.000000 16.280000 184 74 80 0
11.660000 11.000000 16.280000 182 72 78 0
11.880000 11.000000 16.280000 182 70 77 0
12.100000 11.000000 16.280000 182 70 77 0
12.320000 11.000000 16.390000 181 69 76 0
12.540000 11.000000 16.390000 179 67 74 0
12.760000 11.000000 16.390000 179 67 74 0
12.980000 11.000000 16.390000 179 67 74 0
13.200000 11.000000 16.390000 179 67 74 0
13.420000 11.000000 17.160000 179 67 74 0
13.640000 11.000000 17.160000 178 65 72 0
13.860000 11.000000 17.160000 178 65 72 0
14.080000 11.000000 17.930000 177 64 71 0
14.300000 11.000000 18.590000 177 64 71 0
14.520000 11.000000 18.590000 177 64 71 0
14.740000 11.000000 19.140000 177 64 71 0
14.960000 11.000000 20.240000 178 65 72 0
15.180000 11.000000 20.790000 180 67 74 0
15.400000 11.000000 21.450000 179 66 73 0
15.620000 11.000000 15.950000 178 65 72 0
15.840000 11.000000 5.610000 179 66 73 0
16.060000 11.000000 0.110000 178 65 72 0
16.280000 11.000000 0.110000 177 64 69 0
16.500000 11.000000 0.110000 178 65 70 0
16.720000 11.000000 0.110000 179 63 71 0
16.940000 11.000000 0.110000 179 63 71 0
17.160000 11.000000 0.110000 178 62 70 0
17.380000 11.000000 0.110000 179 63 71 0
17.600000 11.000000 0.110000 180 64 72 0
17.820000 11.000000 0.110000 181 65 73 0
18.040000 11.000000 0.220000 179 63 69 0
18.260000 11.000000 0.220000 180 64 70 0
18.480000 11.000000 0.220000 178 62 68 0
18.700000 11.000000 0.220000 179 63 69 0
18.920000 11.000000 0.220000 178 62 70 0
19.140000 11.000000 0.220000 179 63 71 0
19.360000 11.000000 0.220000 179 61 68 0
19.580000 11.000000 0.220000 179 61 68 0
19.800000 11.000000 0.990000 179 61 70 0
20.020000 11.000000 0.990000 178 60 69 0
20.240000 11.000000 1.650000 177 59 66 0
20.460000 11.000000 1.650000 177 59 66 0
20.680000 11.000000 1.650000 179 61 70 0
