ply
format ascii 1.0
element vertex 1158
property float x
property float y
property float z
property uchar red
property uchar green
property uchar blue
property uchar alpha
end_header
11.440000 11.880000 32.560000 182 72 80 0
11.660000 11.880000 32.560000 181 71 79 0
11.880000 11.880000 32.560000 181 69 76 0
12.100000 11.880000 32.560000 180 68 75 0
12.320000 11.880000 32.780000 181 69 76 0
12.540000 11.880000 32.780000 179 67 74 0
12.760000 11.880000 32.780000 179 67 74 0
12.980000 11.880000 32.780000 178 66 73 0
13.200000 11.880000 33.000000 178 65 72 0
13.420000 11.880000 33.000000 177 64 71 0
13.640000 11.880000 34.320000 177 64 71 0
13.860000 11.880000 34.540000 176 63 70 0
14.080000 11.880000 35.860000 178 65 72 0
14.300000 11.880000 35.860000 178 65 72 0
14.520000 11.880000 37.180000 177 64 71 0
14.740000 11.880000 38.280000 176 63 70 0
14.960000 11.880000 40.480000 177 64 71 0
15.180000 11.880000 41.580000 176 63 70 0
15.400000 11.880000 31.900000 177 64 71 0
15.620000 11.880000 11.220000 177 64 71 0
16.060000 11.880000 0.220000 177 64 71 0
16.280000 11.880000 0.220000 179 63 71 0
16.500000 11.880000 0.220000 179 63 71 0
16.720000 11.880000 0.220000 178 65 72 0
16.940000 11.880000 0.220000 179 66 73 0
17.160000 11.880000 0.220000 180 64 72 0
17.380000 11.880000 0.220000 179 63 71 0
17.600000 11.880000 0.220000 179 63 71 0
17.820000 11.880000 0.220000 180 64 72 0
18.040000 11.880000 0.440000 180 64 72 0
18.260000 11.880000 0.440000 179 63 71 0
18.480000 11.880000 0.440000 180 64 72 0
18.700000 11.880000 0.440000 178 62 70 0
18.920000 11.880000 0.440000 179 61 70 0
19.140000 11.880000 0.440000 180 62 71 0
19.360000 11.880000 0.440000 180 62 71 0
19.580000 11.880000 1.980000 178 60 69 0
19.800000 11.880000 1.980000 178 60 69 0
20.020000 11.880000 3.300000 178 60 69 0
20.240000 11.880000 3.300000 178 60 69 0
20.460000 11.880000 1.980000 178 60 69 0
20.680000 11.880000 1.980000 178 60 69 0
20.900000 11.880000 2.200000 178 60 69 0
21.120000 11.880000 2.200000 178 60 69 0
21.340000 11.880000 2.200000 179 61 70 0
21.560000 11.880000 0.880000 179 61 70 0
21.780000 11.880000 0.880000 179 61 70 0
22.000000 11.880000 0.880000 183 62 72 0
22.220000 11.880000 0.880000 182 61 71 0
23.320000 11.880000 1.100000 182 61 71 0
23.540000 11.880000 1.100000 181 60 70 0
23.760000 11.880000 1.320000 178 60 69 0
23.980000 11.880000 1.320000 180 62 71 0
24.200000 11.880000 2.640000 178 60 69 0
24.420000 11.880000 4.180000 182 64 73 0
24.640000 11.880000 5.500000 182 64 73 0
24.860000 11.880000 5.060000 182 64 73 0
25.080000 11.880000 5.720000 181 63 72 0
25.300000 11.880000 5.500000 181 63 72 0
25.520000 11.880000 4.180000 182 64 73 0
25.740000 11.880000 4.180000 182 64 73 0
25.960000 11.880000 4.180000 182 64 73 0
26.180000 11.880000 5.720000 183 65 74 0
26.400000 11.880000 5.720000 184 68 76 0
26.620000 11.880000 4.400000 185 69 77 0
26.840000 11.880000 2.860000 185 67 76 0
27.060000 11.880000 2.860000 187 69 78 0
27.280000 11.880000 4.180000 183 67 75 0
27.500000 11.880000 5.720000 183 67 75 0
27.720000 11.880000 5.720000 184 68 76 0
27.940000 11.880000 4.620000 184 68 76 0
28.160000 11.880000 3.520000 183 67 75 0
28.380000 11.880000 3.740000 183 67 75 0
28.600000 11.880000 5.280000 185 69 77 0
28.820000 11.880000 6.600000 186 70 78 0
29.040000 11.880000 7.480000 185 72 79 0
29.260000 11.880000 7.480000 186 73 80 0
29.480000 11.880000 4.840000 186 70 78 0
29.700000 11.880000 3.740000 188 72 80 0
29.920000 11.880000 1.100000 188 75 80 0
30.140000 11.880000 9.460000 191 78 83 0
30.360000 11.880000 28.820000 192 79 84 0
30.580000 11.880000 39.820000 191 78 83 0
30.800000 11.880000 31.460000 189 78 82 0
31.020000 11.880000 14.740000 188 77 81 0
31.240000 11.880000 3.740000 189 76 83 0
31.460000 11.880000 1.100000 188 75 82 0
31.680000 11.880000 1.320000 190 77 82 0
32.780000 11.880000 0.440000 192 81 85 0
33.000000 11.880000 1.320000 191 80 84 0
33.220000 11.880000 1.320000 190 79 83 0
33.440000 11.880000 1.540000 191 80 82 0
33.660000 11.880000 1.540000 192 81 83 0
33.880000 11.880000 1.540000 191 80 84 0
34.100000 11.880000 0.220000 191 80 84 0
34.320000 11.880000 0.220000 191 80 84 0
34.540000 11.880000 0.440000 192 81 85 0
34.760000 11.880000 0.440000 192 81 83 0
34.980000 11.880000 0.440000 192 81 83 0
35.200000 11.880000 1.760000 193 84 85 0
35.420000 11.880000 1.760000 192 83 84 0
35.640000 11.880000 1.760000 194 83 85 0
35.860000 11.880000 1.760000 195 84 86 0
36.080000 11.880000 3.080000 193 84 85 0
36.300000 11.880000 3.080000 194 85 86 0
36.520000 11.880000 4.400000 194 85 86 0
36.740000 11.880000 4.400000 194 85 86 0
36.960000 11.880000 4.400000 195 86 87 0
37.180000 11.880000 4.400000 195 86 87 0
0.000000 12.100000 24.640000 188 83 83 0
0.220000 12.100000 19.140000 190 85 85 0
0.440000 12.100000 8.140000 190 85 87 0
0.660000 12.100000 2.640000 191 86 88 0
0.880000 12.100000 5.280000 189 86 88 0
1.100000 12.100000 6.600000 191 88 90 0
1.320000 12.100000 6.820000 194 91 95 0
1.540000 12.100000 6.820000 196 93 97 0
1.760000 12.100000 6.820000 196 95 96 0
1.980000 12.100000 6.820000 199 98 99 0
2.200000 12.100000 8.140000 197 96 99 0
2.420000 12.100000 8.140000 195 94 97 0
2.640000 12.100000 9.240000 193 90 92 0
2.860000 12.100000 11.440000 191 88 90 0
3.080000 12.100000 12.540000 193 88 90 0
3.300000 12.100000 13.860000 191 86 88 0
3.520000 12.100000 15.400000 189 86 88 0
3.740000 12.100000 16.720000 189 86 88 0
3.960000 12.100000 18.040000 189 86 90 0
4.180000 12.100000 19.580000 189 86 90 0
4.400000 12.100000 19.580000 189 88 91 0
4.620000 12.100000 18.260000 191 90 93 0
4.840000 12.100000 15.620000 192 92 97 0
5.060000 12.100000 14.300000 196 96 101 0
5.280000 12.100000 14.300000 192 106 112 0
5.500000 12.100000 14.300000 203 117 123 0
5.720000 12.100000 14.300000 199 125 137 0
5.940000 12.100000 14.300000 207 133 145 0
6.160000 12.100000 14.520000 195 168 170 0
6.380000 12.100000 17.380000 222 195 197 0
6.600000 12.100000 20.460000 231 232 231 0
6.820000 12.100000 16.500000 240 241 240 0
7.040000 12.100000 11.000000 241 240 240 0
7.260000 12.100000 6.820000 241 240 240 0
7.480000 12.100000 9.680000 251 236 234 0
7.700000 12.100000 17.600000 250 235 233 0
7.920000 12.100000 22.660000 253 166 170 0
8.140000 12.100000 25.300000 212 125 129 0
8.360000 12.100000 25.080000 200 103 109 0
8.580000 12.100000 23.760000 196 99 105 0
8.800000 12.100000 23.540000 194 94 99 0
9.020000 12.100000 23.760000 190 90 95 0
9.240000 12.100000 25.080000 186 86 91 0
9.460000 12.100000 25.300000 184 84 89 0
9.680000 12.100000 25.300000 186 83 87 0
9.900000 12.100000 25.300000 186 83 87 0
10.120000 12.100000 25.300000 185 79 86 0
10.340000 12.100000 26.840000 184 78 85 0
10.560000 12.100000 29.480000 186 76 82 0
10.780000 12.100000 31.020000 183 73 79 0
11.000000 12.100000 31.020000 184 74 80 0
11.220000 12.100000 32.560000 181 71 77 0
11.440000 12.100000 32.560000 183 73 79 0
11.660000 12.100000 32.560000 182 72 78 0
11.880000 12.100000 32.560000 182 72 78 0
12.100000 12.100000 32.560000 180 70 76 0
12.320000 12.100000 32.780000 179 69 75 0
12.540000 12.100000 32.780000 178 68 74 0
12.760000 12.100000 32.780000 180 68 75 0
12.980000 12.100000 32.780000 179 67 74 0
13.200000 12.100000 33.000000 178 66 73 0
13.420000 12.100000 33.000000 177 65 72 0
13.640000 12.100000 34.320000 177 65 72 0
13.860000 12.100000 34.540000 177 65 72 0
14.080000 12.100000 35.860000 176 64 71 0
14.300000 12.100000 35.860000 177 65 72 0
14.520000 12.100000 37.180000 178 65 72 0
14.740000 12.100000 38.280000 177 64 71 0
14.960000 12.100000 40.480000 177 64 71 0
15.180000 12.100000 41.580000 178 65 72 0
15.400000 12.100000 31.900000 177 64 71 0
15.620000 12.100000 11.220000 177 64 71 0
16.060000 12.100000 0.220000 178 65 72 0
16.280000 12.100000 0.220000 179 63 71 0
16.500000 12.100000 0.220000 179 63 71 0
16.720000 12.100000 0.220000 179 63 71 0
16.940000 12.100000 0.220000 180 64 72 0
17.160000 12.100000 0.220000 179 66 73 0
17.380000 12.100000 0.220000 177 64 71 0
17.600000 12.100000 0.220000 178 65 72 0
17.820000 12.100000 0.220000 178 65 72 0
18.040000 12.100000 0.440000 179 63 71 0
18.260000 12.100000 0.440000 179 63 71 0
18.480000 12.100000 0.440000 179 63 71 0
18.700000 12.100000 0.440000 179 63 71 0
18.920000 12.100000 0.440000 179 63 71 0
19.140000 12.100000 0.440000 179 63 71 0
19.360000 12.100000 0.440000 177 61 69 0
19.580000 12.100000 1.980000 178 62 70 0
19.800000 12.100000 1.760000 177 61 69 0
20.020000 12.100000 3.080000 177 61 69 0
20.240000 12.100000 3.300000 179 61 70 0
20.460000 12.100000 1.980000 179 61 70 0
20.680000 12.100000 1.980000 178 62 70 0
20.900000 12.100000 2.200000 178 62 70 0
21.120000 12.100000 2.200000 178 62 70 0
21.340000 12.100000 0.880000 180 64 72 0
21.560000 12.100000 0.880000 179 61 70 0
21.780000 12.100000 1.100000 179 61 70 0
22.000000 12.100000 1.100000 179 61 70 0
22.220000 12.100000 1.100000 178 60 69 0
22.440000 12.100000 1.100000 178 60 69 0
22.660000 12.100000 1.100000 179 61 70 0
22.880000 12.100000 1.100000 178 62 70 0
23.100000 12.100000 1.100000 178 62 70 0
23.320000 12.100000 1.100000 180 62 71 0
23.540000 12.100000 1.100000 179 61 70 0
23.760000 12.100000 1.320000 179 61 70 0
23.980000 12.100000 1.320000 180 62 71 0
24.200000 12.100000 2.640000 180 62 71 0
24.420000 12.100000 4.180000 182 64 73 0
24.640000 12.100000 5.500000 182 64 73 0
24.860000 12.100000 5.060000 181 63 72 0
25.080000 12.100000 5.720000 180 62 71 0
25.300000 12.100000 5.500000 179 61 70 0
25.520000 12.100000 4.180000 182 64 73 0
25.740000 12.100000 2.860000 182 64 73 0
25.960000 12.100000 4.400000 183 65 74 0
26.180000 12.100000 4.400000 185 67 76 0
26.400000 12.100000 4.400000 186 70 78 0
26.620000 12.100000 3.080000 186 70 78 0
26.840000 12.100000 2.860000 187 71 79 0
27.060000 12.100000 2.860000 185 69 77 0
27.280000 12.100000 2.860000 186 70 78 0
27.500000 12.100000 4.400000 184 68 76 0
27.720000 12.100000 4.400000 184 68 76 0
27.940000 12.100000 3.300000 185 69 77 0
28.160000 12.100000 3.520000 185 69 77 0
28.380000 12.100000 3.740000 184 68 76 0
28.600000 12.100000 5.280000 185 69 77 0
28.820000 12.100000 6.600000 184 68 76 0
29.040000 12.100000 7.480000 184 71 78 0
29.260000 12.100000 5.940000 186 73 80 0
29.480000 12.100000 4.840000 184 71 78 0
29.700000 12.100000 3.740000 185 72 79 0
29.920000 12.100000 1.100000 189 76 83 0
30.140000 12.100000 6.600000 191 78 85 0
30.360000 12.100000 22.000000 189 78 82 0
30.580000 12.100000 31.680000 188 77 81 0
30.800000 12.100000 27.280000 189 76 81 0
31.020000 12.100000 9.240000 188 75 80 0
31.240000 12.100000 1.100000 189 76 83 0
31.460000 12.100000 1.100000 187 74 81 0
31.680000 12.100000 1.320000 189 76 81 0
32.780000 12.100000 1.760000 191 80 84 0
33.000000 12.100000 1.320000 190 79 83 0
33.220000 12.100000 1.320000 190 79 83 0
33.440000 12.100000 1.540000 189 78 82 0
33.660000 12.100000 1.540000 189 78 82 0
33.880000 12.100000 1.540000 190 79 83 0
34.100000 12.100000 1.540000 189 78 82 0
34.320000 12.100000 0.220000 191 80 84 0
34.540000 12.100000 0.440000 191 80 84 0
34.760000 12.100000 0.440000 191 80 84 0
34.980000 12.100000 1.980000 193 82 86 0
35.200000 12.100000 1.760000 193 82 84 0
35.420000 12.100000 0.220000 194 83 85 0
35.640000 12.100000 1.760000 192 83 84 0
35.860000 12.100000 1.760000 193 84 85 0
36.080000 12.100000 2.200000 193 84 85 0
36.300000 12.100000 2.420000 194 85 86 0
36.520000 12.100000 2.200000 194 85 86 0
36.740000 12.100000 3.080000 195 86 87 0
36.960000 12.100000 4.400000 196 85 87 0
37.180000 12.100000 4.400000 195 84 86 0
0.000000 12.320000 27.280000 189 84 84 0
0.220000 12.320000 21.780000 190 85 85 0
0.440000 12.320000 9.460000 191 86 88 0
0.660000 12.320000 3.960000 191 86 88 0
0.880000 12.320000 5.280000 189 86 88 0
1.100000 12.320000 6.600000 191 88 90 0
1.320000 12.320000 6.820000 192 89 93 0
1.540000 12.320000 6.820000 195 92 96 0
1.760000 12.320000 6.820000 196 95 96 0
1.980000 12.320000 6.820000 197 96 97 0
2.200000 12.320000 6.820000 197 96 99 0
2.420000 12.320000 8.140000 195 94 97 0
2.640000 12.320000 9.240000 193 90 92 0
2.860000 12.320000 11.440000 192 89 91 0
3.080000 12.320000 12.540000 192 87 89 0
3.300000 12.320000 13.860000 191 86 88 0
3.520000 12.320000 15.400000 190 87 89 0
3.740000 12.320000 16.720000 190 87 89 0
3.960000 12.320000 18.040000 189 86 90 0
4.180000 12.320000 19.580000 189 86 90 0
4.400000 12.320000 19.580000 190 89 92 0
4.620000 12.320000 18.260000 191 90 93 0
4.840000 12.320000 16.940000 191 91 96 0
5.060000 12.320000 15.620000 194 94 99 0
5.280000 12.320000 14.300000 191 105 111 0
5.500000 12.320000 14.300000 198 112 118 0
5.720000 12.320000 14.300000 192 118 130 0
5.940000 12.320000 12.980000 198 124 136 0
6.160000 12.320000 14.520000 187 160 162 0
6.380000 12.320000 18.700000 230 203 205 0
6.600000 12.320000 21.780000 232 233 232 0
6.820000 12.320000 20.460000 240 241 240 0
7.040000 12.320000 17.820000 241 240 240 0
7.260000 12.320000 13.640000 241 240 240 0
7.480000 12.320000 13.860000 251 236 234 0
7.700000 12.320000 18.920000 243 228 226 0
7.920000 12.320000 24.200000 234 147 151 0
8.140000 12.320000 25.740000 204 117 121 0
8.360000 12.320000 25.740000 198 101 107 0
8.580000 12.320000 25.300000 192 95 101 0
8.800000 12.320000 23.540000 191 91 96 0
9.020000 12.320000 25.080000 188 88 93 0
9.240000 12.320000 25.080000 186 86 91 0
9.460000 12.320000 25.300000 185 85 90 0
9.680000 12.320000 25.300000 186 83 87 0
9.900000 12.320000 25.300000 184 81 85 0
10.120000 12.320000 26.840000 186 80 87 0
10.340000 12.320000 28.160000 183 77 84 0
10.560000 12.320000 29.480000 186 76 82 0
10.780000 12.320000 31.020000 184 74 80 0
11.000000 12.320000 32.340000 184 74 80 0
11.220000 12.320000 32.560000 182 72 78 0
11.440000 12.320000 32.560000 183 73 79 0
11.660000 12.320000 32.560000 183 73 79 0
11.880000 12.320000 32.560000 182 72 78 0
12.100000 12.320000 32.780000 181 71 77 0
12.320000 12.320000 32.780000 180 70 76 0
12.540000 12.320000 32.780000 180 70 76 0
12.760000 12.320000 32.780000 180 68 75 0
12.980000 12.320000 32.780000 179 67 74 0
13.200000 12.320000 33.000000 178 66 73 0
13.420000 12.320000 33.000000 177 65 72 0
13.640000 12.320000 34.320000 177 65 72 0
13.860000 12.320000 34.540000 177 65 72 0
14.080000 12.320000 35.860000 177 65 72 0
14.300000 12.320000 35.860000 177 65 72 0
14.520000 12.320000 37.180000 178 65 72 0
14.740000 12.320000 38.280000 179 66 73 0
14.960000 12.320000 40.480000 179 66 73 0
15.180000 12.320000 38.720000 178 65 72 0
15.400000 12.320000 26.400000 178 65 72 0
15.620000 12.320000 8.360000 178 65 72 0
16.060000 12.320000 0.220000 178 65 72 0
16.280000 12.320000 0.220000 179 63 71 0
16.500000 12.320000 0.220000 179 63 71 0
16.720000 12.320000 0.220000 179 63 71 0
16.940000 12.320000 0.220000 179 63 71 0
17.160000 12.320000 0.220000 177 64 71 0
17.380000 12.320000 0.220000 177 64 71 0
17.600000 12.320000 0.220000 178 65 72 0
17.820000 12.320000 0.220000 177 64 71 0
18.040000 12.320000 0.440000 179 63 71 0
18.260000 12.320000 0.440000 179 63 71 0
18.480000 12.320000 0.440000 179 63 71 0
18.700000 12.320000 0.440000 179 63 71 0
18.920000 12.320000 0.440000 180 64 72 0
19.140000 12.320000 0.440000 179 63 71 0
19.360000 12.320000 0.440000 178 62 70 0
19.580000 12.320000 0.440000 178 62 70 0
19.800000 12.320000 1.760000 178 62 70 0
20.020000 12.320000 1.760000 178 62 70 0
20.240000 12.320000 1.760000 179 61 70 0
20.460000 12.320000 1.980000 179 61 70 0
20.680000 12.320000 1.980000 179 63 71 0
20.900000 12.320000 0.660000 178 62 70 0
21.120000 12.320000 0.880000 177 61 69 0
21.340000 12.320000 0.880000 179 63 71 0
21.560000 12.320000 0.880000 178 60 69 0
21.780000 12.320000 1.100000 180 62 71 0
22.000000 12.320000 1.100000 179 61 70 0
22.220000 12.320000 1.100000 179 61 70 0
22.440000 12.320000 1.100000 178 60 69 0
22.660000 12.320000 1.100000 178 60 69 0
22.880000 12.320000 1.100000 179 63 71 0
23.100000 12.320000 1.100000 179 63 71 0
23.320000 12.320000 1.100000 180 62 71 0
23.540000 12.320000 1.320000 180 62 71 0
23.760000 12.320000 1.320000 180 62 71 0
23.980000 12.320000 1.320000 180 62 71 0
24.200000 12.320000 2.640000 181 63 72 0
24.420000 12.320000 4.180000 180 62 71 0
24.640000 12.320000 5.280000 181 63 72 0
24.860000 12.320000 5.940000 181 63 72 0
25.080000 12.320000 7.040000 180 62 71 0
25.300000 12.320000 5.720000 181 63 72 0
25.520000 12.320000 4.180000 182 64 73 0
25.740000 12.320000 2.860000 181 63 72 0
25.960000 12.320000 2.860000 183 65 74 0
26.180000 12.320000 4.400000 185 67 76 0
26.400000 12.320000 3.080000 188 72 80 0
26.620000 12.320000 3.080000 189 73 81 0
26.840000 12.320000 1.760000 188 72 80 0
27.060000 12.320000 1.540000 185 69 77 0
27.280000 12.320000 1.540000 185 69 77 0
27.500000 12.320000 1.760000 184 68 76 0
27.720000 12.320000 3.300000 185 69 77 0
27.940000 12.320000 2.200000 184 68 76 0
28.160000 12.320000 2.200000 185 69 77 0
28.380000 12.320000 3.740000 184 68 76 0
28.600000 12.320000 3.960000 185 69 77 0
28.820000 12.320000 5.060000 185 69 77 0
29.040000 12.320000 7.260000 184 71 78 0
29.260000 12.320000 5.940000 185 72 79 0
29.480000 12.320000 4.840000 184 71 78 0
29.700000 12.320000 2.420000 186 73 80 0
29.920000 12.320000 1.100000 186 73 80 0
30.140000 12.320000 1.100000 187 74 81 0
30.360000 12.320000 6.820000 188 77 81 0
30.580000 12.320000 16.280000 188 77 81 0
30.800000 12.320000 21.780000 187 74 79 0
31.020000 12.320000 9.240000 188 75 80 0
31.240000 12.320000 1.100000 187 74 81 0
31.460000 12.320000 1.100000 186 73 80 0
32.780000 12.320000 1.760000 189 78 82 0
33.000000 12.320000 1.320000 188 77 81 0
33.220000 12.320000 1.320000 189 78 82 0
33.440000 12.320000 1.540000 189 78 82 0
33.660000 12.320000 1.540000 189 78 82 0
33.880000 12.320000 1.540000 190 79 83 0
34.100000 12.320000 1.540000 190 79 83 0
34.320000 12.320000 1.760000 190 79 83 0
34.540000 12.320000 0.440000 190 79 83 0
34.760000 12.320000 0.440000 191 80 84 0
34.980000 12.320000 1.980000 191 80 84 0
35.200000 12.320000 0.440000 192 81 83 0
35.420000 12.320000 0.220000 193 82 84 0
35.640000 12.320000 0.220000 192 83 84 0
35.860000 12.320000 0.440000 193 84 85 0
36.080000 12.320000 1.100000 193 84 85 0
36.300000 12.320000 1.320000 195 86 87 0
36.520000 12.320000 2.420000 194 85 86 0
36.740000 12.320000 3.300000 195 86 87 0
36.960000 12.320000 4.400000 195 84 86 0
37.180000 12.320000 4.400000 195 84 86 0
0.000000 12.540000 27.280000 190 83 86 0
0.220000 12.540000 21.780000 190 83 86 0
0.440000 12.540000 9.460000 190 85 87 0
0.660000 12.540000 3.960000 191 86 88 0
0.880000 12.540000 5.280000 190 85 87 0
1.100000 12.540000 6.600000 192 87 89 0
1.320000 12.540000 8.140000 193 88 90 0
1.540000 12.540000 6.820000 194 89 91 0
1.760000 12.540000 6.820000 195 94 95 0
1.980000 12.540000 5.500000 197 96 97 0
2.200000 12.540000 6.820000 197 94 96 0
2.420000 12.540000 7.920000 196 93 95 0
2.640000 12.540000 10.120000 194 91 95 0
2.860000 12.540000 11.220000 192 89 93 0
3.080000 12.540000 11.220000 192 87 89 0
3.300000 12.540000 12.540000 191 86 88 0
3.520000 12.540000 15.400000 191 86 88 0
3.740000 12.540000 16.720000 192 87 89 0
3.960000 12.540000 18.040000 190 87 89 0
4.180000 12.540000 19.580000 191 88 90 0
4.400000 12.540000 19.580000 191 90 93 0
4.620000 12.540000 19.800000 193 92 95 0
4.840000 12.540000 18.480000 193 91 97 0
5.060000 12.540000 16.940000 194 92 98 0
5.280000 12.540000 15.620000 196 99 103 0
5.500000 12.540000 14.300000 198 101 105 0
5.720000 12.540000 12.980000 195 108 112 0
5.940000 12.540000 12.980000 200 113 117 0
6.160000 12.540000 14.520000 196 146 150 0
6.380000 12.540000 18.700000 230 180 184 0
6.600000 12.540000 20.460000 227 208 209 0
6.820000 12.540000 20.460000 253 234 235 0
7.040000 12.540000 20.680000 255 233 238 0
7.260000 12.540000 17.820000 255 233 238 0
7.480000 12.540000 17.820000 255 216 223 0
7.700000 12.540000 20.460000 250 178 185 0
7.920000 12.540000 22.880000 221 128 131 0
8.140000 12.540000 25.960000 200 107 110 0
8.360000 12.540000 25.960000 198 96 102 0
8.580000 12.540000 25.300000 193 91 97 0
8.800000 12.540000 25.080000 191 89 95 0
9.020000 12.540000 25.080000 189 87 93 0
9.240000 12.540000 25.080000 187 85 91 0
9.460000 12.540000 25.300000 185 83 89 0
9.680000 12.540000 25.300000 187 81 88 0
9.900000 12.540000 25.300000 186 80 87 0
10.120000 12.540000 26.840000 185 78 83 0
10.340000 12.540000 28.160000 184 77 82 0
10.560000 12.540000 29.480000 185 75 81 0
10.780000 12.540000 31.020000 183 73 79 0
11.000000 12.540000 32.340000 181 71 77 0
11.220000 12.540000 32.560000 182 72 78 0
11.440000 12.540000 32.560000 183 73 79 0
11.660000 12.540000 32.560000 183 73 79 0
11.880000 12.540000 32.560000 180 68 75 0
12.100000 12.540000 32.780000 181 69 76 0
12.320000 12.540000 32.780000 180 68 75 0
12.540000 12.540000 32.780000 180 68 75 0
12.760000 12.540000 32.780000 180 68 75 0
12.980000 12.540000 32.780000 179 67 74 0
13.200000 12.540000 33.000000 178 66 73 0
13.420000 12.540000 33.000000 178 66 73 0
13.640000 12.540000 34.320000 178 65 72 0
13.860000 12.540000 34.540000 178 65 72 0
14.080000 12.540000 35.860000 177 64 71 0
14.300000 12.540000 35.860000 178 65 72 0
14.520000 12.540000 37.180000 179 66 73 0
14.740000 12.540000 38.280000 178 65 72 0
14.960000 12.540000 40.480000 178 65 72 0
15.180000 12.540000 34.540000 178 65 72 0
15.400000 12.540000 16.720000 178 65 72 0
15.620000 12.540000 2.860000 177 64 71 0
16.060000 12.540000 0.220000 178 65 72 0
16.280000 12.540000 0.220000 179 66 73 0
16.500000 12.540000 0.220000 177 64 71 0
16.720000 12.540000 0.220000 179 63 71 0
16.940000 12.540000 0.220000 179 63 71 0
17.160000 12.540000 0.220000 180 64 72 0
17.380000 12.540000 0.220000 179 63 71 0
17.600000 12.540000 0.220000 180 64 72 0
17.820000 12.540000 0.220000 180 64 72 0
18.040000 12.540000 0.440000 178 62 70 0
18.260000 12.540000 0.440000 178 62 70 0
18.480000 12.540000 0.440000 179 63 71 0
18.700000 12.540000 0.440000 179 63 71 0
18.920000 12.540000 0.440000 179 63 71 0
19.140000 12.540000 0.440000 179 63 71 0
19.360000 12.540000 0.440000 178 60 69 0
19.580000 12.540000 0.440000 179 61 70 0
19.800000 12.540000 1.760000 179 61 70 0
20.020000 12.540000 1.760000 180 62 71 0
20.240000 12.540000 1.760000 179 61 70 0
20.460000 12.540000 1.760000 178 60 69 0
20.680000 12.540000 0.660000 179 61 70 0
20.900000 12.540000 0.660000 180 62 71 0
21.120000 12.540000 0.880000 178 60 67 0
21.340000 12.540000 0.880000 179 61 68 0
21.560000 12.540000 0.880000 179 61 70 0
21.780000 12.540000 1.100000 178 60 69 0
22.000000 12.540000 1.100000 179 61 68 0
22.220000 12.540000 0.880000 180 62 69 0
22.440000 12.540000 1.100000 180 62 71 0
22.660000 12.540000 1.100000 179 61 70 0
22.880000 12.540000 1.100000 181 63 72 0
23.100000 12.540000 1.100000 179 61 70 0
23.320000 12.540000 1.100000 179 61 70 0
23.540000 12.540000 1.320000 179 61 70 0
23.760000 12.540000 1.320000 180 62 71 0
23.980000 12.540000 1.320000 181 63 72 0
24.200000 12.540000 2.640000 181 63 72 0
24.420000 12.540000 4.180000 181 63 72 0
24.640000 12.540000 5.060000 182 64 73 0
24.860000 12.540000 5.940000 181 63 72 0
25.080000 12.540000 7.040000 181 63 72 0
25.300000 12.540000 5.720000 181 63 72 0
25.520000 12.540000 4.180000 181 63 70 0
25.740000 12.540000 2.860000 183 65 72 0
25.960000 12.540000 3.080000 183 65 74 0
26.180000 12.540000 3.080000 186 68 77 0
26.400000 12.540000 3.080000 188 72 80 0
26.620000 12.540000 1.760000 188 72 80 0
26.840000 12.540000 0.440000 188 70 79 0
27.060000 12.540000 3.080000 188 70 79 0
27.280000 12.540000 5.940000 186 70 78 0
27.500000 12.540000 3.520000 182 66 74 0
27.720000 12.540000 0.880000 185 67 76 0
27.940000 12.540000 2.420000 185 67 76 0
28.160000 12.540000 1.100000 185 67 76 0
28.380000 12.540000 2.420000 186 68 77 0
28.600000 12.540000 3.960000 184 68 76 0
28.820000 12.540000 5.280000 186 70 78 0
29.040000 12.540000 6.160000 186 70 78 0
29.260000 12.540000 4.620000 186 70 78 0
29.480000 12.540000 3.520000 186 70 76 0
29.700000 12.540000 2.200000 187 71 77 0
29.920000 12.540000 1.100000 186 73 78 0
30.580000 12.540000 9.460000 188 75 80 0
30.800000 12.540000 19.140000 188 75 80 0
31.020000 12.540000 9.460000 187 74 79 0
31.460000 12.540000 1.100000 189 73 79 0
32.780000 12.540000 0.440000 188 75 80 0
33.000000 12.540000 1.540000 188 77 79 0
33.220000 12.540000 1.320000 190 79 81 0
33.440000 12.540000 1.540000 189 78 82 0
33.660000 12.540000 1.540000 191 80 84 0
33.880000 12.540000 1.540000 190 79 81 0
34.100000 12.540000 1.540000 191 80 82 0
34.320000 12.540000 1.760000 189 78 82 0
34.540000 12.540000 0.440000 188 77 81 0
34.760000 12.540000 0.440000 189 78 80 0
34.980000 12.540000 1.980000 189 78 80 0
35.200000 12.540000 0.440000 192 81 83 0
35.420000 12.540000 0.220000 193 82 84 0
35.640000 12.540000 0.440000 193 84 85 0
35.860000 12.540000 0.440000 193 84 85 0
36.080000 12.540000 1.100000 193 84 85 0
36.300000 12.540000 1.320000 194 85 86 0
36.520000 12.540000 1.320000 194 85 86 0
36.740000 12.540000 2.200000 195 86 87 0
36.960000 12.540000 3.080000 194 85 86 0
37.180000 12.540000 4.400000 195 86 87 0
0.000000 12.760000 28.600000 190 83 86 0
0.220000 12.760000 21.780000 191 84 87 0
0.440000 12.760000 9.460000 191 86 88 0
0.660000 12.760000 5.280000 190 85 87 0
0.880000 12.760000 6.600000 191 86 88 0
1.100000 12.760000 6.600000 190 85 87 0
1.320000 12.760000 8.140000 191 86 88 0
1.540000 12.760000 6.820000 193 88 90 0
1.760000 12.760000 6.820000 195 94 95 0
1.980000 12.760000 5.500000 196 95 96 0
2.200000 12.760000 5.500000 199 96 98 0
2.420000 12.760000 7.920000 197 94 96 0
2.640000 12.760000 10.120000 194 91 95 0
2.860000 12.760000 11.220000 192 89 93 0
3.080000 12.760000 11.220000 193 88 90 0
3.300000 12.760000 12.540000 191 86 88 0
3.520000 12.760000 13.860000 190 85 87 0
3.740000 12.760000 16.720000 191 86 88 0
3.960000 12.760000 18.040000 190 87 89 0
4.180000 12.760000 18.260000 191 88 90 0
4.400000 12.760000 19.580000 191 90 93 0
4.620000 12.760000 19.800000 192 91 94 0
4.840000 12.760000 19.800000 193 91 97 0
5.060000 12.760000 18.480000 195 93 99 0
5.280000 12.760000 17.160000 194 97 101 0
5.500000 12.760000 14.300000 197 100 104 0
5.720000 12.760000 12.980000 192 105 109 0
5.940000 12.760000 11.660000 197 110 114 0
6.160000 12.760000 14.520000 181 131 135 0
6.380000 12.760000 17.380000 207 157 161 0
6.600000 12.760000 18.920000 212 193 194 0
6.820000 12.760000 19.140000 238 219 220 0
7.040000 12.760000 19.140000 243 220 225 0
7.260000 12.760000 19.140000 238 215 220 0
7.480000 12.760000 19.360000 246 174 181 0
7.700000 12.760000 20.680000 208 136 143 0
7.920000 12.760000 21.780000 207 114 117 0
8.140000 12.760000 24.640000 197 104 107 0
8.360000 12.760000 25.960000 195 93 99 0
8.580000 12.760000 25.300000 191 89 95 0
8.800000 12.760000 25.080000 190 88 94 0
9.020000 12.760000 26.400000 188 86 92 0
9.240000 12.760000 25.080000 188 86 92 0
9.460000 12.760000 25.300000 185 83 89 0
9.680000 12.760000 25.300000 186 80 87 0
9.900000 12.760000 26.620000 185 79 86 0
10.120000 12.760000 28.160000 186 79 84 0
10.340000 12.760000 29.480000 183 76 81 0
10.560000 12.760000 31.020000 185 75 81 0
10.780000 12.760000 32.340000 184 74 80 0
11.000000 12.760000 32.340000 182 72 78 0
11.220000 12.760000 32.560000 183 73 79 0
11.440000 12.760000 32.560000 182 72 78 0
11.660000 12.760000 32.560000 181 71 77 0
11.880000 12.760000 32.560000 180 68 75 0
12.100000 12.760000 32.780000 180 68 75 0
12.320000 12.760000 32.780000 180 68 75 0
12.540000 12.760000 32.780000 180 68 75 0
12.760000 12.760000 32.780000 179 67 74 0
12.980000 12.760000 32.780000 179 67 74 0
13.200000 12.760000 33.000000 181 69 76 0
13.420000 12.760000 33.000000 179 67 74 0
13.640000 12.760000 34.320000 179 66 73 0
13.860000 12.760000 34.540000 179 66 73 0
14.080000 12.760000 35.860000 178 65 72 0
14.300000 12.760000 35.860000 179 66 73 0
14.520000 12.760000 37.180000 180 67 74 0
14.740000 12.760000 38.280000 179 66 73 0
14.960000 12.760000 40.480000 179 66 73 0
15.180000 12.760000 31.900000 178 65 72 0
15.400000 12.760000 11.000000 178 65 72 0
16.280000 12.760000 0.220000 178 65 72 0
16.500000 12.760000 0.220000 178 65 72 0
16.720000 12.760000 0.220000 179 63 71 0
16.940000 12.760000 0.220000 179 63 71 0
17.160000 12.760000 0.220000 178 62 70 0
17.380000 12.760000 0.220000 179 63 71 0
17.600000 12.760000 0.220000 180 64 72 0
17.820000 12.760000 0.220000 180 64 72 0
18.040000 12.760000 0.440000 179 63 71 0
18.260000 12.760000 0.440000 180 64 72 0
18.480000 12.760000 0.440000 179 63 71 0
18.700000 12.760000 0.440000 178 62 70 0
18.920000 12.760000 0.440000 179 63 71 0
19.140000 12.760000 0.440000 178 62 70 0
19.360000 12.760000 0.440000 179 61 70 0
19.580000 12.760000 0.440000 179 61 70 0
19.800000 12.760000 0.440000 180 62 71 0
20.020000 12.760000 1.760000 179 61 70 0
20.240000 12.760000 1.760000 179 61 70 0
20.460000 12.760000 1.760000 179 61 70 0
20.680000 12.760000 0.660000 178 60 69 0
20.900000 12.760000 0.880000 179 61 70 0
21.120000 12.760000 0.880000 179 61 68 0
21.340000 12.760000 0.880000 179 61 68 0
21.560000 12.760000 0.880000 179 61 70 0
21.780000 12.760000 0.880000 179 61 70 0
22.000000 12.760000 0.880000 179 61 68 0
22.220000 12.760000 0.880000 180 62 69 0
22.440000 12.760000 1.100000 179 61 70 0
22.660000 12.760000 1.100000 179 61 70 0
22.880000 12.760000 1.100000 179 61 70 0
23.100000 12.760000 1.100000 180 62 71 0
23.320000 12.760000 1.100000 180 62 71 0
23.540000 12.760000 1.320000 180 62 71 0
23.760000 12.760000 1.320000 180 62 71 0
23.980000 12.760000 1.320000 180 62 71 0
24.200000 12.760000 2.640000 181 63 72 0
24.420000 12.760000 3.960000 180 62 71 0
24.640000 12.760000 5.060000 180 62 71 0
24.860000 12.760000 5.720000 180 62 71 0
25.080000 12.760000 7.040000 181 63 72 0
25.300000 12.760000 5.720000 181 63 72 0
25.520000 12.760000 4.400000 182 64 71 0
25.740000 12.760000 4.400000 182 64 71 0
25.960000 12.760000 4.400000 183 65 74 0
26.180000 12.760000 3.080000 186 68 77 0
26.400000 12.760000 3.080000 188 72 80 0
26.620000 12.760000 1.980000 188 72 80 0
26.840000 12.760000 0.660000 189 71 80 0
27.060000 12.760000 7.480000 188 70 79 0
27.280000 12.760000 15.840000 188 72 80 0
27.500000 12.760000 7.700000 185 69 77 0
27.720000 12.760000 0.880000 185 67 76 0
27.940000 12.760000 1.100000 184 66 75 0
28.160000 12.760000 1.100000 183 65 74 0
28.380000 12.760000 1.100000 185 67 76 0
28.600000 12.760000 2.640000 185 69 77 0
28.820000 12.760000 3.960000 185 69 77 0
29.040000 12.760000 3.960000 187 71 79 0
29.260000 12.760000 3.740000 185 69 77 0
29.480000 12.760000 2.200000 186 70 76 0
29.700000 12.760000 2.200000 186 70 76 0
29.920000 12.760000 1.100000 186 73 78 0
30.580000 12.760000 9.460000 188 75 80 0
30.800000 12.760000 19.140000 188 75 80 0
31.020000 12.760000 9.460000 188 75 80 0
32.780000 12.760000 0.660000 187 74 79 0
33.000000 12.760000 1.540000 188 77 79 0
33.220000 12.760000 2.860000 189 78 80 0
33.440000 12.760000 2.860000 189 78 82 0
33.660000 12.760000 1.540000 189 78 82 0
33.880000 12.760000 1.540000 189 78 80 0
34.100000 12.760000 1.540000 190 79 81 0
34.320000 12.760000 1.760000 189 78 82 0
34.540000 12.760000 0.440000 189 78 82 0
34.760000 12.760000 0.660000 190 79 81 0
34.980000 12.760000 1.980000 190 79 81 0
35.200000 12.760000 0.440000 192 81 83 0
35.420000 12.760000 0.220000 192 81 83 0
35.640000 12.760000 0.440000 192 83 84 0
35.860000 12.760000 1.980000 193 84 85 0
36.080000 12.760000 0.880000 194 85 86 0
36.300000 12.760000 1.320000 194 85 86 0
36.520000 12.760000 1.320000 195 86 87 0
36.740000 12.760000 2.420000 195 86 87 0
36.960000 12.760000 3.300000 195 86 87 0
37.180000 12.760000 4.400000 195 86 87 0
0.000000 12.980000 29.920000 192 85 88 0
0.220000 12.980000 24.420000 192 85 88 0
0.440000 12.980000 10.780000 191 84 87 0
0.660000 12.980000 6.600000 190 83 86 0
0.880000 12.980000 6.600000 191 84 87 0
1.100000 12.980000 8.140000 191 84 87 0
1.320000 12.980000 8.140000 191 86 88 0
1.540000 12.980000 6.820000 191 86 88 0
1.760000 12.980000 6.820000 193 90 94 0
1.980000 12.980000 5.500000 197 94 98 0
2.200000 12.980000 5.500000 197 101 100 0
2.420000 12.980000 6.380000 197 101 100 0
2.640000 12.980000 9.900000 197 94 98 0
2.860000 12.980000 11.220000 192 89 93 0
3.080000 12.980000 11.220000 192 87 89 0
3.300000 12.980000 12.540000 192 87 89 0
3.520000 12.980000 13.860000 192 86 91 0
3.740000 12.980000 16.720000 191 85 90 0
3.960000 12.980000 18.040000 190 87 91 0
4.180000 12.980000 19.580000 190 87 91 0
4.400000 12.980000 19.580000 192 89 93 0
4.620000 12.980000 19.800000 192 89 93 0
4.840000 12.980000 19.800000 193 92 95 0
5.060000 12.980000 19.800000 195 94 97 0
5.280000 12.980000 18.480000 194 97 101 0
5.500000 12.980000 14.300000 196 99 103 0
5.720000 12.980000 12.980000 190 104 112 0
5.940000 12.980000 11.660000 200 114 122 0
6.160000 12.980000 14.520000 193 123 129 0
6.380000 12.980000 16.060000 204 134 140 0
6.600000 12.980000 17.600000 213 155 162 0
6.820000 12.980000 17.600000 231 173 180 0
7.040000 12.980000 19.140000 233 163 169 0
7.260000 12.980000 19.140000 222 152 158 0
7.480000 12.980000 20.680000 216 131 134 0
7.700000 12.980000 20.680000 207 122 125 0
7.920000 12.980000 22.000000 207 107 114 0
8.140000 12.980000 24.640000 197 97 104 0
8.360000 12.980000 25.740000 191 90 93 0
8.580000 12.980000 25.300000 188 87 90 0
8.800000 12.980000 26.400000 188 85 91 0
9.020000 12.980000 26.400000 188 85 91 0
9.240000 12.980000 25.080000 189 83 90 0
9.460000 12.980000 25.300000 187 81 88 0
9.680000 12.980000 25.300000 186 78 86 0
9.900000 12.980000 26.620000 185 77 85 0
10.120000 12.980000 28.160000 184 77 82 0
10.340000 12.980000 29.480000 183 76 81 0
10.560000 12.980000 31.020000 185 75 83 0
10.780000 12.980000 32.340000 183 73 81 0
11.000000 12.980000 32.340000 182 72 78 0
11.220000 12.980000 32.340000 181 71 77 0
11.440000 12.980000 32.560000 181 71 77 0
11.660000 12.980000 32.560000 180 70 76 0
11.880000 12.980000 32.560000 181 69 78 0
12.100000 12.980000 32.780000 181 69 78 0
12.320000 12.980000 32.780000 180 68 75 0
12.540000 12.980000 32.780000 179 67 74 0
12.760000 12.980000 32.780000 179 67 74 0
12.980000 12.980000 32.780000 179 67 74 0
13.200000 12.980000 33.000000 180 68 75 0
13.420000 12.980000 33.000000 179 67 74 0
13.640000 12.980000 34.320000 178 65 72 0
13.860000 12.980000 34.540000 179 66 73 0
14.080000 12.980000 35.860000 176 63 70 0
14.300000 12.980000 35.860000 177 64 71 0
14.520000 12.980000 37.180000 178 65 72 0
14.740000 12.980000 39.600000 179 66 73 0
14.960000 12.980000 41.800000 179 66 73 0
15.180000 12.980000 31.900000 178 65 72 0
15.400000 12.980000 11.000000 179 66 73 0
16.280000 12.980000 0.220000 177 64 71 0
16.500000 12.980000 0.220000 178 65 72 0
16.720000 12.980000 0.220000 180 64 72 0
16.940000 12.980000 0.220000 179 63 71 0
17.160000 12.980000 0.220000 179 63 71 0
17.380000 12.980000 0.220000 180 64 72 0
17.600000 12.980000 0.220000 180 64 72 0
17.820000 12.980000 0.220000 180 64 72 0
18.040000 12.980000 0.440000 180 64 72 0
18.260000 12.980000 0.440000 179 63 71 0
18.480000 12.980000 0.440000 180 64 72 0
18.700000 12.980000 0.440000 179 63 71 0
18.920000 12.980000 0.440000 178 62 70 0
19.140000 12.980000 0.440000 177 61 69 0
19.360000 12.980000 0.440000 179 61 70 0
19.580000 12.980000 0.440000 178 60 69 0
19.800000 12.980000 0.440000 178 60 69 0
20.020000 12.980000 1.760000 179 61 70 0
20.240000 12.980000 1.760000 180 62 71 0
20.460000 12.980000 1.760000 177 59 68 0
20.680000 12.980000 0.660000 178 60 69 0
20.900000 12.980000 0.880000 178 60 69 0
21.120000 12.980000 0.880000 179 61 70 0
21.340000 12.980000 0.880000 179 61 70 0
21.560000 12.980000 0.880000 179 61 70 0
21.780000 12.980000 0.880000 179 61 70 0
22.000000 12.980000 0.880000 179 61 70 0
22.220000 12.980000 0.880000 178 60 69 0
22.440000 12.980000 1.100000 178 60 67 0
22.660000 12.980000 1.100000 178 60 67 0
22.880000 12.980000 1.100000 180 62 71 0
23.100000 12.980000 1.100000 179 61 70 0
23.320000 12.980000 1.100000 179 61 70 0
23.540000 12.980000 1.320000 179 61 70 0
23.760000 12.980000 1.320000 179 61 70 0
23.980000 12.980000 1.320000 180 62 71 0
24.200000 12.980000 2.640000 180 62 69 0
24.420000 12.980000 3.960000 180 62 69 0
24.640000 12.980000 6.160000 180 62 71 0
24.860000 12.980000 7.040000 181 63 72 0
25.080000 12.980000 7.040000 182 64 73 0
25.300000 12.980000 5.720000 181 63 72 0
25.520000 12.980000 4.400000 182 64 73 0
25.740000 12.980000 4.400000 182 64 73 0
25.960000 12.980000 4.400000 183 65 74 0
26.180000 12.980000 3.080000 185 67 76 0
26.400000 12.980000 1.760000 182 72 76 0
26.620000 12.980000 1.980000 183 73 77 0
26.840000 12.980000 0.660000 185 75 81 0
27.060000 12.980000 7.480000 186 76 82 0
27.280000 12.980000 14.520000 187 74 81 0
27.500000 12.980000 7.700000 185 72 79 0
27.720000 12.980000 0.880000 185 67 76 0
27.940000 12.980000 1.100000 184 66 75 0
28.160000 12.980000 1.100000 184 66 75 0
28.380000 12.980000 1.100000 185 67 76 0
28.600000 12.980000 2.640000 184 68 76 0
28.820000 12.980000 2.640000 184 68 76 0
29.040000 12.980000 2.640000 186 70 78 0
29.260000 12.980000 1.320000 185 69 77 0
29.480000 12.980000 1.100000 186 70 76 0
29.700000 12.980000 0.880000 187 71 77 0
29.920000 12.980000 1.100000 186 70 78 0
30.580000 12.980000 9.460000 187 74 79 0
30.800000 12.980000 19.140000 187 74 79 0
31.020000 12.980000 9.460000 185 72 77 0
32.560000 12.980000 0.660000 186 73 78 0
32.780000 12.980000 1.760000 187 74 79 0
33.000000 12.980000 1.540000 187 74 79 0
33.220000 12.980000 2.860000 189 76 81 0
33.440000 12.980000 2.860000 190 77 82 0
33.660000 12.980000 1.540000 190 77 82 0
33.880000 12.980000 1.540000 188 77 79 0
34.100000 12.980000 1.540000 188 77 79 0
34.320000 12.980000 1.760000 188 77 81 0
34.540000 12.980000 0.440000 189 78 82 0
34.760000 12.980000 0.660000 190 77 82 0
34.980000 12.980000 0.440000 191 78 83 0
35.200000 12.980000 1.760000 191 80 84 0
35.420000 12.980000 0.220000 192 81 85 0
35.640000 12.980000 0.220000 192 81 83 0
35.860000 12.980000 1.760000 194 83 85 0
36.080000 12.980000 0.880000 194 83 85 0
36.300000 12.980000 1.320000 194 83 85 0
36.520000 12.980000 2.640000 195 86 87 0
36.740000 12.980000 2.200000 196 87 88 0
36.960000 12.980000 3.080000 195 86 87 0
37.180000 12.980000 4.400000 196 87 88 0
0.000000 13.200000 28.600000 191 84 87 0
0.220000 13.200000 23.100000 192 85 88 0
0.440000 13.200000 10.780000 190 83 86 0
0.660000 13.200000 6.600000 191 84 87 0
0.880000 13.200000 8.140000 190 83 86 0
1.100000 13.200000 8.140000 191 84 87 0
1.320000 13.200000 8.140000 190 85 87 0
1.540000 13.200000 6.820000 191 86 88 0
1.760000 13.200000 6.820000 193 90 94 0
1.980000 13.200000 6.820000 197 94 98 0
2.200000 13.200000 5.280000 196 100 99 0
2.420000 13.200000 7.480000 197 101 100 0
2.640000 13.200000 9.900000 197 94 98 0
2.860000 13.200000 11.220000 194 91 95 0
3.080000 13.200000 11.220000 193 88 90 0
3.300000 13.200000 12.540000 191 86 88 0
3.520000 13.200000 13.860000 190 84 89 0
3.740000 13.200000 16.720000 191 85 90 0
3.960000 13.200000 18.040000 189 86 90 0
4.180000 13.200000 19.580000 190 87 91 0
4.400000 13.200000 19.580000 190 87 91 0
4.620000 13.200000 21.120000 191 88 92 0
4.840000 13.200000 21.120000 192 91 94 0
5.060000 13.200000 19.800000 195 94 97 0
5.280000 13.200000 18.480000 193 96 100 0
5.500000 13.200000 15.840000 195 98 102 0
5.720000 13.200000 12.980000 191 105 113 0
5.940000 13.200000 12.980000 197 111 119 0
6.160000 13.200000 14.520000 192 122 128 0
6.380000 13.200000 16.060000 201 131 137 0
6.600000 13.200000 16.060000 200 142 149 0
6.820000 13.200000 16.280000 213 155 162 0
7.040000 13.200000 19.140000 226 156 162 0
7.260000 13.200000 20.680000 216 146 152 0
7.480000 13.200000 20.680000 214 129 132 0
7.700000 13.200000 22.000000 202 117 120 0
7.920000 13.200000 23.320000 203 103 110 0
8.140000 13.200000 25.960000 194 94 101 0
8.360000 13.200000 26.840000 190 89 92 0
8.580000 13.200000 26.400000 187 86 89 0
8.800000 13.200000 26.400000 188 85 91 0
9.020000 13.200000 26.400000 186 83 89 0
9.240000 13.200000 25.080000 188 82 89 0
9.460000 13.200000 25.080000 186 80 87 0
9.680000 13.200000 26.620000 186 78 86 0
9.900000 13.200000 28.160000 184 76 84 0
10.120000 13.200000 29.480000 184 77 82 0
10.340000 13.200000 31.020000 184 77 82 0
10.560000 13.200000 31.020000 184 74 82 0
10.780000 13.200000 32.340000 182 72 80 0
11.000000 13.200000 32.340000 181 71 77 0
11.220000 13.200000 32.340000 181 71 77 0
11.440000 13.200000 33.880000 180 70 76 0
11.660000 13.200000 33.880000 180 70 76 0
11.880000 13.200000 32.560000 181 69 78 0
12.100000 13.200000 32.780000 181 69 78 0
12.320000 13.200000 32.780000 180 68 75 0
12.540000 13.200000 32.780000 180 68 75 0
12.760000 13.200000 32.780000 179 67 74 0
12.980000 13.200000 32.780000 179 67 74 0
13.200000 13.200000 33.000000 179 67 74 0
13.420000 13.200000 34.320000 178 66 73 0
13.640000 13.200000 34.320000 179 66 73 0
13.860000 13.200000 34.320000 178 65 72 0
14.080000 13.200000 35.860000 178 65 72 0
14.300000 13.200000 35.860000 177 64 71 0
14.520000 13.200000 38.500000 179 66 73 0
14.740000 13.200000 40.700000 179 66 73 0
14.960000 13.200000 41.580000 179 66 73 0
15.180000 13.200000 31.900000 178 65 72 0
15.400000 13.200000 11.220000 177 64 71 0
16.280000 13.200000 0.220000 177 64 71 0
16.500000 13.200000 0.220000 178 65 72 0
16.720000 13.200000 0.220000 179 63 71 0
16.940000 13.200000 0.220000 180 64 72 0
17.160000 13.200000 0.220000 180 64 72 0
17.380000 13.200000 0.220000 180 64 72 0
17.600000 13.200000 0.220000 180 64 72 0
17.820000 13.200000 0.220000 180 64 72 0
18.040000 13.200000 0.440000 180 64 72 0
18.260000 13.200000 0.440000 179 63 71 0
18.480000 13.200000 0.440000 179 63 71 0
18.700000 13.200000 0.440000 179 63 71 0
18.920000 13.200000 0.440000 177 61 69 0
19.140000 13.200000 0.440000 177 61 69 0
19.360000 13.200000 0.440000 179 61 70 0
19.580000 13.200000 0.440000 178 60 69 0
19.800000 13.200000 0.440000 179 61 70 0
20.020000 13.200000 1.760000 179 61 70 0
20.240000 13.200000 1.760000 180 62 71 0
20.460000 13.200000 1.760000 178 60 69 0
20.680000 13.200000 0.660000 179 61 70 0
20.900000 13.200000 0.880000 178 60 69 0
21.120000 13.200000 0.880000 178 60 69 0
21.340000 13.200000 0.880000 180 62 71 0
21.560000 13.200000 0.880000 180 62 71 0
21.780000 13.200000 1.100000 180 62 71 0
22.000000 13.200000 1.100000 179 61 70 0
22.220000 13.200000 1.100000 179 61 70 0
22.440000 13.200000 1.100000 179 61 68 0
22.660000 13.200000 1.100000 178 60 67 0
22.880000 13.200000 1.100000 179 61 70 0
23.100000 13.200000 1.100000 180 62 71 0
23.320000 13.200000 1.320000 178 60 69 0
23.540000 13.200000 1.320000 179 61 70 0
23.760000 13.200000 1.320000 180 62 71 0
23.980000 13.200000 1.320000 179 61 70 0
24.200000 13.200000 2.640000 181 63 70 0
24.420000 13.200000 3.520000 180 62 69 0
24.640000 13.200000 5.720000 181 63 72 0
24.860000 13.200000 7.040000 181 63 72 0
25.080000 13.200000 5.720000 181 63 72 0
25.300000 13.200000 5.720000 181 63 72 0
25.520000 13.200000 4.400000 180 62 71 0
25.740000 13.200000 4.400000 181 63 72 0
25.960000 13.200000 4.400000 183 65 74 0
26.180000 13.200000 3.080000 186 68 77 0
26.400000 13.200000 1.760000 187 77 81 0
26.620000 13.200000 1.980000 193 83 87 0
26.840000 13.200000 1.980000 194 84 90 0
27.060000 13.200000 3.520000 194 84 90 0
27.280000 13.200000 4.840000 191 78 85 0
27.500000 13.200000 2.200000 187 74 81 0
27.720000 13.200000 0.880000 185 67 76 0
27.940000 13.200000 1.100000 184 66 75 0
28.160000 13.200000 1.100000 184 66 75 0
28.380000 13.200000 1.100000 187 69 78 0
28.600000 13.200000 2.640000 184 68 76 0
28.820000 13.200000 2.640000 184 68 76 0
29.040000 13.200000 2.640000 186 70 78 0
29.260000 13.200000 1.320000 187 71 79 0
29.700000 13.200000 0.880000 187 71 77 0
29.920000 13.200000 1.100000 186 70 78 0
30.140000 13.200000 1.100000 187 71 79 0
30.580000 13.200000 9.460000 188 75 80 0
30.800000 13.200000 22.000000 186 73 78 0
31.020000 13.200000 13.640000 184 71 76 0
31.240000 13.200000 1.100000 184 71 76 0
32.560000 13.200000 0.440000 187 74 79 0
32.780000 13.200000 1.320000 188 75 80 0
33.000000 13.200000 2.860000 186 73 78 0
33.220000 13.200000 2.860000 188 75 80 0
33.440000 13.200000 2.860000 189 76 81 0
33.660000 13.200000 1.540000 189 76 81 0
33.880000 13.200000 1.540000 188 77 79 0
34.100000 13.200000 1.540000 190 79 81 0
34.320000 13.200000 1.760000 190 79 83 0
34.540000 13.200000 0.440000 189 78 82 0
34.760000 13.200000 0.660000 189 76 81 0
34.980000 13.200000 0.660000 190 77 82 0
35.200000 13.200000 0.440000 191 80 84 0
35.420000 13.200000 0.220000 192 81 85 0
35.640000 13.200000 1.540000 193 82 84 0
35.860000 13.200000 1.760000 195 84 86 0
36.080000 13.200000 2.200000 194 83 85 0
36.300000 13.200000 2.420000 193 82 84 0
36.520000 13.200000 3.520000 195 86 87 0
36.740000 13.200000 3.300000 195 86 87 0
36.960000 13.200000 4.400000 196 87 88 0
37.180000 13.200000 4.400000 196 87 88 0
0.000000 13.420000 21.780000 191 84 87 0
0.220000 13.420000 14.740000 191 84 87 0
0.440000 13.420000 6.600000 191 84 87 0
0.660000 13.420000 6.600000 191 84 87 0
0.880000 13.420000 8.140000 191 84 87 0
1.100000 13.420000 8.140000 190 83 86 0
1.320000 13.420000 8.140000 191 84 87 0
1.540000 13.420000 6.820000 192 85 88 0
1.760000 13.420000 6.820000 191 88 90 0
1.980000 13.420000 6.820000 195 92 94 0
2.200000 13.420000 6.600000 198 97 100 0
2.420000 13.420000 7.260000 199 98 101 0
2.640000 13.420000 9.680000 198 95 97 0
2.860000 13.420000 9.680000 194 91 93 0
3.080000 13.420000 11.220000 193 88 90 0
3.300000 13.420000 12.540000 192 87 89 0
3.520000 13.420000 14.080000 190 85 87 0
3.740000 13.420000 16.720000 190 85 87 0
3.960000 13.420000 18.040000 190 84 89 0
4.180000 13.420000 19.580000 190 84 89 0
4.400000 13.420000 21.120000 189 86 90 0
4.620000 13.420000 21.120000 191 88 92 0
4.840000 13.420000 21.120000 191 88 92 0
5.060000 13.420000 21.340000 194 91 95 0
5.280000 13.420000 18.480000 195 96 98 0
5.500000 13.420000 17.160000 195 96 98 0
5.720000 13.420000 14.520000 196 100 106 0
5.940000 13.420000 13.200000 202 106 112 0
6.160000 13.420000 14.520000 197 118 119 0
6.380000 13.420000 16.060000 205 126 127 0
6.600000 13.420000 16.060000 203 141 137 0
6.820000 13.420000 16.280000 225 163 159 0
7.040000 13.420000 19.140000 229 153 160 0
7.260000 13.420000 20.460000 222 146 153 0
7.480000 13.420000 20.680000 219 129 133 0
7.700000 13.420000 22.000000 206 116 120 0
7.920000 13.420000 24.860000 200 100 107 0
8.140000 13.420000 25.960000 192 92 99 0
8.360000 13.420000 26.620000 189 87 93 0
8.580000 13.420000 26.400000 187 85 91 0
8.800000 13.420000 26.400000 186 83 87 0
9.020000 13.420000 25.080000 186 83 87 0
9.240000 13.420000 25.080000 185 79 84 0
9.460000 13.420000 25.080000 185 79 84 0
9.680000 13.420000 26.620000 185 79 86 0
9.900000 13.420000 28.160000 183 77 84 0
10.120000 13.420000 29.480000 184 78 85 0
10.340000 13.420000 31.020000 183 77 84 0
10.560000 13.420000 32.340000 182 75 80 0
10.780000 13.420000 32.340000 181 74 79 0
11.000000 13.420000 32.340000 182 72 78 0
11.220000 13.420000 32.340000 181 71 77 0
11.440000 13.420000 33.880000 181 71 79 0
11.660000 13.420000 32.560000 181 71 79 0
11.880000 13.420000 32.560000 182 70 79 0
12.100000 13.420000 32.560000 182 70 79 0
12.320000 13.420000 32.780000 179 69 75 0
12.540000 13.420000 32.780000 180 70 76 0
12.760000 13.420000 32.780000 181 69 76 0
12.980000 13.420000 32.780000 180 68 75 0
13.200000 13.420000 33.000000 179 67 74 0
13.420000 13.420000 34.320000 179 67 74 0
13.640000 13.420000 34.320000 179 65 75 0
13.860000 13.420000 34.320000 178 64 74 0
14.080000 13.420000 35.860000 178 65 72 0
14.300000 13.420000 35.860000 179 66 73 0
14.520000 13.420000 38.280000 178 65 72 0
14.740000 13.420000 40.480000 178 65 72 0
14.960000 13.420000 40.040000 177 64 71 0
15.180000 13.420000 26.400000 177 64 71 0
15.400000 13.420000 8.360000 177 63 73 0
16.280000 13.420000 0.220000 181 65 73 0
16.500000 13.420000 0.220000 180 64 72 0
16.720000 13.420000 0.220000 178 65 72 0
16.940000 13.420000 0.220000 178 65 72 0
17.160000 13.420000 0.220000 179 63 71 0
17.380000 13.420000 0.220000 180 64 72 0
17.600000 13.420000 0.220000 179 63 71 0
17.820000 13.420000 0.220000 179 63 71 0
18.040000 13.420000 0.440000 179 63 71 0
18.260000 13.420000 0.440000 180 64 72 0
18.480000 13.420000 0.440000 180 64 72 0
