ply
format ascii 1.0
element vertex 1103
property float x
property float y
property float z
property uchar red
property uchar green
property uchar blue
property uchar alpha
end_header
37.180000 27.940000 4.400000 169 181 176 0
0.440000 28.160000 1.320000 195 198 198 0
0.660000 28.160000 6.820000 195 198 198 0
0.880000 28.160000 6.820000 195 198 198 0
1.100000 28.160000 1.320000 194 197 197 0
1.760000 28.160000 0.440000 196 197 197 0
1.980000 28.160000 1.760000 197 198 198 0
2.200000 28.160000 1.760000 196 197 197 0
2.420000 28.160000 1.980000 195 198 198 0
2.640000 28.160000 1.980000 196 199 199 0
2.860000 28.160000 1.980000 197 198 198 0
3.080000 28.160000 2.200000 197 198 198 0
3.300000 28.160000 1.980000 197 198 198 0
3.520000 28.160000 1.980000 197 198 198 0
3.740000 28.160000 2.200000 198 199 198 0
3.960000 28.160000 2.200000 197 198 197 0
4.180000 28.160000 2.420000 195 198 198 0
4.400000 28.160000 2.420000 195 198 198 0
4.620000 28.160000 2.420000 198 199 199 0
4.840000 28.160000 2.420000 199 200 200 0
5.060000 28.160000 2.420000 198 199 199 0
5.280000 28.160000 2.420000 198 199 199 0
5.500000 28.160000 2.640000 198 199 198 0
5.720000 28.160000 2.640000 198 199 198 0
5.940000 28.160000 2.640000 196 199 199 0
6.160000 28.160000 2.640000 198 201 201 0
6.380000 28.160000 3.960000 197 200 200 0
6.600000 28.160000 3.960000 198 201 201 0
6.820000 28.160000 3.960000 200 201 201 0
7.040000 28.160000 3.960000 201 202 202 0
7.260000 28.160000 3.740000 201 202 201 0
7.480000 28.160000 4.840000 200 201 200 0
7.700000 28.160000 5.940000 198 203 204 0
7.920000 28.160000 5.720000 199 204 205 0
8.140000 28.160000 5.720000 200 203 205 0
8.360000 28.160000 5.720000 200 203 205 0
8.580000 28.160000 7.040000 198 205 208 0
8.800000 28.160000 7.260000 199 206 209 0
9.020000 28.160000 7.260000 199 208 210 0
9.240000 28.160000 7.260000 200 209 211 0
9.460000 28.160000 7.260000 201 210 212 0
9.680000 28.160000 8.800000 203 212 214 0
9.900000 28.160000 8.800000 204 215 216 0
10.120000 28.160000 10.120000 207 218 219 0
10.340000 28.160000 11.660000 208 219 220 0
10.560000 28.160000 12.980000 207 218 219 0
10.780000 28.160000 14.520000 207 218 219 0
11.000000 28.160000 15.840000 208 219 220 0
11.220000 28.160000 16.060000 207 218 219 0
11.440000 28.160000 16.060000 206 217 218 0
11.660000 28.160000 16.060000 207 217 221 0
11.880000 28.160000 16.280000 206 216 220 0
12.100000 28.160000 17.600000 207 220 223 0
12.320000 28.160000 17.600000 209 222 225 0
12.540000 28.160000 17.820000 206 217 218 0
12.760000 28.160000 16.500000 202 213 214 0
12.980000 28.160000 16.500000 200 211 212 0
13.200000 28.160000 15.180000 196 207 208 0
13.420000 28.160000 16.280000 185 195 191 0
13.640000 28.160000 16.940000 180 190 186 0
13.860000 28.160000 18.260000 177 181 179 0
14.080000 28.160000 17.160000 177 181 179 0
14.300000 28.160000 15.620000 174 183 177 0
14.520000 28.160000 12.760000 175 184 178 0
14.740000 28.160000 11.660000 177 185 182 0
14.960000 28.160000 12.980000 179 187 184 0
15.180000 28.160000 15.620000 183 191 188 0
15.400000 28.160000 18.480000 183 191 188 0
15.620000 28.160000 22.660000 183 191 188 0
15.840000 28.160000 24.200000 183 191 188 0
16.060000 28.160000 24.200000 183 191 188 0
16.280000 28.160000 21.340000 183 191 188 0
16.500000 28.160000 18.700000 183 191 188 0
16.720000 28.160000 16.060000 183 191 188 0
16.940000 28.160000 14.520000 183 191 188 0
17.160000 28.160000 13.200000 183 191 188 0
17.380000 28.160000 13.200000 183 191 188 0
17.600000 28.160000 12.100000 183 191 188 0
17.820000 28.160000 12.100000 188 194 191 0
18.040000 28.160000 12.320000 190 196 193 0
18.260000 28.160000 13.640000 192 200 198 0
18.480000 28.160000 15.180000 195 203 201 0
18.700000 28.160000 16.280000 197 207 204 0
18.920000 28.160000 18.260000 198 208 205 0
19.140000 28.160000 18.040000 199 209 206 0
19.360000 28.160000 18.040000 200 210 207 0
19.580000 28.160000 16.720000 200 210 207 0
19.800000 28.160000 16.940000 201 211 208 0
20.020000 28.160000 16.940000 203 213 210 0
20.240000 28.160000 16.940000 203 213 210 0
20.460000 28.160000 18.480000 204 214 211 0
20.680000 28.160000 19.800000 204 214 211 0
20.900000 28.160000 21.340000 203 213 210 0
21.120000 28.160000 21.340000 203 213 210 0
21.340000 28.160000 22.660000 203 213 210 0
21.560000 28.160000 24.200000 203 213 210 0
21.780000 28.160000 25.520000 204 214 211 0
22.000000 28.160000 25.740000 203 213 210 0
22.220000 28.160000 25.740000 204 214 211 0
22.440000 28.160000 27.280000 203 213 210 0
22.660000 28.160000 27.280000 204 214 211 0
22.880000 28.160000 27.280000 204 214 211 0
23.100000 28.160000 27.280000 204 214 211 0
23.320000 28.160000 27.500000 204 214 211 0
23.540000 28.160000 27.500000 204 214 211 0
23.760000 28.160000 27.500000 204 214 211 0
23.980000 28.160000 27.500000 205 213 211 0
24.200000 28.160000 28.600000 205 213 211 0
24.420000 28.160000 30.800000 203 213 210 0
24.640000 28.160000 31.900000 205 215 212 0
24.860000 28.160000 31.900000 204 214 211 0
25.080000 28.160000 31.900000 204 214 211 0
25.300000 28.160000 32.120000 203 213 210 0
25.520000 28.160000 32.120000 204 214 211 0
25.740000 28.160000 33.440000 205 213 210 0
25.960000 28.160000 33.660000 205 213 210 0
26.180000 28.160000 33.660000 203 213 210 0
26.400000 28.160000 33.660000 204 214 211 0
26.620000 28.160000 33.880000 203 213 210 0
26.840000 28.160000 33.880000 203 213 210 0
27.060000 28.160000 33.880000 203 213 210 0
27.280000 28.160000 33.880000 204 214 211 0
27.500000 28.160000 34.100000 204 212 210 0
27.720000 28.160000 34.100000 204 212 210 0
27.940000 28.160000 34.100000 203 213 210 0
28.160000 28.160000 34.100000 204 214 211 0
28.380000 28.160000 34.320000 204 214 211 0
28.600000 28.160000 34.320000 204 214 211 0
28.820000 28.160000 34.320000 205 215 212 0
29.040000 28.160000 35.860000 205 215 212 0
29.260000 28.160000 35.860000 206 214 212 0
29.480000 28.160000 36.960000 205 213 211 0
29.700000 28.160000 37.620000 204 214 211 0
29.920000 28.160000 40.260000 204 214 211 0
30.140000 28.160000 40.260000 205 215 212 0
30.360000 28.160000 41.580000 204 214 211 0
30.580000 28.160000 33.440000 203 214 211 0
30.800000 28.160000 15.400000 204 215 212 0
31.020000 28.160000 3.080000 204 214 211 0
31.240000 28.160000 0.440000 204 214 211 0
31.460000 28.160000 1.760000 204 214 211 0
31.680000 28.160000 1.980000 203 213 210 0
31.900000 28.160000 0.660000 203 213 210 0
32.120000 28.160000 0.660000 203 213 210 0
32.340000 28.160000 0.660000 202 213 210 0
32.560000 28.160000 0.660000 201 212 209 0
32.780000 28.160000 0.880000 201 211 208 0
33.000000 28.160000 0.880000 201 211 208 0
33.220000 28.160000 0.880000 199 209 206 0
34.320000 28.160000 1.100000 206 220 218 0
34.540000 28.160000 2.200000 210 229 230 0
34.760000 28.160000 0.880000 209 228 229 0
34.980000 28.160000 0.880000 206 217 216 0
35.200000 28.160000 1.100000 204 215 214 0
35.420000 28.160000 1.100000 204 215 214 0
35.640000 28.160000 1.100000 202 213 212 0
35.860000 28.160000 2.640000 199 213 211 0
36.080000 28.160000 2.640000 198 212 210 0
36.300000 28.160000 2.420000 194 208 206 0
36.520000 28.160000 3.300000 185 199 197 0
36.740000 28.160000 4.400000 176 188 183 0
36.960000 28.160000 4.400000 169 181 176 0
37.180000 28.160000 4.400000 169 181 176 0
1.100000 28.380000 1.320000 195 198 198 0
1.980000 28.380000 1.100000 196 197 197 0
2.200000 28.380000 2.420000 197 198 198 0
2.420000 28.380000 2.420000 195 198 198 0
2.640000 28.380000 2.420000 194 197 197 0
2.860000 28.380000 1.100000 197 198 198 0
3.080000 28.380000 1.100000 196 197 197 0
3.300000 28.380000 1.100000 197 198 198 0
3.520000 28.380000 2.420000 197 198 198 0
3.740000 28.380000 2.420000 196 197 196 0
3.960000 28.380000 2.640000 197 198 197 0
4.180000 28.380000 2.640000 195 198 198 0
4.400000 28.380000 2.640000 195 198 198 0
4.620000 28.380000 2.640000 197 198 198 0
4.840000 28.380000 2.640000 197 198 198 0
5.060000 28.380000 2.640000 197 198 198 0
5.280000 28.380000 3.740000 197 198 198 0
5.500000 28.380000 3.740000 197 198 197 0
5.720000 28.380000 3.740000 197 198 197 0
5.940000 28.380000 3.740000 195 198 198 0
6.160000 28.380000 3.740000 195 198 198 0
6.380000 28.380000 3.960000 195 198 198 0
6.600000 28.380000 3.960000 196 199 199 0
6.820000 28.380000 3.960000 197 198 198 0
7.040000 28.380000 3.960000 197 198 198 0
7.260000 28.380000 3.960000 198 199 198 0
7.480000 28.380000 5.280000 198 199 198 0
7.700000 28.380000 5.060000 196 201 202 0
7.920000 28.380000 6.160000 196 201 202 0
8.140000 28.380000 7.260000 198 201 203 0
8.360000 28.380000 7.040000 198 201 203 0
8.580000 28.380000 7.040000 197 204 207 0
8.800000 28.380000 8.580000 199 206 209 0
9.020000 28.380000 8.580000 200 209 211 0
9.240000 28.380000 8.580000 204 213 215 0
9.460000 28.380000 9.900000 205 214 216 0
9.680000 28.380000 10.120000 207 216 218 0
9.900000 28.380000 11.440000 206 217 218 0
10.120000 28.380000 12.980000 207 218 219 0
10.340000 28.380000 14.300000 208 219 220 0
10.560000 28.380000 14.520000 208 219 220 0
10.780000 28.380000 15.840000 208 219 220 0
11.000000 28.380000 15.840000 207 218 219 0
11.220000 28.380000 16.060000 206 217 218 0
11.440000 28.380000 16.060000 207 218 219 0
11.660000 28.380000 16.060000 206 216 220 0
11.880000 28.380000 16.280000 207 217 221 0
12.100000 28.380000 17.600000 208 221 224 0
12.320000 28.380000 17.600000 209 222 225 0
12.540000 28.380000 17.820000 205 216 217 0
12.760000 28.380000 17.820000 202 213 214 0
12.980000 28.380000 16.500000 201 212 213 0
13.200000 28.380000 16.500000 196 207 208 0
13.420000 28.380000 16.280000 192 202 198 0
13.640000 28.380000 18.260000 181 191 187 0
13.860000 28.380000 18.040000 180 184 182 0
14.080000 28.380000 18.260000 177 181 179 0
14.300000 28.380000 16.720000 175 184 178 0
14.520000 28.380000 13.860000 175 184 178 0
14.740000 28.380000 12.760000 179 187 184 0
14.960000 28.380000 12.760000 180 188 185 0
15.180000 28.380000 14.300000 182 190 187 0
15.400000 28.380000 18.480000 182 190 187 0
15.620000 28.380000 22.660000 182 190 187 0
15.840000 28.380000 24.200000 183 191 188 0
16.060000 28.380000 24.200000 183 191 188 0
16.280000 28.380000 22.880000 184 192 189 0
16.500000 28.380000 18.700000 182 190 187 0
16.720000 28.380000 17.380000 183 191 188 0
16.940000 28.380000 14.520000 182 190 187 0
17.160000 28.380000 14.520000 182 190 187 0
17.380000 28.380000 13.200000 183 191 188 0
17.600000 28.380000 12.100000 184 192 189 0
17.820000 28.380000 12.100000 187 193 190 0
18.040000 28.380000 13.640000 190 196 193 0
18.260000 28.380000 13.640000 191 199 197 0
18.480000 28.380000 15.180000 194 202 200 0
18.700000 28.380000 17.600000 196 206 203 0
18.920000 28.380000 19.800000 197 207 204 0
19.140000 28.380000 19.360000 199 209 206 0
19.360000 28.380000 18.040000 200 210 207 0
19.580000 28.380000 16.720000 200 210 207 0
19.800000 28.380000 16.720000 200 210 207 0
20.020000 28.380000 16.940000 201 211 208 0
20.240000 28.380000 16.940000 202 212 209 0
20.460000 28.380000 18.480000 202 212 209 0
20.680000 28.380000 19.800000 202 212 209 0
20.900000 28.380000 21.340000 202 212 209 0
21.120000 28.380000 21.340000 203 213 210 0
21.340000 28.380000 22.660000 202 212 209 0
21.560000 28.380000 25.520000 202 212 209 0
21.780000 28.380000 27.060000 203 213 210 0
22.000000 28.380000 27.060000 203 213 210 0
22.220000 28.380000 27.060000 203 213 210 0
22.440000 28.380000 27.280000 203 213 210 0
22.660000 28.380000 27.280000 203 213 210 0
22.880000 28.380000 27.280000 203 213 210 0
23.100000 28.380000 27.280000 204 214 211 0
23.320000 28.380000 27.500000 204 214 211 0
23.540000 28.380000 27.500000 203 213 210 0
23.760000 28.380000 27.500000 204 214 211 0
23.980000 28.380000 27.500000 205 213 211 0
24.200000 28.380000 28.600000 204 212 210 0
24.420000 28.380000 30.800000 204 214 211 0
24.640000 28.380000 31.900000 204 214 211 0
24.860000 28.380000 31.900000 204 214 211 0
25.080000 28.380000 31.900000 203 213 210 0
25.300000 28.380000 32.120000 203 213 210 0
25.520000 28.380000 33.440000 203 213 210 0
25.740000 28.380000 33.440000 204 212 209 0
25.960000 28.380000 33.660000 204 212 209 0
26.180000 28.380000 33.660000 203 213 210 0
26.400000 28.380000 33.660000 203 213 210 0
26.620000 28.380000 33.880000 203 213 210 0
26.840000 28.380000 33.880000 202 212 209 0
27.060000 28.380000 33.880000 203 213 210 0
27.280000 28.380000 33.880000 203 213 210 0
27.500000 28.380000 34.100000 204 212 210 0
27.720000 28.380000 34.100000 204 212 210 0
27.940000 28.380000 34.100000 203 213 210 0
28.160000 28.380000 34.100000 203 213 210 0
28.380000 28.380000 34.320000 203 213 210 0
28.600000 28.380000 34.320000 204 214 211 0
28.820000 28.380000 34.320000 203 213 210 0
29.040000 28.380000 35.860000 204 214 211 0
29.260000 28.380000 35.860000 205 213 211 0
29.480000 28.380000 35.640000 206 214 212 0
29.700000 28.380000 37.620000 204 214 211 0
29.920000 28.380000 38.720000 203 213 210 0
30.140000 28.380000 40.260000 204 214 211 0
30.360000 28.380000 41.580000 204 214 211 0
30.580000 28.380000 38.940000 203 214 211 0
30.800000 28.380000 26.620000 202 213 210 0
31.020000 28.380000 8.580000 204 214 211 0
31.240000 28.380000 0.440000 204 214 211 0
31.460000 28.380000 1.760000 204 214 211 0
31.680000 28.380000 1.980000 204 214 211 0
31.900000 28.380000 0.660000 203 213 210 0
32.120000 28.380000 0.660000 204 214 211 0
32.340000 28.380000 0.660000 202 213 210 0
32.560000 28.380000 0.660000 201 212 209 0
32.780000 28.380000 0.880000 200 210 207 0
33.000000 28.380000 0.880000 201 211 208 0
33.220000 28.380000 0.880000 199 209 206 0
34.320000 28.380000 1.100000 201 215 213 0
34.540000 28.380000 2.200000 205 224 225 0
34.760000 28.380000 0.880000 209 228 229 0
34.980000 28.380000 0.880000 212 223 222 0
35.200000 28.380000 1.100000 204 215 214 0
35.420000 28.380000 1.100000 203 214 213 0
35.640000 28.380000 1.100000 201 212 211 0
35.860000 28.380000 2.640000 198 212 210 0
36.080000 28.380000 2.640000 197 211 209 0
36.300000 28.380000 3.740000 196 210 208 0
36.520000 28.380000 4.400000 185 199 197 0
36.740000 28.380000 4.180000 176 188 183 0
36.960000 28.380000 4.400000 170 182 177 0
37.180000 28.380000 4.400000 168 180 175 0
0.220000 28.600000 1.100000 197 198 198 0
0.440000 28.600000 1.100000 197 198 198 0
0.660000 28.600000 1.100000 195 198 200 0
0.880000 28.600000 1.100000 194 197 199 0
1.100000 28.600000 1.100000 194 197 197 0
1.320000 28.600000 1.100000 194 197 197 0
1.540000 28.600000 1.320000 197 198 198 0
1.980000 28.600000 1.320000 195 198 198 0
2.200000 28.600000 1.320000 195 198 198 0
2.420000 28.600000 1.100000 195 198 200 0
2.640000 28.600000 1.100000 195 198 200 0
2.860000 28.600000 1.320000 196 197 197 0
3.080000 28.600000 1.320000 196 197 197 0
3.300000 28.600000 1.100000 196 197 197 0
3.520000 28.600000 2.420000 197 198 198 0
3.740000 28.600000 2.420000 194 197 197 0
3.960000 28.600000 2.420000 194 197 197 0
4.180000 28.600000 2.420000 195 198 200 0
4.400000 28.600000 3.740000 195 198 200 0
4.620000 28.600000 3.740000 196 197 197 0
4.840000 28.600000 3.740000 197 198 198 0
5.060000 28.600000 3.520000 197 198 198 0
5.280000 28.600000 4.620000 197 198 198 0
5.500000 28.600000 4.620000 195 198 198 0
5.720000 28.600000 4.620000 195 198 198 0
5.940000 28.600000 4.620000 195 198 200 0
6.160000 28.600000 4.840000 195 198 200 0
6.380000 28.600000 5.060000 197 198 198 0
6.600000 28.600000 3.960000 197 198 198 0
6.820000 28.600000 3.960000 195 198 198 0
7.040000 28.600000 5.280000 195 198 198 0
7.260000 28.600000 5.280000 195 200 199 0
7.480000 28.600000 5.280000 195 200 199 0
7.700000 28.600000 5.280000 193 202 204 0
7.920000 28.600000 5.280000 193 202 204 0
8.140000 28.600000 6.380000 195 204 206 0
8.360000 28.600000 8.580000 198 207 209 0
8.580000 28.600000 9.680000 200 209 211 0
8.800000 28.600000 9.900000 204 213 215 0
9.020000 28.600000 9.900000 205 214 216 0
9.240000 28.600000 11.220000 207 216 218 0
9.460000 28.600000 11.440000 209 218 220 0
9.680000 28.600000 12.760000 207 216 218 0
9.900000 28.600000 12.760000 207 216 218 0
10.120000 28.600000 14.300000 208 217 219 0
10.340000 28.600000 15.840000 207 218 219 0
10.560000 28.600000 15.840000 207 218 219 0
10.780000 28.600000 15.840000 208 219 220 0
11.000000 28.600000 15.840000 207 218 219 0
11.220000 28.600000 16.060000 207 216 218 0
11.440000 28.600000 16.060000 207 216 218 0
11.660000 28.600000 16.060000 208 217 219 0
11.880000 28.600000 16.280000 208 217 219 0
12.100000 28.600000 17.600000 207 218 219 0
12.320000 28.600000 17.600000 205 216 217 0
12.540000 28.600000 17.820000 205 216 217 0
12.760000 28.600000 17.820000 203 214 215 0
12.980000 28.600000 16.500000 201 212 213 0
13.200000 28.600000 16.500000 199 210 211 0
13.420000 28.600000 16.280000 198 206 204 0
13.640000 28.600000 18.480000 188 196 194 0
13.860000 28.600000 19.360000 183 189 186 0
14.080000 28.600000 18.040000 179 185 182 0
14.300000 28.600000 16.720000 176 184 181 0
14.520000 28.600000 13.860000 177 185 182 0
14.740000 28.600000 12.540000 180 188 185 0
14.960000 28.600000 11.440000 181 189 186 0
15.180000 28.600000 14.300000 181 189 186 0
15.400000 28.600000 18.480000 183 191 188 0
15.620000 28.600000 22.660000 185 191 188 0
15.840000 28.600000 24.200000 185 191 188 0
16.060000 28.600000 24.200000 183 191 188 0
16.280000 28.600000 22.880000 184 192 189 0
16.500000 28.600000 20.020000 183 191 188 0
16.720000 28.600000 17.380000 182 190 187 0
16.940000 28.600000 15.840000 182 190 187 0
17.160000 28.600000 14.520000 181 189 186 0
17.380000 28.600000 13.200000 183 189 186 0
17.600000 28.600000 13.420000 185 191 188 0
17.820000 28.600000 13.420000 186 192 189 0
18.040000 28.600000 13.640000 188 194 191 0
18.260000 28.600000 15.180000 192 198 195 0
18.480000 28.600000 16.500000 197 203 200 0
18.700000 28.600000 18.920000 197 205 203 0
18.920000 28.600000 19.800000 198 206 204 0
19.140000 28.600000 20.900000 199 207 205 0
19.360000 28.600000 18.040000 200 208 206 0
19.580000 28.600000 18.040000 210 221 220 0
19.800000 28.600000 16.720000 212 223 222 0
20.020000 28.600000 18.260000 199 209 206 0
20.240000 28.600000 18.260000 200 210 207 0
20.460000 28.600000 18.480000 202 210 208 0
20.680000 28.600000 19.800000 201 209 207 0
20.900000 28.600000 21.340000 202 210 208 0
21.120000 28.600000 24.200000 201 209 207 0
21.340000 28.600000 25.520000 201 211 208 0
21.560000 28.600000 27.060000 200 210 207 0
21.780000 28.600000 28.380000 203 213 210 0
22.000000 28.600000 28.380000 202 212 209 0
22.220000 28.600000 28.600000 203 211 209 0
22.440000 28.600000 28.600000 203 211 209 0
22.660000 28.600000 28.600000 202 212 209 0
22.880000 28.600000 28.600000 202 212 209 0
23.100000 28.600000 28.820000 202 212 209 0
23.320000 28.600000 28.820000 203 213 210 0
23.540000 28.600000 28.820000 202 212 208 0
23.760000 28.600000 28.820000 202 212 208 0
23.980000 28.600000 29.040000 203 213 210 0
24.200000 28.600000 30.140000 203 213 210 0
24.420000 28.600000 30.800000 202 212 209 0
24.640000 28.600000 31.900000 203 213 210 0
24.860000 28.600000 31.900000 204 212 209 0
25.080000 28.600000 31.900000 204 212 209 0
25.300000 28.600000 33.440000 204 212 209 0
25.520000 28.600000 33.440000 204 212 209 0
25.740000 28.600000 33.440000 202 212 209 0
25.960000 28.600000 33.660000 203 213 210 0
26.180000 28.600000 33.660000 203 213 210 0
26.400000 28.600000 33.660000 202 212 209 0
26.620000 28.600000 33.880000 203 213 209 0
26.840000 28.600000 33.880000 203 213 209 0
27.060000 28.600000 33.880000 204 212 209 0
27.280000 28.600000 33.880000 204 212 209 0
27.500000 28.600000 34.100000 203 213 210 0
27.720000 28.600000 35.420000 203 213 210 0
27.940000 28.600000 35.420000 203 213 209 0
28.160000 28.600000 34.100000 203 213 209 0
28.380000 28.600000 34.320000 203 213 209 0
28.600000 28.600000 34.320000 203 213 209 0
28.820000 28.600000 34.320000 203 213 209 0
29.040000 28.600000 35.860000 204 214 210 0
29.260000 28.600000 35.860000 203 213 210 0
29.480000 28.600000 35.640000 203 213 210 0
29.700000 28.600000 37.620000 203 213 209 0
29.920000 28.600000 38.720000 203 213 209 0
30.140000 28.600000 40.260000 202 212 208 0
30.360000 28.600000 40.260000 203 213 209 0
30.580000 28.600000 41.580000 203 213 210 0
30.800000 28.600000 33.440000 203 213 210 0
31.020000 28.600000 15.620000 203 213 210 0
31.240000 28.600000 3.080000 204 214 211 0
31.460000 28.600000 0.440000 203 213 210 0
31.680000 28.600000 0.440000 204 214 211 0
31.900000 28.600000 0.660000 203 213 210 0
32.120000 28.600000 0.660000 203 213 210 0
32.340000 28.600000 0.660000 201 212 209 0
32.560000 28.600000 0.660000 200 211 208 0
32.780000 28.600000 0.880000 200 210 207 0
33.000000 28.600000 0.880000 200 210 207 0
33.220000 28.600000 0.880000 199 209 206 0
34.320000 28.600000 1.100000 203 214 213 0
34.540000 28.600000 2.420000 206 220 218 0
34.760000 28.600000 0.880000 203 217 215 0
34.980000 28.600000 0.880000 206 217 216 0
35.200000 28.600000 1.100000 203 214 213 0
35.420000 28.600000 1.100000 203 214 211 0
35.640000 28.600000 1.100000 202 213 210 0
35.860000 28.600000 2.640000 197 211 209 0
36.080000 28.600000 2.640000 197 211 209 0
36.300000 28.600000 3.740000 198 209 208 0
36.520000 28.600000 4.400000 189 200 199 0
36.740000 28.600000 4.180000 176 186 180 0
36.960000 28.600000 4.400000 169 179 173 0
37.180000 28.600000 4.400000 169 178 172 0
0.000000 28.820000 1.100000 198 199 199 0
0.220000 28.820000 1.100000 198 199 199 0
0.440000 28.820000 2.420000 197 198 198 0
0.660000 28.820000 2.420000 195 198 200 0
0.880000 28.820000 2.420000 194 197 199 0
1.100000 28.820000 2.640000 194 197 197 0
1.320000 28.820000 2.640000 195 198 198 0
1.540000 28.820000 1.100000 198 199 199 0
1.760000 28.820000 1.320000 197 198 198 0
1.980000 28.820000 1.320000 195 198 198 0
2.200000 28.820000 1.320000 194 197 197 0
2.420000 28.820000 1.320000 195 198 200 0
2.640000 28.820000 1.320000 195 198 200 0
2.860000 28.820000 1.320000 196 197 197 0
3.080000 28.820000 2.420000 197 198 198 0
3.300000 28.820000 2.200000 197 198 198 0
3.520000 28.820000 3.300000 197 198 198 0
3.740000 28.820000 4.620000 194 197 197 0
3.960000 28.820000 4.620000 194 197 197 0
4.180000 28.820000 4.620000 195 198 200 0
4.400000 28.820000 4.620000 195 198 200 0
4.620000 28.820000 4.620000 196 197 197 0
4.840000 28.820000 4.620000 196 197 197 0
5.060000 28.820000 4.620000 197 198 198 0
5.280000 28.820000 5.720000 197 198 198 0
5.500000 28.820000 5.720000 195 198 198 0
5.720000 28.820000 5.940000 194 197 197 0
5.940000 28.820000 5.940000 195 198 200 0
6.160000 28.820000 6.160000 196 199 201 0
6.380000 28.820000 4.840000 197 198 198 0
6.600000 28.820000 5.060000 198 199 199 0
6.820000 28.820000 5.060000 195 198 198 0
7.040000 28.820000 5.060000 196 199 199 0
7.260000 28.820000 5.280000 195 200 199 0
7.480000 28.820000 5.280000 196 201 200 0
7.700000 28.820000 5.280000 196 205 207 0
7.920000 28.820000 6.820000 201 210 212 0
8.140000 28.820000 7.920000 201 210 212 0
8.360000 28.820000 10.120000 202 211 213 0
8.580000 28.820000 11.220000 205 214 216 0
8.800000 28.820000 11.220000 207 216 218 0
9.020000 28.820000 11.220000 207 216 218 0
9.240000 28.820000 12.760000 208 217 219 0
9.460000 28.820000 12.760000 213 222 224 0
9.680000 28.820000 14.080000 208 217 219 0
9.900000 28.820000 14.300000 207 216 218 0
10.120000 28.820000 15.620000 207 216 218 0
10.340000 28.820000 15.840000 206 217 218 0
10.560000 28.820000 15.840000 206 217 218 0
10.780000 28.820000 15.840000 207 218 219 0
11.000000 28.820000 15.840000 207 218 219 0
11.220000 28.820000 16.060000 206 215 217 0
11.440000 28.820000 16.060000 206 215 217 0
11.660000 28.820000 16.060000 207 216 218 0
11.880000 28.820000 16.280000 206 215 217 0
12.100000 28.820000 17.600000 206 217 218 0
12.320000 28.820000 17.600000 207 218 219 0
12.540000 28.820000 17.820000 206 217 218 0
12.760000 28.820000 17.820000 203 214 215 0
12.980000 28.820000 16.500000 202 213 214 0
13.200000 28.820000 16.500000 200 211 212 0
13.420000 28.820000 17.380000 199 207 205 0
13.640000 28.820000 18.260000 193 201 199 0
13.860000 28.820000 19.360000 186 192 189 0
14.080000 28.820000 19.580000 180 186 183 0
14.300000 28.820000 16.720000 176 184 181 0
14.520000 28.820000 13.860000 178 186 183 0
14.740000 28.820000 12.540000 180 188 185 0
14.960000 28.820000 11.440000 181 189 186 0
15.180000 28.820000 14.300000 183 191 188 0
15.400000 28.820000 18.480000 183 191 188 0
15.620000 28.820000 22.660000 184 190 187 0
15.840000 28.820000 24.200000 185 191 188 0
16.060000 28.820000 25.520000 183 191 188 0
16.280000 28.820000 24.200000 183 191 188 0
16.500000 28.820000 21.340000 182 190 187 0
16.720000 28.820000 18.700000 182 190 187 0
16.940000 28.820000 16.060000 181 189 186 0
17.160000 28.820000 14.740000 181 189 186 0
17.380000 28.820000 13.420000 183 189 186 0
17.600000 28.820000 13.420000 184 190 187 0
17.820000 28.820000 13.640000 186 192 189 0
18.040000 28.820000 14.960000 187 193 190 0
18.260000 28.820000 16.500000 191 197 194 0
18.480000 28.820000 17.820000 194 200 197 0
18.700000 28.820000 20.240000 195 203 201 0
18.920000 28.820000 21.120000 198 206 204 0
19.140000 28.820000 22.220000 197 205 203 0
19.360000 28.820000 20.900000 200 208 206 0
19.580000 28.820000 19.580000 203 214 213 0
19.800000 28.820000 19.580000 211 222 221 0
20.020000 28.820000 19.580000 202 212 209 0
20.240000 28.820000 21.120000 199 209 206 0
20.460000 28.820000 22.440000 199 207 205 0
20.680000 28.820000 23.980000 200 208 206 0
20.900000 28.820000 25.520000 200 208 206 0
21.120000 28.820000 26.840000 200 208 206 0
21.340000 28.820000 29.700000 200 210 207 0
21.560000 28.820000 29.700000 199 209 206 0
21.780000 28.820000 29.700000 200 210 207 0
22.000000 28.820000 29.920000 201 211 208 0
22.220000 28.820000 29.920000 201 209 207 0
22.440000 28.820000 29.920000 202 210 208 0
22.660000 28.820000 29.920000 201 211 208 0
22.880000 28.820000 28.600000 201 211 208 0
23.100000 28.820000 28.820000 201 211 208 0
23.320000 28.820000 28.820000 201 211 208 0
23.540000 28.820000 28.820000 201 211 207 0
23.760000 28.820000 28.820000 202 212 208 0
23.980000 28.820000 29.040000 202 212 209 0
24.200000 28.820000 30.140000 202 212 209 0
24.420000 28.820000 32.120000 202 212 209 0
24.640000 28.820000 33.220000 202 212 209 0
24.860000 28.820000 33.220000 203 211 208 0
25.080000 28.820000 33.440000 203 211 208 0
25.300000 28.820000 33.440000 204 212 209 0
25.520000 28.820000 33.440000 203 211 208 0
25.740000 28.820000 33.440000 202 212 209 0
25.960000 28.820000 33.660000 203 213 210 0
26.180000 28.820000 33.660000 202 212 209 0
26.400000 28.820000 33.660000 202 212 209 0
26.620000 28.820000 33.880000 202 212 208 0
26.840000 28.820000 33.880000 201 211 207 0
27.060000 28.820000 33.880000 204 212 209 0
27.280000 28.820000 33.880000 204 212 209 0
27.500000 28.820000 35.420000 202 212 209 0
27.720000 28.820000 35.420000 203 213 210 0
27.940000 28.820000 35.420000 202 212 208 0
28.160000 28.820000 34.100000 202 212 208 0
28.380000 28.820000 34.320000 202 212 208 0
28.600000 28.820000 34.320000 203 213 209 0
28.820000 28.820000 34.320000 203 213 209 0
29.040000 28.820000 35.860000 203 213 209 0
29.260000 28.820000 35.860000 203 213 210 0
29.480000 28.820000 35.640000 202 212 209 0
29.700000 28.820000 37.620000 203 213 209 0
29.920000 28.820000 38.720000 203 213 209 0
30.140000 28.820000 38.940000 203 213 209 0
30.360000 28.820000 40.260000 202 212 208 0
30.580000 28.820000 40.260000 202 212 209 0
30.800000 28.820000 38.940000 202 212 209 0
31.020000 28.820000 29.260000 202 212 209 0
31.240000 28.820000 12.760000 202 212 209 0
31.460000 28.820000 3.300000 202 212 209 0
31.680000 28.820000 0.440000 202 212 209 0
31.900000 28.820000 0.660000 201 211 208 0
32.120000 28.820000 0.660000 202 212 209 0
32.340000 28.820000 0.660000 201 212 209 0
32.560000 28.820000 0.660000 200 211 208 0
32.780000 28.820000 0.880000 201 211 208 0
33.000000 28.820000 0.880000 199 209 206 0
33.220000 28.820000 0.880000 199 209 206 0
34.320000 28.820000 1.100000 202 213 212 0
34.540000 28.820000 2.420000 205 219 217 0
34.760000 28.820000 0.880000 204 218 216 0
34.980000 28.820000 0.880000 205 216 215 0
35.200000 28.820000 1.100000 204 215 214 0
35.420000 28.820000 1.100000 203 214 211 0
35.640000 28.820000 1.100000 201 212 209 0
35.860000 28.820000 2.640000 197 211 209 0
36.080000 28.820000 2.640000 195 209 207 0
36.300000 28.820000 2.420000 194 205 204 0
36.520000 28.820000 3.300000 188 199 198 0
36.740000 28.820000 4.400000 178 188 182 0
36.960000 28.820000 4.400000 169 179 173 0
37.180000 28.820000 4.400000 168 177 171 0
0.000000 29.040000 1.100000 196 199 201 0
0.220000 29.040000 1.100000 196 199 201 0
0.440000 29.040000 2.420000 196 199 201 0
0.660000 29.040000 2.420000 196 199 201 0
0.880000 29.040000 2.420000 195 198 200 0
1.100000 29.040000 2.420000 197 197 200 0
1.320000 29.040000 2.640000 196 196 199 0
1.540000 29.040000 1.100000 197 198 198 0
1.760000 29.040000 1.320000 197 198 198 0
1.980000 29.040000 1.320000 197 198 198 0
2.200000 29.040000 2.640000 198 199 199 0
2.420000 29.040000 1.320000 197 198 198 0
2.640000 29.040000 2.640000 197 198 198 0
2.860000 29.040000 2.420000 196 196 199 0
3.080000 29.040000 3.300000 197 197 200 0
3.300000 29.040000 4.400000 197 198 198 0
3.520000 29.040000 4.400000 197 198 198 0
3.740000 29.040000 5.720000 196 197 197 0
3.960000 29.040000 5.720000 197 198 198 0
4.180000 29.040000 5.720000 197 197 200 0
4.400000 29.040000 5.720000 197 197 200 0
4.620000 29.040000 5.720000 197 197 200 0
4.840000 29.040000 5.720000 197 197 200 0
5.060000 29.040000 5.940000 197 197 200 0
5.280000 29.040000 5.940000 197 197 200 0
5.500000 29.040000 5.940000 198 199 199 0
5.720000 29.040000 6.160000 198 199 199 0
5.940000 29.040000 6.160000 195 198 200 0
6.160000 29.040000 6.160000 195 198 200 0
6.380000 29.040000 6.380000 196 199 201 0
6.600000 29.040000 6.380000 197 200 202 0
6.820000 29.040000 6.380000 195 202 205 0
7.040000 29.040000 6.600000 197 204 207 0
7.260000 29.040000 6.600000 197 206 208 0
7.480000 29.040000 6.600000 202 211 213 0
7.700000 29.040000 6.820000 201 210 212 0
7.920000 29.040000 8.140000 204 213 215 0
8.140000 29.040000 9.240000 205 214 216 0
8.360000 29.040000 10.120000 207 216 218 0
8.580000 29.040000 12.540000 208 217 219 0
8.800000 29.040000 12.540000 207 216 218 0
9.020000 29.040000 12.540000 207 216 218 0
9.240000 29.040000 14.080000 207 216 218 0
9.460000 29.040000 14.080000 208 217 219 0
9.680000 29.040000 14.080000 207 216 218 0
9.900000 29.040000 14.300000 207 216 218 0
10.120000 29.040000 14.300000 206 215 217 0
10.340000 29.040000 14.300000 207 216 218 0
10.560000 29.040000 14.520000 207 216 218 0
10.780000 29.040000 15.840000 207 216 218 0
11.000000 29.040000 15.840000 208 217 219 0
11.220000 29.040000 16.060000 207 216 218 0
11.440000 29.040000 16.060000 206 215 217 0
11.660000 29.040000 16.060000 206 215 217 0
11.880000 29.040000 17.600000 207 216 218 0
12.100000 29.040000 17.600000 207 216 218 0
12.320000 29.040000 17.600000 207 216 218 0
12.540000 29.040000 17.820000 208 218 222 0
12.760000 29.040000 17.820000 208 218 222 0
12.980000 29.040000 17.820000 204 213 215 0
13.200000 29.040000 17.820000 203 212 214 0
13.420000 29.040000 18.700000 200 208 208 0
13.640000 29.040000 19.580000 195 203 203 0
13.860000 29.040000 19.360000 189 195 192 0
14.080000 29.040000 19.580000 182 188 185 0
14.300000 29.040000 18.040000 180 186 183 0
14.520000 29.040000 14.080000 182 188 185 0
14.740000 29.040000 11.220000 181 189 186 0
14.960000 29.040000 11.440000 182 190 187 0
15.180000 29.040000 14.300000 182 190 187 0
15.400000 29.040000 18.480000 182 190 187 0
15.620000 29.040000 22.660000 184 190 187 0
15.840000 29.040000 25.520000 185 191 188 0
16.060000 29.040000 25.520000 184 190 187 0
16.280000 29.040000 25.520000 185 191 188 0
16.500000 29.040000 24.200000 184 190 187 0
16.720000 29.040000 20.020000 184 190 187 0
16.940000 29.040000 17.380000 184 190 187 0
17.160000 29.040000 14.740000 184 190 187 0
17.380000 29.040000 13.640000 184 190 187 0
17.600000 29.040000 13.640000 184 190 187 0
17.820000 29.040000 13.640000 185 191 188 0
18.040000 29.040000 16.500000 187 193 190 0
18.260000 29.040000 17.820000 191 195 193 0
18.480000 29.040000 20.680000 194 198 196 0
18.700000 29.040000 21.560000 196 200 198 0
18.920000 29.040000 23.760000 198 202 200 0
19.140000 29.040000 23.540000 198 204 201 0
19.360000 29.040000 23.540000 198 204 201 0
19.580000 29.040000 22.220000 203 211 209 0
19.800000 29.040000 23.760000 203 211 209 0
20.020000 29.040000 25.080000 203 209 206 0
20.240000 29.040000 26.620000 201 207 204 0
20.460000 29.040000 28.160000 200 206 203 0
20.680000 29.040000 29.480000 200 206 203 0
20.900000 29.040000 31.020000 201 207 204 0
21.120000 29.040000 31.020000 200 206 203 0
21.340000 29.040000 32.340000 199 207 204 0
21.560000 29.040000 32.560000 199 207 204 0
21.780000 29.040000 32.560000 200 208 206 0
22.000000 29.040000 31.240000 200 208 206 0
22.220000 29.040000 31.240000 202 208 205 0
22.440000 29.040000 31.240000 202 208 205 0
22.660000 29.040000 29.920000 200 208 205 0
22.880000 29.040000 30.140000 200 208 205 0
23.100000 29.040000 30.140000 200 208 205 0
23.320000 29.040000 30.140000 201 209 206 0
23.540000 29.040000 30.140000 201 209 206 0
23.760000 29.040000 30.360000 200 208 205 0
23.980000 29.040000 30.360000 201 209 206 0
24.200000 29.040000 31.240000 201 209 206 0
24.420000 29.040000 32.120000 202 210 207 0
24.640000 29.040000 33.220000 202 210 207 0
24.860000 29.040000 33.220000 202 210 208 0
25.080000 29.040000 33.440000 202 210 208 0
25.300000 29.040000 33.440000 201 209 207 0
25.520000 29.040000 33.440000 202 210 208 0
25.740000 29.040000 33.440000 201 211 208 0
25.960000 29.040000 33.660000 202 212 209 0
26.180000 29.040000 33.660000 203 211 209 0
26.400000 29.040000 33.660000 202 210 208 0
26.620000 29.040000 33.880000 202 210 207 0
26.840000 29.040000 33.880000 202 210 207 0
27.060000 29.040000 33.880000 203 211 209 0
27.280000 29.040000 33.880000 202 210 208 0
27.500000 29.040000 35.420000 201 211 207 0
27.720000 29.040000 35.420000 201 211 207 0
27.940000 29.040000 35.420000 201 211 208 0
28.160000 29.040000 35.640000 201 211 208 0
28.380000 29.040000 34.320000 203 211 209 0
28.600000 29.040000 34.320000 203 211 209 0
28.820000 29.040000 35.640000 203 213 210 0
29.040000 29.040000 35.860000 203 213 210 0
29.260000 29.040000 35.860000 202 212 209 0
29.480000 29.040000 35.640000 202 212 209 0
29.700000 29.040000 37.620000 202 212 209 0
29.920000 29.040000 38.720000 202 212 209 0
30.140000 29.040000 38.940000 203 211 209 0
30.360000 29.040000 38.940000 203 211 209 0
30.580000 29.040000 40.260000 202 212 209 0
30.800000 29.040000 40.260000 203 213 210 0
31.020000 29.040000 38.940000 202 212 209 0
31.240000 29.040000 26.620000 202 212 209 0
31.460000 29.040000 7.260000 202 212 209 0
31.680000 29.040000 0.440000 202 212 209 0
31.900000 29.040000 0.660000 202 212 209 0
32.120000 29.040000 0.660000 201 211 208 0
32.340000 29.040000 0.660000 201 211 208 0
32.560000 29.040000 0.660000 201 211 208 0
32.780000 29.040000 0.880000 200 210 207 0
33.000000 29.040000 0.880000 199 209 206 0
33.220000 29.040000 0.880000 198 208 205 0
34.320000 29.040000 1.100000 200 210 207 0
34.540000 29.040000 0.880000 204 215 214 0
34.760000 29.040000 0.880000 205 216 215 0
34.980000 29.040000 0.880000 206 215 215 0
35.200000 29.040000 1.100000 205 214 214 0
35.420000 29.040000 1.100000 205 216 213 0
35.640000 29.040000 1.100000 202 213 210 0
35.860000 29.040000 2.640000 200 211 210 0
36.080000 29.040000 2.640000 198 209 208 0
36.300000 29.040000 2.640000 191 206 204 0
36.520000 29.040000 3.520000 185 200 198 0
36.740000 29.040000 4.400000 178 188 182 0
36.960000 29.040000 4.180000 169 179 173 0
37.180000 29.040000 4.400000 168 177 171 0
0.000000 29.260000 0.880000 200 203 205 0
0.220000 29.260000 2.420000 199 202 204 0
0.440000 29.260000 2.420000 198 201 203 0
0.660000 29.260000 2.420000 197 200 202 0
0.880000 29.260000 2.420000 198 201 203 0
1.100000 29.260000 2.420000 199 199 202 0
1.320000 29.260000 2.640000 199 199 202 0
1.540000 29.260000 2.640000 199 200 200 0
1.760000 29.260000 1.320000 199 200 200 0
1.980000 29.260000 2.640000 199 200 200 0
2.200000 29.260000 2.640000 198 199 199 0
2.420000 29.260000 2.640000 198 199 199 0
2.640000 29.260000 3.740000 196 197 197 0
2.860000 29.260000 4.620000 196 196 199 0
3.080000 29.260000 4.400000 197 197 200 0
3.300000 29.260000 5.720000 198 199 199 0
3.520000 29.260000 5.720000 197 198 198 0
3.740000 29.260000 5.720000 198 199 199 0
3.960000 29.260000 5.720000 198 199 199 0
4.180000 29.260000 5.720000 198 198 201 0
4.400000 29.260000 5.940000 197 197 200 0
4.620000 29.260000 5.940000 198 198 201 0
4.840000 29.260000 5.940000 197 197 200 0
5.060000 29.260000 5.940000 198 198 201 0
5.280000 29.260000 4.620000 198 198 201 0
5.500000 29.260000 6.160000 198 199 199 0
5.720000 29.260000 6.160000 198 199 199 0
5.940000 29.260000 6.160000 197 200 202 0
6.160000 29.260000 6.380000 197 200 202 0
6.380000 29.260000 6.380000 198 201 203 0
6.600000 29.260000 6.380000 199 202 204 0
6.820000 29.260000 6.600000 199 206 209 0
7.040000 29.260000 6.600000 203 210 213 0
7.260000 29.260000 6.600000 205 214 216 0
7.480000 29.260000 8.140000 205 214 216 0
7.700000 29.260000 8.140000 206 215 217 0
7.920000 29.260000 8.140000 206 215 217 0
8.140000 29.260000 9.240000 206 215 217 0
8.360000 29.260000 11.440000 208 217 219 0
8.580000 29.260000 12.540000 208 217 219 0
8.800000 29.260000 12.540000 208 217 219 0
9.020000 29.260000 12.540000 207 216 218 0
9.240000 29.260000 14.080000 207 216 218 0
9.460000 29.260000 14.080000 206 215 217 0
9.680000 29.260000 14.300000 206 215 217 0
9.900000 29.260000 14.300000 207 216 218 0
10.120000 29.260000 14.300000 206 215 217 0
10.340000 29.260000 14.300000 206 215 217 0
10.560000 29.260000 15.840000 206 215 217 0
10.780000 29.260000 15.840000 206 215 217 0
11.000000 29.260000 15.840000 208 217 219 0
11.220000 29.260000 16.060000 208 217 219 0
11.440000 29.260000 16.060000 207 216 218 0
11.660000 29.260000 16.060000 206 215 217 0
11.880000 29.260000 17.600000 206 215 217 0
12.100000 29.260000 17.600000 206 215 217 0
12.320000 29.260000 17.600000 207 216 218 0
12.540000 29.260000 17.820000 209 219 223 0
12.760000 29.260000 17.820000 211 221 225 0
12.980000 29.260000 17.820000 210 219 221 0
13.200000 29.260000 17.820000 204 213 215 0
13.420000 29.260000 18.920000 203 211 211 0
13.640000 29.260000 19.580000 198 206 206 0
13.860000 29.260000 20.900000 193 199 196 0
14.080000 29.260000 19.580000 185 191 188 0
14.300000 29.260000 18.260000 182 188 185 0
14.520000 29.260000 14.080000 182 188 185 0
14.740000 29.260000 12.760000 182 190 187 0
14.960000 29.260000 11.440000 182 190 187 0
15.180000 29.260000 14.300000 181 189 186 0
15.400000 29.260000 18.480000 183 191 188 0
15.620000 29.260000 22.660000 185 191 188 0
15.840000 29.260000 25.520000 184 190 187 0
16.060000 29.260000 26.840000 184 190 187 0
16.280000 29.260000 26.840000 185 191 188 0
16.500000 29.260000 25.520000 184 190 187 0
16.720000 29.260000 24.420000 183 189 186 0
16.940000 29.260000 20.240000 184 190 187 0
17.160000 29.260000 16.060000 183 189 186 0
17.380000 29.260000 14.740000 184 190 187 0
17.600000 29.260000 16.060000 184 190 187 0
17.820000 29.260000 17.600000 186 192 189 0
18.040000 29.260000 20.240000 186 192 189 0
18.260000 29.260000 21.780000 189 193 191 0
18.480000 29.260000 22.880000 191 195 193 0
18.700000 29.260000 25.300000 195 199 197 0
18.920000 29.260000 26.400000 196 200 198 0
19.140000 29.260000 27.720000 194 200 197 0
19.360000 29.260000 27.720000 196 202 199 0
19.580000 29.260000 27.940000 195 203 201 0
19.800000 29.260000 27.940000 196 204 202 0
20.020000 29.260000 29.260000 198 204 201 0
20.240000 29.260000 30.800000 198 204 201 0
20.460000 29.260000 32.340000 198 204 201 0
20.680000 29.260000 32.340000 198 204 201 0
20.900000 29.260000 32.340000 199 205 202 0
21.120000 29.260000 33.880000 199 205 202 0
21.340000 29.260000 33.880000 197 205 202 0
21.560000 29.260000 33.880000 197 205 202 0
21.780000 29.260000 32.560000 198 206 204 0
22.000000 29.260000 32.560000 199 207 205 0
22.220000 29.260000 32.560000 200 206 203 0
22.440000 29.260000 31.460000 200 206 203 0
22.660000 29.260000 31.460000 198 206 203 0
22.880000 29.260000 31.460000 198 206 203 0
23.100000 29.260000 30.140000 198 206 203 0
23.320000 29.260000 30.140000 199 207 204 0
23.540000 29.260000 30.360000 199 207 204 0
23.760000 29.260000 30.360000 199 207 204 0
23.980000 29.260000 31.460000 200 208 205 0
24.200000 29.260000 32.340000 198 206 203 0
24.420000 29.260000 33.220000 199 207 204 0
24.640000 29.260000 33.220000 200 208 205 0
24.860000 29.260000 33.440000 201 209 207 0
25.080000 29.260000 33.440000 200 208 206 0
25.300000 29.260000 33.440000 201 209 207 0
25.520000 29.260000 33.440000 200 208 206 0
25.740000 29.260000 33.440000 200 210 207 0
25.960000 29.260000 33.660000 201 211 208 0
26.180000 29.260000 33.660000 201 209 207 0
26.400000 29.260000 33.660000 200 208 206 0
26.620000 29.260000 33.880000 201 209 206 0
26.840000 29.260000 33.880000 201 209 206 0
27.060000 29.260000 35.200000 201 209 207 0
27.280000 29.260000 35.420000 201 209 207 0
27.500000 29.260000 35.420000 200 210 206 0
27.720000 29.260000 35.420000 200 210 206 0
27.940000 29.260000 35.420000 200 210 207 0
28.160000 29.260000 35.640000 200 210 207 0
28.380000 29.260000 34.320000 201 209 207 0
28.600000 29.260000 34.320000 202 210 208 0
28.820000 29.260000 35.860000 201 211 208 0
29.040000 29.260000 35.860000 202 212 209 0
29.260000 29.260000 35.860000 202 212 209 0
29.480000 29.260000 35.640000 201 211 208 0
29.700000 29.260000 37.620000 201 211 208 0
29.920000 29.260000 38.720000 202 212 209 0
30.140000 29.260000 38.940000 203 211 209 0
30.360000 29.260000 38.940000 203 211 209 0
30.580000 29.260000 38.940000 202 212 209 0
30.800000 29.260000 40.260000 201 211 208 0
31.020000 29.260000 40.480000 202 212 209 0
31.240000 29.260000 33.660000 201 211 208 0
31.460000 29.260000 15.620000 201 211 208 0
31.680000 29.260000 3.300000 200 210 207 0
31.900000 29.260000 0.660000 201 211 208 0
32.120000 29.260000 0.660000 201 211 208 0
32.340000 29.260000 0.660000 201 211 208 0
32.560000 29.260000 0.660000 200 210 207 0
32.780000 29.260000 0.880000 199 209 206 0
33.000000 29.260000 0.880000 198 208 205 0
33.220000 29.260000 0.880000 198 208 205 0
34.320000 29.260000 1.100000 202 212 209 0
34.540000 29.260000 0.880000 204 215 214 0
34.760000 29.260000 0.880000 204 215 214 0
34.980000 29.260000 0.880000 205 214 214 0
35.200000 29.260000 1.100000 205 214 214 0
35.420000 29.260000 1.100000 205 216 213 0
35.640000 29.260000 1.100000 204 215 212 0
35.860000 29.260000 2.640000 199 210 209 0
36.080000 29.260000 2.640000 197 208 207 0
36.300000 29.260000 2.640000 191 206 204 0
36.520000 29.260000 2.420000 185 200 198 0
36.740000 29.260000 3.080000 178 188 182 0
36.960000 29.260000 4.180000 170 180 174 0
37.180000 29.260000 4.400000 167 176 170 0
0.000000 29.480000 0.880000 198 207 211 0
0.220000 29.480000 2.420000 202 209 214 0
0.440000 29.480000 2.420000 201 208 213 0
0.660000 29.480000 2.420000 201 208 213 0
0.880000 29.480000 2.420000 199 206 211 0
1.100000 29.480000 2.420000 198 205 210 0
1.320000 29.480000 2.640000 197 204 209 0
1.540000 29.480000 2.640000 197 206 210 0
1.760000 29.480000 2.640000 198 207 211 0
1.980000 29.480000 2.640000 199 206 209 0
2.200000 29.480000 2.640000 197 204 207 0
2.420000 29.480000 3.960000 197 201 205 0
2.640000 29.480000 4.620000 196 200 204 0
2.860000 29.480000 5.720000 196 200 204 0
3.080000 29.480000 5.720000 195 199 203 0
3.300000 29.480000 5.720000 195 199 203 0
3.520000 29.480000 5.720000 195 199 203 0
3.740000 29.480000 5.720000 196 201 202 0
3.960000 29.480000 5.720000 195 200 201 0
4.180000 29.480000 5.940000 195 199 203 0
4.400000 29.480000 5.940000 195 199 203 0
4.620000 29.480000 5.940000 195 200 201 0
4.840000 29.480000 6.160000 195 200 201 0
5.060000 29.480000 6.160000 196 199 201 0
5.280000 29.480000 4.840000 196 199 201 0
5.500000 29.480000 6.160000 195 200 201 0
5.720000 29.480000 6.160000 196 201 202 0
5.940000 29.480000 6.380000 196 200 204 0
6.160000 29.480000 6.380000 197 201 205 0
6.380000 29.480000 6.380000 197 204 207 0
6.600000 29.480000 6.600000 199 206 209 0
6.820000 29.480000 6.600000 201 210 214 0
7.040000 29.480000 6.600000 204 213 217 0
7.260000 29.480000 8.140000 207 216 218 0
7.480000 29.480000 8.140000 206 215 217 0
7.700000 29.480000 8.140000 205 214 216 0
7.920000 29.480000 9.460000 205 214 216 0
8.140000 29.480000 10.120000 205 214 216 0
8.360000 29.480000 12.540000 206 215 217 0
8.580000 29.480000 12.540000 208 218 222 0
8.800000 29.480000 12.540000 207 217 221 0
9.020000 29.480000 12.760000 206 215 217 0
9.240000 29.480000 14.080000 205 214 216 0
9.460000 29.480000 14.080000 205 214 216 0
9.680000 29.480000 14.300000 205 214 216 0
9.900000 29.480000 14.300000 204 217 220 0
10.120000 29.480000 14.300000 204 217 220 0
10.340000 29.480000 15.840000 204 213 215 0
10.560000 29.480000 15.840000 205 214 216 0
10.780000 29.480000 15.840000 205 214 216 0
11.000000 29.480000 15.840000 205 214 216 0
11.220000 29.480000 16.060000 206 215 217 0
11.440000 29.480000 17.380000 207 216 218 0
11.660000 29.480000 17.380000 204 215 216 0
11.880000 29.480000 17.600000 205 216 217 0
12.100000 29.480000 17.600000 206 217 218 0
12.320000 29.480000 17.600000 206 217 218 0
12.540000 29.480000 17.820000 206 215 217 0
12.760000 29.480000 17.820000 209 218 220 0
12.980000 29.480000 17.820000 212 221 223 0
13.200000 29.480000 17.820000 202 211 213 0
13.420000 29.480000 18.920000 201 210 212 0
13.640000 29.480000 19.800000 197 206 208 0
13.860000 29.480000 20.900000 194 202 200 0
14.080000 29.480000 20.900000 187 195 193 0
14.300000 29.480000 18.260000 183 189 186 0
14.520000 29.480000 15.400000 183 189 186 0
14.740000 29.480000 12.760000 184 190 187 0
14.960000 29.480000 11.440000 183 189 186 0
15.180000 29.480000 14.300000 181 189 186 0
15.400000 29.480000 17.160000 182 190 187 0
15.620000 29.480000 21.340000 182 190 187 0
15.840000 29.480000 25.520000 182 190 187 0
16.060000 29.480000 28.160000 184 188 186 0
16.280000 29.480000 28.380000 184 188 186 0
16.500000 29.480000 28.380000 183 189 186 0
16.720000 29.480000 27.060000 183 189 186 0
16.940000 29.480000 24.200000 183 189 186 0
17.160000 29.480000 22.660000 183 189 186 0
17.380000 29.480000 21.120000 184 190 187 0
17.600000 29.480000 22.440000 185 191 188 0
17.820000 29.480000 23.760000 186 190 188 0
18.040000 29.480000 23.760000 188 192 190 0
18.260000 29.480000 25.300000 189 193 189 0
18.480000 29.480000 26.620000 190 194 190 0
18.700000 29.480000 27.720000 188 194 191 0
18.920000 29.480000 29.040000 191 197 194 0
19.140000 29.480000 29.260000 190 196 193 0
19.360000 29.480000 29.260000 190 196 193 0
19.580000 29.480000 30.580000 192 196 194 0
19.800000 29.480000 30.800000 193 197 195 0
20.020000 29.480000 32.120000 192 196 192 0
20.240000 29.480000 32.120000 194 198 194 0
20.460000 29.480000 32.340000 194 198 196 0
20.680000 29.480000 32.340000 195 199 197 0
20.900000 29.480000 33.880000 195 199 197 0
21.120000 29.480000 33.880000 195 199 197 0
21.340000 29.480000 33.880000 196 200 196 0
21.560000 29.480000 33.880000 197 201 197 0
21.780000 29.480000 32.560000 198 202 198 0
22.000000 29.480000 32.560000 197 201 197 0
22.220000 29.480000 32.780000 196 202 199 0
22.440000 29.480000 31.460000 196 202 199 0
22.660000 29.480000 31.460000 197 201 199 0
22.880000 29.480000 31.460000 198 202 200 0
23.100000 29.480000 31.680000 197 201 199 0
23.320000 29.480000 31.680000 198 202 200 0
23.540000 29.480000 31.680000 199 203 199 0
23.760000 29.480000 31.680000 198 202 198 0
23.980000 29.480000 32.560000 197 203 200 0
24.200000 29.480000 33.440000 197 203 200 0
24.420000 29.480000 33.220000 200 204 202 0
24.640000 29.480000 33.220000 199 203 201 0
24.860000 29.480000 33.440000 199 205 202 0
25.080000 29.480000 33.440000 199 205 202 0
25.300000 29.480000 33.440000 197 205 202 0
25.520000 29.480000 33.440000 198 206 203 0
25.740000 29.480000 33.660000 199 207 204 0
25.960000 29.480000 33.660000 199 207 204 0
26.180000 29.480000 33.660000 198 206 203 0
