ply
format ascii 1.0
element vertex 1136
property float x
property float y
property float z
property uchar red
property uchar green
property uchar blue
property uchar alpha
end_header
24.860000 1.980000 16.500000 240 241 240 0
25.080000 1.980000 17.270000 240 241 240 0
25.300000 1.980000 17.270000 240 241 240 0
25.520000 1.980000 17.270000 240 241 240 0
25.740000 1.980000 17.930000 240 241 240 0
25.960000 1.980000 17.930000 240 241 240 0
26.180000 1.980000 18.590000 240 241 240 0
26.400000 1.980000 18.590000 240 241 240 0
26.620000 1.980000 19.360000 240 241 240 0
26.840000 1.980000 14.520000 240 241 240 0
27.060000 1.980000 4.070000 240 241 240 0
27.500000 1.980000 0.220000 240 241 240 0
27.720000 1.980000 0.770000 240 241 240 0
27.940000 1.980000 0.440000 240 241 240 0
28.160000 1.980000 0.440000 240 241 240 0
28.380000 1.980000 0.880000 240 241 240 0
28.600000 1.980000 1.430000 240 241 240 0
28.820000 1.980000 1.430000 240 241 240 0
29.040000 1.980000 0.770000 240 241 240 0
29.260000 1.980000 2.090000 240 241 240 0
29.480000 1.980000 6.930000 240 241 240 0
29.700000 1.980000 13.200000 240 241 240 0
29.920000 1.980000 11.770000 240 241 240 0
30.140000 1.980000 4.290000 240 241 240 0
30.360000 1.980000 0.770000 240 241 240 0
30.580000 1.980000 0.880000 240 241 240 0
30.800000 1.980000 0.880000 239 240 239 0
31.020000 1.980000 5.720000 235 235 242 0
31.240000 1.980000 14.740000 226 226 233 0
31.460000 1.980000 20.350000 217 214 220 0
31.680000 1.980000 14.850000 210 207 213 0
31.900000 1.980000 5.170000 207 202 203 0
32.340000 1.980000 0.330000 205 196 198 0
32.560000 1.980000 3.850000 202 193 195 0
32.780000 1.980000 11.440000 202 195 197 0
33.000000 1.980000 16.280000 204 197 199 0
33.220000 1.980000 17.050000 205 202 208 0
33.440000 1.980000 13.640000 212 209 215 0
33.660000 1.980000 6.050000 218 221 221 0
33.880000 1.980000 2.530000 229 232 232 0
34.100000 1.980000 4.620000 238 239 238 0
34.320000 1.980000 6.600000 240 241 240 0
34.540000 1.980000 3.630000 239 239 242 0
34.760000 1.980000 0.880000 231 231 234 0
34.980000 1.980000 1.650000 218 207 210 0
35.200000 1.980000 3.190000 201 190 193 0
35.420000 1.980000 2.530000 193 172 172 0
35.640000 1.980000 3.960000 180 159 159 0
35.860000 1.980000 5.280000 172 152 149 0
36.080000 1.980000 7.370000 166 146 143 0
36.300000 1.980000 12.760000 160 138 135 0
36.520000 1.980000 12.760000 158 136 133 0
36.740000 1.980000 8.580000 157 137 134 0
36.960000 1.980000 7.260000 158 138 135 0
37.180000 1.980000 7.920000 159 139 136 0
0.000000 2.200000 0.660000 181 234 239 0
0.220000 2.200000 1.210000 184 234 238 0
0.440000 2.200000 1.540000 184 234 238 0
0.660000 2.200000 0.880000 186 234 239 0
1.320000 2.200000 0.550000 187 235 240 0
1.540000 2.200000 0.880000 188 237 239 0
1.760000 2.200000 0.770000 188 237 239 0
1.980000 2.200000 0.770000 189 236 239 0
2.200000 2.200000 0.770000 190 237 240 0
2.420000 2.200000 0.220000 189 238 240 0
2.640000 2.200000 0.220000 188 237 239 0
2.860000 2.200000 0.330000 190 239 241 0
3.300000 2.200000 4.070000 190 239 241 0
3.520000 2.200000 14.410000 189 238 240 0
3.740000 2.200000 20.020000 191 238 241 0
3.960000 2.200000 20.020000 192 239 242 0
4.180000 2.200000 18.590000 192 239 242 0
4.400000 2.200000 15.840000 192 239 242 0
4.620000 2.200000 15.840000 193 240 243 0
4.840000 2.200000 17.160000 192 239 242 0
5.060000 2.200000 15.840000 192 239 242 0
5.280000 2.200000 11.000000 193 240 243 0
5.500000 2.200000 2.750000 193 240 241 0
7.700000 2.200000 0.440000 196 241 242 0
7.920000 2.200000 0.880000 197 242 243 0
8.140000 2.200000 0.660000 197 240 242 0
8.360000 2.200000 0.660000 198 241 243 0
8.580000 2.200000 0.660000 197 242 243 0
9.240000 2.200000 0.770000 194 241 242 0
9.460000 2.200000 0.770000 197 242 242 0
9.680000 2.200000 0.770000 197 242 242 0
9.900000 2.200000 1.430000 198 241 242 0
10.120000 2.200000 1.430000 199 242 243 0
10.340000 2.200000 1.430000 197 242 242 0
10.560000 2.200000 1.430000 198 243 243 0
10.780000 2.200000 1.430000 200 245 246 0
11.000000 2.200000 1.430000 198 243 244 0
11.220000 2.200000 2.090000 200 243 244 0
11.440000 2.200000 2.090000 200 243 244 0
11.660000 2.200000 2.090000 203 244 245 0
11.880000 2.200000 2.090000 204 245 246 0
12.100000 2.200000 2.090000 209 244 243 0
12.320000 2.200000 2.090000 210 245 244 0
12.540000 2.200000 2.090000 211 246 245 0
12.760000 2.200000 2.860000 212 247 246 0
12.980000 2.200000 2.860000 221 245 244 0
13.200000 2.200000 2.860000 222 246 245 0
13.420000 2.200000 2.860000 229 243 241 0
13.640000 2.200000 2.860000 229 243 241 0
13.860000 2.200000 3.520000 237 241 239 0
14.080000 2.200000 3.520000 237 241 239 0
14.300000 2.200000 3.520000 236 241 240 0
14.520000 2.200000 4.180000 236 241 240 0
14.740000 2.200000 4.180000 228 243 243 0
14.960000 2.200000 4.180000 228 243 243 0
15.180000 2.200000 4.180000 223 244 244 0
15.400000 2.200000 4.290000 222 243 243 0
15.620000 2.200000 3.520000 211 244 244 0
15.840000 2.200000 3.520000 210 243 243 0
16.060000 2.200000 4.290000 198 243 244 0
16.280000 2.200000 4.290000 196 241 242 0
16.500000 2.200000 4.290000 203 235 243 0
16.720000 2.200000 4.400000 201 233 241 0
16.940000 2.200000 3.740000 202 231 240 0
17.160000 2.200000 3.080000 202 231 240 0
17.380000 2.200000 3.190000 202 227 242 0
17.600000 2.200000 2.530000 201 226 241 0
17.820000 2.200000 1.760000 201 226 241 0
18.040000 2.200000 1.760000 199 224 239 0
18.260000 2.200000 2.530000 200 222 240 0
18.480000 2.200000 2.530000 200 222 240 0
18.700000 2.200000 2.640000 199 221 239 0
18.920000 2.200000 6.820000 198 220 238 0
19.140000 2.200000 12.430000 199 220 236 0
19.360000 2.200000 15.840000 197 218 234 0
19.580000 2.200000 16.500000 197 219 237 0
19.800000 2.200000 16.500000 196 218 236 0
20.020000 2.200000 16.500000 196 216 235 0
20.240000 2.200000 16.500000 197 217 236 0
20.460000 2.200000 15.730000 196 216 235 0
20.680000 2.200000 16.390000 196 216 235 0
20.900000 2.200000 17.050000 195 216 232 0
21.120000 2.200000 17.710000 196 217 233 0
21.340000 2.200000 19.140000 197 217 236 0
21.560000 2.200000 19.800000 197 217 236 0
21.780000 2.200000 19.800000 196 218 236 0
22.000000 2.200000 19.140000 197 219 237 0
22.220000 2.200000 18.480000 199 221 239 0
22.440000 2.200000 17.710000 201 223 241 0
22.660000 2.200000 17.820000 195 234 237 0
22.880000 2.200000 17.160000 198 237 240 0
23.100000 2.200000 17.160000 205 240 239 0
23.320000 2.200000 17.160000 208 243 242 0
23.540000 2.200000 17.160000 226 240 238 0
23.760000 2.200000 16.500000 228 242 240 0
23.980000 2.200000 16.500000 239 240 239 0
24.200000 2.200000 16.500000 239 240 239 0
24.420000 2.200000 16.500000 240 241 240 0
24.640000 2.200000 16.500000 240 241 240 0
24.860000 2.200000 17.270000 240 241 240 0
25.080000 2.200000 17.270000 240 241 240 0
25.300000 2.200000 17.270000 240 241 240 0
25.520000 2.200000 17.930000 240 241 240 0
25.740000 2.200000 17.930000 240 241 240 0
25.960000 2.200000 18.590000 240 241 240 0
26.180000 2.200000 18.590000 240 241 240 0
26.400000 2.200000 19.360000 240 241 240 0
26.620000 2.200000 17.930000 240 241 240 0
26.840000 2.200000 11.770000 240 241 240 0
27.060000 2.200000 2.750000 240 241 240 0
27.500000 2.200000 0.220000 240 241 240 0
27.720000 2.200000 0.770000 240 241 240 0
27.940000 2.200000 0.880000 240 241 240 0
28.160000 2.200000 0.880000 240 241 240 0
28.380000 2.200000 1.430000 240 241 240 0
28.600000 2.200000 1.430000 240 241 240 0
28.820000 2.200000 1.430000 240 241 240 0
29.040000 2.200000 0.770000 240 241 240 0
29.260000 2.200000 4.840000 240 241 240 0
29.480000 2.200000 12.540000 240 241 240 0
29.700000 2.200000 15.950000 240 241 240 0
29.920000 2.200000 11.880000 240 241 240 0
30.140000 2.200000 4.290000 231 244 248 0
30.360000 2.200000 0.880000 230 243 247 0
30.580000 2.200000 0.880000 232 237 252 0
30.800000 2.200000 0.880000 226 231 246 0
31.020000 2.200000 5.060000 226 222 234 0
31.240000 2.200000 14.850000 215 211 223 0
31.460000 2.200000 20.350000 214 205 207 0
31.680000 2.200000 14.850000 208 199 201 0
31.900000 2.200000 4.400000 207 192 192 0
32.340000 2.200000 0.330000 202 187 185 0
32.560000 2.200000 1.760000 199 184 182 0
32.780000 2.200000 3.850000 198 186 183 0
33.000000 2.200000 7.370000 201 189 186 0
33.220000 2.200000 13.640000 204 192 197 0
33.440000 2.200000 17.050000 210 198 203 0
33.660000 2.200000 12.210000 207 205 211 0
33.880000 2.200000 3.960000 217 215 221 0
34.100000 2.200000 1.210000 222 231 243 0
34.320000 2.200000 2.530000 228 237 249 0
34.540000 2.200000 1.760000 230 238 248 0
34.760000 2.200000 1.100000 222 230 240 0
34.980000 2.200000 0.440000 217 207 211 0
35.200000 2.200000 0.440000 200 190 194 0
35.420000 2.200000 3.190000 192 173 172 0
35.640000 2.200000 10.890000 179 160 159 0
35.860000 2.200000 11.550000 170 149 149 0
36.080000 2.200000 10.120000 165 144 144 0
36.300000 2.200000 14.190000 159 139 136 0
36.520000 2.200000 14.190000 156 136 133 0
36.740000 2.200000 8.580000 157 135 132 0
36.960000 2.200000 7.260000 158 136 133 0
37.180000 2.200000 7.920000 158 138 135 0
0.000000 2.420000 0.660000 181 234 239 0
0.220000 2.420000 1.210000 182 232 236 0
0.440000 2.420000 1.650000 184 234 238 0
0.660000 2.420000 0.880000 186 234 239 0
0.880000 2.420000 0.550000 187 235 240 0
1.320000 2.420000 0.550000 187 235 240 0
1.540000 2.420000 0.880000 187 236 238 0
1.760000 2.420000 0.770000 187 236 238 0
1.980000 2.420000 0.770000 189 236 239 0
2.200000 2.420000 0.770000 189 236 239 0
2.420000 2.420000 0.220000 188 237 239 0
2.640000 2.420000 0.330000 188 237 239 0
3.300000 2.420000 4.070000 188 237 239 0
3.520000 2.420000 15.180000 189 238 240 0
3.740000 2.420000 18.590000 190 237 240 0
3.960000 2.420000 15.840000 190 237 240 0
4.180000 2.420000 12.320000 191 238 241 0
4.400000 2.420000 6.820000 191 238 241 0
4.620000 2.420000 6.820000 190 237 240 0
4.840000 2.420000 9.570000 191 238 241 0
5.060000 2.420000 6.820000 192 239 242 0
5.280000 2.420000 2.750000 192 239 242 0
5.500000 2.420000 0.660000 192 239 240 0
7.700000 2.420000 0.990000 194 239 240 0
7.920000 2.420000 1.430000 194 239 240 0
8.140000 2.420000 1.430000 195 238 240 0
8.360000 2.420000 0.660000 196 239 241 0
8.580000 2.420000 0.770000 195 240 241 0
8.800000 2.420000 0.770000 195 240 241 0
9.020000 2.420000 0.770000 191 238 239 0
9.240000 2.420000 0.770000 190 237 238 0
9.460000 2.420000 0.770000 194 239 239 0
9.680000 2.420000 1.430000 195 240 240 0
9.900000 2.420000 1.430000 196 239 240 0
10.120000 2.420000 1.430000 196 239 240 0
10.340000 2.420000 1.430000 195 240 240 0
10.560000 2.420000 1.430000 195 240 240 0
10.780000 2.420000 2.090000 195 240 241 0
11.000000 2.420000 2.090000 195 240 241 0
11.220000 2.420000 2.090000 197 240 241 0
11.440000 2.420000 2.090000 197 240 241 0
11.660000 2.420000 2.090000 199 240 241 0
11.880000 2.420000 2.090000 200 241 242 0
12.100000 2.420000 2.090000 205 240 239 0
12.320000 2.420000 2.090000 206 241 240 0
12.540000 2.420000 2.090000 207 242 241 0
12.760000 2.420000 2.860000 207 242 241 0
12.980000 2.420000 2.860000 216 240 239 0
13.200000 2.420000 2.860000 217 241 240 0
13.420000 2.420000 2.860000 225 239 237 0
13.640000 2.420000 3.520000 226 240 238 0
13.860000 2.420000 3.520000 235 239 237 0
14.080000 2.420000 3.520000 235 239 237 0
14.300000 2.420000 4.180000 235 240 239 0
14.520000 2.420000 4.180000 234 239 238 0
14.740000 2.420000 4.180000 225 240 240 0
14.960000 2.420000 4.180000 225 240 240 0
15.180000 2.420000 4.180000 221 242 242 0
15.400000 2.420000 4.180000 219 240 240 0
15.620000 2.420000 4.180000 209 242 242 0
15.840000 2.420000 4.290000 207 240 240 0
16.060000 2.420000 4.290000 196 241 242 0
16.280000 2.420000 4.290000 194 239 240 0
16.500000 2.420000 4.290000 202 234 242 0
16.720000 2.420000 4.400000 200 232 240 0
16.940000 2.420000 3.740000 202 231 240 0
17.160000 2.420000 3.080000 201 230 239 0
17.380000 2.420000 3.190000 201 226 241 0
17.600000 2.420000 2.530000 200 225 240 0
17.820000 2.420000 1.760000 199 224 239 0
18.040000 2.420000 0.440000 198 223 238 0
18.260000 2.420000 0.440000 200 222 240 0
18.480000 2.420000 1.210000 198 220 238 0
18.700000 2.420000 4.730000 197 219 237 0
18.920000 2.420000 12.320000 198 220 238 0
19.140000 2.420000 16.500000 198 219 235 0
19.360000 2.420000 16.500000 198 219 235 0
19.580000 2.420000 16.500000 196 218 236 0
19.800000 2.420000 16.500000 196 218 236 0
20.020000 2.420000 16.500000 196 216 235 0
20.240000 2.420000 15.730000 196 216 235 0
20.460000 2.420000 15.730000 196 216 235 0
20.680000 2.420000 16.390000 196 216 235 0
20.900000 2.420000 16.390000 196 217 233 0
21.120000 2.420000 17.710000 196 217 233 0
21.340000 2.420000 18.370000 196 216 235 0
21.560000 2.420000 19.140000 196 216 235 0
21.780000 2.420000 18.480000 195 217 235 0
22.000000 2.420000 18.480000 196 218 236 0
22.220000 2.420000 17.050000 197 219 237 0
22.440000 2.420000 16.390000 199 221 239 0
22.660000 2.420000 16.390000 193 232 235 0
22.880000 2.420000 16.390000 197 236 239 0
23.100000 2.420000 16.390000 204 239 238 0
23.320000 2.420000 17.160000 207 242 241 0
23.540000 2.420000 17.160000 224 238 236 0
23.760000 2.420000 16.500000 226 240 238 0
23.980000 2.420000 16.500000 237 238 237 0
24.200000 2.420000 16.500000 239 240 239 0
24.420000 2.420000 16.500000 239 240 239 0
24.640000 2.420000 17.270000 240 241 240 0
24.860000 2.420000 17.270000 240 241 240 0
25.080000 2.420000 17.930000 240 241 240 0
25.300000 2.420000 17.930000 240 241 240 0
25.520000 2.420000 18.700000 240 241 240 0
25.740000 2.420000 18.590000 240 241 240 0
25.960000 2.420000 18.590000 240 241 240 0
26.180000 2.420000 19.360000 240 241 240 0
26.400000 2.420000 19.360000 240 241 240 0
26.620000 2.420000 17.270000 240 241 240 0
26.840000 2.420000 9.680000 240 241 240 0
27.060000 2.420000 1.320000 240 241 240 0
27.500000 2.420000 0.220000 240 241 240 0
27.720000 2.420000 0.660000 240 241 240 0
27.940000 2.420000 1.430000 240 241 240 0
28.160000 2.420000 1.430000 240 241 240 0
28.380000 2.420000 1.430000 240 241 240 0
28.600000 2.420000 1.430000 240 241 240 0
28.820000 2.420000 1.430000 240 241 240 0
29.040000 2.420000 0.770000 240 241 240 0
29.260000 2.420000 5.610000 240 241 240 0
29.480000 2.420000 11.880000 240 241 240 0
29.700000 2.420000 9.130000 239 240 239 0
29.920000 2.420000 4.290000 238 239 238 0
30.140000 2.420000 1.540000 228 241 245 0
30.360000 2.420000 0.880000 222 235 239 0
30.580000 2.420000 0.880000 219 224 239 0
30.800000 2.420000 0.990000 212 217 232 0
31.020000 2.420000 4.400000 210 206 218 0
31.240000 2.420000 12.760000 205 201 213 0
31.460000 2.420000 19.030000 206 197 199 0
31.680000 2.420000 16.170000 201 192 194 0
31.900000 2.420000 7.260000 199 184 184 0
32.120000 2.420000 0.990000 194 179 179 0
32.340000 2.420000 0.330000 194 179 177 0
32.560000 2.420000 0.330000 194 179 177 0
33.000000 2.420000 1.210000 194 182 179 0
33.220000 2.420000 7.370000 193 181 186 0
33.440000 2.420000 15.620000 197 185 190 0
33.660000 2.420000 14.960000 197 195 201 0
33.880000 2.420000 5.280000 204 202 208 0
34.540000 2.420000 0.550000 222 230 240 0
34.760000 2.420000 1.210000 217 225 235 0
34.980000 2.420000 1.210000 213 203 207 0
35.200000 2.420000 1.870000 196 186 190 0
35.420000 2.420000 7.370000 188 169 168 0
35.640000 2.420000 15.070000 177 158 157 0
35.860000 2.420000 15.070000 169 148 148 0
36.080000 2.420000 12.210000 163 142 142 0
36.300000 2.420000 14.190000 159 139 136 0
36.520000 2.420000 13.420000 157 137 134 0
36.740000 2.420000 8.580000 156 134 131 0
36.960000 2.420000 7.260000 157 135 132 0
37.180000 2.420000 7.920000 157 137 134 0
0.000000 2.640000 0.660000 187 234 239 0
0.220000 2.640000 1.320000 187 234 239 0
0.440000 2.640000 1.100000 189 236 241 0
0.660000 2.640000 0.990000 188 235 240 0
0.880000 2.640000 0.550000 188 235 240 0
1.320000 2.640000 0.550000 186 236 240 0
1.540000 2.640000 0.880000 187 236 238 0
1.760000 2.640000 0.770000 189 238 240 0
1.980000 2.640000 0.770000 190 237 240 0
2.200000 2.640000 0.770000 190 237 240 0
2.420000 2.640000 0.330000 189 236 239 0
3.300000 2.640000 3.300000 188 237 239 0
3.520000 2.640000 11.000000 189 238 240 0
3.740000 2.640000 12.320000 191 238 241 0
3.960000 2.640000 6.820000 191 238 241 0
4.180000 2.640000 3.410000 191 238 241 0
4.400000 2.640000 0.660000 192 239 242 0
4.620000 2.640000 0.660000 191 238 241 0
4.840000 2.640000 1.980000 191 238 241 0
5.060000 2.640000 0.660000 194 239 240 0
6.600000 2.640000 0.660000 194 239 240 0
6.820000 2.640000 0.550000 194 239 240 0
7.040000 2.640000 0.550000 194 239 240 0
7.260000 2.640000 0.550000 193 238 239 0
7.480000 2.640000 0.440000 193 238 239 0
7.700000 2.640000 1.540000 194 239 240 0
7.920000 2.640000 2.090000 195 240 241 0
8.140000 2.640000 1.430000 195 240 241 0
8.360000 2.640000 1.430000 195 240 241 0
8.580000 2.640000 0.770000 192 239 240 0
8.800000 2.640000 0.770000 191 238 239 0
9.020000 2.640000 0.770000 195 238 240 0
9.240000 2.640000 1.430000 195 238 240 0
9.460000 2.640000 1.430000 194 239 240 0
9.680000 2.640000 2.090000 195 240 241 0
9.900000 2.640000 2.090000 195 240 241 0
10.120000 2.640000 2.090000 195 240 241 0
10.340000 2.640000 2.090000 193 240 241 0
10.560000 2.640000 2.090000 193 240 241 0
10.780000 2.640000 2.090000 196 239 240 0
11.000000 2.640000 2.090000 196 239 240 0
11.220000 2.640000 2.090000 196 239 240 0
11.440000 2.640000 2.090000 196 239 240 0
11.660000 2.640000 2.090000 199 240 241 0
11.880000 2.640000 2.090000 200 241 242 0
12.100000 2.640000 2.090000 201 240 240 0
12.320000 2.640000 2.090000 202 241 241 0
12.540000 2.640000 2.090000 201 242 241 0
12.760000 2.640000 2.200000 202 243 242 0
12.980000 2.640000 2.860000 207 242 243 0
13.200000 2.640000 2.860000 208 243 244 0
13.420000 2.640000 2.860000 212 243 243 0
13.640000 2.640000 3.520000 213 244 244 0
13.860000 2.640000 3.520000 210 245 246 0
14.080000 2.640000 3.520000 210 245 246 0
14.300000 2.640000 3.520000 207 246 248 0
14.520000 2.640000 4.180000 206 245 247 0
14.740000 2.640000 4.180000 206 244 244 0
14.960000 2.640000 4.180000 206 244 244 0
15.180000 2.640000 4.180000 203 244 245 0
15.400000 2.640000 4.180000 202 243 244 0
15.620000 2.640000 4.290000 199 242 244 0
15.840000 2.640000 4.290000 196 239 241 0
16.060000 2.640000 4.290000 197 238 239 0
16.280000 2.640000 4.290000 198 239 240 0
16.500000 2.640000 4.290000 201 233 241 0
16.720000 2.640000 3.630000 199 231 239 0
16.940000 2.640000 3.740000 203 229 241 0
17.160000 2.640000 3.080000 202 228 240 0
17.380000 2.640000 3.190000 201 226 241 0
17.600000 2.640000 2.530000 200 225 240 0
17.820000 2.640000 1.870000 200 225 242 0
18.040000 2.640000 0.440000 198 223 240 0
18.260000 2.640000 0.440000 197 222 239 0
18.480000 2.640000 0.550000 196 221 238 0
18.700000 2.640000 5.390000 198 220 238 0
18.920000 2.640000 13.750000 197 219 237 0
19.140000 2.640000 17.270000 198 218 237 0
19.360000 2.640000 16.500000 197 217 236 0
19.580000 2.640000 16.500000 195 217 235 0
19.800000 2.640000 15.730000 194 216 234 0
20.020000 2.640000 15.730000 195 217 235 0
20.240000 2.640000 15.730000 195 217 235 0
20.460000 2.640000 15.730000 195 217 235 0
20.680000 2.640000 16.390000 195 217 235 0
20.900000 2.640000 16.390000 196 216 235 0
21.120000 2.640000 17.050000 195 215 234 0
21.340000 2.640000 17.710000 195 215 234 0
21.560000 2.640000 17.710000 196 216 235 0
21.780000 2.640000 17.820000 195 217 235 0
22.000000 2.640000 17.050000 195 217 235 0
22.220000 2.640000 15.730000 195 220 237 0
22.440000 2.640000 15.070000 196 221 238 0
22.660000 2.640000 15.070000 197 230 240 0
22.880000 2.640000 15.730000 200 233 243 0
23.100000 2.640000 16.390000 200 239 239 0
23.320000 2.640000 16.500000 203 242 242 0
23.540000 2.640000 17.160000 216 240 239 0
23.760000 2.640000 16.500000 218 242 241 0
23.980000 2.640000 16.500000 235 238 238 0
24.200000 2.640000 16.500000 237 240 240 0
24.420000 2.640000 17.160000 239 240 239 0
24.640000 2.640000 17.270000 239 240 239 0
24.860000 2.640000 17.930000 238 242 240 0
25.080000 2.640000 17.270000 238 242 240 0
25.300000 2.640000 15.180000 240 241 240 0
25.520000 2.640000 14.520000 240 241 240 0
25.740000 2.640000 14.520000 240 241 240 0
25.960000 2.640000 14.520000 240 241 240 0
26.180000 2.640000 15.180000 240 241 240 0
26.400000 2.640000 17.930000 240 241 240 0
26.620000 2.640000 18.700000 240 241 240 0
26.840000 2.640000 13.750000 240 241 240 0
27.060000 2.640000 5.390000 240 241 240 0
27.280000 2.640000 1.100000 240 241 240 0
27.500000 2.640000 0.880000 240 241 240 0
27.720000 2.640000 1.430000 240 241 240 0
27.940000 2.640000 1.430000 240 241 240 0
28.160000 2.640000 1.430000 240 241 240 0
28.380000 2.640000 1.430000 238 242 240 0
28.600000 2.640000 1.430000 238 242 240 0
28.820000 2.640000 1.430000 224 248 247 0
29.040000 2.640000 0.770000 223 247 246 0
29.260000 2.640000 4.180000 218 248 251 0
29.480000 2.640000 8.360000 217 247 250 0
29.700000 2.640000 4.290000 219 240 255 0
29.920000 2.640000 0.880000 215 236 252 0
30.140000 2.640000 0.880000 219 224 249 0
30.360000 2.640000 0.990000 213 218 243 0
30.580000 2.640000 1.650000 213 212 221 0
30.800000 2.640000 1.650000 206 205 214 0
31.020000 2.640000 2.420000 208 197 208 0
31.240000 2.640000 7.260000 202 191 202 0
31.460000 2.640000 14.190000 202 185 190 0
31.680000 2.640000 17.600000 197 180 185 0
31.900000 2.640000 12.760000 195 176 175 0
32.120000 2.640000 3.740000 191 172 171 0
32.340000 2.640000 0.330000 190 169 169 0
32.560000 2.640000 0.330000 190 169 169 0
32.780000 2.640000 0.440000 188 172 168 0
33.000000 2.640000 0.550000 188 172 168 0
33.220000 2.640000 5.390000 188 171 174 0
33.440000 2.640000 14.960000 192 175 178 0
33.660000 2.640000 14.960000 197 182 184 0
33.880000 2.640000 5.280000 203 188 190 0
34.100000 2.640000 0.440000 201 200 209 0
34.320000 2.640000 0.550000 209 208 217 0
34.540000 2.640000 1.210000 214 215 231 0
34.760000 2.640000 1.870000 213 214 230 0
34.980000 2.640000 1.870000 211 197 209 0
35.200000 2.640000 3.960000 196 182 194 0
35.420000 2.640000 10.120000 187 168 169 0
35.640000 2.640000 16.390000 175 156 157 0
35.860000 2.640000 16.390000 166 146 143 0
36.080000 2.640000 14.960000 163 143 140 0
36.300000 2.640000 15.620000 160 138 135 0
36.520000 2.640000 13.530000 157 135 132 0
36.740000 2.640000 8.690000 155 135 132 0
36.960000 2.640000 7.260000 157 137 134 0
37.180000 2.640000 7.920000 158 136 134 0
0.000000 2.860000 0.660000 189 236 241 0
0.220000 2.860000 1.320000 189 236 241 0
0.440000 2.860000 1.210000 187 234 239 0
0.660000 2.860000 1.100000 187 234 239 0
0.880000 2.860000 0.550000 188 235 240 0
1.100000 2.860000 0.660000 185 235 239 0
1.320000 2.860000 0.550000 185 235 239 0
1.540000 2.860000 0.990000 187 236 238 0
1.760000 2.860000 0.770000 188 237 239 0
1.980000 2.860000 0.770000 190 237 240 0
2.200000 2.860000 0.770000 189 236 239 0
2.420000 2.860000 0.330000 188 235 238 0
3.300000 2.860000 0.550000 189 238 240 0
3.520000 2.860000 3.300000 188 237 239 0
3.740000 2.860000 3.410000 189 236 239 0
3.960000 2.860000 0.550000 190 237 240 0
6.160000 2.860000 0.330000 193 238 239 0
6.380000 2.860000 0.440000 193 238 239 0
6.600000 2.860000 1.100000 193 238 239 0
6.820000 2.860000 1.650000 192 237 238 0
7.040000 2.860000 1.540000 193 238 239 0
7.260000 2.860000 0.990000 192 237 238 0
7.480000 2.860000 1.650000 193 238 239 0
7.700000 2.860000 1.540000 194 239 240 0
7.920000 2.860000 2.090000 193 238 239 0
8.140000 2.860000 2.090000 194 239 240 0
8.360000 2.860000 1.430000 193 238 239 0
8.580000 2.860000 1.430000 190 237 238 0
8.800000 2.860000 1.430000 191 238 239 0
9.020000 2.860000 1.430000 195 238 240 0
9.240000 2.860000 1.430000 194 237 239 0
9.460000 2.860000 2.090000 192 237 238 0
9.680000 2.860000 2.090000 194 239 240 0
9.900000 2.860000 2.090000 194 239 240 0
10.120000 2.860000 2.860000 194 239 240 0
10.340000 2.860000 2.860000 191 238 239 0
10.560000 2.860000 2.090000 191 238 239 0
10.780000 2.860000 2.090000 195 238 239 0
11.000000 2.860000 2.090000 196 239 240 0
11.220000 2.860000 2.090000 197 240 241 0
11.440000 2.860000 2.090000 197 240 241 0
11.660000 2.860000 2.090000 199 240 241 0
11.880000 2.860000 2.090000 200 241 242 0
12.100000 2.860000 2.090000 202 241 241 0
12.320000 2.860000 2.090000 202 241 241 0
12.540000 2.860000 2.200000 201 242 241 0
12.760000 2.860000 2.200000 201 242 241 0
12.980000 2.860000 2.860000 206 241 242 0
13.200000 2.860000 2.860000 206 241 242 0
13.420000 2.860000 2.860000 210 241 241 0
13.640000 2.860000 2.860000 210 241 241 0
13.860000 2.860000 3.520000 206 241 242 0
14.080000 2.860000 3.520000 206 241 242 0
14.300000 2.860000 3.520000 202 241 243 0
14.520000 2.860000 3.520000 201 240 242 0
14.740000 2.860000 4.180000 202 240 240 0
14.960000 2.860000 4.180000 202 240 240 0
15.180000 2.860000 4.180000 199 240 241 0
15.400000 2.860000 4.290000 198 239 240 0
15.620000 2.860000 4.290000 195 238 240 0
15.840000 2.860000 4.290000 195 238 240 0
16.060000 2.860000 4.290000 197 238 239 0
16.280000 2.860000 4.290000 196 237 238 0
16.500000 2.860000 4.290000 200 232 240 0
16.720000 2.860000 3.630000 199 231 239 0
16.940000 2.860000 3.080000 202 228 240 0
17.160000 2.860000 3.080000 201 227 239 0
17.380000 2.860000 3.190000 200 225 240 0
17.600000 2.860000 2.530000 199 224 239 0
17.820000 2.860000 1.870000 198 223 240 0
18.040000 2.860000 0.550000 197 222 239 0
18.260000 2.860000 0.550000 196 221 238 0
18.480000 2.860000 1.870000 195 220 237 0
18.700000 2.860000 6.820000 196 218 236 0
18.920000 2.860000 14.410000 196 218 236 0
19.140000 2.860000 17.270000 197 217 236 0
19.360000 2.860000 16.500000 196 216 235 0
19.580000 2.860000 16.500000 195 217 235 0
19.800000 2.860000 15.730000 194 216 234 0
20.020000 2.860000 15.730000 195 217 235 0
20.240000 2.860000 15.730000 195 217 235 0
20.460000 2.860000 15.730000 194 216 234 0
20.680000 2.860000 16.390000 194 216 234 0
20.900000 2.860000 16.390000 196 216 235 0
21.120000 2.860000 17.050000 195 215 234 0
21.340000 2.860000 17.050000 196 216 235 0
21.560000 2.860000 17.050000 196 216 235 0
21.780000 2.860000 17.050000 195 217 235 0
22.000000 2.860000 16.390000 195 217 235 0
22.220000 2.860000 15.730000 195 220 237 0
22.440000 2.860000 15.070000 195 220 237 0
22.660000 2.860000 15.070000 194 227 237 0
22.880000 2.860000 15.730000 199 232 242 0
23.100000 2.860000 15.730000 199 238 238 0
23.320000 2.860000 16.500000 202 241 241 0
23.540000 2.860000 17.160000 214 238 237 0
23.760000 2.860000 17.160000 217 241 240 0
23.980000 2.860000 16.500000 234 237 237 0
24.200000 2.860000 16.500000 235 238 238 0
24.420000 2.860000 17.270000 239 240 239 0
24.640000 2.860000 17.930000 239 240 239 0
24.860000 2.860000 17.930000 237 241 239 0
25.080000 2.860000 13.090000 237 241 239 0
25.300000 2.860000 7.480000 240 241 240 0
25.520000 2.860000 4.730000 240 241 240 0
25.740000 2.860000 4.840000 240 241 240 0
25.960000 2.860000 4.180000 240 241 240 0
26.180000 2.860000 6.930000 240 241 240 0
26.400000 2.860000 11.770000 240 241 240 0
26.620000 2.860000 14.520000 240 241 240 0
26.840000 2.860000 13.750000 240 241 240 0
27.060000 2.860000 9.350000 240 241 240 0
27.280000 2.860000 3.630000 240 241 240 0
27.500000 2.860000 2.090000 240 241 240 0
27.720000 2.860000 2.090000 239 240 239 0
27.940000 2.860000 2.090000 239 240 239 0
28.160000 2.860000 2.090000 239 240 239 0
28.380000 2.860000 2.090000 236 240 238 0
28.600000 2.860000 1.430000 236 240 238 0
28.820000 2.860000 0.770000 220 244 243 0
29.040000 2.860000 0.770000 217 241 240 0
29.260000 2.860000 1.540000 210 240 243 0
29.480000 2.860000 2.970000 207 237 240 0
29.700000 2.860000 2.310000 209 230 246 0
29.920000 2.860000 0.880000 203 224 240 0
30.140000 2.860000 0.990000 207 212 237 0
30.360000 2.860000 1.650000 201 206 231 0
30.580000 2.860000 1.760000 204 203 212 0
30.800000 2.860000 2.420000 197 196 205 0
31.020000 2.860000 2.420000 201 190 201 0
31.240000 2.860000 3.190000 196 185 196 0
31.460000 2.860000 7.260000 193 176 181 0
31.680000 2.860000 12.870000 191 174 179 0
31.900000 2.860000 11.440000 190 171 170 0
32.120000 2.860000 4.510000 187 168 167 0
32.340000 2.860000 1.100000 186 165 165 0
32.560000 2.860000 1.100000 184 163 163 0
32.780000 2.860000 1.210000 181 165 161 0
33.000000 2.860000 1.320000 182 166 162 0
33.220000 2.860000 4.730000 183 166 169 0
33.440000 2.860000 11.550000 186 169 172 0
33.660000 2.860000 11.440000 188 173 175 0
33.880000 2.860000 4.510000 193 178 180 0
34.100000 2.860000 1.760000 190 189 198 0
34.320000 2.860000 1.870000 198 197 206 0
34.540000 2.860000 2.530000 201 202 218 0
34.760000 2.860000 3.190000 203 204 220 0
34.980000 2.860000 2.530000 207 193 205 0
35.200000 2.860000 3.190000 192 178 190 0
35.420000 2.860000 8.140000 182 163 164 0
35.640000 2.860000 15.070000 171 152 153 0
35.860000 2.860000 17.160000 166 146 143 0
36.080000 2.860000 16.390000 161 141 138 0
36.300000 2.860000 15.620000 159 137 134 0
36.520000 2.860000 12.760000 156 134 131 0
36.740000 2.860000 8.690000 154 134 131 0
36.960000 2.860000 7.260000 157 137 134 0
37.180000 2.860000 8.030000 157 135 133 0
0.000000 3.080000 1.320000 188 235 238 0
0.220000 3.080000 1.320000 190 234 240 0
0.440000 3.080000 1.320000 190 234 240 0
0.660000 3.080000 0.550000 188 235 238 0
0.880000 3.080000 0.660000 188 235 238 0
1.100000 3.080000 0.660000 188 235 238 0
1.320000 3.080000 0.660000 187 234 237 0
1.540000 3.080000 0.440000 188 235 238 0
1.760000 3.080000 0.880000 189 236 239 0
1.980000 3.080000 0.770000 191 235 239 0
2.200000 3.080000 0.770000 190 234 238 0
2.420000 3.080000 0.330000 191 235 239 0
2.640000 3.080000 0.440000 191 235 239 0
5.940000 3.080000 0.220000 192 236 240 0
6.160000 3.080000 0.770000 192 236 240 0
6.380000 3.080000 1.540000 193 236 238 0
6.600000 3.080000 1.540000 194 237 239 0
6.820000 3.080000 2.090000 194 237 239 0
7.040000 3.080000 2.090000 193 236 238 0
7.260000 3.080000 2.090000 194 237 239 0
7.480000 3.080000 2.200000 194 237 239 0
7.700000 3.080000 2.090000 194 239 240 0
7.920000 3.080000 2.090000 193 238 239 0
8.140000 3.080000 2.090000 195 238 240 0
8.360000 3.080000 2.090000 194 237 239 0
8.580000 3.080000 2.090000 193 238 239 0
8.800000 3.080000 1.430000 194 239 240 0
9.020000 3.080000 2.090000 194 237 239 0
9.240000 3.080000 2.090000 194 237 239 0
9.460000 3.080000 2.090000 190 237 240 0
9.680000 3.080000 2.860000 191 238 241 0
9.900000 3.080000 2.860000 197 237 240 0
10.120000 3.080000 2.860000 198 238 241 0
10.340000 3.080000 2.860000 198 237 239 0
10.560000 3.080000 2.860000 199 238 240 0
10.780000 3.080000 2.860000 198 237 239 0
11.000000 3.080000 2.090000 198 237 239 0
11.220000 3.080000 2.090000 200 239 241 0
11.440000 3.080000 2.090000 201 240 242 0
11.660000 3.080000 2.090000 202 240 240 0
11.880000 3.080000 2.090000 203 241 241 0
12.100000 3.080000 2.090000 206 241 240 0
12.320000 3.080000 2.200000 206 241 240 0
12.540000 3.080000 2.200000 207 240 240 0
12.760000 3.080000 2.200000 207 240 240 0
12.980000 3.080000 2.860000 210 241 241 0
13.200000 3.080000 2.860000 210 241 241 0
13.420000 3.080000 2.860000 206 240 244 0
13.640000 3.080000 2.860000 204 238 242 0
13.860000 3.080000 3.520000 204 239 240 0
14.080000 3.080000 3.520000 204 239 240 0
14.300000 3.080000 3.520000 200 237 240 0
14.520000 3.080000 3.520000 200 237 240 0
14.740000 3.080000 3.520000 199 236 239 0
14.960000 3.080000 4.180000 200 237 240 0
15.180000 3.080000 4.290000 200 234 238 0
15.400000 3.080000 4.290000 201 235 239 0
15.620000 3.080000 4.290000 201 235 239 0
15.840000 3.080000 4.290000 201 235 239 0
16.060000 3.080000 4.290000 202 234 242 0
16.280000 3.080000 4.290000 201 233 241 0
16.500000 3.080000 4.290000 202 231 240 0
16.720000 3.080000 3.630000 200 229 238 0
16.940000 3.080000 3.080000 203 226 241 0
17.160000 3.080000 3.190000 203 226 241 0
17.380000 3.080000 2.530000 200 225 240 0
17.600000 3.080000 1.870000 199 224 239 0
17.820000 3.080000 1.210000 197 222 239 0
18.040000 3.080000 0.550000 196 221 238 0
18.260000 3.080000 0.550000 198 220 238 0
18.480000 3.080000 3.960000 197 219 237 0
18.700000 3.080000 11.660000 197 217 236 0
18.920000 3.080000 16.500000 197 217 236 0
19.140000 3.080000 17.160000 195 217 235 0
19.360000 3.080000 17.160000 195 217 235 0
19.580000 3.080000 16.500000 194 216 235 0
19.800000 3.080000 15.840000 194 216 235 0
20.020000 3.080000 15.840000 194 216 234 0
20.240000 3.080000 16.500000 193 215 233 0
20.460000 3.080000 16.390000 194 214 233 0
20.680000 3.080000 16.390000 195 215 234 0
20.900000 3.080000 16.390000 195 215 234 0
21.120000 3.080000 16.390000 195 215 234 0
21.340000 3.080000 17.050000 194 216 235 0
21.560000 3.080000 17.050000 195 217 236 0
21.780000 3.080000 17.050000 192 218 236 0
22.000000 3.080000 16.390000 192 218 236 0
22.220000 3.080000 15.730000 194 219 237 0
22.440000 3.080000 15.070000 196 221 239 0
22.660000 3.080000 15.730000 190 229 239 0
22.880000 3.080000 15.730000 195 234 244 0
23.100000 3.080000 16.390000 191 239 238 0
23.320000 3.080000 16.500000 195 243 242 0
23.540000 3.080000 17.160000 208 239 237 0
23.760000 3.080000 17.160000 211 242 240 0
23.980000 3.080000 17.160000 228 239 238 0
24.200000 3.080000 17.160000 229 240 239 0
24.420000 3.080000 17.930000 236 239 239 0
24.640000 3.080000 17.270000 237 240 240 0
24.860000 3.080000 13.090000 237 241 239 0
25.080000 3.080000 6.160000 237 241 239 0
25.300000 3.080000 1.760000 239 240 239 0
25.520000 3.080000 0.440000 239 240 239 0
26.180000 3.080000 1.210000 238 242 240 0
26.400000 3.080000 3.960000 237 241 239 0
26.620000 3.080000 5.390000 238 242 240 0
26.840000 3.080000 5.280000 238 242 240 0
27.060000 3.080000 5.170000 239 240 239 0
27.280000 3.080000 3.520000 239 240 239 0
27.500000 3.080000 2.750000 236 241 240 0
27.720000 3.080000 3.520000 235 240 239 0
27.940000 3.080000 2.750000 222 247 247 0
28.160000 3.080000 2.860000 220 245 245 0
28.380000 3.080000 2.090000 207 248 247 0
28.600000 3.080000 1.430000 205 246 245 0
28.820000 3.080000 1.430000 204 240 251 0
29.040000 3.080000 0.770000 201 237 248 0
29.260000 3.080000 0.220000 205 228 255 0
29.480000 3.080000 0.220000 200 223 250 0
29.700000 3.080000 0.990000 206 214 234 0
29.920000 3.080000 1.650000 202 210 230 0
30.140000 3.080000 2.420000 205 202 216 0
30.360000 3.080000 2.420000 200 197 211 0
30.580000 3.080000 2.420000 203 190 202 0
30.800000 3.080000 3.190000 197 184 196 0
31.020000 3.080000 3.190000 198 181 184 0
31.240000 3.080000 2.530000 194 177 180 0
31.460000 3.080000 2.530000 194 173 175 0
31.680000 3.080000 3.960000 190 169 171 0
31.900000 3.080000 3.960000 186 165 165 0
32.120000 3.080000 1.870000 184 163 163 0
32.340000 3.080000 1.210000 181 159 157 0
32.560000 3.080000 1.870000 182 160 158 0
32.780000 3.080000 1.870000 183 158 157 0
33.000000 3.080000 2.530000 183 158 157 0
33.220000 3.080000 3.190000 182 160 160 0
33.440000 3.080000 5.280000 182 160 160 0
33.660000 3.080000 4.510000 182 163 162 0
33.880000 3.080000 2.420000 187 168 167 0
34.100000 3.080000 2.420000 185 173 182 0
34.320000 3.080000 3.190000 192 180 189 0
34.540000 3.080000 3.850000 192 188 208 0
34.760000 3.080000 4.620000 196 192 212 0
34.980000 3.080000 3.850000 192 185 198 0
35.200000 3.080000 3.190000 184 177 190 0
35.420000 3.080000 6.710000 179 160 161 0
35.640000 3.080000 14.300000 173 154 155 0
35.860000 3.080000 17.160000 165 145 142 0
36.080000 3.080000 15.730000 161 141 138 0
36.300000 3.080000 14.960000 159 137 135 0
36.520000 3.080000 12.100000 155 133 131 0
36.740000 3.080000 9.350000 155 133 130 0
36.960000 3.080000 7.260000 157 135 132 0
37.180000 3.080000 7.260000 157 135 132 0
0.000000 3.300000 1.320000 189 236 239 0
0.220000 3.300000 1.320000 190 234 240 0
0.440000 3.300000 1.320000 190 234 240 0
0.660000 3.300000 0.660000 189 236 239 0
0.880000 3.300000 0.660000 189 236 239 0
1.100000 3.300000 0.660000 189 236 239 0
1.320000 3.300000 0.660000 189 236 239 0
1.540000 3.300000 0.550000 189 236 239 0
1.760000 3.300000 0.880000 189 236 239 0
1.980000 3.300000 1.430000 190 234 238 0
2.200000 3.300000 1.540000 191 235 239 0
2.420000 3.300000 0.990000 192 236 240 0
2.640000 3.300000 0.550000 192 236 240 0
5.280000 3.300000 0.220000 194 237 239 0
5.500000 3.300000 0.220000 194 237 239 0
5.720000 3.300000 0.880000 193 236 238 0
5.940000 3.300000 0.770000 192 236 240 0
6.160000 3.300000 1.430000 192 236 240 0
6.380000 3.300000 2.090000 193 236 238 0
6.600000 3.300000 2.090000 194 237 239 0
6.820000 3.300000 2.090000 194 237 239 0
7.040000 3.300000 2.090000 194 237 239 0
7.260000 3.300000 2.090000 194 237 239 0
7.480000 3.300000 2.090000 194 237 239 0
7.700000 3.300000 2.750000 192 237 238 0
7.920000 3.300000 2.750000 192 237 238 0
8.140000 3.300000 2.090000 193 236 238 0
8.360000 3.300000 2.090000 194 237 239 0
8.580000 3.300000 2.090000 192 237 238 0
8.800000 3.300000 2.090000 192 237 238 0
9.020000 3.300000 2.090000 194 237 239 0
9.240000 3.300000 2.090000 194 237 239 0
9.460000 3.300000 2.860000 190 237 240 0
9.680000 3.300000 2.860000 190 237 240 0
9.900000 3.300000 2.860000 197 237 240 0
10.120000 3.300000 3.520000 197 237 240 0
10.340000 3.300000 3.520000 198 237 239 0
10.560000 3.300000 2.860000 199 238 240 0
10.780000 3.300000 2.860000 199 238 240 0
11.000000 3.300000 2.090000 200 239 241 0
11.220000 3.300000 2.090000 200 239 241 0
11.440000 3.300000 2.090000 200 239 241 0
11.660000 3.300000 2.090000 202 240 240 0
11.880000 3.300000 2.090000 203 241 241 0
12.100000 3.300000 2.090000 205 240 239 0
12.320000 3.300000 2.200000 205 240 239 0
12.540000 3.300000 2.200000 206 239 239 0
12.760000 3.300000 2.860000 207 240 240 0
12.980000 3.300000 2.860000 210 241 241 0
13.200000 3.300000 2.860000 209 240 240 0
13.420000 3.300000 2.860000 205 239 243 0
13.640000 3.300000 2.860000 204 238 242 0
13.860000 3.300000 3.520000 204 239 240 0
14.080000 3.300000 3.520000 203 238 239 0
14.300000 3.300000 3.520000 200 237 240 0
14.520000 3.300000 3.520000 200 237 240 0
14.740000 3.300000 3.520000 200 237 240 0
14.960000 3.300000 4.180000 200 237 240 0
15.180000 3.300000 4.290000 202 236 240 0
15.400000 3.300000 4.290000 203 237 241 0
15.620000 3.300000 4.290000 202 236 240 0
15.840000 3.300000 4.290000 201 235 239 0
16.060000 3.300000 4.290000 202 234 242 0
16.280000 3.300000 4.290000 199 231 239 0
16.500000 3.300000 4.290000 201 230 239 0
16.720000 3.300000 3.630000 200 229 238 0
16.940000 3.300000 2.970000 203 226 241 0
17.160000 3.300000 2.530000 202 225 240 0
17.380000 3.300000 1.870000 199 224 239 0
17.600000 3.300000 1.210000 199 224 239 0
17.820000 3.300000 0.550000 197 222 239 0
18.040000 3.300000 0.550000 196 221 238 0
18.260000 3.300000 1.320000 197 219 237 0
18.480000 3.300000 7.480000 197 219 237 0
18.700000 3.300000 15.070000 196 216 235 0
18.920000 3.300000 17.930000 196 216 235 0
19.140000 3.300000 17.930000 196 218 236 0
19.360000 3.300000 17.160000 194 216 234 0
19.580000 3.300000 16.500000 193 215 234 0
19.800000 3.300000 15.840000 193 215 234 0
20.020000 3.300000 15.840000 193 215 233 0
20.240000 3.300000 16.500000 193 215 233 0
20.460000 3.300000 16.390000 195 215 234 0
20.680000 3.300000 16.390000 195 215 234 0
20.900000 3.300000 16.390000 196 216 235 0
21.120000 3.300000 16.390000 195 215 234 0
21.340000 3.300000 16.390000 193 215 234 0
21.560000 3.300000 17.050000 194 216 235 0
21.780000 3.300000 17.050000 191 217 235 0
22.000000 3.300000 17.160000 191 217 235 0
22.220000 3.300000 16.390000 193 218 236 0
22.440000 3.300000 15.730000 194 219 237 0
22.660000 3.300000 15.730000 189 228 238 0
22.880000 3.300000 16.390000 194 233 243 0
23.100000 3.300000 16.390000 191 239 238 0
23.320000 3.300000 17.160000 193 241 240 0
23.540000 3.300000 17.160000 208 239 237 0
23.760000 3.300000 17.820000 210 241 239 0
23.980000 3.300000 17.160000 226 237 236 0
24.200000 3.300000 17.930000 228 239 238 0
24.420000 3.300000 18.590000 235 238 238 0
24.640000 3.300000 15.180000 235 238 238 0
24.860000 3.300000 6.930000 236 240 238 0
25.080000 3.300000 1.320000 237 241 239 0
25.300000 3.300000 0.550000 239 240 239 0
25.520000 3.300000 0.550000 239 240 239 0
25.740000 3.300000 0.660000 237 241 239 0
25.960000 3.300000 0.550000 237 241 239 0
26.180000 3.300000 0.990000 237 241 239 0
26.400000 3.300000 1.540000 237 241 239 0
26.620000 3.300000 1.540000 237 241 239 0
26.840000 3.300000 2.200000 237 241 239 0
27.060000 3.300000 2.860000 239 240 239 0
27.280000 3.300000 3.520000 239 240 239 0
27.500000 3.300000 4.180000 235 240 239 0
27.720000 3.300000 4.180000 233 238 237 0
27.940000 3.300000 3.520000 218 243 243 0
28.160000 3.300000 3.520000 215 240 240 0
28.380000 3.300000 2.860000 202 243 242 0
28.600000 3.300000 2.200000 200 241 240 0
28.820000 3.300000 1.540000 199 235 246 0
29.040000 3.300000 0.880000 193 229 240 0
29.260000 3.300000 0.880000 195 218 245 0
29.480000 3.300000 1.650000 186 209 236 0
29.700000 3.300000 1.650000 195 203 223 0
29.920000 3.300000 2.420000 192 200 220 0
30.140000 3.300000 3.080000 195 192 206 0
30.360000 3.300000 3.190000 191 188 202 0
30.580000 3.300000 3.850000 191 178 190 0
30.800000 3.300000 3.850000 189 176 188 0
31.020000 3.300000 3.850000 190 173 176 0
31.240000 3.300000 3.190000 184 167 170 0
31.460000 3.300000 2.530000 186 165 167 0
31.680000 3.300000 1.210000 183 162 164 0
31.900000 3.300000 1.210000 180 159 159 0
32.120000 3.300000 1.980000 178 157 157 0
32.340000 3.300000 2.640000 177 155 153 0
32.560000 3.300000 3.300000 178 156 154 0
32.780000 3.300000 3.850000 180 155 154 0
33.000000 3.300000 3.850000 179 154 153 0
33.220000 3.300000 3.740000 178 156 156 0
33.440000 3.300000 2.310000 178 156 156 0
33.660000 3.300000 0.990000 178 159 158 0
33.880000 3.300000 1.650000 180 161 160 0
34.100000 3.300000 2.420000 178 166 175 0
34.320000 3.300000 3.850000 183 171 180 0
34.540000 3.300000 4.510000 182 178 198 0
34.760000 3.300000 5.280000 183 179 199 0
34.980000 3.300000 5.280000 184 177 190 0
35.200000 3.300000 4.620000 178 171 184 0
35.420000 3.300000 7.370000 178 159 160 0
35.640000 3.300000 14.300000 168 149 150 0
35.860000 3.300000 17.820000 162 142 139 0
36.080000 3.300000 16.390000 159 139 136 0
36.300000 3.300000 14.960000 157 135 133 0
36.520000 3.300000 12.210000 154 132 130 0
36.740000 3.300000 9.350000 153 131 128 0
36.960000 3.300000 7.260000 155 133 130 0
37.180000 3.300000 7.260000 156 134 131 0
0.000000 3.520000 1.320000 191 235 239 0
0.220000 3.520000 1.320000 188 235 240 0
0.440000 3.520000 1.320000 188 235 240 0
0.660000 3.520000 0.660000 189 236 239 0
0.880000 3.520000 0.660000 189 236 239 0
1.100000 3.520000 0.660000 190 234 238 0
1.320000 3.520000 0.660000 190 234 238 0
1.540000 3.520000 0.550000 187 236 238 0
1.760000 3.520000 0.880000 187 236 238 0
1.980000 3.520000 1.430000 192 235 239 0
2.200000 3.520000 1.540000 192 235 239 0
2.420000 3.520000 1.100000 189 236 239 0
2.640000 3.520000 0.550000 188 235 238 0
2.860000 3.520000 0.550000 190 234 238 0
3.080000 3.520000 0.550000 191 235 239 0
4.840000 3.520000 0.440000 191 235 239 0
5.060000 3.520000 0.880000 192 237 238 0
5.280000 3.520000 0.770000 192 237 238 0
5.500000 3.520000 1.430000 192 236 240 0
5.720000 3.520000 1.430000 191 235 239 0
5.940000 3.520000 1.430000 190 234 238 0
6.160000 3.520000 2.090000 190 234 238 0
6.380000 3.520000 2.090000 190 235 236 0
6.600000 3.520000 2.090000 192 237 238 0
6.820000 3.520000 2.090000 191 236 237 0
7.040000 3.520000 2.090000 192 237 238 0
7.260000 3.520000 2.750000 193 236 238 0
7.480000 3.520000 2.750000 193 236 238 0
7.700000 3.520000 2.750000 193 236 238 0
7.920000 3.520000 2.750000 193 236 238 0
8.140000 3.520000 2.750000 192 237 238 0
8.360000 3.520000 2.090000 192 237 238 0
8.580000 3.520000 2.090000 192 237 238 0
8.800000 3.520000 2.090000 191 236 237 0
9.020000 3.520000 2.090000 195 236 237 0
9.240000 3.520000 2.090000 195 236 237 0
9.460000 3.520000 2.860000 195 236 237 0
9.680000 3.520000 2.860000 195 236 237 0
9.900000 3.520000 2.860000 198 237 239 0
10.120000 3.520000 3.520000 198 237 239 0
10.340000 3.520000 3.520000 199 238 238 0
10.560000 3.520000 2.860000 199 238 238 0
10.780000 3.520000 2.860000 201 239 239 0
11.000000 3.520000 2.200000 201 239 239 0
11.220000 3.520000 2.200000 201 238 241 0
11.440000 3.520000 2.200000 201 238 241 0
11.660000 3.520000 1.430000 201 239 239 0
11.880000 3.520000 2.200000 201 239 239 0
12.100000 3.520000 2.200000 201 240 240 0
12.320000 3.520000 2.200000 201 240 240 0
12.540000 3.520000 2.860000 202 240 240 0
12.760000 3.520000 2.860000 203 241 241 0
12.980000 3.520000 3.630000 206 239 241 0
13.200000 3.520000 3.630000 205 238 240 0
13.420000 3.520000 2.860000 204 237 239 0
13.640000 3.520000 2.970000 204 237 239 0
13.860000 3.520000 2.860000 201 238 241 0
14.080000 3.520000 3.520000 200 237 240 0
14.300000 3.520000 2.860000 199 238 238 0
14.520000 3.520000 2.860000 199 238 238 0
14.740000 3.520000 3.520000 200 237 240 0
14.960000 3.520000 3.520000 200 237 240 0
15.180000 3.520000 4.290000 201 238 241 0
15.400000 3.520000 4.290000 200 237 240 0
15.620000 3.520000 3.630000 199 236 239 0
15.840000 3.520000 3.630000 199 236 239 0
16.060000 3.520000 3.740000 201 233 241 0
16.280000 3.520000 3.740000 199 231 239 0
16.500000 3.520000 3.630000 200 229 240 0
16.720000 3.520000 2.970000 199 228 239 0
16.940000 3.520000 2.420000 199 224 239 0
17.160000 3.520000 2.530000 200 225 240 0
17.380000 3.520000 1.980000 198 223 240 0
17.600000 3.520000 1.320000 197 222 239 0
17.820000 3.520000 0.550000 197 219 237 0
18.040000 3.520000 0.660000 197 219 237 0
18.260000 3.520000 4.070000 196 218 236 0
18.480000 3.520000 12.320000 195 217 235 0
18.700000 3.520000 17.160000 195 217 235 0
18.920000 3.520000 18.590000 195 217 235 0
19.140000 3.520000 18.590000 195 217 236 0
19.360000 3.520000 17.930000 194 216 235 0
19.580000 3.520000 16.500000 194 214 234 0
19.800000 3.520000 15.840000 194 214 234 0
20.020000 3.520000 15.840000 194 214 234 0
20.240000 3.520000 16.500000 194 214 234 0
20.460000 3.520000 16.390000 194 214 233 0
20.680000 3.520000 16.390000 195 215 234 0
20.900000 3.520000 16.390000 194 216 234 0
21.120000 3.520000 16.390000 194 216 234 0
21.340000 3.520000 16.390000 195 215 235 0
21.560000 3.520000 17.050000 194 214 234 0
21.780000 3.520000 17.820000 194 214 234 0
22.000000 3.520000 18.480000 194 214 234 0
22.220000 3.520000 17.820000 196 218 236 0
22.440000 3.520000 17.160000 198 220 238 0
22.660000 3.520000 17.160000 185 229 237 0
22.880000 3.520000 17.160000 189 233 241 0
23.100000 3.520000 17.820000 186 240 238 0
23.320000 3.520000 17.820000 186 240 238 0
23.540000 3.520000 17.820000 200 239 239 0
23.760000 3.520000 17.820000 202 241 241 0
23.980000 3.520000 17.930000 210 241 241 0
24.200000 3.520000 17.160000 212 243 243 0
24.420000 3.520000 15.180000 220 241 241 0
24.640000 3.520000 11.000000 221 242 242 0
24.860000 3.520000 3.410000 226 241 241 0
25.080000 3.520000 0.660000 227 242 242 0
25.300000 3.520000 0.660000 234 239 238 0
25.520000 3.520000 1.320000 235 240 239 0
25.740000 3.520000 1.320000 235 240 239 0
25.960000 3.520000 1.100000 235 240 239 0
26.180000 3.520000 2.200000 236 240 238 0
26.400000 3.520000 2.750000 237 241 239 0
26.620000 3.520000 3.520000 227 242 240 0
26.840000 3.520000 4.180000 227 242 240 0
27.060000 3.520000 4.180000 219 244 243 0
27.280000 3.520000 4.180000 218 243 242 0
27.500000 3.520000 4.180000 207 247 244 0
27.720000 3.520000 4.180000 204 244 241 0
27.940000 3.520000 4.180000 189 246 250 0
28.160000 3.520000 3.520000 186 243 247 0
28.380000 3.520000 2.860000 191 235 255 0
28.600000 3.520000 2.200000 186 230 252 0
28.820000 3.520000 1.540000 193 218 246 0
29.040000 3.520000 1.650000 186 211 239 0
29.260000 3.520000 2.310000 190 204 225 0
29.480000 3.520000 2.420000 185 199 220 0
29.700000 3.520000 3.080000 190 191 207 0
29.920000 3.520000 3.080000 186 187 203 0
30.140000 3.520000 3.850000 192 180 195 0
30.360000 3.520000 3.850000 188 176 191 0
30.580000 3.520000 3.850000 188 173 175 0
30.800000 3.520000 3.850000 184 169 171 0
31.020000 3.520000 3.960000 184 165 164 0
31.240000 3.520000 3.300000 181 162 161 0
31.460000 3.520000 3.300000 182 157 158 0
31.680000 3.520000 2.640000 181 156 157 0
31.900000 3.520000 2.640000 177 155 155 0
32.120000 3.520000 2.640000 177 155 155 0
32.340000 3.520000 3.410000 177 152 151 0
32.560000 3.520000 4.070000 175 150 149 0
