ply
format ascii 1.0
element vertex 1165
property float x
property float y
property float z
property uchar red
property uchar green
property uchar blue
property uchar alpha
end_header
33.880000 9.240000 2.090000 237 240 240 0
34.100000 9.240000 2.200000 237 240 240 0
34.320000 9.240000 2.200000 239 240 239 0
34.540000 9.240000 1.540000 240 241 240 0
34.760000 9.240000 2.310000 240 241 240 0
34.980000 9.240000 2.310000 240 241 240 0
35.200000 9.240000 1.650000 238 242 240 0
35.420000 9.240000 2.420000 238 242 240 0
35.640000 9.240000 3.080000 240 241 240 0
35.860000 9.240000 3.190000 240 241 240 0
36.080000 9.240000 2.530000 240 241 240 0
36.300000 9.240000 2.420000 240 241 240 0
36.520000 9.240000 3.190000 240 241 240 0
36.740000 9.240000 3.190000 240 241 240 0
36.960000 9.240000 3.190000 240 241 240 0
37.180000 9.240000 3.300000 240 241 240 0
0.000000 9.460000 3.630000 127 97 90 0
0.220000 9.460000 4.290000 126 96 89 0
0.440000 9.460000 4.290000 125 95 90 0
0.660000 9.460000 4.290000 125 95 90 0
0.880000 9.460000 4.290000 126 95 88 0
1.100000 9.460000 4.290000 125 94 87 0
1.320000 9.460000 5.060000 124 94 87 0
1.540000 9.460000 4.400000 124 94 87 0
1.760000 9.460000 3.850000 124 94 87 0
1.980000 9.460000 2.420000 124 94 87 0
2.200000 9.460000 2.530000 126 95 88 0
2.420000 9.460000 3.300000 124 93 86 0
2.640000 9.460000 4.070000 124 93 86 0
2.860000 9.460000 4.070000 124 93 86 0
3.080000 9.460000 4.070000 127 93 86 0
3.300000 9.460000 4.070000 125 91 84 0
3.520000 9.460000 4.070000 124 90 83 0
3.740000 9.460000 4.730000 123 89 82 0
3.960000 9.460000 5.390000 124 88 83 0
4.180000 9.460000 6.050000 122 86 81 0
4.400000 9.460000 6.050000 123 87 82 0
4.620000 9.460000 5.390000 122 86 81 0
4.840000 9.460000 6.160000 125 87 79 0
5.060000 9.460000 6.160000 126 88 80 0
5.280000 9.460000 6.820000 123 88 81 0
5.500000 9.460000 6.820000 123 88 81 0
5.720000 9.460000 6.820000 124 88 83 0
5.940000 9.460000 6.820000 124 88 83 0
6.160000 9.460000 6.160000 125 87 82 0
6.380000 9.460000 6.710000 127 89 84 0
6.600000 9.460000 7.150000 128 89 81 0
6.820000 9.460000 7.700000 131 92 84 0
7.040000 9.460000 8.360000 134 92 88 0
7.260000 9.460000 8.360000 137 95 91 0
7.480000 9.460000 9.020000 141 97 93 0
7.700000 9.460000 9.020000 142 98 94 0
7.920000 9.460000 9.020000 139 101 96 0
8.140000 9.460000 8.360000 142 104 99 0
8.360000 9.460000 8.360000 150 104 99 0
8.580000 9.460000 7.700000 152 106 101 0
8.800000 9.460000 7.040000 158 104 99 0
9.020000 9.460000 6.490000 155 101 96 0
9.240000 9.460000 6.050000 158 96 92 0
9.460000 9.460000 6.160000 154 92 88 0
9.680000 9.460000 5.390000 157 91 88 0
9.900000 9.460000 5.500000 155 89 86 0
10.120000 9.460000 5.390000 156 92 88 0
10.340000 9.460000 5.390000 155 91 87 0
10.560000 9.460000 5.390000 153 93 90 0
10.780000 9.460000 5.390000 152 92 89 0
11.000000 9.460000 6.050000 157 91 88 0
11.220000 9.460000 5.940000 159 93 90 0
11.440000 9.460000 6.380000 159 93 90 0
11.660000 9.460000 6.930000 161 95 92 0
11.880000 9.460000 7.700000 160 94 90 0
12.100000 9.460000 7.700000 160 94 90 0
12.320000 9.460000 7.040000 159 93 90 0
12.540000 9.460000 7.040000 159 93 90 0
12.760000 9.460000 6.380000 158 92 88 0
12.980000 9.460000 6.380000 157 91 87 0
13.200000 9.460000 6.380000 157 88 86 0
13.420000 9.460000 6.490000 156 87 85 0
13.640000 9.460000 5.940000 156 86 83 0
13.860000 9.460000 5.280000 155 85 82 0
14.080000 9.460000 4.620000 155 85 82 0
14.300000 9.460000 4.620000 155 85 82 0
14.520000 9.460000 4.070000 154 84 81 0
14.740000 9.460000 3.960000 153 83 80 0
14.960000 9.460000 3.960000 153 81 80 0
15.180000 9.460000 3.300000 154 82 81 0
15.400000 9.460000 3.300000 152 80 78 0
15.620000 9.460000 2.640000 154 82 80 0
15.840000 9.460000 2.640000 155 80 79 0
16.060000 9.460000 3.300000 154 79 78 0
16.280000 9.460000 3.300000 154 79 78 0
16.500000 9.460000 2.530000 152 77 76 0
16.720000 9.460000 2.530000 154 77 78 0
16.940000 9.460000 2.530000 153 76 77 0
17.160000 9.460000 2.530000 153 77 76 0
17.380000 9.460000 2.530000 152 76 75 0
17.600000 9.460000 1.210000 152 75 76 0
17.820000 9.460000 0.550000 151 74 75 0
18.040000 9.460000 1.210000 152 75 76 0
18.260000 9.460000 1.870000 150 73 74 0
18.480000 9.460000 1.870000 152 75 76 0
18.700000 9.460000 1.210000 151 74 75 0
18.920000 9.460000 1.210000 152 76 75 0
19.140000 9.460000 1.870000 151 75 74 0
19.360000 9.460000 2.530000 152 75 76 0
19.580000 9.460000 1.870000 151 74 75 0
19.800000 9.460000 1.210000 150 73 74 0
20.020000 9.460000 1.210000 151 74 75 0
20.240000 9.460000 1.870000 148 71 72 0
20.460000 9.460000 1.980000 149 72 73 0
20.680000 9.460000 1.980000 148 71 72 0
20.900000 9.460000 2.640000 149 72 73 0
21.120000 9.460000 3.300000 149 72 73 0
21.340000 9.460000 3.960000 147 70 71 0
21.560000 9.460000 3.960000 148 71 72 0
21.780000 9.460000 4.070000 148 71 72 0
22.000000 9.460000 3.410000 147 70 71 0
22.220000 9.460000 3.410000 148 71 72 0
22.440000 9.460000 4.070000 148 71 72 0
22.660000 9.460000 4.730000 148 71 72 0
22.880000 9.460000 5.390000 148 71 74 0
23.100000 9.460000 6.160000 148 71 74 0
23.320000 9.460000 5.500000 148 71 72 0
23.540000 9.460000 5.500000 149 72 73 0
23.760000 9.460000 6.050000 149 72 73 0
23.980000 9.460000 6.600000 148 71 72 0
24.200000 9.460000 5.170000 148 71 72 0
24.420000 9.460000 4.510000 148 71 72 0
24.640000 9.460000 3.850000 150 73 76 0
24.860000 9.460000 3.190000 148 71 74 0
25.080000 9.460000 3.190000 149 72 73 0
25.300000 9.460000 3.850000 149 72 73 0
25.520000 9.460000 4.510000 150 75 75 0
25.740000 9.460000 5.280000 150 75 75 0
25.960000 9.460000 5.940000 149 74 74 0
26.180000 9.460000 6.710000 150 75 75 0
26.400000 9.460000 8.030000 150 78 77 0
26.620000 9.460000 10.230000 158 86 85 0
26.840000 9.460000 11.000000 154 112 111 0
27.060000 9.460000 11.000000 169 127 126 0
27.280000 9.460000 12.210000 167 145 143 0
27.500000 9.460000 11.220000 181 159 157 0
27.720000 9.460000 5.610000 185 173 172 0
27.940000 9.460000 1.430000 194 182 181 0
28.160000 9.460000 6.270000 196 185 186 0
28.380000 9.460000 15.950000 196 185 186 0
28.600000 9.460000 19.470000 192 181 182 0
28.820000 9.460000 14.630000 187 176 177 0
29.040000 9.460000 7.700000 184 178 177 0
29.260000 9.460000 9.130000 184 178 177 0
29.480000 9.460000 15.950000 182 184 191 0
29.700000 9.460000 20.130000 185 187 194 0
29.920000 9.460000 15.400000 176 199 212 0
30.140000 9.460000 5.280000 181 204 217 0
30.360000 9.460000 1.210000 176 212 231 0
30.580000 9.460000 1.870000 184 220 239 0
30.800000 9.460000 1.870000 177 232 234 0
31.020000 9.460000 1.870000 184 239 241 0
31.240000 9.460000 2.640000 202 235 235 0
31.460000 9.460000 7.480000 206 239 239 0
31.680000 9.460000 15.180000 229 237 235 0
31.900000 9.460000 17.930000 232 240 238 0
32.120000 9.460000 17.930000 237 240 240 0
32.340000 9.460000 17.270000 237 240 240 0
32.560000 9.460000 13.090000 239 240 239 0
32.780000 9.460000 6.820000 239 240 239 0
33.000000 9.460000 5.060000 237 240 240 0
33.220000 9.460000 4.950000 235 238 238 0
33.440000 9.460000 2.750000 230 238 236 0
33.660000 9.460000 1.430000 232 240 238 0
33.880000 9.460000 2.200000 236 239 239 0
34.100000 9.460000 1.540000 237 240 240 0
34.320000 9.460000 1.540000 239 240 239 0
34.540000 9.460000 1.650000 240 241 240 0
34.760000 9.460000 1.650000 240 241 240 0
34.980000 9.460000 1.650000 240 241 240 0
35.200000 9.460000 1.100000 238 242 240 0
35.420000 9.460000 1.870000 238 242 240 0
35.640000 9.460000 2.530000 240 241 240 0
35.860000 9.460000 2.530000 240 241 240 0
36.080000 9.460000 1.870000 240 241 240 0
36.300000 9.460000 2.530000 240 241 240 0
36.520000 9.460000 3.190000 240 241 240 0
36.740000 9.460000 3.190000 240 241 240 0
36.960000 9.460000 2.530000 240 241 240 0
37.180000 9.460000 2.640000 240 241 240 0
0.000000 9.680000 3.630000 126 96 91 0
0.220000 9.680000 4.290000 125 95 90 0
0.440000 9.680000 4.290000 126 94 90 0
0.660000 9.680000 4.290000 125 93 89 0
0.880000 9.680000 4.290000 124 94 87 0
1.100000 9.680000 4.400000 124 94 87 0
1.320000 9.680000 4.400000 124 93 86 0
1.540000 9.680000 4.510000 123 92 85 0
1.760000 9.680000 3.080000 125 94 87 0
1.980000 9.680000 2.530000 125 94 87 0
2.200000 9.680000 3.300000 127 91 86 0
2.420000 9.680000 3.300000 127 91 86 0
2.640000 9.680000 4.070000 124 93 86 0
2.860000 9.680000 4.070000 125 94 87 0
3.080000 9.680000 4.070000 125 91 85 0
3.300000 9.680000 4.070000 126 92 86 0
3.520000 9.680000 4.730000 125 91 85 0
3.740000 9.680000 5.390000 124 90 84 0
3.960000 9.680000 5.390000 126 88 83 0
4.180000 9.680000 6.050000 125 87 82 0
4.400000 9.680000 6.050000 122 86 81 0
4.620000 9.680000 6.160000 122 86 81 0
4.840000 9.680000 6.160000 122 86 81 0
5.060000 9.680000 6.710000 122 86 81 0
5.280000 9.680000 7.370000 124 86 80 0
5.500000 9.680000 7.370000 125 87 81 0
5.720000 9.680000 7.370000 126 86 81 0
5.940000 9.680000 7.370000 127 87 82 0
6.160000 9.680000 7.370000 128 86 82 0
6.380000 9.680000 7.810000 129 87 83 0
6.600000 9.680000 8.360000 135 89 84 0
6.820000 9.680000 8.360000 138 92 87 0
7.040000 9.680000 9.130000 140 96 92 0
7.260000 9.680000 9.790000 142 98 94 0
7.480000 9.680000 9.790000 145 99 96 0
7.700000 9.680000 9.130000 147 101 98 0
7.920000 9.680000 8.360000 146 104 101 0
8.140000 9.680000 7.700000 148 106 103 0
8.360000 9.680000 7.700000 160 101 100 0
8.580000 9.680000 7.150000 160 101 100 0
8.800000 9.680000 6.600000 162 98 94 0
9.020000 9.680000 6.050000 159 95 91 0
9.240000 9.680000 5.390000 156 92 88 0
9.460000 9.680000 5.390000 156 92 88 0
9.680000 9.680000 5.390000 156 90 87 0
9.900000 9.680000 4.730000 156 90 87 0
10.120000 9.680000 4.730000 156 92 88 0
10.340000 9.680000 5.390000 155 91 87 0
10.560000 9.680000 4.730000 156 92 88 0
10.780000 9.680000 5.390000 157 93 89 0
11.000000 9.680000 5.830000 158 92 88 0
11.220000 9.680000 5.720000 160 94 90 0
11.440000 9.680000 6.270000 161 92 90 0
11.660000 9.680000 6.930000 161 92 90 0
11.880000 9.680000 6.930000 161 92 90 0
12.100000 9.680000 7.040000 160 91 89 0
12.320000 9.680000 7.040000 160 91 89 0
12.540000 9.680000 6.380000 158 89 87 0
12.760000 9.680000 5.720000 158 88 85 0
12.980000 9.680000 5.830000 157 87 84 0
13.200000 9.680000 5.170000 157 87 85 0
13.420000 9.680000 5.280000 155 85 83 0
13.640000 9.680000 4.510000 155 83 82 0
13.860000 9.680000 3.850000 156 84 83 0
14.080000 9.680000 3.190000 156 81 80 0
14.300000 9.680000 3.300000 157 82 81 0
14.520000 9.680000 3.300000 157 82 81 0
14.740000 9.680000 3.300000 156 81 80 0
14.960000 9.680000 3.300000 155 80 79 0
15.180000 9.680000 2.640000 154 79 78 0
15.400000 9.680000 2.640000 154 79 79 0
15.620000 9.680000 2.640000 154 79 79 0
15.840000 9.680000 2.640000 154 78 77 0
16.060000 9.680000 2.640000 154 78 77 0
16.280000 9.680000 2.640000 153 77 76 0
16.500000 9.680000 2.530000 153 77 76 0
16.720000 9.680000 1.870000 153 77 76 0
16.940000 9.680000 1.870000 153 77 76 0
17.160000 9.680000 1.870000 152 75 76 0
17.380000 9.680000 1.870000 151 74 75 0
17.600000 9.680000 1.210000 152 75 76 0
17.820000 9.680000 1.210000 151 74 75 0
18.040000 9.680000 1.210000 152 75 76 0
18.260000 9.680000 1.870000 150 73 74 0
18.480000 9.680000 1.870000 153 74 74 0
18.700000 9.680000 1.210000 152 73 73 0
18.920000 9.680000 0.550000 151 74 75 0
19.140000 9.680000 1.210000 151 74 75 0
19.360000 9.680000 1.870000 150 73 74 0
19.580000 9.680000 1.870000 150 73 74 0
19.800000 9.680000 1.210000 152 73 74 0
20.020000 9.680000 1.210000 152 73 74 0
20.240000 9.680000 1.870000 151 72 73 0
20.460000 9.680000 1.980000 151 72 73 0
20.680000 9.680000 2.640000 148 71 72 0
20.900000 9.680000 2.640000 148 71 72 0
21.120000 9.680000 3.960000 148 71 72 0
21.340000 9.680000 4.730000 148 71 72 0
21.560000 9.680000 4.730000 147 70 73 0
21.780000 9.680000 4.070000 146 69 72 0
22.000000 9.680000 4.070000 147 70 71 0
22.220000 9.680000 3.410000 148 71 72 0
22.440000 9.680000 4.070000 147 70 71 0
22.660000 9.680000 4.730000 147 70 71 0
22.880000 9.680000 5.500000 148 71 72 0
23.100000 9.680000 6.160000 148 71 72 0
23.320000 9.680000 6.160000 149 72 75 0
23.540000 9.680000 6.050000 148 71 74 0
23.760000 9.680000 6.600000 147 70 71 0
23.980000 9.680000 6.490000 148 71 72 0
24.200000 9.680000 5.280000 147 70 71 0
24.420000 9.680000 3.850000 149 72 73 0
24.640000 9.680000 3.850000 149 72 73 0
24.860000 9.680000 3.850000 148 71 72 0
25.080000 9.680000 3.850000 150 73 76 0
25.300000 9.680000 4.510000 149 72 75 0
25.520000 9.680000 5.940000 151 74 75 0
25.740000 9.680000 7.370000 150 73 74 0
25.960000 9.680000 8.690000 148 76 75 0
26.180000 9.680000 10.780000 149 77 76 0
26.400000 9.680000 12.210000 141 89 88 0
26.620000 9.680000 12.320000 155 103 102 0
26.840000 9.680000 11.660000 152 128 125 0
27.060000 9.680000 12.980000 169 145 142 0
27.280000 9.680000 12.760000 171 159 158 0
27.500000 9.680000 8.360000 181 169 168 0
27.720000 9.680000 3.520000 188 178 182 0
27.940000 9.680000 2.860000 192 182 186 0
28.160000 9.680000 8.360000 193 184 184 0
28.380000 9.680000 16.610000 192 183 183 0
28.600000 9.680000 18.040000 190 175 173 0
28.820000 9.680000 13.860000 189 174 172 0
29.040000 9.680000 13.970000 188 177 178 0
29.260000 9.680000 15.950000 187 176 177 0
29.480000 9.680000 18.040000 180 186 195 0
29.700000 9.680000 19.470000 183 189 198 0
29.920000 9.680000 15.400000 175 200 217 0
30.140000 9.680000 5.940000 180 205 222 0
30.360000 9.680000 1.210000 172 217 231 0
30.580000 9.680000 1.870000 178 223 237 0
30.800000 9.680000 2.640000 183 230 231 0
31.020000 9.680000 1.980000 191 238 239 0
31.240000 9.680000 2.640000 203 236 238 0
31.460000 9.680000 7.480000 207 240 242 0
31.680000 9.680000 14.410000 217 241 240 0
31.900000 9.680000 17.270000 219 243 242 0
32.120000 9.680000 17.270000 223 244 244 0
32.340000 9.680000 17.930000 224 245 245 0
32.560000 9.680000 17.930000 219 247 246 0
32.780000 9.680000 15.620000 217 245 244 0
33.000000 9.680000 15.290000 214 245 245 0
33.220000 9.680000 13.200000 213 244 244 0
33.440000 9.680000 6.930000 218 242 241 0
33.660000 9.680000 2.090000 218 242 241 0
33.880000 9.680000 1.430000 233 238 237 0
34.100000 9.680000 1.540000 235 240 239 0
34.320000 9.680000 0.880000 239 240 239 0
34.540000 9.680000 0.990000 239 240 239 0
34.760000 9.680000 0.990000 240 241 240 0
34.980000 9.680000 1.100000 240 241 240 0
35.200000 9.680000 0.440000 240 241 240 0
35.420000 9.680000 1.210000 240 241 240 0
35.640000 9.680000 1.870000 240 241 240 0
35.860000 9.680000 1.870000 240 241 240 0
36.080000 9.680000 1.100000 240 241 240 0
36.300000 9.680000 2.420000 240 241 240 0
36.520000 9.680000 2.530000 240 241 240 0
36.740000 9.680000 2.530000 240 241 240 0
36.960000 9.680000 2.530000 238 242 240 0
37.180000 9.680000 2.640000 238 242 240 0
0.000000 9.900000 3.630000 126 96 91 0
0.220000 9.900000 4.290000 126 96 91 0
0.440000 9.900000 4.290000 125 93 89 0
0.660000 9.900000 4.290000 125 93 89 0
0.880000 9.900000 4.290000 123 93 86 0
1.100000 9.900000 4.400000 123 93 86 0
1.320000 9.900000 4.400000 125 94 87 0
1.540000 9.900000 4.510000 124 93 86 0
1.760000 9.900000 3.850000 125 94 87 0
1.980000 9.900000 3.190000 124 93 86 0
2.200000 9.900000 3.300000 127 91 86 0
2.420000 9.900000 3.300000 126 90 85 0
2.640000 9.900000 4.070000 124 93 86 0
2.860000 9.900000 4.070000 123 92 85 0
3.080000 9.900000 4.070000 125 91 85 0
3.300000 9.900000 4.730000 125 91 85 0
3.520000 9.900000 4.730000 124 90 84 0
3.740000 9.900000 5.390000 123 89 83 0
3.960000 9.900000 6.050000 126 88 83 0
4.180000 9.900000 6.050000 125 87 82 0
4.400000 9.900000 6.050000 123 87 82 0
4.620000 9.900000 6.050000 122 86 81 0
4.840000 9.900000 6.710000 122 86 81 0
5.060000 9.900000 6.710000 122 86 81 0
5.280000 9.900000 7.260000 124 86 80 0
5.500000 9.900000 7.260000 125 87 81 0
5.720000 9.900000 7.260000 127 87 82 0
5.940000 9.900000 7.920000 128 88 83 0
6.160000 9.900000 7.810000 132 90 86 0
6.380000 9.900000 8.360000 136 94 90 0
6.600000 9.900000 9.130000 141 95 90 0
6.820000 9.900000 9.790000 143 97 92 0
7.040000 9.900000 9.790000 143 99 95 0
7.260000 9.900000 9.790000 144 100 96 0
7.480000 9.900000 9.130000 149 103 100 0
7.700000 9.900000 8.470000 151 105 102 0
7.920000 9.900000 7.810000 149 107 104 0
8.140000 9.900000 6.490000 148 106 103 0
8.360000 9.900000 6.600000 159 100 99 0
8.580000 9.900000 6.600000 156 97 96 0
8.800000 9.900000 6.050000 158 94 90 0
9.020000 9.900000 5.390000 156 92 88 0
9.240000 9.900000 5.390000 156 92 88 0
9.460000 9.900000 5.390000 155 91 87 0
9.680000 9.900000 5.390000 156 90 87 0
9.900000 9.900000 4.730000 157 91 88 0
10.120000 9.900000 4.730000 155 91 87 0
10.340000 9.900000 4.730000 156 92 88 0
10.560000 9.900000 4.840000 156 92 88 0
10.780000 9.900000 4.620000 155 91 87 0
11.000000 9.900000 5.060000 157 91 87 0
11.220000 9.900000 5.610000 157 91 87 0
11.440000 9.900000 6.270000 160 91 89 0
11.660000 9.900000 6.270000 158 89 87 0
11.880000 9.900000 6.930000 158 89 87 0
12.100000 9.900000 7.040000 157 88 86 0
12.320000 9.900000 5.720000 156 87 85 0
12.540000 9.900000 5.720000 155 86 84 0
12.760000 9.900000 5.170000 156 86 83 0
12.980000 9.900000 4.510000 155 85 82 0
13.200000 9.900000 4.620000 154 84 82 0
13.420000 9.900000 3.850000 154 84 82 0
13.640000 9.900000 3.190000 155 83 82 0
13.860000 9.900000 2.530000 155 83 82 0
14.080000 9.900000 2.530000 157 82 81 0
14.300000 9.900000 2.640000 156 81 80 0
14.520000 9.900000 2.640000 155 80 79 0
14.740000 9.900000 2.640000 155 80 79 0
14.960000 9.900000 2.640000 155 80 79 0
15.180000 9.900000 2.640000 155 80 79 0
15.400000 9.900000 2.640000 154 79 79 0
15.620000 9.900000 2.640000 152 77 77 0
15.840000 9.900000 2.640000 154 78 77 0
16.060000 9.900000 2.530000 152 76 75 0
16.280000 9.900000 2.640000 152 76 75 0
16.500000 9.900000 1.870000 153 77 76 0
16.720000 9.900000 1.210000 152 76 75 0
16.940000 9.900000 1.210000 152 76 75 0
17.160000 9.900000 1.210000 152 75 76 0
17.380000 9.900000 1.870000 151 74 75 0
17.600000 9.900000 1.870000 152 75 76 0
17.820000 9.900000 1.210000 151 74 75 0
18.040000 9.900000 1.210000 151 74 75 0
18.260000 9.900000 1.870000 150 73 74 0
18.480000 9.900000 1.210000 152 73 73 0
18.700000 9.900000 1.210000 152 73 73 0
18.920000 9.900000 0.550000 148 71 72 0
19.140000 9.900000 1.210000 149 72 73 0
19.360000 9.900000 1.870000 149 72 73 0
19.580000 9.900000 1.870000 148 71 72 0
19.800000 9.900000 1.210000 150 71 72 0
20.020000 9.900000 1.210000 151 72 73 0
20.240000 9.900000 1.870000 152 73 74 0
20.460000 9.900000 2.640000 150 71 72 0
20.680000 9.900000 3.300000 147 70 71 0
20.900000 9.900000 3.300000 148 71 72 0
21.120000 9.900000 4.730000 148 71 72 0
21.340000 9.900000 4.730000 149 72 73 0
21.560000 9.900000 4.730000 148 71 74 0
21.780000 9.900000 4.730000 146 69 72 0
22.000000 9.900000 4.070000 147 70 71 0
22.220000 9.900000 4.070000 146 69 70 0
22.440000 9.900000 4.730000 147 70 71 0
22.660000 9.900000 5.390000 147 70 71 0
22.880000 9.900000 6.050000 147 70 71 0
23.100000 9.900000 6.050000 148 71 72 0
23.320000 9.900000 6.600000 148 71 74 0
23.540000 9.900000 7.150000 146 69 72 0
23.760000 9.900000 7.040000 148 71 72 0
23.980000 9.900000 6.490000 146 69 70 0
24.200000 9.900000 5.170000 147 70 71 0
24.420000 9.900000 3.850000 148 71 72 0
24.640000 9.900000 3.850000 148 71 72 0
24.860000 9.900000 4.510000 148 71 72 0
25.080000 9.900000 5.280000 152 75 78 0
25.300000 9.900000 5.940000 151 74 77 0
25.520000 9.900000 8.030000 151 74 75 0
25.740000 9.900000 10.120000 151 74 75 0
25.960000 9.900000 12.210000 149 77 76 0
26.180000 9.900000 13.640000 154 82 81 0
26.400000 9.900000 13.640000 151 99 98 0
26.620000 9.900000 12.980000 167 115 114 0
26.840000 9.900000 12.980000 161 137 134 0
27.060000 9.900000 13.530000 176 152 149 0
27.280000 9.900000 11.220000 176 164 163 0
27.500000 9.900000 5.610000 186 174 173 0
27.720000 9.900000 2.090000 188 178 182 0
27.940000 9.900000 5.610000 189 179 183 0
28.160000 9.900000 13.200000 190 181 181 0
28.380000 9.900000 18.700000 188 179 179 0
28.600000 9.900000 18.700000 187 172 170 0
28.820000 9.900000 17.380000 186 171 169 0
29.040000 9.900000 18.700000 186 175 176 0
29.260000 9.900000 19.470000 188 177 178 0
29.480000 9.900000 19.470000 179 185 194 0
29.700000 9.900000 19.470000 184 190 199 0
29.920000 9.900000 15.400000 174 199 216 0
30.140000 9.900000 5.940000 181 206 223 0
30.360000 9.900000 1.870000 174 219 233 0
30.580000 9.900000 2.530000 179 224 238 0
30.800000 9.900000 1.870000 186 233 234 0
31.020000 9.900000 1.980000 192 239 240 0
31.240000 9.900000 4.730000 204 237 239 0
31.460000 9.900000 11.660000 206 239 241 0
31.680000 9.900000 15.840000 215 239 238 0
31.900000 9.900000 17.270000 217 241 240 0
32.120000 9.900000 17.270000 220 241 241 0
32.340000 9.900000 17.270000 220 241 241 0
32.560000 9.900000 18.590000 215 243 242 0
32.780000 9.900000 19.030000 214 242 241 0
33.000000 9.900000 20.130000 212 243 243 0
33.220000 9.900000 19.360000 211 242 242 0
33.440000 9.900000 14.520000 216 240 239 0
33.660000 9.900000 6.930000 217 241 240 0
33.880000 9.900000 2.200000 232 237 236 0
34.100000 9.900000 0.770000 234 239 238 0
34.320000 9.900000 0.880000 238 239 238 0
34.540000 9.900000 0.220000 239 240 239 0
34.760000 9.900000 0.330000 240 241 240 0
34.980000 9.900000 0.440000 240 241 240 0
35.200000 9.900000 0.440000 240 241 240 0
35.420000 9.900000 0.550000 240 241 240 0
35.640000 9.900000 0.550000 240 241 240 0
35.860000 9.900000 0.550000 240 241 240 0
36.080000 9.900000 0.440000 240 241 240 0
36.300000 9.900000 1.760000 240 241 240 0
36.520000 9.900000 2.530000 240 241 240 0
36.740000 9.900000 2.530000 240 241 240 0
36.960000 9.900000 2.530000 238 242 240 0
37.180000 9.900000 1.870000 238 242 240 0
0.000000 10.120000 3.630000 126 96 89 0
0.220000 10.120000 3.630000 125 95 88 0
0.440000 10.120000 4.290000 123 93 88 0
0.660000 10.120000 4.290000 124 94 89 0
0.880000 10.120000 4.290000 123 93 88 0
1.100000 10.120000 4.400000 123 93 88 0
1.320000 10.120000 4.400000 124 93 86 0
1.540000 10.120000 4.510000 123 92 85 0
1.760000 10.120000 3.740000 124 93 86 0
1.980000 10.120000 3.080000 124 93 86 0
2.200000 10.120000 3.190000 123 92 85 0
2.420000 10.120000 3.960000 123 92 85 0
2.640000 10.120000 4.070000 126 90 85 0
2.860000 10.120000 4.730000 126 90 85 0
3.080000 10.120000 4.730000 125 91 85 0
3.300000 10.120000 4.730000 123 89 83 0
3.520000 10.120000 4.730000 124 90 84 0
3.740000 10.120000 5.390000 123 89 83 0
3.960000 10.120000 6.050000 123 87 82 0
4.180000 10.120000 6.050000 123 87 82 0
4.400000 10.120000 6.710000 125 87 81 0
4.620000 10.120000 6.710000 124 86 80 0
4.840000 10.120000 6.710000 122 87 80 0
5.060000 10.120000 7.370000 122 87 80 0
5.280000 10.120000 7.150000 126 86 81 0
5.500000 10.120000 7.810000 127 87 82 0
5.720000 10.120000 7.810000 132 88 84 0
5.940000 10.120000 7.810000 137 93 89 0
6.160000 10.120000 8.360000 139 95 91 0
6.380000 10.120000 9.020000 141 97 93 0
6.600000 10.120000 9.790000 145 99 96 0
6.820000 10.120000 9.790000 144 98 95 0
7.040000 10.120000 9.790000 145 101 97 0
7.260000 10.120000 9.130000 147 103 99 0
7.480000 10.120000 8.470000 155 103 100 0
7.700000 10.120000 7.150000 157 105 102 0
7.920000 10.120000 6.600000 163 101 99 0
8.140000 10.120000 6.050000 161 99 97 0
8.360000 10.120000 6.050000 158 96 92 0
8.580000 10.120000 6.050000 154 92 88 0
8.800000 10.120000 6.050000 157 91 88 0
9.020000 10.120000 5.390000 156 90 87 0
9.240000 10.120000 5.390000 156 90 87 0
9.460000 10.120000 5.500000 157 91 88 0
9.680000 10.120000 4.730000 156 90 87 0
9.900000 10.120000 4.840000 156 90 87 0
10.120000 10.120000 4.730000 156 92 88 0
10.340000 10.120000 4.730000 156 92 88 0
10.560000 10.120000 4.620000 156 90 87 0
10.780000 10.120000 4.510000 156 90 87 0
11.000000 10.120000 4.950000 157 88 86 0
11.220000 10.120000 5.610000 157 88 86 0
11.440000 10.120000 5.610000 157 87 85 0
11.660000 10.120000 6.270000 157 87 85 0
11.880000 10.120000 6.380000 157 85 83 0
12.100000 10.120000 5.720000 157 85 83 0
12.320000 10.120000 5.170000 155 85 82 0
12.540000 10.120000 4.510000 155 85 82 0
12.760000 10.120000 4.510000 156 84 82 0
12.980000 10.120000 3.850000 155 83 81 0
13.200000 10.120000 3.850000 154 82 80 0
13.420000 10.120000 3.190000 154 82 80 0
13.640000 10.120000 1.870000 154 82 80 0
13.860000 10.120000 1.870000 154 82 80 0
14.080000 10.120000 1.870000 156 81 80 0
14.300000 10.120000 2.640000 156 81 80 0
14.520000 10.120000 2.640000 155 81 77 0
14.740000 10.120000 2.640000 155 81 77 0
14.960000 10.120000 3.300000 155 78 79 0
15.180000 10.120000 3.300000 154 77 78 0
15.400000 10.120000 2.640000 154 78 77 0
15.620000 10.120000 2.640000 153 77 76 0
15.840000 10.120000 2.530000 152 76 75 0
16.060000 10.120000 2.530000 152 76 75 0
16.280000 10.120000 1.870000 151 75 74 0
16.500000 10.120000 1.870000 153 77 76 0
16.720000 10.120000 1.210000 153 74 75 0
16.940000 10.120000 0.550000 153 74 75 0
17.160000 10.120000 1.210000 150 74 73 0
17.380000 10.120000 1.870000 149 73 72 0
17.600000 10.120000 1.870000 151 74 75 0
17.820000 10.120000 1.870000 151 74 75 0
18.040000 10.120000 1.870000 153 74 74 0
18.260000 10.120000 1.870000 151 72 72 0
18.480000 10.120000 1.870000 151 72 73 0
18.700000 10.120000 1.210000 151 72 73 0
18.920000 10.120000 1.210000 149 70 70 0
19.140000 10.120000 1.980000 149 70 70 0
19.360000 10.120000 2.640000 148 72 71 0
19.580000 10.120000 2.640000 148 72 71 0
19.800000 10.120000 1.870000 149 70 70 0
20.020000 10.120000 1.870000 150 71 71 0
20.240000 10.120000 2.640000 149 70 71 0
20.460000 10.120000 3.300000 150 71 72 0
20.680000 10.120000 3.300000 147 71 70 0
20.900000 10.120000 3.960000 148 72 71 0
21.120000 10.120000 4.730000 149 72 73 0
21.340000 10.120000 5.390000 149 72 73 0
21.560000 10.120000 5.390000 148 71 72 0
21.780000 10.120000 4.730000 147 70 71 0
22.000000 10.120000 4.730000 149 70 71 0
22.220000 10.120000 4.730000 149 70 71 0
22.440000 10.120000 5.280000 145 69 68 0
22.660000 10.120000 5.830000 147 71 70 0
22.880000 10.120000 6.380000 147 70 71 0
23.100000 10.120000 7.150000 148 71 72 0
23.320000 10.120000 7.810000 147 70 71 0
23.540000 10.120000 7.700000 148 71 72 0
23.760000 10.120000 7.040000 149 70 71 0
23.980000 10.120000 6.490000 150 71 72 0
24.200000 10.120000 5.170000 147 70 71 0
24.420000 10.120000 5.280000 147 70 71 0
24.640000 10.120000 5.280000 148 71 72 0
24.860000 10.120000 5.940000 149 72 73 0
25.080000 10.120000 5.940000 149 74 76 0
25.300000 10.120000 7.370000 150 75 77 0
25.520000 10.120000 9.460000 149 74 74 0
25.740000 10.120000 12.210000 150 75 75 0
25.960000 10.120000 14.300000 140 85 85 0
26.180000 10.120000 14.300000 150 95 95 0
26.400000 10.120000 13.750000 154 115 113 0
26.620000 10.120000 13.090000 165 126 124 0
26.840000 10.120000 14.300000 164 144 140 0
27.060000 10.120000 13.420000 177 157 153 0
27.280000 10.120000 7.700000 175 166 168 0
27.500000 10.120000 2.750000 185 176 178 0
27.720000 10.120000 1.430000 184 177 179 0
27.940000 10.120000 6.270000 185 178 180 0
28.160000 10.120000 15.290000 190 173 174 0
28.380000 10.120000 19.360000 187 170 171 0
28.600000 10.120000 18.700000 184 169 169 0
28.820000 10.120000 19.470000 184 169 169 0
29.040000 10.120000 19.470000 180 173 176 0
29.260000 10.120000 18.700000 185 178 181 0
29.480000 10.120000 18.700000 180 187 193 0
29.700000 10.120000 19.470000 184 191 197 0
29.920000 10.120000 15.290000 179 202 217 0
30.140000 10.120000 6.490000 186 209 224 0
30.360000 10.120000 2.420000 175 221 232 0
30.580000 10.120000 2.530000 180 226 237 0
30.800000 10.120000 1.870000 187 235 234 0
31.020000 10.120000 2.640000 190 238 237 0
31.240000 10.120000 7.480000 200 239 239 0
31.460000 10.120000 14.410000 201 240 240 0
31.680000 10.120000 17.270000 210 239 240 0
31.900000 10.120000 16.500000 210 239 240 0
32.120000 10.120000 17.270000 208 241 241 0
32.340000 10.120000 17.270000 208 241 241 0
32.560000 10.120000 17.930000 207 242 241 0
32.780000 10.120000 18.370000 206 241 240 0
33.000000 10.120000 19.470000 209 240 240 0
33.220000 10.120000 20.020000 210 241 241 0
33.440000 10.120000 19.360000 212 240 239 0
33.660000 10.120000 13.200000 212 240 239 0
33.880000 10.120000 4.180000 222 240 239 0
34.100000 10.120000 0.770000 224 242 241 0
34.320000 10.120000 0.880000 234 237 237 0
34.540000 10.120000 0.220000 236 239 239 0
34.760000 10.120000 0.330000 239 240 239 0
34.980000 10.120000 0.440000 240 241 240 0
35.640000 10.120000 1.210000 240 241 240 0
35.860000 10.120000 3.960000 240 241 240 0
36.080000 10.120000 3.850000 240 241 240 0
36.300000 10.120000 3.080000 240 241 240 0
36.520000 10.120000 2.530000 240 241 240 0
36.740000 10.120000 2.640000 240 241 240 0
36.960000 10.120000 2.640000 240 241 240 0
37.180000 10.120000 1.870000 240 241 240 0
0.000000 10.340000 3.630000 125 95 88 0
0.220000 10.340000 3.630000 124 94 87 0
0.440000 10.340000 4.290000 124 94 89 0
0.660000 10.340000 4.290000 123 93 88 0
0.880000 10.340000 4.290000 123 93 88 0
1.100000 10.340000 4.290000 123 93 88 0
1.320000 10.340000 4.400000 123 92 85 0
1.540000 10.340000 4.510000 123 92 85 0
1.760000 10.340000 3.740000 123 92 85 0
1.980000 10.340000 3.740000 124 93 86 0
2.200000 10.340000 3.850000 123 92 85 0
2.420000 10.340000 3.960000 123 92 85 0
2.640000 10.340000 4.730000 125 89 84 0
2.860000 10.340000 4.730000 126 90 85 0
3.080000 10.340000 4.730000 125 91 85 0
3.300000 10.340000 4.730000 124 90 84 0
3.520000 10.340000 5.390000 124 90 84 0
3.740000 10.340000 6.050000 123 89 83 0
3.960000 10.340000 6.050000 123 87 82 0
4.180000 10.340000 6.710000 124 88 83 0
4.400000 10.340000 6.710000 126 88 82 0
4.620000 10.340000 7.370000 124 86 80 0
4.840000 10.340000 7.370000 123 88 81 0
5.060000 10.340000 7.260000 123 88 81 0
5.280000 10.340000 7.150000 130 90 85 0
5.500000 10.340000 7.700000 132 92 87 0
5.720000 10.340000 7.700000 138 94 90 0
5.940000 10.340000 8.360000 140 96 92 0
6.160000 10.340000 9.130000 143 99 95 0
6.380000 10.340000 9.130000 142 98 94 0
6.600000 10.340000 9.130000 145 99 96 0
6.820000 10.340000 9.130000 147 101 98 0
7.040000 10.340000 8.470000 147 103 99 0
7.260000 10.340000 7.810000 150 106 102 0
7.480000 10.340000 7.150000 156 104 101 0
7.700000 10.340000 6.600000 155 103 100 0
7.920000 10.340000 6.050000 159 97 95 0
8.140000 10.340000 6.160000 158 96 94 0
8.360000 10.340000 6.160000 156 94 90 0
8.580000 10.340000 5.390000 154 92 88 0
8.800000 10.340000 5.390000 157 91 88 0
9.020000 10.340000 5.390000 156 90 87 0
9.240000 10.340000 5.500000 156 90 87 0
9.460000 10.340000 5.500000 157 91 88 0
9.680000 10.340000 5.390000 158 92 89 0
9.900000 10.340000 4.730000 156 90 87 0
10.120000 10.340000 4.620000 155 91 87 0
10.340000 10.340000 5.170000 155 91 87 0
10.560000 10.340000 5.060000 156 90 87 0
10.780000 10.340000 4.950000 155 89 86 0
11.000000 10.340000 4.950000 156 87 85 0
11.220000 10.340000 4.950000 156 87 85 0
11.440000 10.340000 5.720000 156 86 84 0
11.660000 10.340000 5.720000 155 85 83 0
11.880000 10.340000 5.830000 156 84 82 0
12.100000 10.340000 5.170000 156 84 82 0
12.320000 10.340000 4.620000 155 85 82 0
12.540000 10.340000 3.960000 154 84 81 0
12.760000 10.340000 3.850000 155 83 81 0
12.980000 10.340000 3.850000 155 83 81 0
13.200000 10.340000 3.960000 155 83 81 0
13.420000 10.340000 2.530000 155 83 81 0
13.640000 10.340000 1.870000 154 82 80 0
13.860000 10.340000 1.210000 155 83 81 0
14.080000 10.340000 1.870000 156 81 80 0
14.300000 10.340000 2.640000 154 79 78 0
14.520000 10.340000 2.640000 155 81 77 0
14.740000 10.340000 3.300000 154 80 76 0
14.960000 10.340000 3.300000 154 77 78 0
15.180000 10.340000 3.300000 152 75 76 0
15.400000 10.340000 3.300000 153 77 76 0
15.620000 10.340000 3.300000 153 77 76 0
15.840000 10.340000 3.300000 152 76 75 0
16.060000 10.340000 2.530000 151 75 74 0
16.280000 10.340000 1.870000 152 76 75 0
16.500000 10.340000 1.210000 151 75 74 0
16.720000 10.340000 0.550000 152 73 74 0
16.940000 10.340000 0.550000 153 74 75 0
17.160000 10.340000 1.210000 149 73 72 0
17.380000 10.340000 2.640000 150 74 73 0
17.600000 10.340000 2.640000 150 73 74 0
17.820000 10.340000 2.640000 149 72 73 0
18.040000 10.340000 1.870000 152 73 73 0
18.260000 10.340000 1.870000 150 71 71 0
18.480000 10.340000 1.870000 151 72 73 0
18.700000 10.340000 1.980000 150 71 72 0
18.920000 10.340000 1.980000 149 70 70 0
19.140000 10.340000 1.980000 149 70 70 0
19.360000 10.340000 2.640000 148 72 71 0
19.580000 10.340000 2.640000 148 72 71 0
19.800000 10.340000 2.640000 148 69 69 0
20.020000 10.340000 2.640000 149 70 70 0
20.240000 10.340000 3.300000 148 69 70 0
20.460000 10.340000 3.300000 149 70 71 0
20.680000 10.340000 4.070000 146 70 69 0
20.900000 10.340000 4.730000 146 70 69 0
21.120000 10.340000 5.500000 148 71 72 0
21.340000 10.340000 5.500000 147 70 71 0
21.560000 10.340000 5.500000 146 69 70 0
21.780000 10.340000 5.500000 146 69 70 0
22.000000 10.340000 5.390000 148 69 70 0
22.220000 10.340000 5.280000 148 69 70 0
22.440000 10.340000 5.720000 145 69 68 0
22.660000 10.340000 6.270000 146 70 69 0
22.880000 10.340000 6.930000 146 69 70 0
23.100000 10.340000 7.700000 147 70 71 0
23.320000 10.340000 7.700000 148 71 72 0
23.540000 10.340000 7.700000 148 71 72 0
23.760000 10.340000 6.490000 151 72 73 0
23.980000 10.340000 6.600000 149 70 71 0
24.200000 10.340000 6.600000 148 71 72 0
24.420000 10.340000 6.600000 148 71 72 0
24.640000 10.340000 6.600000 148 71 72 0
24.860000 10.340000 6.600000 148 71 72 0
25.080000 10.340000 6.600000 149 74 76 0
25.300000 10.340000 8.030000 149 74 76 0
25.520000 10.340000 10.120000 152 77 77 0
25.740000 10.340000 12.980000 154 79 79 0
25.960000 10.340000 14.300000 149 94 94 0
26.180000 10.340000 13.750000 160 105 105 0
26.400000 10.340000 13.750000 162 123 121 0
26.620000 10.340000 13.750000 170 131 129 0
26.840000 10.340000 14.300000 168 148 144 0
27.060000 10.340000 11.220000 177 157 153 0
27.280000 10.340000 5.500000 177 168 170 0
27.500000 10.340000 2.090000 182 173 175 0
27.720000 10.340000 2.090000 182 175 177 0
27.940000 10.340000 7.590000 182 175 177 0
28.160000 10.340000 15.950000 186 169 170 0
28.380000 10.340000 18.040000 185 168 169 0
28.600000 10.340000 18.040000 184 169 169 0
28.820000 10.340000 18.040000 183 168 168 0
29.040000 10.340000 18.700000 181 174 177 0
29.260000 10.340000 18.700000 186 179 182 0
29.480000 10.340000 18.810000 181 188 194 0
29.700000 10.340000 18.810000 183 190 196 0
29.920000 10.340000 15.290000 179 202 217 0
30.140000 10.340000 6.490000 188 211 226 0
30.360000 10.340000 2.420000 177 223 234 0
30.580000 10.340000 2.530000 182 228 239 0
30.800000 10.340000 1.870000 189 237 236 0
31.020000 10.340000 4.730000 191 239 238 0
31.240000 10.340000 11.660000 199 238 238 0
31.460000 10.340000 16.500000 200 239 239 0
31.680000 10.340000 16.500000 209 238 239 0
31.900000 10.340000 16.500000 209 238 239 0
32.120000 10.340000 16.500000 207 240 240 0
32.340000 10.340000 17.270000 207 240 240 0
32.560000 10.340000 17.270000 205 240 239 0
32.780000 10.340000 17.820000 205 240 239 0
33.000000 10.340000 18.920000 208 239 239 0
33.220000 10.340000 20.130000 210 241 241 0
33.440000 10.340000 20.790000 213 241 240 0
33.660000 10.340000 15.950000 213 241 240 0
33.880000 10.340000 5.610000 222 240 239 0
34.100000 10.340000 0.770000 222 240 239 0
34.320000 10.340000 0.880000 233 236 236 0
34.540000 10.340000 0.220000 235 238 238 0
34.760000 10.340000 0.330000 238 239 238 0
34.980000 10.340000 1.760000 239 240 239 0
35.200000 10.340000 3.300000 239 240 239 0
35.420000 10.340000 4.730000 240 241 240 0
35.640000 10.340000 7.480000 240 241 240 0
35.860000 10.340000 12.320000 240 241 240 0
36.080000 10.340000 12.210000 240 241 240 0
36.300000 10.340000 5.170000 240 241 240 0
36.520000 10.340000 2.530000 240 241 240 0
36.740000 10.340000 2.640000 240 241 240 0
36.960000 10.340000 1.870000 240 241 240 0
37.180000 10.340000 1.870000 240 241 240 0
0.000000 10.560000 3.630000 127 93 87 0
0.220000 10.560000 3.630000 127 93 87 0
0.440000 10.560000 4.290000 124 93 86 0
0.660000 10.560000 4.290000 124 93 86 0
0.880000 10.560000 4.290000 124 93 86 0
1.100000 10.560000 4.290000 123 92 85 0
1.320000 10.560000 5.060000 124 93 86 0
1.540000 10.560000 4.510000 123 92 85 0
1.760000 10.560000 3.740000 123 92 85 0
1.980000 10.560000 3.740000 123 92 85 0
2.200000 10.560000 3.960000 125 91 85 0
2.420000 10.560000 4.730000 125 91 85 0
2.640000 10.560000 5.390000 125 91 85 0
2.860000 10.560000 5.500000 125 91 85 0
3.080000 10.560000 5.390000 125 91 85 0
3.300000 10.560000 5.390000 125 91 85 0
3.520000 10.560000 6.050000 125 90 83 0
3.740000 10.560000 6.050000 124 89 82 0
3.960000 10.560000 6.710000 124 88 83 0
4.180000 10.560000 7.480000 124 88 83 0
4.400000 10.560000 7.480000 124 88 83 0
4.620000 10.560000 7.370000 124 88 83 0
4.840000 10.560000 7.150000 128 86 82 0
5.060000 10.560000 7.810000 132 90 86 0
5.280000 10.560000 7.700000 139 93 90 0
5.500000 10.560000 7.700000 139 93 90 0
5.720000 10.560000 8.470000 144 96 91 0
5.940000 10.560000 8.470000 146 98 93 0
6.160000 10.560000 8.470000 147 97 93 0
6.380000 10.560000 8.470000 148 98 94 0
6.600000 10.560000 8.470000 149 99 95 0
6.820000 10.560000 7.810000 151 101 97 0
7.040000 10.560000 7.150000 152 103 101 0
7.260000 10.560000 6.600000 152 103 101 0
7.480000 10.560000 5.940000 160 100 95 0
7.700000 10.560000 6.050000 158 98 93 0
7.920000 10.560000 6.050000 155 96 93 0
8.140000 10.560000 6.160000 153 94 91 0
8.360000 10.560000 6.160000 155 93 91 0
8.580000 10.560000 5.390000 154 92 90 0
8.800000 10.560000 5.390000 155 91 87 0
9.020000 10.560000 5.390000 155 91 87 0
9.240000 10.560000 5.500000 156 90 86 0
9.460000 10.560000 5.280000 156 90 86 0
9.680000 10.560000 5.830000 156 90 87 0
9.900000 10.560000 5.060000 156 90 87 0
10.120000 10.560000 5.170000 155 89 86 0
10.340000 10.560000 4.950000 154 88 85 0
10.560000 10.560000 5.500000 154 88 85 0
10.780000 10.560000 5.610000 154 88 85 0
11.000000 10.560000 4.950000 155 87 83 0
11.220000 10.560000 5.060000 155 87 83 0
11.440000 10.560000 5.170000 154 85 83 0
11.660000 10.560000 5.280000 154 85 83 0
11.880000 10.560000 5.940000 154 84 81 0
12.100000 10.560000 5.280000 155 85 82 0
12.320000 10.560000 3.960000 155 83 81 0
12.540000 10.560000 3.960000 154 82 80 0
12.760000 10.560000 3.850000 154 82 80 0
12.980000 10.560000 4.620000 154 82 80 0
13.200000 10.560000 3.960000 154 82 80 0
13.420000 10.560000 2.530000 154 82 80 0
13.640000 10.560000 1.210000 154 82 80 0
13.860000 10.560000 1.210000 154 82 80 0
14.080000 10.560000 1.870000 157 81 80 0
14.300000 10.560000 3.300000 156 80 79 0
14.520000 10.560000 3.300000 154 78 77 0
14.740000 10.560000 3.300000 154 78 77 0
14.960000 10.560000 3.300000 153 78 77 0
15.180000 10.560000 3.300000 152 77 76 0
15.400000 10.560000 3.300000 152 76 75 0
15.620000 10.560000 3.300000 151 75 74 0
15.840000 10.560000 3.300000 153 74 74 0
16.060000 10.560000 2.530000 153 74 74 0
16.280000 10.560000 1.870000 151 75 74 0
16.500000 10.560000 1.210000 150 74 73 0
16.720000 10.560000 1.210000 150 74 73 0
16.940000 10.560000 1.210000 150 74 73 0
17.160000 10.560000 1.870000 152 73 73 0
17.380000 10.560000 2.530000 151 72 72 0
17.600000 10.560000 2.640000 150 71 72 0
17.820000 10.560000 2.640000 150 71 72 0
18.040000 10.560000 2.640000 150 71 71 0
18.260000 10.560000 2.640000 150 71 71 0
18.480000 10.560000 2.640000 147 71 70 0
18.700000 10.560000 2.640000 148 72 71 0
18.920000 10.560000 1.980000 148 69 69 0
19.140000 10.560000 2.640000 148 69 69 0
19.360000 10.560000 2.640000 148 69 70 0
19.580000 10.560000 2.640000 148 69 70 0
19.800000 10.560000 2.640000 147 68 68 0
20.020000 10.560000 3.300000 147 68 68 0
20.240000 10.560000 3.300000 146 70 69 0
20.460000 10.560000 4.070000 147 71 70 0
20.680000 10.560000 4.070000 147 68 69 0
20.900000 10.560000 4.730000 147 68 69 0
21.120000 10.560000 6.050000 148 69 70 0
21.340000 10.560000 6.050000 147 68 69 0
21.560000 10.560000 6.050000 147 68 69 0
21.780000 10.560000 6.050000 149 70 71 0
22.000000 10.560000 6.050000 146 70 69 0
22.220000 10.560000 6.490000 146 70 69 0
22.440000 10.560000 7.040000 148 69 70 0
22.660000 10.560000 6.930000 148 69 70 0
22.880000 10.560000 7.040000 146 69 70 0
23.100000 10.560000 7.040000 147 70 71 0
23.320000 10.560000 7.040000 147 71 70 0
23.540000 10.560000 6.380000 148 72 71 0
23.760000 10.560000 6.490000 148 72 71 0
23.980000 10.560000 6.600000 147 71 70 0
24.200000 10.560000 7.260000 150 71 72 0
24.420000 10.560000 8.030000 150 71 72 0
24.640000 10.560000 8.030000 147 70 71 0
24.860000 10.560000 7.370000 147 70 71 0
25.080000 10.560000 6.710000 148 74 70 0
25.300000 10.560000 7.370000 152 78 74 0
25.520000 10.560000 10.230000 147 85 83 0
25.740000 10.560000 12.980000 153 91 89 0
25.960000 10.560000 13.750000 153 108 106 0
26.180000 10.560000 13.750000 164 119 117 0
26.400000 10.560000 13.750000 168 128 123 0
26.620000 10.560000 13.090000 175 135 130 0
26.840000 10.560000 11.550000 171 145 141 0
27.060000 10.560000 8.470000 178 152 148 0
27.280000 10.560000 6.270000 175 160 158 0
27.500000 10.560000 5.500000 181 166 164 0
27.720000 10.560000 7.590000 187 165 165 0
27.940000 10.560000 13.200000 189 167 167 0
28.160000 10.560000 17.270000 186 167 164 0
28.380000 10.560000 18.040000 186 167 164 0
28.600000 10.560000 17.380000 184 168 164 0
28.820000 10.560000 17.380000 185 169 165 0
29.040000 10.560000 18.040000 180 174 171 0
29.260000 10.560000 18.040000 185 179 176 0
29.480000 10.560000 18.040000 183 185 193 0
29.700000 10.560000 18.150000 187 189 197 0
29.920000 10.560000 15.400000 184 200 211 0
30.140000 10.560000 8.580000 193 209 220 0
30.360000 10.560000 3.080000 186 219 233 0
30.580000 10.560000 2.420000 192 225 239 0
30.800000 10.560000 1.870000 189 233 237 0
31.020000 10.560000 5.390000 194 238 242 0
31.240000 10.560000 13.750000 200 238 238 0
31.460000 10.560000 17.160000 199 237 237 0
31.680000 10.560000 16.500000 203 238 237 0
31.900000 10.560000 16.500000 203 238 237 0
32.120000 10.560000 16.500000 205 238 238 0
32.340000 10.560000 17.270000 206 239 239 0
32.560000 10.560000 17.270000 200 241 242 0
32.780000 10.560000 17.820000 200 241 242 0
33.000000 10.560000 19.030000 205 240 239 0
33.220000 10.560000 20.130000 205 240 239 0
33.440000 10.560000 19.360000 208 241 241 0
33.660000 10.560000 13.200000 209 242 242 0
33.880000 10.560000 4.180000 216 241 241 0
34.100000 10.560000 0.770000 216 241 241 0
34.320000 10.560000 0.770000 224 239 237 0
34.540000 10.560000 0.220000 226 241 239 0
34.760000 10.560000 0.330000 232 240 238 0
34.980000 10.560000 3.850000 233 241 239 0
35.200000 10.560000 11.550000 237 241 239 0
35.420000 10.560000 15.070000 237 241 239 0
35.640000 10.560000 16.390000 237 241 239 0
35.860000 10.560000 19.250000 237 241 239 0
36.080000 10.560000 15.620000 234 242 240 0
36.300000 10.560000 6.490000 234 242 240 0
36.520000 10.560000 2.530000 237 241 239 0
36.740000 10.560000 2.640000 237 241 239 0
36.960000 10.560000 1.870000 237 241 239 0
37.180000 10.560000 1.980000 237 241 239 0
0.000000 10.780000 3.630000 127 93 87 0
0.220000 10.780000 3.630000 127 93 87 0
0.440000 10.780000 4.290000 124 93 86 0
0.660000 10.780000 4.290000 124 93 86 0
0.880000 10.780000 5.060000 124 93 86 0
1.100000 10.780000 5.060000 124 93 86 0
1.320000 10.780000 5.060000 123 92 85 0
1.540000 10.780000 4.400000 122 91 84 0
1.760000 10.780000 4.510000 123 92 85 0
1.980000 10.780000 4.510000 123 92 85 0
2.200000 10.780000 4.620000 125 91 85 0
2.420000 10.780000 5.390000 125 91 85 0
2.640000 10.780000 5.390000 124 90 84 0
2.860000 10.780000 5.500000 125 91 85 0
3.080000 10.780000 6.050000 124 90 84 0
3.300000 10.780000 6.050000 125 91 85 0
3.520000 10.780000 6.710000 125 90 83 0
3.740000 10.780000 7.480000 125 90 83 0
3.960000 10.780000 7.480000 125 89 84 0
4.180000 10.780000 7.480000 125 89 84 0
4.400000 10.780000 7.370000 126 90 85 0
4.620000 10.780000 7.260000 127 91 86 0
4.840000 10.780000 7.810000 132 90 86 0
5.060000 10.780000 7.700000 135 93 89 0
5.280000 10.780000 7.700000 141 95 92 0
5.500000 10.780000 7.700000 141 95 92 0
5.720000 10.780000 8.470000 145 97 92 0
5.940000 10.780000 8.470000 146 98 93 0
6.160000 10.780000 7.810000 148 98 94 0
6.380000 10.780000 7.810000 150 100 96 0
6.600000 10.780000 7.150000 152 102 98 0
6.820000 10.780000 6.490000 153 103 99 0
7.040000 10.780000 5.940000 152 103 101 0
7.260000 10.780000 6.050000 151 102 100 0
7.480000 10.780000 6.050000 158 98 93 0
7.700000 10.780000 6.050000 156 96 91 0
7.920000 10.780000 6.160000 153 94 91 0
8.140000 10.780000 6.160000 153 94 91 0
8.360000 10.780000 5.500000 153 91 89 0
8.580000 10.780000 5.500000 153 91 89 0
8.800000 10.780000 5.500000 155 91 87 0
9.020000 10.780000 5.390000 154 90 86 0
9.240000 10.780000 5.280000 156 90 86 0
9.460000 10.780000 5.720000 156 90 86 0
9.680000 10.780000 5.610000 156 90 87 0
9.900000 10.780000 5.610000 154 88 85 0
10.120000 10.780000 5.610000 155 89 86 0
10.340000 10.780000 5.610000 154 88 85 0
10.560000 10.780000 5.610000 153 87 84 0
10.780000 10.780000 5.060000 153 87 84 0
11.000000 10.780000 4.510000 155 87 83 0
11.220000 10.780000 4.510000 155 87 83 0
11.440000 10.780000 4.620000 154 85 83 0
11.660000 10.780000 5.280000 153 84 82 0
11.880000 10.780000 5.280000 155 85 82 0
12.100000 10.780000 5.280000 155 85 82 0
12.320000 10.780000 3.960000 155 83 81 0
12.540000 10.780000 3.960000 154 82 80 0
12.760000 10.780000 4.620000 153 81 79 0
12.980000 10.780000 4.620000 154 82 80 0
13.200000 10.780000 3.960000 154 82 80 0
13.420000 10.780000 2.530000 154 82 80 0
13.640000 10.780000 1.210000 155 83 81 0
13.860000 10.780000 1.210000 155 83 81 0
14.080000 10.780000 1.870000 158 82 81 0
14.300000 10.780000 3.300000 155 79 78 0
14.520000 10.780000 3.960000 154 78 77 0
14.740000 10.780000 3.960000 153 77 76 0
14.960000 10.780000 3.300000 152 77 76 0
15.180000 10.780000 3.300000 151 76 75 0
15.400000 10.780000 3.300000 151 75 74 0
15.620000 10.780000 3.300000 151 75 74 0
15.840000 10.780000 3.300000 152 73 73 0
16.060000 10.780000 2.530000 152 73 73 0
16.280000 10.780000 1.870000 150 74 73 0
16.500000 10.780000 1.210000 150 74 73 0
16.720000 10.780000 1.210000 149 73 72 0
16.940000 10.780000 1.210000 148 72 71 0
17.160000 10.780000 1.870000 150 71 71 0
17.380000 10.780000 2.530000 149 70 70 0
17.600000 10.780000 3.300000 150 71 72 0
17.820000 10.780000 3.300000 149 70 71 0
18.040000 10.780000 2.640000 148 69 69 0
18.260000 10.780000 2.640000 149 70 70 0
18.480000 10.780000 2.640000 147 71 70 0
18.700000 10.780000 2.640000 146 70 69 0
18.920000 10.780000 2.640000 148 69 69 0
19.140000 10.780000 3.410000 146 67 67 0
19.360000 10.780000 3.410000 147 68 69 0
19.580000 10.780000 3.300000 148 69 70 0
19.800000 10.780000 3.300000 148 69 69 0
20.020000 10.780000 4.070000 147 68 68 0
20.240000 10.780000 4.070000 144 68 67 0
20.460000 10.780000 4.730000 144 68 67 0
20.680000 10.780000 4.730000 146 67 68 0
20.900000 10.780000 5.940000 146 67 68 0
21.120000 10.780000 6.490000 147 68 69 0
21.340000 10.780000 7.150000 147 68 69 0
21.560000 10.780000 7.150000 148 69 70 0
21.780000 10.780000 6.490000 148 69 70 0
22.000000 10.780000 6.490000 146 70 69 0
22.220000 10.780000 7.040000 146 70 69 0
22.440000 10.780000 6.930000 147 68 69 0
22.660000 10.780000 6.270000 147 68 69 0
22.880000 10.780000 6.270000 146 69 70 0
23.100000 10.780000 6.380000 147 70 71 0
23.320000 10.780000 5.720000 147 71 70 0
23.540000 10.780000 5.830000 148 72 71 0
23.760000 10.780000 5.940000 147 71 70 0
23.980000 10.780000 6.600000 148 72 71 0
24.200000 10.780000 7.370000 150 71 72 0
24.420000 10.780000 8.030000 149 70 71 0
24.640000 10.780000 8.030000 149 72 73 0
24.860000 10.780000 6.710000 150 73 74 0
25.080000 10.780000 6.050000 153 79 75 0
25.300000 10.780000 7.480000 157 83 79 0
25.520000 10.780000 9.570000 154 92 90 0
25.740000 10.780000 10.890000 162 100 98 0
25.960000 10.780000 12.320000 160 115 113 0
26.180000 10.780000 13.640000 171 126 124 0
26.400000 10.780000 13.750000 172 132 127 0
26.620000 10.780000 12.430000 176 136 131 0
26.840000 10.780000 8.140000 169 143 139 0
27.060000 10.780000 7.150000 174 148 144 0
27.280000 10.780000 10.450000 172 157 155 0
27.500000 10.780000 12.540000 175 160 158 0
27.720000 10.780000 13.860000 182 160 160 0
27.940000 10.780000 15.950000 184 162 162 0
28.160000 10.780000 17.270000 184 165 162 0
28.380000 10.780000 17.380000 184 165 162 0
28.600000 10.780000 16.610000 184 168 164 0
