ply
format ascii 1.0
element vertex 1163
property float x
property float y
property float z
property uchar red
property uchar green
property uchar blue
property uchar alpha
end_header
27.500000 15.620000 6.050000 138 58 54 0
27.720000 15.620000 5.390000 141 61 57 0
27.940000 15.620000 3.960000 136 70 67 0
28.160000 15.620000 3.960000 142 76 73 0
28.380000 15.620000 3.190000 142 81 83 0
28.600000 15.620000 6.600000 146 85 87 0
28.820000 15.620000 14.960000 147 86 86 0
29.040000 15.620000 19.800000 146 85 85 0
29.260000 15.620000 15.730000 146 85 85 0
29.480000 15.620000 8.140000 144 83 83 0
29.700000 15.620000 5.390000 146 77 75 0
29.920000 15.620000 5.390000 143 74 72 0
30.140000 15.620000 2.640000 143 73 70 0
30.360000 15.620000 1.980000 142 72 69 0
30.580000 15.620000 0.660000 142 74 70 0
31.020000 15.620000 0.660000 144 74 69 0
31.240000 15.620000 0.660000 142 72 67 0
31.460000 15.620000 1.870000 140 72 68 0
31.680000 15.620000 2.530000 140 72 68 0
31.900000 15.620000 2.530000 142 72 69 0
32.120000 15.620000 2.530000 145 75 72 0
32.340000 15.620000 2.530000 142 77 70 0
32.560000 15.620000 2.530000 144 79 72 0
32.780000 15.620000 2.530000 144 80 73 0
33.000000 15.620000 2.640000 146 82 75 0
33.220000 15.620000 2.640000 146 86 80 0
33.440000 15.620000 2.640000 148 88 82 0
33.660000 15.620000 2.640000 151 91 86 0
33.880000 15.620000 3.190000 153 93 88 0
34.100000 15.620000 3.630000 152 97 90 0
34.320000 15.620000 3.520000 153 98 91 0
34.540000 15.620000 3.520000 150 100 94 0
34.760000 15.620000 3.520000 151 101 95 0
34.980000 15.620000 3.630000 151 100 94 0
35.200000 15.620000 4.290000 150 99 93 0
35.420000 15.620000 4.290000 156 96 90 0
35.640000 15.620000 5.060000 152 92 86 0
35.860000 15.620000 5.060000 152 89 79 0
36.080000 15.620000 5.060000 151 88 78 0
36.300000 15.620000 5.060000 153 86 75 0
36.520000 15.620000 5.170000 149 82 71 0
36.740000 15.620000 5.170000 148 79 67 0
36.960000 15.620000 4.400000 147 78 66 0
37.180000 15.620000 4.400000 146 77 65 0
0.000000 15.840000 2.970000 132 113 94 0
0.220000 15.840000 3.630000 132 110 91 0
0.440000 15.840000 3.520000 131 109 90 0
0.660000 15.840000 3.520000 131 109 90 0
0.880000 15.840000 3.630000 131 109 90 0
1.100000 15.840000 2.860000 130 108 90 0
1.320000 15.840000 2.860000 130 108 90 0
1.540000 15.840000 2.970000 130 108 89 0
1.760000 15.840000 3.630000 130 108 89 0
1.980000 15.840000 2.860000 129 107 88 0
2.200000 15.840000 2.860000 129 107 88 0
2.420000 15.840000 2.860000 129 107 88 0
2.640000 15.840000 2.860000 129 107 88 0
2.860000 15.840000 2.860000 129 105 88 0
3.080000 15.840000 2.090000 129 105 88 0
3.300000 15.840000 2.090000 128 105 86 0
3.520000 15.840000 2.200000 128 105 86 0
3.740000 15.840000 1.540000 128 105 86 0
3.960000 15.840000 1.100000 128 105 86 0
4.180000 15.840000 0.550000 127 104 85 0
4.400000 15.840000 0.660000 126 103 84 0
4.620000 15.840000 0.660000 130 102 86 0
4.840000 15.840000 0.660000 128 100 84 0
5.060000 15.840000 0.660000 126 98 82 0
5.720000 15.840000 0.550000 126 96 80 0
5.940000 15.840000 0.550000 127 97 81 0
6.160000 15.840000 0.550000 125 95 79 0
6.380000 15.840000 1.320000 126 93 79 0
6.600000 15.840000 1.980000 125 92 78 0
6.820000 15.840000 3.300000 125 93 77 0
7.040000 15.840000 3.960000 124 92 76 0
7.260000 15.840000 4.620000 127 90 76 0
7.480000 15.840000 7.370000 127 90 76 0
7.700000 15.840000 12.210000 129 89 74 0
7.920000 15.840000 14.300000 127 87 72 0
8.140000 15.840000 14.300000 128 88 73 0
8.360000 15.840000 14.300000 128 88 73 0
8.580000 15.840000 13.640000 131 87 71 0
8.800000 15.840000 12.320000 130 86 70 0
9.020000 15.840000 6.050000 134 84 70 0
9.240000 15.840000 1.210000 133 83 69 0
9.460000 15.840000 1.320000 135 83 67 0
9.680000 15.840000 5.390000 136 84 68 0
9.900000 15.840000 12.320000 137 83 68 0
10.120000 15.840000 17.160000 137 83 68 0
10.340000 15.840000 18.590000 140 83 69 0
10.560000 15.840000 19.250000 140 83 69 0
10.780000 15.840000 14.410000 141 84 70 0
11.000000 15.840000 5.500000 141 84 70 0
11.220000 15.840000 2.750000 141 84 70 0
11.440000 15.840000 6.820000 141 84 70 0
11.660000 15.840000 9.680000 143 84 71 0
11.880000 15.840000 6.820000 143 84 71 0
12.100000 15.840000 8.250000 143 84 71 0
12.320000 15.840000 16.500000 144 85 72 0
12.540000 15.840000 15.180000 145 86 73 0
12.760000 15.840000 9.570000 146 87 74 0
12.980000 15.840000 14.520000 147 87 74 0
13.200000 15.840000 19.250000 147 87 74 0
13.420000 15.840000 18.370000 147 87 74 0
13.640000 15.840000 18.150000 148 88 75 0
13.860000 15.840000 18.920000 149 89 76 0
14.080000 15.840000 18.260000 149 89 76 0
14.300000 15.840000 12.210000 150 90 77 0
14.520000 15.840000 3.300000 151 91 78 0
14.960000 15.840000 0.880000 153 93 80 0
15.180000 15.840000 1.540000 154 94 81 0
15.400000 15.840000 1.650000 155 95 82 0
15.620000 15.840000 1.100000 157 97 84 0
15.840000 15.840000 0.550000 159 99 86 0
16.060000 15.840000 0.660000 160 100 87 0
16.500000 15.840000 0.660000 159 99 86 0
16.720000 15.840000 0.660000 158 98 85 0
16.940000 15.840000 1.210000 156 93 79 0
17.160000 15.840000 2.310000 154 91 77 0
17.380000 15.840000 2.860000 152 88 74 0
17.600000 15.840000 2.860000 152 88 74 0
17.820000 15.840000 2.860000 154 86 72 0
18.040000 15.840000 2.860000 153 85 71 0
18.260000 15.840000 2.860000 153 83 70 0
18.480000 15.840000 2.970000 153 83 70 0
18.700000 15.840000 2.310000 156 82 66 0
18.920000 15.840000 2.420000 155 81 65 0
19.140000 15.840000 2.530000 155 81 67 0
19.360000 15.840000 2.530000 151 77 63 0
19.580000 15.840000 3.960000 153 76 61 0
19.800000 15.840000 4.400000 151 74 59 0
20.020000 15.840000 4.290000 151 72 60 0
20.240000 15.840000 3.630000 151 72 60 0
20.460000 15.840000 2.970000 150 73 58 0
20.680000 15.840000 3.630000 152 75 60 0
20.900000 15.840000 3.630000 158 85 63 0
21.120000 15.840000 3.740000 167 94 72 0
21.340000 15.840000 3.740000 166 94 75 0
21.560000 15.840000 3.850000 163 91 72 0
21.780000 15.840000 3.850000 164 81 72 0
22.000000 15.840000 3.850000 151 68 59 0
22.220000 15.840000 3.300000 148 63 55 0
22.440000 15.840000 2.530000 147 62 54 0
22.660000 15.840000 2.420000 145 60 52 0
22.880000 15.840000 2.310000 144 59 51 0
23.100000 15.840000 2.970000 145 60 52 0
23.320000 15.840000 3.080000 145 60 52 0
23.540000 15.840000 2.420000 145 60 52 0
23.760000 15.840000 2.530000 144 59 51 0
23.980000 15.840000 2.530000 144 59 51 0
24.200000 15.840000 2.640000 143 58 50 0
24.420000 15.840000 2.750000 143 58 50 0
24.640000 15.840000 2.750000 142 57 49 0
24.860000 15.840000 3.410000 143 58 50 0
25.080000 15.840000 3.850000 142 57 49 0
25.300000 15.840000 5.060000 142 57 49 0
25.520000 15.840000 5.170000 142 57 49 0
25.740000 15.840000 5.280000 141 56 48 0
25.960000 15.840000 5.280000 142 57 49 0
26.180000 15.840000 4.620000 141 56 49 0
26.400000 15.840000 4.620000 141 56 49 0
26.620000 15.840000 5.280000 140 55 47 0
26.840000 15.840000 5.280000 140 55 47 0
27.060000 15.840000 5.940000 138 54 47 0
27.280000 15.840000 5.940000 139 55 48 0
27.500000 15.840000 5.280000 138 58 54 0
27.720000 15.840000 4.620000 143 63 59 0
27.940000 15.840000 3.960000 137 71 68 0
28.160000 15.840000 2.530000 142 76 73 0
28.380000 15.840000 1.870000 143 82 84 0
28.600000 15.840000 5.940000 144 83 85 0
28.820000 15.840000 15.620000 145 84 84 0
29.040000 15.840000 20.570000 146 85 85 0
29.260000 15.840000 18.480000 145 84 84 0
29.480000 15.840000 14.410000 144 83 83 0
29.700000 15.840000 9.570000 146 77 75 0
29.920000 15.840000 4.070000 144 75 73 0
30.140000 15.840000 0.660000 145 75 72 0
31.020000 15.840000 0.660000 145 75 70 0
31.240000 15.840000 1.320000 143 73 68 0
31.460000 15.840000 1.870000 140 72 68 0
31.680000 15.840000 2.420000 140 72 68 0
31.900000 15.840000 2.420000 142 72 69 0
32.120000 15.840000 2.530000 143 73 70 0
32.340000 15.840000 2.530000 142 77 70 0
32.560000 15.840000 2.530000 145 80 73 0
32.780000 15.840000 2.530000 146 82 75 0
33.000000 15.840000 2.640000 148 84 77 0
33.220000 15.840000 2.640000 148 88 82 0
33.440000 15.840000 2.640000 150 90 84 0
33.660000 15.840000 3.300000 152 92 87 0
33.880000 15.840000 3.740000 154 94 89 0
34.100000 15.840000 3.520000 152 97 90 0
34.320000 15.840000 3.520000 154 99 92 0
34.540000 15.840000 3.520000 150 100 94 0
34.760000 15.840000 3.630000 149 99 93 0
34.980000 15.840000 3.630000 151 100 94 0
35.200000 15.840000 4.290000 149 98 92 0
35.420000 15.840000 4.290000 152 92 86 0
35.640000 15.840000 5.060000 149 89 83 0
35.860000 15.840000 5.060000 149 86 76 0
36.080000 15.840000 5.060000 148 85 75 0
36.300000 15.840000 5.170000 149 82 71 0
36.520000 15.840000 5.170000 147 80 69 0
36.740000 15.840000 4.510000 146 77 65 0
36.960000 15.840000 3.740000 145 76 64 0
37.180000 15.840000 3.740000 146 77 65 0
0.000000 16.060000 2.970000 131 112 92 0
0.220000 16.060000 3.630000 133 109 92 0
0.440000 16.060000 3.520000 133 109 92 0
0.660000 16.060000 3.520000 132 110 91 0
0.880000 16.060000 3.630000 132 110 91 0
1.100000 16.060000 2.860000 131 109 91 0
1.320000 16.060000 2.860000 131 109 91 0
1.540000 16.060000 3.630000 130 108 89 0
1.760000 16.060000 3.630000 130 108 89 0
1.980000 16.060000 2.860000 131 108 89 0
2.200000 16.060000 2.860000 130 107 88 0
2.420000 16.060000 2.860000 130 108 89 0
2.640000 16.060000 2.860000 128 106 87 0
2.860000 16.060000 2.860000 130 106 89 0
3.080000 16.060000 2.090000 130 106 89 0
3.300000 16.060000 2.090000 129 106 87 0
3.520000 16.060000 2.090000 129 106 87 0
3.740000 16.060000 2.200000 130 104 86 0
3.960000 16.060000 1.760000 129 103 85 0
4.180000 16.060000 1.320000 128 105 86 0
4.400000 16.060000 0.660000 128 105 86 0
4.620000 16.060000 0.660000 128 102 84 0
4.840000 16.060000 0.660000 127 101 83 0
5.720000 16.060000 0.550000 126 98 81 0
5.940000 16.060000 0.550000 126 96 80 0
6.160000 16.060000 1.210000 125 95 79 0
6.380000 16.060000 1.980000 126 94 78 0
6.600000 16.060000 3.300000 126 94 78 0
6.820000 16.060000 4.730000 125 91 76 0
7.040000 16.060000 5.390000 125 91 76 0
7.260000 16.060000 6.050000 127 90 76 0
7.480000 16.060000 8.800000 127 90 76 0
7.700000 16.060000 12.980000 128 90 76 0
7.920000 16.060000 14.300000 127 89 75 0
8.140000 16.060000 14.300000 130 87 73 0
8.360000 16.060000 14.300000 129 86 72 0
8.580000 16.060000 14.300000 134 84 68 0
8.800000 16.060000 14.300000 134 84 68 0
9.020000 16.060000 11.660000 135 83 67 0
9.240000 16.060000 6.820000 135 83 67 0
9.460000 16.060000 6.820000 137 83 68 0
9.680000 16.060000 13.090000 137 83 68 0
9.900000 16.060000 17.160000 139 82 68 0
10.120000 16.060000 17.930000 139 82 68 0
10.340000 16.060000 18.590000 140 83 69 0
10.560000 16.060000 19.250000 140 83 69 0
10.780000 16.060000 14.410000 138 84 69 0
11.000000 16.060000 8.250000 138 84 69 0
11.220000 16.060000 11.000000 142 83 70 0
11.440000 16.060000 15.840000 142 83 70 0
11.660000 16.060000 17.270000 142 83 70 0
11.880000 16.060000 15.840000 142 83 70 0
12.100000 16.060000 15.840000 144 85 72 0
12.320000 16.060000 18.590000 145 86 73 0
12.540000 16.060000 15.840000 144 85 72 0
12.760000 16.060000 11.660000 145 86 73 0
12.980000 16.060000 15.180000 146 86 73 0
13.200000 16.060000 18.590000 147 87 74 0
13.420000 16.060000 17.820000 148 88 75 0
13.640000 16.060000 18.370000 148 88 75 0
13.860000 16.060000 18.370000 148 88 75 0
14.080000 16.060000 15.620000 149 89 76 0
14.300000 16.060000 6.710000 150 90 77 0
14.520000 16.060000 0.550000 151 91 78 0
14.960000 16.060000 0.880000 156 93 81 0
15.180000 16.060000 1.540000 154 93 83 0
15.400000 16.060000 0.990000 156 95 85 0
15.620000 16.060000 0.550000 158 98 85 0
15.840000 16.060000 0.660000 160 100 87 0
16.060000 16.060000 0.660000 159 99 86 0
16.500000 16.060000 0.660000 160 97 85 0
16.720000 16.060000 0.660000 158 95 83 0
16.940000 16.060000 1.760000 157 93 79 0
17.160000 16.060000 2.860000 154 90 76 0
17.380000 16.060000 2.860000 156 88 74 0
17.600000 16.060000 2.860000 155 87 73 0
17.820000 16.060000 2.860000 154 86 72 0
18.040000 16.060000 2.860000 153 85 71 0
18.260000 16.060000 2.860000 154 84 71 0
18.480000 16.060000 2.970000 153 83 70 0
18.700000 16.060000 2.310000 154 82 65 0
18.920000 16.060000 2.420000 154 82 65 0
19.140000 16.060000 2.420000 154 80 66 0
19.360000 16.060000 3.190000 152 78 64 0
19.580000 16.060000 3.850000 153 74 62 0
19.800000 16.060000 4.400000 152 73 61 0
20.020000 16.060000 4.290000 150 73 60 0
20.240000 16.060000 3.630000 150 73 60 0
20.460000 16.060000 2.970000 147 75 58 0
20.680000 16.060000 3.740000 151 79 62 0
20.900000 16.060000 3.740000 163 97 68 0
21.120000 16.060000 3.740000 164 98 69 0
21.340000 16.060000 3.740000 168 95 75 0
21.560000 16.060000 3.850000 164 91 71 0
21.780000 16.060000 3.850000 156 73 62 0
22.000000 16.060000 3.190000 147 64 53 0
22.220000 16.060000 2.530000 147 62 54 0
22.440000 16.060000 2.530000 146 61 53 0
22.660000 16.060000 2.310000 145 60 52 0
22.880000 16.060000 2.970000 145 60 52 0
23.100000 16.060000 2.970000 145 60 50 0
23.320000 16.060000 3.080000 145 60 50 0
23.540000 16.060000 2.420000 144 59 51 0
23.760000 16.060000 2.530000 144 59 51 0
23.980000 16.060000 2.530000 143 58 50 0
24.200000 16.060000 2.640000 142 57 49 0
24.420000 16.060000 2.750000 143 58 51 0
24.640000 16.060000 2.750000 143 58 51 0
24.860000 16.060000 3.410000 142 57 49 0
25.080000 16.060000 3.960000 143 58 50 0
25.300000 16.060000 5.170000 141 56 48 0
25.520000 16.060000 5.280000 141 56 48 0
25.740000 16.060000 5.280000 142 57 49 0
25.960000 16.060000 5.280000 141 56 48 0
26.180000 16.060000 4.620000 142 57 50 0
26.400000 16.060000 4.620000 142 57 50 0
26.620000 16.060000 5.280000 140 55 47 0
26.840000 16.060000 5.280000 140 55 47 0
27.060000 16.060000 5.940000 139 55 48 0
27.280000 16.060000 6.050000 140 56 49 0
27.500000 16.060000 5.280000 135 65 63 0
27.720000 16.060000 4.620000 140 70 68 0
27.940000 16.060000 3.300000 139 75 71 0
28.160000 16.060000 1.870000 144 80 76 0
28.380000 16.060000 0.440000 144 81 84 0
28.600000 16.060000 5.280000 144 81 84 0
28.820000 16.060000 14.960000 145 83 81 0
29.040000 16.060000 19.250000 145 83 81 0
29.260000 16.060000 16.500000 146 82 78 0
29.480000 16.060000 12.320000 146 82 78 0
29.700000 16.060000 5.500000 144 78 75 0
29.920000 16.060000 0.660000 143 77 74 0
31.020000 16.060000 0.660000 144 74 71 0
31.240000 16.060000 1.210000 141 71 68 0
31.460000 16.060000 2.530000 140 70 67 0
31.680000 16.060000 2.420000 141 71 68 0
31.900000 16.060000 2.420000 140 74 70 0
32.120000 16.060000 1.760000 141 75 71 0
32.340000 16.060000 2.530000 143 79 74 0
32.560000 16.060000 2.530000 144 80 75 0
32.780000 16.060000 2.530000 142 84 77 0
33.000000 16.060000 2.640000 146 88 81 0
33.220000 16.060000 2.640000 151 91 85 0
33.440000 16.060000 2.750000 150 90 84 0
33.660000 16.060000 2.530000 152 92 87 0
33.880000 16.060000 3.630000 154 94 89 0
34.100000 16.060000 3.520000 150 96 91 0
34.320000 16.060000 3.520000 151 97 92 0
34.540000 16.060000 3.520000 149 99 93 0
34.760000 16.060000 3.630000 149 99 93 0
34.980000 16.060000 3.630000 153 95 89 0
35.200000 16.060000 4.290000 152 94 88 0
35.420000 16.060000 4.290000 152 88 81 0
35.640000 16.060000 5.060000 149 85 78 0
35.860000 16.060000 5.060000 147 82 71 0
36.080000 16.060000 5.170000 146 81 70 0
36.300000 16.060000 5.170000 148 79 69 0
36.520000 16.060000 4.510000 147 78 68 0
36.740000 16.060000 3.740000 146 77 67 0
36.960000 16.060000 3.080000 146 77 67 0
37.180000 16.060000 3.740000 145 78 65 0
0.000000 16.280000 2.970000 132 113 93 0
0.220000 16.280000 3.630000 134 110 93 0
0.440000 16.280000 3.520000 134 110 93 0
0.660000 16.280000 3.520000 132 110 91 0
0.880000 16.280000 3.630000 131 109 90 0
1.100000 16.280000 2.860000 131 109 91 0
1.320000 16.280000 2.860000 130 108 90 0
1.540000 16.280000 3.630000 131 109 90 0
1.760000 16.280000 3.630000 131 109 90 0
1.980000 16.280000 2.860000 131 108 89 0
2.200000 16.280000 2.860000 130 107 88 0
2.420000 16.280000 2.860000 129 107 88 0
2.640000 16.280000 2.860000 129 107 88 0
2.860000 16.280000 2.200000 130 106 89 0
3.080000 16.280000 2.090000 130 106 89 0
3.300000 16.280000 2.090000 129 106 87 0
3.520000 16.280000 2.090000 129 106 87 0
3.740000 16.280000 2.090000 131 105 87 0
3.960000 16.280000 1.650000 131 105 87 0
4.180000 16.280000 1.210000 127 104 85 0
4.400000 16.280000 0.660000 127 104 85 0
4.620000 16.280000 0.660000 129 103 85 0
4.840000 16.280000 0.660000 128 102 84 0
5.060000 16.280000 0.660000 128 100 84 0
5.940000 16.280000 0.550000 126 96 80 0
6.160000 16.280000 1.210000 126 96 80 0
6.380000 16.280000 2.640000 126 94 78 0
6.600000 16.280000 4.730000 125 93 77 0
6.820000 16.280000 6.710000 124 90 75 0
7.040000 16.280000 7.370000 125 91 76 0
7.260000 16.280000 8.030000 128 91 77 0
7.480000 16.280000 10.890000 129 92 78 0
7.700000 16.280000 13.640000 128 90 76 0
7.920000 16.280000 14.300000 127 89 75 0
8.140000 16.280000 14.300000 130 87 73 0
8.360000 16.280000 13.640000 129 86 72 0
8.580000 16.280000 14.300000 133 83 67 0
8.800000 16.280000 15.730000 134 84 68 0
9.020000 16.280000 16.500000 135 83 67 0
9.240000 16.280000 15.070000 135 83 67 0
9.460000 16.280000 15.840000 136 82 67 0
9.680000 16.280000 17.930000 137 83 68 0
9.900000 16.280000 18.590000 140 83 69 0
10.120000 16.280000 17.930000 139 82 68 0
10.340000 16.280000 18.590000 140 83 69 0
10.560000 16.280000 19.250000 141 84 70 0
10.780000 16.280000 15.840000 139 85 70 0
11.000000 16.280000 12.430000 139 85 70 0
11.220000 16.280000 15.840000 142 83 70 0
11.440000 16.280000 20.020000 141 82 69 0
11.660000 16.280000 19.250000 141 82 69 0
11.880000 16.280000 20.020000 143 84 71 0
12.100000 16.280000 20.020000 144 85 72 0
12.320000 16.280000 20.020000 145 86 73 0
12.540000 16.280000 18.590000 145 86 73 0
12.760000 16.280000 17.160000 146 87 74 0
12.980000 16.280000 17.930000 147 87 74 0
13.200000 16.280000 17.930000 148 88 75 0
13.420000 16.280000 17.820000 147 87 74 0
13.640000 16.280000 17.710000 148 88 75 0
13.860000 16.280000 18.370000 150 90 77 0
14.080000 16.280000 14.300000 150 90 77 0
14.300000 16.280000 4.620000 151 91 78 0
14.960000 16.280000 0.990000 155 92 80 0
15.180000 16.280000 1.540000 155 94 84 0
15.400000 16.280000 1.100000 155 94 84 0
15.620000 16.280000 0.550000 159 99 86 0
15.840000 16.280000 0.660000 159 99 86 0
16.060000 16.280000 0.660000 161 101 88 0
16.280000 16.280000 0.660000 160 100 87 0
16.500000 16.280000 0.660000 160 97 85 0
16.720000 16.280000 1.210000 158 95 83 0
16.940000 16.280000 2.310000 156 92 78 0
17.160000 16.280000 2.860000 154 90 76 0
17.380000 16.280000 2.860000 156 88 74 0
17.600000 16.280000 2.860000 154 86 72 0
17.820000 16.280000 2.860000 154 86 72 0
18.040000 16.280000 2.860000 154 86 72 0
18.260000 16.280000 2.970000 153 83 70 0
18.480000 16.280000 2.970000 153 83 70 0
18.700000 16.280000 2.310000 155 83 66 0
18.920000 16.280000 2.420000 154 82 65 0
19.140000 16.280000 3.080000 153 79 65 0
19.360000 16.280000 3.740000 152 78 64 0
19.580000 16.280000 4.400000 153 74 62 0
19.800000 16.280000 4.400000 152 73 61 0
20.020000 16.280000 3.630000 151 74 61 0
20.240000 16.280000 3.630000 151 74 61 0
20.460000 16.280000 2.970000 149 77 60 0
20.680000 16.280000 3.740000 157 85 68 0
20.900000 16.280000 3.740000 166 100 71 0
21.120000 16.280000 3.740000 165 99 70 0
21.340000 16.280000 3.850000 168 95 75 0
21.560000 16.280000 3.850000 160 87 67 0
21.780000 16.280000 3.850000 154 71 60 0
22.000000 16.280000 3.300000 148 65 54 0
22.220000 16.280000 2.530000 147 62 54 0
22.440000 16.280000 2.420000 147 62 54 0
22.660000 16.280000 2.310000 146 61 53 0
22.880000 16.280000 2.970000 145 60 52 0
23.100000 16.280000 2.970000 145 60 50 0
23.320000 16.280000 3.080000 144 59 49 0
23.540000 16.280000 2.420000 144 59 51 0
23.760000 16.280000 2.530000 144 59 51 0
23.980000 16.280000 2.530000 142 57 49 0
24.200000 16.280000 2.640000 143 58 50 0
24.420000 16.280000 2.640000 144 59 52 0
24.640000 16.280000 3.410000 143 58 51 0
24.860000 16.280000 3.410000 142 57 49 0
25.080000 16.280000 3.960000 141 56 48 0
25.300000 16.280000 5.170000 142 57 49 0
25.520000 16.280000 5.280000 141 56 48 0
25.740000 16.280000 5.280000 142 57 49 0
25.960000 16.280000 4.620000 141 56 48 0
26.180000 16.280000 4.620000 142 57 50 0
26.400000 16.280000 4.620000 142 57 50 0
26.620000 16.280000 4.620000 141 56 48 0
26.840000 16.280000 5.280000 142 57 49 0
27.060000 16.280000 5.280000 140 56 49 0
27.280000 16.280000 5.390000 142 58 51 0
27.500000 16.280000 4.620000 138 68 66 0
27.720000 16.280000 3.960000 142 72 70 0
27.940000 16.280000 2.530000 142 78 74 0
28.160000 16.280000 1.210000 146 82 78 0
28.600000 16.280000 3.960000 142 79 82 0
28.820000 16.280000 11.550000 143 81 79 0
29.040000 16.280000 12.320000 144 82 80 0
29.260000 16.280000 6.820000 146 82 78 0
29.480000 16.280000 3.410000 144 80 76 0
29.700000 16.280000 0.660000 145 79 76 0
29.920000 16.280000 1.320000 145 79 76 0
30.140000 16.280000 3.410000 144 78 74 0
30.360000 16.280000 3.410000 144 78 74 0
30.580000 16.280000 1.320000 145 75 70 0
31.020000 16.280000 0.550000 142 72 69 0
31.240000 16.280000 1.870000 141 71 68 0
31.460000 16.280000 1.760000 141 71 68 0
31.680000 16.280000 2.420000 142 72 69 0
31.900000 16.280000 1.760000 140 74 70 0
32.120000 16.280000 1.760000 143 77 73 0
32.340000 16.280000 2.530000 143 79 74 0
32.560000 16.280000 2.530000 146 82 77 0
32.780000 16.280000 2.640000 144 86 79 0
33.000000 16.280000 2.640000 148 90 83 0
33.220000 16.280000 2.640000 150 90 84 0
33.440000 16.280000 2.640000 151 91 85 0
33.660000 16.280000 2.530000 153 93 88 0
33.880000 16.280000 3.630000 153 93 88 0
34.100000 16.280000 3.520000 149 95 90 0
34.320000 16.280000 3.520000 150 96 91 0
34.540000 16.280000 3.630000 147 97 91 0
34.760000 16.280000 3.630000 147 97 91 0
34.980000 16.280000 3.630000 152 94 88 0
35.200000 16.280000 4.290000 150 92 86 0
35.420000 16.280000 5.060000 151 87 80 0
35.640000 16.280000 5.060000 147 83 76 0
35.860000 16.280000 5.170000 148 83 72 0
36.080000 16.280000 5.170000 145 80 69 0
36.300000 16.280000 4.510000 147 78 68 0
36.520000 16.280000 4.510000 147 78 68 0
36.740000 16.280000 3.080000 146 77 67 0
36.960000 16.280000 3.080000 145 76 66 0
37.180000 16.280000 2.970000 145 78 65 0
0.000000 16.500000 2.970000 132 113 94 0
0.220000 16.500000 3.630000 135 113 94 0
0.440000 16.500000 3.630000 133 111 92 0
0.660000 16.500000 3.630000 133 111 93 0
0.880000 16.500000 3.630000 132 110 92 0
1.100000 16.500000 2.860000 131 109 90 0
1.320000 16.500000 2.860000 131 109 90 0
1.540000 16.500000 3.520000 131 109 90 0
1.760000 16.500000 3.520000 131 109 90 0
1.980000 16.500000 2.860000 131 109 90 0
2.200000 16.500000 2.860000 130 108 89 0
2.420000 16.500000 2.860000 133 107 89 0
2.640000 16.500000 2.860000 133 107 89 0
2.860000 16.500000 2.200000 131 108 87 0
3.080000 16.500000 2.090000 130 107 86 0
3.300000 16.500000 2.090000 132 106 88 0
3.520000 16.500000 2.090000 131 105 87 0
3.740000 16.500000 2.090000 129 106 87 0
3.960000 16.500000 1.540000 128 105 86 0
4.180000 16.500000 1.100000 129 103 85 0
4.400000 16.500000 1.320000 129 103 85 0
4.620000 16.500000 1.320000 130 104 84 0
4.840000 16.500000 0.660000 130 104 84 0
5.060000 16.500000 0.660000 129 101 84 0
5.940000 16.500000 0.550000 127 97 81 0
6.160000 16.500000 1.980000 127 97 81 0
6.380000 16.500000 4.070000 125 95 79 0
6.600000 16.500000 6.820000 122 92 76 0
6.820000 16.500000 8.140000 124 92 76 0
7.040000 16.500000 9.460000 125 93 77 0
7.260000 16.500000 10.780000 126 92 77 0
7.480000 16.500000 12.210000 127 93 78 0
7.700000 16.500000 13.640000 130 90 75 0
7.920000 16.500000 14.300000 129 89 74 0
8.140000 16.500000 14.300000 133 86 71 0
8.360000 16.500000 13.640000 132 85 70 0
8.580000 16.500000 14.300000 135 83 67 0
8.800000 16.500000 15.730000 135 83 67 0
9.020000 16.500000 17.160000 135 81 66 0
9.240000 16.500000 18.590000 136 82 67 0
9.460000 16.500000 19.250000 137 83 68 0
9.680000 16.500000 18.590000 137 83 68 0
9.900000 16.500000 17.820000 140 83 69 0
10.120000 16.500000 17.820000 139 82 68 0
10.340000 16.500000 18.590000 140 83 69 0
10.560000 16.500000 19.910000 141 84 70 0
10.780000 16.500000 18.590000 141 84 70 0
11.000000 16.500000 17.160000 141 84 70 0
11.220000 16.500000 18.590000 141 84 70 0
11.440000 16.500000 19.250000 140 83 69 0
11.660000 16.500000 19.250000 141 84 70 0
11.880000 16.500000 20.020000 143 86 72 0
12.100000 16.500000 20.020000 145 86 73 0
12.320000 16.500000 20.020000 145 86 73 0
12.540000 16.500000 20.020000 146 86 73 0
12.760000 16.500000 19.250000 147 87 74 0
12.980000 16.500000 18.590000 148 88 75 0
13.200000 16.500000 17.930000 147 87 74 0
13.420000 16.500000 17.820000 148 88 75 0
13.640000 16.500000 17.710000 149 89 76 0
13.860000 16.500000 18.370000 150 90 77 0
14.080000 16.500000 14.300000 151 91 78 0
14.300000 16.500000 4.620000 151 91 78 0
14.960000 16.500000 0.990000 156 93 81 0
15.180000 16.500000 0.990000 155 95 82 0
15.400000 16.500000 1.100000 156 96 83 0
15.620000 16.500000 0.550000 160 100 87 0
15.840000 16.500000 0.660000 159 99 86 0
16.060000 16.500000 0.660000 160 100 87 0
16.280000 16.500000 0.660000 161 101 88 0
16.500000 16.500000 1.210000 160 96 82 0
16.720000 16.500000 2.310000 159 95 81 0
16.940000 16.500000 2.860000 158 91 80 0
17.160000 16.500000 2.750000 156 89 78 0
17.380000 16.500000 2.860000 155 88 75 0
17.600000 16.500000 2.860000 154 87 74 0
17.820000 16.500000 2.860000 154 85 73 0
18.040000 16.500000 2.860000 153 84 72 0
18.260000 16.500000 2.970000 154 84 69 0
18.480000 16.500000 2.970000 154 84 69 0
18.700000 16.500000 2.310000 156 82 68 0
18.920000 16.500000 2.420000 154 80 66 0
19.140000 16.500000 3.080000 155 78 65 0
19.360000 16.500000 3.630000 154 77 64 0
19.580000 16.500000 4.400000 153 75 60 0
19.800000 16.500000 4.400000 152 74 59 0
20.020000 16.500000 3.740000 149 75 59 0
20.240000 16.500000 3.740000 149 75 59 0
20.460000 16.500000 3.740000 152 76 55 0
20.680000 16.500000 3.740000 166 90 69 0
20.900000 16.500000 3.740000 171 96 68 0
21.120000 16.500000 3.850000 170 95 67 0
21.340000 16.500000 3.850000 172 92 78 0
21.560000 16.500000 3.850000 158 78 64 0
21.780000 16.500000 3.960000 151 66 58 0
22.000000 16.500000 3.300000 148 63 55 0
22.220000 16.500000 2.530000 146 61 53 0
22.440000 16.500000 2.310000 145 60 52 0
22.660000 16.500000 2.970000 145 60 52 0
22.880000 16.500000 2.970000 144 59 51 0
23.100000 16.500000 3.080000 145 60 52 0
23.320000 16.500000 3.080000 144 59 51 0
23.540000 16.500000 3.190000 145 60 52 0
23.760000 16.500000 3.190000 143 58 50 0
23.980000 16.500000 2.640000 143 58 50 0
24.200000 16.500000 3.300000 142 57 49 0
24.420000 16.500000 3.190000 142 57 49 0
24.640000 16.500000 3.850000 142 57 49 0
24.860000 16.500000 3.960000 141 56 48 0
25.080000 16.500000 4.620000 142 57 49 0
25.300000 16.500000 5.170000 141 56 48 0
25.520000 16.500000 5.280000 141 56 48 0
25.740000 16.500000 4.620000 142 57 50 0
25.960000 16.500000 4.620000 142 57 50 0
26.180000 16.500000 4.620000 140 56 49 0
26.400000 16.500000 4.620000 140 56 49 0
26.620000 16.500000 4.620000 140 55 47 0
26.840000 16.500000 4.620000 142 57 49 0
27.060000 16.500000 4.620000 138 60 55 0
27.280000 16.500000 4.620000 140 62 57 0
27.500000 16.500000 4.620000 138 72 69 0
27.720000 16.500000 3.960000 142 76 73 0
27.940000 16.500000 1.870000 142 80 78 0
28.160000 16.500000 0.550000 143 81 79 0
28.600000 16.500000 1.210000 144 79 78 0
28.820000 16.500000 4.070000 144 80 76 0
29.040000 16.500000 3.410000 145 81 77 0
29.260000 16.500000 0.660000 142 80 78 0
29.700000 16.500000 0.660000 142 80 76 0
29.920000 16.500000 6.160000 142 80 76 0
30.140000 16.500000 11.000000 146 78 74 0
30.360000 16.500000 8.250000 144 76 72 0
30.580000 16.500000 1.980000 144 74 71 0
31.020000 16.500000 0.550000 142 72 67 0
31.240000 16.500000 1.210000 141 71 66 0
31.460000 16.500000 1.760000 140 70 65 0
31.680000 16.500000 1.760000 142 72 67 0
31.900000 16.500000 1.760000 140 74 70 0
32.120000 16.500000 1.870000 144 78 74 0
32.340000 16.500000 2.530000 145 81 76 0
32.560000 16.500000 2.530000 147 83 78 0
32.780000 16.500000 2.640000 146 86 80 0
33.000000 16.500000 2.640000 148 88 82 0
33.220000 16.500000 2.640000 149 91 85 0
33.440000 16.500000 2.640000 151 93 87 0
33.660000 16.500000 2.970000 150 94 90 0
33.880000 16.500000 3.520000 150 94 90 0
34.100000 16.500000 3.520000 150 96 91 0
34.320000 16.500000 3.520000 149 95 90 0
34.540000 16.500000 3.630000 150 95 85 0
34.760000 16.500000 3.630000 149 94 84 0
34.980000 16.500000 4.400000 151 90 82 0
35.200000 16.500000 4.400000 148 87 79 0
35.420000 16.500000 5.060000 149 84 73 0
35.640000 16.500000 5.830000 148 83 72 0
35.860000 16.500000 5.830000 148 81 70 0
36.080000 16.500000 4.510000 146 79 68 0
36.300000 16.500000 4.510000 145 76 64 0
36.520000 16.500000 3.850000 145 76 64 0
36.740000 16.500000 2.420000 146 77 65 0
36.960000 16.500000 2.420000 145 76 64 0
37.180000 16.500000 2.970000 146 78 64 0
0.000000 16.720000 2.970000 133 114 95 0
0.220000 16.720000 2.970000 134 112 93 0
0.440000 16.720000 3.630000 134 112 93 0
0.660000 16.720000 3.630000 134 112 94 0
0.880000 16.720000 3.630000 133 111 93 0
1.100000 16.720000 2.860000 132 110 91 0
1.320000 16.720000 2.860000 132 110 91 0
1.540000 16.720000 3.520000 131 109 90 0
1.760000 16.720000 3.630000 131 109 90 0
1.980000 16.720000 2.860000 131 109 90 0
2.200000 16.720000 2.860000 130 108 89 0
2.420000 16.720000 2.860000 133 107 89 0
2.640000 16.720000 2.860000 133 107 89 0
2.860000 16.720000 2.200000 131 108 87 0
3.080000 16.720000 2.090000 131 108 87 0
3.300000 16.720000 2.090000 132 106 88 0
3.520000 16.720000 1.430000 132 106 88 0
3.740000 16.720000 2.090000 130 107 88 0
3.960000 16.720000 2.090000 129 106 87 0
4.180000 16.720000 1.650000 130 104 86 0
4.400000 16.720000 1.210000 130 104 86 0
4.620000 16.720000 1.320000 130 104 84 0
4.840000 16.720000 1.320000 130 104 84 0
5.060000 16.720000 0.660000 129 101 84 0
5.500000 16.720000 0.550000 129 99 83 0
5.720000 16.720000 3.300000 128 98 82 0
5.940000 16.720000 3.960000 128 98 82 0
6.160000 16.720000 3.960000 126 96 80 0
6.380000 16.720000 6.050000 125 95 79 0
6.600000 16.720000 9.570000 124 94 78 0
6.820000 16.720000 10.120000 125 93 77 0
7.040000 16.720000 10.780000 125 93 77 0
7.260000 16.720000 12.210000 127 93 78 0
7.480000 16.720000 13.640000 127 93 78 0
7.700000 16.720000 14.300000 131 91 76 0
7.920000 16.720000 14.300000 129 89 74 0
8.140000 16.720000 14.300000 133 86 71 0
8.360000 16.720000 14.300000 132 85 70 0
8.580000 16.720000 14.410000 135 83 67 0
8.800000 16.720000 15.730000 135 83 67 0
9.020000 16.720000 17.160000 136 82 67 0
9.240000 16.720000 17.930000 136 82 67 0
9.460000 16.720000 18.590000 137 83 68 0
9.680000 16.720000 17.820000 137 83 68 0
9.900000 16.720000 17.820000 139 82 68 0
10.120000 16.720000 17.820000 140 83 69 0
10.340000 16.720000 19.250000 141 84 70 0
10.560000 16.720000 19.910000 141 84 70 0
10.780000 16.720000 19.910000 141 84 70 0
11.000000 16.720000 20.020000 141 84 70 0
11.220000 16.720000 19.250000 141 84 70 0
11.440000 16.720000 19.250000 140 83 69 0
11.660000 16.720000 19.250000 142 85 71 0
11.880000 16.720000 19.250000 142 85 71 0
12.100000 16.720000 19.250000 143 84 71 0
12.320000 16.720000 19.250000 145 86 73 0
12.540000 16.720000 19.250000 145 85 72 0
12.760000 16.720000 18.590000 147 87 74 0
12.980000 16.720000 18.590000 147 87 74 0
13.200000 16.720000 17.930000 147 87 74 0
13.420000 16.720000 17.820000 148 88 75 0
13.640000 16.720000 17.820000 149 89 76 0
13.860000 16.720000 18.480000 150 90 77 0
14.080000 16.720000 14.300000 151 91 78 0
14.300000 16.720000 4.620000 152 92 79 0
14.740000 16.720000 0.330000 155 92 80 0
14.960000 16.720000 0.990000 156 93 81 0
15.180000 16.720000 1.100000 156 96 83 0
15.400000 16.720000 0.550000 157 97 84 0
15.620000 16.720000 0.550000 159 99 86 0
15.840000 16.720000 0.660000 161 101 88 0
16.060000 16.720000 0.660000 160 100 87 0
16.280000 16.720000 1.320000 160 100 87 0
16.500000 16.720000 1.760000 161 97 83 0
16.720000 16.720000 2.860000 158 94 80 0
16.940000 16.720000 3.520000 158 91 80 0
17.160000 16.720000 2.860000 156 89 78 0
17.380000 16.720000 2.860000 155 88 75 0
17.600000 16.720000 2.860000 154 87 74 0
17.820000 16.720000 2.860000 154 85 73 0
18.040000 16.720000 2.860000 154 85 73 0
18.260000 16.720000 2.970000 153 83 68 0
18.480000 16.720000 2.970000 153 83 68 0
18.700000 16.720000 3.080000 156 82 68 0
18.920000 16.720000 3.080000 155 81 67 0
19.140000 16.720000 3.080000 154 77 64 0
19.360000 16.720000 3.740000 154 77 64 0
19.580000 16.720000 4.400000 153 75 60 0
19.800000 16.720000 3.740000 151 73 58 0
20.020000 16.720000 3.740000 149 75 59 0
20.240000 16.720000 3.740000 151 77 61 0
20.460000 16.720000 3.740000 156 80 59 0
20.680000 16.720000 3.740000 171 95 74 0
20.900000 16.720000 3.740000 172 97 69 0
21.120000 16.720000 3.850000 173 98 70 0
21.340000 16.720000 3.850000 170 90 76 0
21.560000 16.720000 3.850000 151 71 57 0
21.780000 16.720000 3.300000 148 63 55 0
22.000000 16.720000 3.190000 147 62 54 0
22.220000 16.720000 3.080000 146 61 53 0
22.440000 16.720000 2.970000 145 60 52 0
22.660000 16.720000 2.970000 145 60 52 0
22.880000 16.720000 2.970000 144 59 51 0
23.100000 16.720000 3.080000 144 59 51 0
23.320000 16.720000 3.080000 144 59 51 0
23.540000 16.720000 3.190000 143 58 50 0
23.760000 16.720000 3.190000 143 58 50 0
23.980000 16.720000 3.300000 143 58 50 0
24.200000 16.720000 3.190000 142 57 49 0
24.420000 16.720000 3.630000 141 56 48 0
24.640000 16.720000 4.290000 141 56 48 0
24.860000 16.720000 4.400000 142 57 49 0
25.080000 16.720000 4.620000 141 56 48 0
25.300000 16.720000 5.280000 140 55 47 0
25.520000 16.720000 4.510000 141 56 48 0
25.740000 16.720000 4.620000 141 56 49 0
25.960000 16.720000 4.620000 142 57 50 0
26.180000 16.720000 4.620000 141 57 50 0
26.400000 16.720000 4.620000 141 57 50 0
26.620000 16.720000 4.070000 141 56 48 0
26.840000 16.720000 4.070000 142 57 49 0
27.060000 16.720000 4.730000 138 60 55 0
27.280000 16.720000 4.620000 143 65 60 0
27.500000 16.720000 4.620000 140 74 71 0
27.720000 16.720000 3.300000 144 78 75 0
27.940000 16.720000 1.870000 143 81 79 0
28.160000 16.720000 0.550000 143 81 79 0
28.380000 16.720000 0.550000 144 79 78 0
28.600000 16.720000 0.550000 144 79 78 0
28.820000 16.720000 0.660000 143 79 75 0
29.480000 16.720000 0.660000 143 81 79 0
29.700000 16.720000 5.500000 143 81 77 0
29.920000 16.720000 13.090000 144 82 78 0
30.140000 16.720000 14.410000 147 79 75 0
30.360000 16.720000 6.820000 144 76 72 0
30.580000 16.720000 1.320000 143 73 70 0
30.800000 16.720000 0.550000 143 73 70 0
31.020000 16.720000 0.550000 141 71 66 0
31.240000 16.720000 1.210000 141 71 66 0
31.460000 16.720000 1.870000 142 72 67 0
31.680000 16.720000 1.870000 142 72 67 0
31.900000 16.720000 1.870000 141 75 71 0
32.120000 16.720000 1.870000 143 77 73 0
32.340000 16.720000 2.530000 144 80 75 0
32.560000 16.720000 2.640000 147 83 78 0
32.780000 16.720000 2.640000 145 85 79 0
33.000000 16.720000 2.640000 147 87 81 0
33.220000 16.720000 1.980000 148 90 84 0
33.440000 16.720000 2.530000 151 93 87 0
33.660000 16.720000 2.970000 149 93 89 0
33.880000 16.720000 3.520000 149 93 89 0
34.100000 16.720000 3.520000 148 94 89 0
34.320000 16.720000 3.520000 148 94 89 0
34.540000 16.720000 3.630000 148 93 83 0
34.760000 16.720000 3.630000 146 91 81 0
34.980000 16.720000 4.400000 148 87 79 0
35.200000 16.720000 5.060000 147 86 78 0
35.420000 16.720000 5.720000 148 83 72 0
35.640000 16.720000 5.830000 146 81 70 0
35.860000 16.720000 5.830000 147 80 69 0
36.080000 16.720000 4.510000 145 78 67 0
36.300000 16.720000 4.620000 146 77 65 0
36.520000 16.720000 3.850000 145 76 64 0
36.740000 16.720000 2.530000 145 76 64 0
36.960000 16.720000 2.420000 145 76 64 0
37.180000 16.720000 2.970000 146 78 64 0
0.000000 16.940000 2.970000 133 114 94 0
0.220000 16.940000 2.970000 134 115 95 0
0.440000 16.940000 3.630000 134 115 95 0
0.660000 16.940000 3.630000 135 113 94 0
0.880000 16.940000 2.860000 134 112 93 0
1.100000 16.940000 2.860000 132 110 91 0
1.320000 16.940000 2.860000 132 110 91 0
1.540000 16.940000 3.520000 132 110 91 0
1.760000 16.940000 3.630000 132 110 91 0
1.980000 16.940000 2.860000 132 111 89 0
2.200000 16.940000 2.860000 131 110 88 0
2.420000 16.940000 2.860000 132 109 88 0
2.640000 16.940000 2.860000 132 109 88 0
2.860000 16.940000 2.200000 132 109 88 0
3.080000 16.940000 2.090000 132 109 88 0
3.300000 16.940000 2.090000 131 108 87 0
3.520000 16.940000 1.430000 130 107 86 0
3.740000 16.940000 2.090000 130 107 86 0
3.960000 16.940000 2.090000 130 107 86 0
4.180000 16.940000 2.200000 132 106 86 0
4.400000 16.940000 1.870000 131 105 85 0
4.620000 16.940000 1.320000 131 105 85 0
4.840000 16.940000 1.320000 130 104 84 0
5.060000 16.940000 0.660000 129 103 83 0
5.280000 16.940000 0.660000 128 102 82 0
5.500000 16.940000 2.640000 128 100 83 0
5.720000 16.940000 8.800000 128 100 83 0
5.940000 16.940000 10.890000 127 99 82 0
6.160000 16.940000 8.800000 126 98 81 0
6.380000 16.940000 9.570000 126 96 80 0
6.600000 16.940000 11.550000 126 96 80 0
6.820000 16.940000 11.550000 127 95 79 0
7.040000 16.940000 12.870000 125 93 77 0
7.260000 16.940000 13.530000 130 92 76 0
7.480000 16.940000 14.300000 130 92 76 0
7.700000 16.940000 14.960000 131 91 76 0
7.920000 16.940000 15.070000 130 90 75 0
8.140000 16.940000 14.300000 135 85 69 0
8.360000 16.940000 14.300000 134 84 68 0
8.580000 16.940000 15.070000 135 83 67 0
8.800000 16.940000 15.730000 135 83 67 0
9.020000 16.940000 17.160000 135 83 67 0
9.240000 16.940000 17.930000 135 83 67 0
9.460000 16.940000 17.930000 135 83 67 0
9.680000 16.940000 17.930000 136 84 68 0
9.900000 16.940000 17.820000 139 82 68 0
10.120000 16.940000 18.590000 139 82 68 0
10.340000 16.940000 19.250000 141 84 70 0
10.560000 16.940000 19.910000 141 84 70 0
10.780000 16.940000 19.910000 141 84 70 0
11.000000 16.940000 19.250000 141 84 70 0
11.220000 16.940000 19.250000 140 83 69 0
11.440000 16.940000 18.590000 141 84 70 0
11.660000 16.940000 19.250000 142 85 71 0
11.880000 16.940000 19.250000 143 86 72 0
12.100000 16.940000 19.250000 144 85 72 0
12.320000 16.940000 18.590000 144 85 72 0
12.540000 16.940000 18.590000 146 86 73 0
12.760000 16.940000 18.590000 147 87 74 0
12.980000 16.940000 17.820000 146 87 74 0
13.200000 16.940000 17.820000 146 87 74 0
13.420000 16.940000 17.820000 148 88 75 0
13.640000 16.940000 17.820000 149 89 76 0
13.860000 16.940000 19.140000 149 89 76 0
14.080000 16.940000 14.410000 151 91 78 0
14.300000 16.940000 4.620000 152 89 77 0
14.520000 16.940000 0.220000 154 91 79 0
14.740000 16.940000 0.990000 153 93 80 0
14.960000 16.940000 0.990000 154 94 81 0
15.180000 16.940000 1.100000 155 96 83 0
15.400000 16.940000 0.550000 157 98 85 0
15.620000 16.940000 0.660000 160 100 87 0
15.840000 16.940000 0.660000 161 101 88 0
16.060000 16.940000 0.660000 161 101 88 0
16.280000 16.940000 1.320000 159 99 86 0
16.500000 16.940000 2.420000 159 96 84 0
16.720000 16.940000 2.860000 155 92 80 0
16.940000 16.940000 3.520000 155 91 77 0
17.160000 16.940000 2.860000 153 89 75 0
17.380000 16.940000 2.860000 157 89 75 0
17.600000 16.940000 2.860000 155 87 73 0
17.820000 16.940000 2.860000 154 86 72 0
18.040000 16.940000 3.630000 153 85 71 0
18.260000 16.940000 2.970000 155 82 68 0
18.480000 16.940000 2.970000 154 81 67 0
18.700000 16.940000 3.080000 156 82 66 0
18.920000 16.940000 3.080000 154 80 64 0
19.140000 16.940000 3.740000 154 77 62 0
19.360000 16.940000 3.740000 154 77 62 0
19.580000 16.940000 3.740000 153 74 62 0
19.800000 16.940000 3.740000 152 73 61 0
20.020000 16.940000 3.740000 150 76 60 0
20.240000 16.940000 3.740000 151 77 61 0
20.460000 16.940000 3.740000 161 88 66 0
20.680000 16.940000 3.740000 170 97 75 0
20.900000 16.940000 3.740000 171 95 74 0
21.120000 16.940000 3.850000 170 94 73 0
21.340000 16.940000 3.850000 164 81 72 0
21.560000 16.940000 3.850000 150 67 58 0
21.780000 16.940000 3.300000 147 62 54 0
22.000000 16.940000 3.190000 145 60 52 0
22.220000 16.940000 2.970000 145 60 52 0
22.440000 16.940000 2.970000 145 60 52 0
22.660000 16.940000 2.970000 143 60 51 0
22.880000 16.940000 3.080000 143 60 51 0
23.100000 16.940000 3.080000 143 60 51 0
23.320000 16.940000 3.190000 143 60 51 0
23.540000 16.940000 3.190000 144 59 52 0
23.760000 16.940000 3.190000 142 57 50 0
23.980000 16.940000 3.300000 142 57 49 0
24.200000 16.940000 3.190000 142 57 49 0
24.420000 16.940000 4.290000 142 57 50 0
24.640000 16.940000 4.840000 141 56 49 0
24.860000 16.940000 5.060000 140 56 49 0
25.080000 16.940000 4.620000 141 57 50 0
25.300000 16.940000 4.620000 141 56 49 0
25.520000 16.940000 4.620000 141 56 49 0
25.740000 16.940000 4.620000 141 56 48 0
25.960000 16.940000 4.620000 142 57 49 0
26.180000 16.940000 3.960000 140 56 49 0
26.400000 16.940000 3.960000 141 57 50 0
26.620000 16.940000 4.070000 140 59 51 0
26.840000 16.940000 4.070000 140 59 51 0
27.060000 16.940000 4.070000 135 65 62 0
27.280000 16.940000 4.620000 140 70 67 0
27.500000 16.940000 4.620000 141 77 73 0
27.720000 16.940000 3.300000 143 79 75 0
27.940000 16.940000 1.870000 145 81 77 0
28.160000 16.940000 1.210000 143 79 75 0
28.380000 16.940000 1.210000 144 80 76 0
28.600000 16.940000 1.870000 143 79 75 0
28.820000 16.940000 1.320000 141 79 77 0
29.260000 16.940000 0.660000 143 81 79 0
29.480000 16.940000 5.500000 143 81 79 0
29.700000 16.940000 13.090000 144 82 78 0
29.920000 16.940000 17.930000 143 81 77 0
30.140000 16.940000 14.410000 146 78 74 0
30.360000 16.940000 4.070000 144 76 72 0
30.800000 16.940000 0.550000 142 72 67 0
31.020000 16.940000 0.550000 140 72 66 0
31.240000 16.940000 1.210000 140 72 66 0
31.460000 16.940000 1.210000 141 73 69 0
31.680000 16.940000 1.870000 142 74 70 0
31.900000 16.940000 1.870000 141 75 71 0
32.120000 16.940000 1.870000 145 79 75 0
32.340000 16.940000 1.870000 144 83 77 0
32.560000 16.940000 1.980000 145 84 78 0
32.780000 16.940000 1.980000 146 86 80 0
33.000000 16.940000 1.980000 147 87 81 0
33.220000 16.940000 2.090000 149 91 84 0
33.440000 16.940000 1.870000 150 92 85 0
33.660000 16.940000 2.970000 150 92 86 0
33.880000 16.940000 2.750000 150 92 86 0
34.100000 16.940000 2.860000 151 91 85 0
34.320000 16.940000 2.860000 152 92 86 0
34.540000 16.940000 2.970000 149 88 78 0
34.760000 16.940000 3.630000 148 87 77 0
34.980000 16.940000 4.400000 149 86 74 0
35.200000 16.940000 5.060000 146 83 71 0
35.420000 16.940000 6.490000 148 81 70 0
35.640000 16.940000 7.150000 146 79 68 0
35.860000 16.940000 5.940000 146 79 68 0
36.080000 16.940000 4.620000 144 77 66 0
36.300000 16.940000 4.620000 145 76 66 0
36.520000 16.940000 4.620000 145 76 66 0
36.740000 16.940000 3.190000 144 77 63 0
36.960000 16.940000 3.080000 144 77 63 0
37.180000 16.940000 2.970000 145 78 64 0
0.000000 17.160000 2.970000 135 116 96 0
0.220000 17.160000 2.970000 134 115 95 0
0.440000 17.160000 3.630000 134 115 95 0
0.660000 17.160000 3.630000 136 114 95 0
0.880000 17.160000 2.860000 135 113 94 0
1.100000 17.160000 2.860000 135 113 94 0
1.320000 17.160000 2.860000 133 111 92 0
1.540000 17.160000 3.630000 134 112 93 0
1.760000 17.160000 3.630000 133 111 92 0
1.980000 17.160000 2.860000 132 111 89 0
2.200000 17.160000 2.860000 133 112 90 0
2.420000 17.160000 2.860000 133 110 89 0
2.640000 17.160000 2.860000 134 111 90 0
2.860000 17.160000 2.860000 133 110 89 0
3.080000 17.160000 2.090000 132 109 88 0
3.300000 17.160000 2.090000 132 109 88 0
3.520000 17.160000 2.090000 131 108 87 0
3.740000 17.160000 2.090000 131 108 87 0
3.960000 17.160000 2.090000 131 108 87 0
4.180000 17.160000 2.200000 132 106 86 0
4.400000 17.160000 1.870000 132 106 86 0
4.620000 17.160000 1.320000 131 105 85 0
4.840000 17.160000 1.320000 131 105 85 0
5.060000 17.160000 1.320000 131 105 85 0
5.280000 17.160000 0.660000 129 103 83 0
5.500000 17.160000 1.320000 129 101 84 0
5.720000 17.160000 6.820000 128 100 83 0
5.940000 17.160000 14.300000 127 99 82 0
6.160000 17.160000 14.960000 127 99 82 0
6.380000 17.160000 13.640000 126 96 80 0
6.600000 17.160000 12.980000 126 96 80 0
6.820000 17.160000 12.870000 126 94 78 0
7.040000 17.160000 13.530000 126 94 78 0
7.260000 17.160000 14.300000 128 90 74 0
7.480000 17.160000 14.300000 129 91 75 0
7.700000 17.160000 14.960000 130 90 75 0
7.920000 17.160000 15.070000 130 90 75 0
8.140000 17.160000 15.070000 135 85 69 0
8.360000 17.160000 15.070000 134 84 68 0
8.580000 17.160000 15.070000 135 83 67 0
8.800000 17.160000 15.730000 135 83 67 0
9.020000 17.160000 16.500000 135 83 67 0
9.240000 17.160000 17.160000 135 83 67 0
9.460000 17.160000 17.160000 135 83 67 0
9.680000 17.160000 17.930000 136 84 68 0
9.900000 17.160000 17.930000 139 82 68 0
10.120000 17.160000 18.590000 140 83 69 0
10.340000 17.160000 19.250000 140 83 69 0
10.560000 17.160000 19.910000 140 83 69 0
10.780000 17.160000 19.910000 141 84 70 0
11.000000 17.160000 19.250000 141 84 70 0
11.220000 17.160000 18.590000 142 85 71 0
11.440000 17.160000 18.590000 141 84 70 0
11.660000 17.160000 19.250000 143 86 72 0
11.880000 17.160000 19.250000 143 86 72 0
12.100000 17.160000 18.590000 145 86 73 0
12.320000 17.160000 18.590000 145 86 73 0
12.540000 17.160000 17.930000 147 87 74 0
12.760000 17.160000 17.930000 147 87 74 0
12.980000 17.160000 17.820000 146 87 74 0
13.200000 17.160000 17.160000 146 87 74 0
13.420000 17.160000 17.160000 149 89 76 0
13.640000 17.160000 17.820000 149 89 76 0
13.860000 17.160000 19.250000 150 90 77 0
14.080000 17.160000 14.410000 151 91 78 0
14.300000 17.160000 4.620000 152 89 77 0
14.520000 17.160000 0.330000 154 91 79 0
14.740000 17.160000 0.990000 153 93 80 0
14.960000 17.160000 1.100000 154 94 81 0
15.180000 17.160000 0.440000 156 97 84 0
15.400000 17.160000 0.550000 158 99 86 0
15.840000 17.160000 0.660000 161 101 88 0
16.060000 17.160000 0.660000 161 101 88 0
16.280000 17.160000 1.870000 159 99 86 0
16.500000 17.160000 2.970000 157 94 82 0
16.720000 17.160000 3.520000 155 92 80 0
16.940000 17.160000 3.520000 155 91 77 0
17.160000 17.160000 2.860000 154 90 76 0
17.380000 17.160000 2.860000 156 88 74 0
17.600000 17.160000 2.860000 156 88 74 0
17.820000 17.160000 2.860000 154 86 72 0
18.040000 17.160000 3.630000 154 86 72 0
18.260000 17.160000 2.970000 156 83 69 0
18.480000 17.160000 2.970000 155 82 68 0
18.700000 17.160000 3.080000 154 80 64 0
18.920000 17.160000 3.080000 154 80 64 0
19.140000 17.160000 3.740000 154 77 62 0
19.360000 17.160000 3.740000 153 76 61 0
19.580000 17.160000 3.740000 153 74 62 0
19.800000 17.160000 3.740000 152 73 61 0
20.020000 17.160000 3.740000 150 76 60 0
20.240000 17.160000 3.740000 153 79 63 0
20.460000 17.160000 4.400000 165 92 70 0
20.680000 17.160000 4.510000 169 96 74 0
20.900000 17.160000 3.850000 169 93 72 0
21.120000 17.160000 4.510000 167 91 70 0
21.340000 17.160000 3.850000 157 74 65 0
21.560000 17.160000 3.960000 148 65 56 0
21.780000 17.160000 3.300000 147 62 54 0
22.000000 17.160000 2.530000 146 61 53 0
22.220000 17.160000 3.080000 145 60 52 0
22.440000 17.160000 2.970000 144 59 51 0
22.660000 17.160000 2.970000 143 60 51 0
22.880000 17.160000 2.420000 143 60 51 0
23.100000 17.160000 2.420000 143 60 51 0
23.320000 17.160000 3.190000 142 59 50 0
23.540000 17.160000 3.190000 143 58 51 0
23.760000 17.160000 3.300000 143 58 51 0
23.980000 17.160000 3.300000 142 57 49 0
24.200000 17.160000 3.960000 141 56 48 0
24.420000 17.160000 4.290000 141 56 49 0
24.640000 17.160000 5.610000 141 56 49 0
24.860000 17.160000 5.060000 140 56 49 0
25.080000 17.160000 4.510000 140 56 49 0
25.300000 17.160000 4.620000 142 57 50 0
25.520000 17.160000 4.620000 141 56 49 0
25.740000 17.160000 4.620000 140 55 47 0
25.960000 17.160000 3.960000 141 56 48 0
26.180000 17.160000 3.960000 140 56 49 0
26.400000 17.160000 4.510000 141 57 50 0
26.620000 17.160000 3.960000 141 60 52 0
26.840000 17.160000 4.070000 141 60 52 0
27.060000 17.160000 4.070000 137 67 64 0
27.280000 17.160000 4.730000 144 74 71 0
27.500000 17.160000 3.960000 141 77 73 0
27.720000 17.160000 3.300000 144 80 76 0
27.940000 17.160000 1.870000 144 80 76 0
28.160000 17.160000 1.870000 143 79 75 0
28.380000 17.160000 2.530000 143 79 75 0
28.600000 17.160000 1.760000 143 79 75 0
28.820000 17.160000 0.550000 141 79 77 0
29.040000 17.160000 0.660000 143 81 79 0
29.260000 17.160000 5.500000 143 81 79 0
29.480000 17.160000 13.090000 144 82 80 0
29.700000 17.160000 17.820000 144 82 78 0
29.920000 17.160000 19.250000 143 81 77 0
