ply
format ascii 1.0
element vertex 1145
property float x
property float y
property float z
property uchar red
property uchar green
property uchar blue
property uchar alpha
end_header
22.660000 27.060000 7.040000 148 74 68 0
22.880000 27.060000 7.040000 148 74 68 0
23.100000 27.060000 5.720000 145 73 69 0
23.320000 27.060000 1.980000 146 74 70 0
23.540000 27.060000 0.880000 146 74 70 0
24.200000 27.060000 1.100000 147 75 71 0
24.420000 27.060000 1.100000 146 74 70 0
24.640000 27.060000 2.420000 145 73 69 0
24.860000 27.060000 3.960000 146 75 68 0
25.080000 27.060000 3.960000 147 76 69 0
25.300000 27.060000 5.500000 146 76 71 0
25.520000 27.060000 5.280000 148 78 73 0
25.740000 27.060000 7.480000 150 78 74 0
25.960000 27.060000 7.040000 151 79 75 0
26.180000 27.060000 7.040000 149 81 75 0
26.400000 27.060000 7.040000 151 83 77 0
26.620000 27.060000 4.620000 153 85 77 0
26.840000 27.060000 2.420000 153 85 77 0
27.060000 27.060000 1.320000 152 87 80 0
27.280000 27.060000 1.320000 152 87 80 0
27.500000 27.060000 2.420000 152 84 78 0
27.720000 27.060000 3.740000 150 82 76 0
27.940000 27.060000 5.060000 151 83 77 0
28.160000 27.060000 6.380000 152 84 78 0
28.380000 27.060000 7.480000 153 85 77 0
28.600000 27.060000 7.920000 154 86 78 0
28.820000 27.060000 6.820000 151 87 80 0
29.040000 27.060000 8.140000 152 88 81 0
29.260000 27.060000 9.460000 151 93 84 0
29.480000 27.060000 10.780000 153 95 86 0
29.700000 27.060000 15.180000 137 114 101 0
29.920000 27.060000 20.460000 140 117 104 0
30.140000 27.060000 24.200000 142 122 108 0
30.360000 27.060000 25.740000 145 125 111 0
30.580000 27.060000 27.500000 147 124 111 0
30.800000 27.060000 28.600000 146 123 110 0
31.020000 27.060000 32.120000 147 124 111 0
31.240000 27.060000 33.220000 147 124 111 0
31.460000 27.060000 33.220000 146 126 112 0
31.680000 27.060000 33.220000 146 126 112 0
31.900000 27.060000 33.220000 146 126 110 0
32.120000 27.060000 33.220000 146 126 110 0
32.340000 27.060000 33.440000 147 127 113 0
32.560000 27.060000 34.760000 147 127 113 0
32.780000 27.060000 34.980000 148 125 112 0
33.000000 27.060000 34.980000 149 126 113 0
33.220000 27.060000 36.520000 150 128 112 0
33.440000 27.060000 38.060000 151 129 113 0
33.660000 27.060000 38.060000 150 130 114 0
33.880000 27.060000 36.740000 153 133 117 0
34.100000 27.060000 24.420000 157 135 119 0
34.320000 27.060000 6.380000 160 138 122 0
34.540000 27.060000 9.240000 159 141 124 0
34.760000 27.060000 29.920000 166 148 131 0
34.980000 27.060000 39.600000 169 151 136 0
35.200000 27.060000 39.820000 175 157 142 0
35.420000 27.060000 39.820000 179 162 149 0
35.640000 27.060000 38.280000 183 166 153 0
35.860000 27.060000 28.820000 189 176 163 0
36.080000 27.060000 8.140000 193 180 167 0
0.000000 27.280000 17.160000 139 111 102 0
0.220000 27.280000 11.440000 138 110 101 0
0.440000 27.280000 5.940000 138 110 101 0
0.660000 27.280000 4.840000 137 112 102 0
0.880000 27.280000 5.060000 137 112 102 0
1.100000 27.280000 6.600000 138 113 104 0
1.320000 27.280000 5.500000 140 115 106 0
1.540000 27.280000 5.500000 140 115 105 0
1.760000 27.280000 6.600000 140 115 105 0
1.980000 27.280000 6.380000 141 113 104 0
2.200000 27.280000 5.060000 139 111 102 0
2.420000 27.280000 6.600000 138 109 100 0
2.640000 27.280000 14.740000 135 106 97 0
2.860000 27.280000 28.600000 133 102 94 0
3.080000 27.280000 34.100000 134 103 95 0
3.300000 27.280000 34.320000 136 98 90 0
3.520000 27.280000 32.780000 134 96 88 0
3.740000 27.280000 30.140000 141 86 79 0
3.960000 27.280000 28.820000 136 81 74 0
4.180000 27.280000 30.140000 140 80 75 0
4.400000 27.280000 31.460000 139 79 74 0
4.620000 27.280000 33.000000 140 80 75 0
4.840000 27.280000 33.000000 139 79 74 0
5.060000 27.280000 33.000000 139 79 74 0
5.280000 27.280000 33.000000 139 79 74 0
5.500000 27.280000 35.640000 138 78 73 0
5.720000 27.280000 38.500000 139 79 74 0
5.940000 27.280000 28.820000 140 78 74 0
6.160000 27.280000 16.500000 140 78 74 0
6.380000 27.280000 13.640000 140 78 74 0
6.600000 27.280000 6.820000 140 78 74 0
8.580000 27.280000 1.320000 142 80 76 0
8.800000 27.280000 1.320000 143 81 77 0
9.020000 27.280000 2.640000 144 82 78 0
9.240000 27.280000 2.640000 144 82 78 0
9.460000 27.280000 2.420000 143 81 77 0
9.680000 27.280000 3.300000 145 83 79 0
9.900000 27.280000 3.300000 145 83 79 0
10.120000 27.280000 0.880000 145 83 79 0
10.340000 27.280000 0.880000 145 83 79 0
10.560000 27.280000 3.080000 147 85 81 0
10.780000 27.280000 2.860000 148 84 80 0
11.000000 27.280000 2.860000 149 85 81 0
11.220000 27.280000 2.860000 150 85 84 0
11.440000 27.280000 2.860000 150 85 84 0
11.660000 27.280000 2.860000 149 87 83 0
11.880000 27.280000 2.860000 150 88 84 0
12.100000 27.280000 2.860000 152 88 84 0
12.320000 27.280000 2.860000 152 88 84 0
12.540000 27.280000 2.860000 152 87 86 0
12.760000 27.280000 4.400000 153 88 87 0
12.980000 27.280000 4.400000 153 88 87 0
13.200000 27.280000 4.400000 154 89 88 0
13.420000 27.280000 4.400000 153 91 87 0
13.640000 27.280000 4.400000 154 92 88 0
13.860000 27.280000 4.400000 155 93 89 0
14.080000 27.280000 3.080000 155 93 89 0
14.300000 27.280000 3.080000 156 94 92 0
14.520000 27.280000 3.080000 154 92 90 0
14.740000 27.280000 1.540000 153 89 85 0
14.960000 27.280000 8.580000 150 86 82 0
15.180000 27.280000 25.300000 151 83 79 0
15.400000 27.280000 37.840000 149 81 77 0
15.620000 27.280000 32.340000 151 81 78 0
15.840000 27.280000 15.840000 150 80 77 0
16.060000 27.280000 4.840000 150 76 72 0
16.280000 27.280000 3.520000 149 75 71 0
16.500000 27.280000 3.520000 149 73 70 0
16.720000 27.280000 3.520000 147 71 68 0
16.940000 27.280000 2.200000 148 72 67 0
17.160000 27.280000 2.420000 146 70 65 0
17.380000 27.280000 1.100000 146 70 65 0
17.600000 27.280000 1.320000 145 69 64 0
17.820000 27.280000 1.320000 146 68 63 0
18.040000 27.280000 2.640000 146 68 63 0
18.260000 27.280000 2.640000 145 69 64 0
18.480000 27.280000 2.420000 145 69 64 0
18.700000 27.280000 2.420000 145 69 66 0
18.920000 27.280000 3.740000 145 69 66 0
19.140000 27.280000 3.740000 146 68 63 0
19.360000 27.280000 5.060000 146 68 63 0
19.580000 27.280000 6.600000 145 67 62 0
19.800000 27.280000 7.920000 143 65 60 0
20.020000 27.280000 7.920000 142 64 59 0
20.240000 27.280000 6.600000 143 65 60 0
20.460000 27.280000 6.600000 143 65 60 0
20.680000 27.280000 6.600000 143 65 60 0
20.900000 27.280000 8.140000 145 67 62 0
21.120000 27.280000 9.460000 147 69 64 0
21.340000 27.280000 10.780000 144 68 65 0
21.560000 27.280000 10.340000 146 70 67 0
21.780000 27.280000 10.120000 146 70 65 0
22.000000 27.280000 7.260000 146 70 65 0
22.220000 27.280000 7.260000 146 72 68 0
22.440000 27.280000 7.040000 147 73 69 0
22.660000 27.280000 7.040000 147 73 67 0
22.880000 27.280000 7.040000 148 74 68 0
23.100000 27.280000 5.720000 146 74 70 0
23.320000 27.280000 2.200000 147 75 71 0
23.540000 27.280000 0.880000 148 76 72 0
24.200000 27.280000 1.100000 147 75 71 0
24.420000 27.280000 1.100000 145 73 69 0
24.640000 27.280000 2.420000 147 75 71 0
24.860000 27.280000 3.960000 147 76 69 0
25.080000 27.280000 5.280000 145 74 67 0
25.300000 27.280000 5.280000 147 77 72 0
25.520000 27.280000 5.280000 147 77 72 0
25.740000 27.280000 6.380000 150 78 74 0
25.960000 27.280000 7.260000 149 77 73 0
26.180000 27.280000 7.040000 150 82 76 0
26.400000 27.280000 7.040000 151 83 77 0
26.620000 27.280000 4.620000 152 84 76 0
26.840000 27.280000 2.420000 154 86 78 0
27.060000 27.280000 1.320000 153 88 81 0
27.280000 27.280000 2.640000 153 88 81 0
27.500000 27.280000 2.420000 154 86 80 0
27.720000 27.280000 3.740000 153 85 79 0
27.940000 27.280000 5.280000 152 84 78 0
28.160000 27.280000 6.380000 151 83 77 0
28.380000 27.280000 9.020000 153 85 77 0
28.600000 27.280000 7.920000 154 86 78 0
28.820000 27.280000 8.140000 151 87 80 0
29.040000 27.280000 8.140000 152 88 81 0
29.260000 27.280000 9.460000 150 92 83 0
29.480000 27.280000 10.780000 153 95 86 0
29.700000 27.280000 15.180000 136 113 100 0
29.920000 27.280000 18.920000 140 117 104 0
30.140000 27.280000 22.660000 142 122 108 0
30.360000 27.280000 25.520000 146 126 112 0
30.580000 27.280000 27.280000 148 125 112 0
30.800000 27.280000 28.820000 148 125 112 0
31.020000 27.280000 31.020000 147 124 111 0
31.240000 27.280000 31.900000 148 125 112 0
31.460000 27.280000 31.900000 146 126 112 0
31.680000 27.280000 33.220000 146 126 112 0
31.900000 27.280000 33.220000 145 125 109 0
32.120000 27.280000 33.220000 148 128 112 0
32.340000 27.280000 33.440000 147 127 113 0
32.560000 27.280000 34.760000 147 127 113 0
32.780000 27.280000 34.980000 149 126 113 0
33.000000 27.280000 34.980000 150 127 114 0
33.220000 27.280000 36.520000 151 129 113 0
33.440000 27.280000 36.520000 151 129 113 0
33.660000 27.280000 38.060000 149 129 113 0
33.880000 27.280000 39.600000 152 132 116 0
34.100000 27.280000 32.560000 157 135 119 0
34.320000 27.280000 14.740000 161 139 123 0
34.540000 27.280000 11.880000 161 143 126 0
34.760000 27.280000 29.920000 167 149 132 0
34.980000 27.280000 39.600000 171 153 138 0
35.200000 27.280000 39.820000 176 158 143 0
35.420000 27.280000 39.820000 179 162 149 0
35.640000 27.280000 38.280000 185 168 155 0
35.860000 27.280000 28.820000 189 176 163 0
36.080000 27.280000 8.140000 194 181 168 0
0.000000 27.500000 18.480000 138 110 101 0
0.220000 27.500000 12.980000 138 110 101 0
0.440000 27.500000 5.940000 139 111 102 0
0.660000 27.500000 4.840000 140 112 103 0
0.880000 27.500000 5.060000 139 111 102 0
1.100000 27.500000 6.600000 138 113 103 0
1.320000 27.500000 5.500000 139 114 104 0
1.540000 27.500000 5.500000 140 115 105 0
1.760000 27.500000 6.600000 140 115 105 0
1.980000 27.500000 7.700000 142 114 105 0
2.200000 27.500000 6.380000 140 112 103 0
2.420000 27.500000 3.960000 138 109 100 0
2.640000 27.500000 10.780000 136 107 98 0
2.860000 27.500000 27.280000 135 104 96 0
3.080000 27.500000 35.640000 134 103 95 0
3.300000 27.500000 34.320000 138 100 94 0
3.520000 27.500000 32.780000 134 96 90 0
3.740000 27.500000 30.140000 145 87 80 0
3.960000 27.500000 30.140000 139 81 74 0
4.180000 27.500000 30.140000 139 79 73 0
4.400000 27.500000 31.460000 140 80 74 0
4.620000 27.500000 33.000000 139 79 74 0
4.840000 27.500000 33.000000 139 79 74 0
5.060000 27.500000 33.000000 138 78 72 0
5.280000 27.500000 34.320000 138 78 72 0
5.500000 27.500000 35.640000 139 79 73 0
5.720000 27.500000 38.500000 140 80 74 0
5.940000 27.500000 33.000000 142 81 75 0
6.160000 27.500000 24.640000 141 80 74 0
6.380000 27.500000 22.000000 140 78 74 0
6.600000 27.500000 8.140000 141 79 75 0
8.580000 27.500000 1.320000 144 80 75 0
8.800000 27.500000 1.320000 145 81 76 0
9.020000 27.500000 1.320000 142 80 76 0
9.240000 27.500000 2.640000 144 82 78 0
9.460000 27.500000 2.420000 144 82 78 0
9.680000 27.500000 3.080000 145 83 79 0
9.900000 27.500000 3.080000 147 83 79 0
10.120000 27.500000 2.200000 148 84 80 0
10.340000 27.500000 1.980000 149 85 81 0
10.560000 27.500000 2.860000 149 85 81 0
10.780000 27.500000 2.860000 149 85 81 0
11.000000 27.500000 2.860000 150 86 82 0
11.220000 27.500000 2.860000 150 86 82 0
11.440000 27.500000 2.860000 150 86 82 0
11.660000 27.500000 2.860000 152 88 84 0
11.880000 27.500000 1.540000 152 88 84 0
12.100000 27.500000 2.860000 151 87 83 0
12.320000 27.500000 2.860000 152 88 84 0
12.540000 27.500000 2.860000 153 89 85 0
12.760000 27.500000 2.860000 153 89 85 0
12.980000 27.500000 4.400000 153 91 87 0
13.200000 27.500000 4.400000 153 91 87 0
13.420000 27.500000 4.400000 153 91 87 0
13.640000 27.500000 4.400000 154 92 88 0
13.860000 27.500000 3.080000 157 92 91 0
14.080000 27.500000 3.080000 158 93 92 0
14.300000 27.500000 1.540000 156 94 90 0
14.520000 27.500000 1.540000 154 92 88 0
14.740000 27.500000 1.540000 154 90 86 0
14.960000 27.500000 3.080000 152 88 84 0
15.180000 27.500000 15.620000 151 85 81 0
15.400000 27.500000 33.660000 149 83 79 0
15.620000 27.500000 37.840000 151 81 76 0
15.840000 27.500000 28.160000 149 79 74 0
16.060000 27.500000 12.980000 149 77 75 0
16.280000 27.500000 4.840000 149 77 75 0
16.500000 27.500000 2.200000 150 74 71 0
16.720000 27.500000 2.200000 149 73 70 0
16.940000 27.500000 2.200000 150 72 67 0
17.160000 27.500000 2.420000 148 70 65 0
17.380000 27.500000 1.100000 148 70 65 0
17.600000 27.500000 1.100000 148 70 65 0
17.820000 27.500000 1.100000 147 68 66 0
18.040000 27.500000 2.640000 148 69 67 0
18.260000 27.500000 2.640000 148 70 65 0
18.480000 27.500000 2.640000 148 70 65 0
18.700000 27.500000 2.420000 147 69 64 0
18.920000 27.500000 2.420000 148 70 65 0
19.140000 27.500000 3.740000 147 69 64 0
19.360000 27.500000 5.060000 146 68 63 0
19.580000 27.500000 6.600000 144 65 63 0
19.800000 27.500000 7.920000 143 64 62 0
20.020000 27.500000 7.920000 142 64 59 0
20.240000 27.500000 6.600000 143 65 60 0
20.460000 27.500000 6.600000 142 64 59 0
20.680000 27.500000 6.600000 143 65 60 0
20.900000 27.500000 8.140000 145 67 62 0
21.120000 27.500000 9.460000 146 68 63 0
21.340000 27.500000 9.460000 145 69 66 0
21.560000 27.500000 10.780000 145 69 66 0
21.780000 27.500000 7.920000 147 71 66 0
22.000000 27.500000 6.600000 148 72 67 0
22.220000 27.500000 6.380000 148 72 67 0
22.440000 27.500000 7.260000 148 72 67 0
22.660000 27.500000 7.040000 147 73 67 0
22.880000 27.500000 7.040000 149 75 69 0
23.100000 27.500000 4.620000 149 75 71 0
23.320000 27.500000 2.200000 149 75 71 0
23.540000 27.500000 1.100000 148 77 70 0
23.760000 27.500000 1.100000 148 77 70 0
24.200000 27.500000 1.100000 148 74 68 0
24.420000 27.500000 1.100000 149 75 69 0
24.640000 27.500000 2.420000 148 74 68 0
24.860000 27.500000 3.960000 147 76 69 0
25.080000 27.500000 5.280000 146 75 68 0
25.300000 27.500000 5.280000 147 78 70 0
25.520000 27.500000 5.500000 148 79 71 0
25.740000 27.500000 5.280000 149 80 72 0
25.960000 27.500000 7.480000 149 80 72 0
26.180000 27.500000 7.040000 151 82 74 0
26.400000 27.500000 7.040000 153 84 76 0
26.620000 27.500000 5.940000 153 85 79 0
26.840000 27.500000 2.420000 154 86 80 0
27.060000 27.500000 1.320000 153 88 81 0
27.280000 27.500000 2.640000 153 88 81 0
27.500000 27.500000 2.420000 155 87 81 0
27.720000 27.500000 3.740000 153 85 79 0
27.940000 27.500000 6.600000 154 85 77 0
28.160000 27.500000 7.920000 154 85 77 0
28.380000 27.500000 9.460000 153 84 76 0
28.600000 27.500000 9.460000 153 84 76 0
28.820000 27.500000 9.460000 154 86 78 0
29.040000 27.500000 8.140000 154 86 78 0
29.260000 27.500000 8.140000 153 88 81 0
29.480000 27.500000 10.780000 157 92 85 0
29.700000 27.500000 13.640000 145 106 96 0
29.920000 27.500000 17.600000 151 112 102 0
30.140000 27.500000 21.120000 144 122 106 0
30.360000 27.500000 25.300000 147 125 109 0
30.580000 27.500000 25.960000 148 126 110 0
30.800000 27.500000 27.500000 148 126 110 0
31.020000 27.500000 29.920000 149 125 110 0
31.240000 27.500000 32.120000 148 124 109 0
31.460000 27.500000 31.900000 150 126 111 0
31.680000 27.500000 33.220000 148 124 109 0
31.900000 27.500000 33.220000 150 128 112 0
32.120000 27.500000 33.220000 149 127 111 0
32.340000 27.500000 33.440000 149 127 109 0
32.560000 27.500000 34.760000 149 127 109 0
32.780000 27.500000 34.760000 151 127 112 0
33.000000 27.500000 34.980000 151 127 112 0
33.220000 27.500000 34.980000 151 127 112 0
33.440000 27.500000 36.520000 153 129 114 0
33.660000 27.500000 36.740000 152 130 112 0
33.880000 27.500000 38.060000 155 133 115 0
34.100000 27.500000 36.740000 156 134 115 0
34.320000 27.500000 24.420000 160 138 119 0
34.540000 27.500000 17.380000 166 144 126 0
34.760000 27.500000 29.920000 170 148 130 0
34.980000 27.500000 39.600000 171 151 135 0
35.200000 27.500000 39.820000 178 158 142 0
35.420000 27.500000 39.820000 180 164 146 0
35.640000 27.500000 38.280000 185 169 151 0
35.860000 27.500000 28.820000 191 174 161 0
36.080000 27.500000 8.140000 198 181 168 0
0.000000 27.720000 18.480000 139 111 102 0
0.220000 27.720000 12.980000 138 110 101 0
0.440000 27.720000 5.940000 139 111 102 0
0.660000 27.720000 4.840000 139 111 102 0
0.880000 27.720000 5.060000 139 111 102 0
1.100000 27.720000 6.600000 138 113 103 0
1.320000 27.720000 6.820000 138 113 103 0
1.540000 27.720000 6.820000 139 114 104 0
1.760000 27.720000 6.600000 139 114 104 0
1.980000 27.720000 7.700000 141 113 104 0
2.200000 27.720000 6.600000 140 112 103 0
2.420000 27.720000 5.280000 141 112 103 0
2.640000 27.720000 9.460000 137 108 99 0
2.860000 27.720000 23.100000 137 106 98 0
3.080000 27.720000 32.780000 134 103 95 0
3.300000 27.720000 34.100000 137 99 93 0
3.520000 27.720000 34.320000 135 97 91 0
3.740000 27.720000 31.460000 146 88 81 0
3.960000 27.720000 30.140000 141 83 76 0
4.180000 27.720000 30.140000 139 79 73 0
4.400000 27.720000 31.460000 139 79 73 0
4.620000 27.720000 33.000000 139 79 74 0
4.840000 27.720000 34.320000 138 78 73 0
5.060000 27.720000 34.320000 139 79 73 0
5.280000 27.720000 34.320000 139 79 73 0
5.500000 27.720000 35.640000 139 79 73 0
5.720000 27.720000 38.500000 139 79 73 0
5.940000 27.720000 36.960000 140 79 73 0
6.160000 27.720000 34.320000 141 80 74 0
6.380000 27.720000 27.500000 141 79 75 0
6.600000 27.720000 8.140000 141 79 75 0
8.580000 27.720000 1.320000 146 82 77 0
8.800000 27.720000 1.320000 145 81 76 0
9.020000 27.720000 1.320000 143 81 77 0
9.240000 27.720000 1.320000 144 82 78 0
9.460000 27.720000 2.420000 144 82 78 0
9.680000 27.720000 3.300000 145 83 79 0
9.900000 27.720000 3.300000 147 83 79 0
10.120000 27.720000 0.880000 148 84 80 0
10.340000 27.720000 2.200000 148 84 80 0
10.560000 27.720000 3.080000 149 85 81 0
10.780000 27.720000 3.080000 149 85 81 0
11.000000 27.720000 3.080000 149 85 81 0
11.220000 27.720000 2.860000 150 86 82 0
11.440000 27.720000 2.860000 150 86 82 0
11.660000 27.720000 2.860000 150 86 82 0
11.880000 27.720000 1.540000 152 88 84 0
12.100000 27.720000 1.540000 152 88 84 0
12.320000 27.720000 1.540000 151 87 83 0
12.540000 27.720000 1.540000 152 88 84 0
12.760000 27.720000 2.860000 153 89 85 0
12.980000 27.720000 3.080000 152 90 86 0
13.200000 27.720000 3.080000 153 91 87 0
13.420000 27.720000 3.080000 153 91 87 0
13.640000 27.720000 3.080000 154 92 88 0
13.860000 27.720000 3.080000 157 92 91 0
14.080000 27.720000 1.540000 158 93 92 0
14.300000 27.720000 1.540000 156 94 90 0
14.520000 27.720000 1.540000 155 93 89 0
14.740000 27.720000 1.540000 155 91 87 0
14.960000 27.720000 0.220000 152 88 84 0
15.180000 27.720000 11.220000 151 85 81 0
15.400000 27.720000 30.800000 149 83 79 0
15.620000 27.720000 40.480000 151 81 76 0
15.840000 27.720000 39.160000 150 80 75 0
16.060000 27.720000 26.840000 150 78 76 0
16.280000 27.720000 9.020000 150 78 76 0
16.500000 27.720000 1.980000 150 74 71 0
16.720000 27.720000 2.200000 149 73 70 0
16.940000 27.720000 2.200000 149 71 66 0
17.160000 27.720000 2.200000 150 72 67 0
17.380000 27.720000 1.100000 148 70 65 0
17.600000 27.720000 1.100000 148 70 65 0
17.820000 27.720000 1.100000 148 69 67 0
18.040000 27.720000 1.100000 147 68 66 0
18.260000 27.720000 2.640000 147 69 64 0
18.480000 27.720000 2.640000 147 69 64 0
18.700000 27.720000 2.640000 148 70 65 0
18.920000 27.720000 2.420000 147 69 64 0
19.140000 27.720000 3.740000 148 70 65 0
19.360000 27.720000 3.740000 145 67 62 0
19.580000 27.720000 6.600000 144 65 63 0
19.800000 27.720000 6.600000 144 65 63 0
20.020000 27.720000 7.920000 143 65 60 0
20.240000 27.720000 7.920000 142 64 59 0
20.460000 27.720000 6.600000 144 66 61 0
20.680000 27.720000 6.600000 144 66 61 0
20.900000 27.720000 8.140000 145 67 62 0
21.120000 27.720000 9.460000 145 67 62 0
21.340000 27.720000 9.460000 145 69 66 0
21.560000 27.720000 9.680000 146 70 67 0
21.780000 27.720000 8.360000 147 71 66 0
22.000000 27.720000 6.820000 147 71 66 0
22.220000 27.720000 5.500000 147 71 66 0
22.440000 27.720000 6.380000 147 71 66 0
22.660000 27.720000 7.480000 147 73 67 0
22.880000 27.720000 6.160000 148 74 68 0
23.100000 27.720000 5.060000 149 75 71 0
23.320000 27.720000 2.420000 149 75 71 0
23.540000 27.720000 2.420000 148 77 70 0
23.760000 27.720000 1.100000 146 75 68 0
23.980000 27.720000 1.100000 148 74 68 0
24.200000 27.720000 1.100000 148 74 68 0
24.420000 27.720000 1.100000 148 74 68 0
24.640000 27.720000 2.420000 148 74 68 0
24.860000 27.720000 3.960000 146 75 68 0
25.080000 27.720000 5.280000 146 75 68 0
25.300000 27.720000 5.280000 146 77 69 0
25.520000 27.720000 5.280000 148 79 71 0
25.740000 27.720000 5.280000 148 79 71 0
25.960000 27.720000 6.380000 148 79 71 0
26.180000 27.720000 7.480000 152 83 75 0
26.400000 27.720000 7.040000 153 84 76 0
26.620000 27.720000 6.160000 153 85 79 0
26.840000 27.720000 2.420000 154 86 80 0
27.060000 27.720000 1.320000 153 88 81 0
27.280000 27.720000 2.640000 154 89 82 0
27.500000 27.720000 2.640000 156 88 82 0
27.720000 27.720000 3.960000 155 87 81 0
27.940000 27.720000 6.600000 155 86 78 0
28.160000 27.720000 8.140000 153 84 76 0
28.380000 27.720000 9.460000 153 84 76 0
28.600000 27.720000 10.780000 154 85 77 0
28.820000 27.720000 13.200000 152 84 76 0
29.040000 27.720000 11.880000 153 85 77 0
29.260000 27.720000 8.140000 153 88 81 0
29.480000 27.720000 8.140000 155 90 83 0
29.700000 27.720000 12.320000 141 102 92 0
29.920000 27.720000 16.280000 147 108 98 0
30.140000 27.720000 19.800000 142 120 104 0
30.360000 27.720000 23.980000 145 123 107 0
30.580000 27.720000 25.960000 148 126 110 0
30.800000 27.720000 27.500000 148 126 110 0
31.020000 27.720000 28.820000 149 125 110 0
31.240000 27.720000 31.020000 149 125 110 0
31.460000 27.720000 31.900000 151 127 112 0
31.680000 27.720000 33.220000 149 125 110 0
31.900000 27.720000 33.220000 149 127 111 0
32.120000 27.720000 33.220000 149 127 111 0
32.340000 27.720000 33.220000 150 128 110 0
32.560000 27.720000 34.760000 149 127 109 0
32.780000 27.720000 34.760000 150 126 111 0
33.000000 27.720000 34.980000 151 127 112 0
33.220000 27.720000 34.980000 152 128 113 0
33.440000 27.720000 36.520000 152 128 113 0
33.660000 27.720000 36.740000 154 132 114 0
33.880000 27.720000 38.060000 155 133 115 0
34.100000 27.720000 39.600000 157 135 116 0
34.320000 27.720000 32.780000 160 138 119 0
34.540000 27.720000 24.420000 164 142 124 0
34.760000 27.720000 32.780000 168 146 128 0
34.980000 27.720000 39.600000 171 151 135 0
35.200000 27.720000 39.820000 175 155 139 0
35.420000 27.720000 39.820000 178 162 144 0
35.640000 27.720000 38.280000 183 167 149 0
35.860000 27.720000 28.820000 191 174 161 0
36.080000 27.720000 8.140000 196 179 166 0
0.000000 27.940000 18.480000 139 111 103 0
0.220000 27.940000 11.660000 139 111 102 0
0.440000 27.940000 6.160000 139 111 102 0
0.660000 27.940000 5.060000 139 111 103 0
0.880000 27.940000 5.060000 139 111 103 0
1.100000 27.940000 6.600000 140 112 104 0
1.320000 27.940000 6.820000 140 112 104 0
1.540000 27.940000 6.820000 140 112 103 0
1.760000 27.940000 7.700000 141 113 104 0
1.980000 27.940000 7.480000 142 114 105 0
2.200000 27.940000 6.380000 141 113 104 0
2.420000 27.940000 5.280000 139 111 102 0
2.640000 27.940000 5.280000 136 108 99 0
2.860000 27.940000 14.740000 135 106 97 0
3.080000 27.940000 28.600000 132 103 94 0
3.300000 27.940000 34.100000 136 101 94 0
3.520000 27.940000 34.320000 134 99 92 0
3.740000 27.940000 32.780000 144 89 82 0
3.960000 27.940000 31.460000 139 84 77 0
4.180000 27.940000 30.140000 140 80 75 0
4.400000 27.940000 31.460000 138 78 73 0
4.620000 27.940000 33.000000 139 79 74 0
4.840000 27.940000 34.320000 138 78 73 0
5.060000 27.940000 34.320000 138 78 73 0
5.280000 27.940000 35.860000 138 78 73 0
5.500000 27.940000 35.640000 137 77 72 0
5.720000 27.940000 38.500000 138 78 73 0
5.940000 27.940000 39.820000 139 78 72 0
6.160000 27.940000 39.820000 140 79 73 0
6.380000 27.940000 28.820000 140 78 74 0
6.600000 27.940000 8.140000 140 78 74 0
8.360000 27.940000 1.320000 143 81 77 0
8.580000 27.940000 1.320000 143 81 77 0
8.800000 27.940000 1.320000 143 81 77 0
9.020000 27.940000 1.320000 146 82 78 0
9.240000 27.940000 1.320000 146 82 78 0
9.460000 27.940000 1.100000 146 82 78 0
9.680000 27.940000 2.200000 146 82 78 0
9.900000 27.940000 2.200000 146 82 78 0
10.120000 27.940000 1.100000 147 83 79 0
10.340000 27.940000 1.100000 148 84 80 0
10.560000 27.940000 2.200000 149 85 81 0
10.780000 27.940000 2.200000 149 85 81 0
11.000000 27.940000 0.880000 149 85 81 0
11.220000 27.940000 1.760000 149 85 81 0
11.440000 27.940000 2.860000 150 86 82 0
11.660000 27.940000 4.180000 151 87 83 0
11.880000 27.940000 8.360000 151 87 83 0
12.100000 27.940000 8.360000 149 87 83 0
12.320000 27.940000 4.180000 150 88 84 0
12.540000 27.940000 1.540000 153 89 85 0
12.760000 27.940000 1.540000 153 89 85 0
12.980000 27.940000 3.080000 153 88 87 0
13.200000 27.940000 3.080000 154 89 88 0
13.420000 27.940000 1.540000 156 91 90 0
13.640000 27.940000 1.540000 156 91 90 0
13.860000 27.940000 1.540000 155 93 89 0
14.080000 27.940000 1.540000 155 93 89 0
14.300000 27.940000 1.540000 157 92 91 0
14.520000 27.940000 0.220000 157 92 91 0
14.960000 27.940000 0.220000 154 90 86 0
15.180000 27.940000 11.220000 151 85 82 0
15.400000 27.940000 32.120000 149 83 80 0
15.620000 27.940000 41.800000 151 83 79 0
15.840000 27.940000 42.020000 149 81 77 0
16.060000 27.940000 31.020000 150 80 75 0
16.280000 27.940000 10.340000 148 78 73 0
16.500000 27.940000 1.980000 151 75 72 0
16.720000 27.940000 2.200000 149 73 70 0
16.940000 27.940000 2.200000 150 72 67 0
17.160000 27.940000 2.200000 148 70 65 0
17.380000 27.940000 2.420000 148 70 65 0
17.600000 27.940000 1.100000 149 71 66 0
17.820000 27.940000 1.100000 149 71 66 0
18.040000 27.940000 1.100000 147 69 64 0
18.260000 27.940000 1.320000 148 68 64 0
18.480000 27.940000 2.640000 148 68 64 0
18.700000 27.940000 2.640000 147 69 64 0
18.920000 27.940000 2.420000 148 70 65 0
19.140000 27.940000 2.420000 147 68 66 0
19.360000 27.940000 3.740000 145 66 64 0
19.580000 27.940000 5.060000 144 66 61 0
19.800000 27.940000 6.600000 143 65 60 0
20.020000 27.940000 7.920000 144 64 60 0
20.240000 27.940000 7.920000 145 65 61 0
20.460000 27.940000 6.600000 144 66 61 0
20.680000 27.940000 6.600000 144 66 61 0
20.900000 27.940000 8.140000 145 67 62 0
21.120000 27.940000 8.140000 145 67 62 0
21.340000 27.940000 9.460000 147 69 64 0
21.560000 27.940000 9.460000 147 69 64 0
21.780000 27.940000 9.680000 149 71 66 0
22.000000 27.940000 6.820000 150 72 67 0
22.220000 27.940000 5.500000 149 71 66 0
22.440000 27.940000 5.500000 149 71 66 0
22.660000 27.940000 5.280000 148 72 67 0
22.880000 27.940000 5.280000 147 71 66 0
23.100000 27.940000 3.960000 149 75 69 0
23.320000 27.940000 3.960000 148 74 68 0
23.540000 27.940000 2.420000 150 74 69 0
23.760000 27.940000 1.100000 149 73 68 0
23.980000 27.940000 1.100000 149 75 69 0
24.200000 27.940000 2.420000 147 73 67 0
24.420000 27.940000 1.100000 148 74 68 0
24.640000 27.940000 2.420000 147 73 67 0
24.860000 27.940000 3.960000 146 75 68 0
25.080000 27.940000 5.280000 146 75 68 0
25.300000 27.940000 5.280000 149 75 69 0
25.520000 27.940000 5.280000 150 76 70 0
25.740000 27.940000 5.280000 150 79 72 0
25.960000 27.940000 5.280000 151 80 73 0
26.180000 27.940000 6.380000 151 82 74 0
26.400000 27.940000 6.160000 153 84 76 0
26.620000 27.940000 5.060000 154 86 80 0
26.840000 27.940000 2.640000 155 87 81 0
27.060000 27.940000 1.320000 153 89 84 0
27.280000 27.940000 1.320000 153 89 84 0
27.500000 27.940000 2.640000 157 89 85 0
27.720000 27.940000 3.960000 156 88 84 0
27.940000 27.940000 6.600000 154 86 80 0
28.160000 27.940000 9.460000 153 85 79 0
28.380000 27.940000 12.100000 153 85 77 0
28.600000 27.940000 14.740000 153 85 77 0
28.820000 27.940000 19.800000 152 84 76 0
29.040000 27.940000 22.660000 153 85 77 0
29.260000 27.940000 14.740000 153 85 79 0
29.480000 27.940000 8.140000 155 87 81 0
29.700000 27.940000 9.460000 151 96 89 0
29.920000 27.940000 13.420000 154 99 92 0
30.140000 27.940000 18.480000 143 114 103 0
30.360000 27.940000 21.340000 148 119 108 0
30.580000 27.940000 24.420000 147 125 109 0
30.800000 27.940000 26.180000 147 125 109 0
31.020000 27.940000 28.820000 149 127 111 0
31.240000 27.940000 29.920000 149 127 111 0
31.460000 27.940000 32.120000 150 128 112 0
31.680000 27.940000 33.220000 149 127 111 0
31.900000 27.940000 33.220000 149 127 111 0
32.120000 27.940000 33.220000 149 127 111 0
32.340000 27.940000 33.220000 148 126 110 0
32.560000 27.940000 34.760000 149 127 111 0
32.780000 27.940000 34.760000 150 126 111 0
33.000000 27.940000 34.980000 150 126 111 0
33.220000 27.940000 34.980000 151 127 112 0
33.440000 27.940000 35.200000 152 128 113 0
33.660000 27.940000 36.740000 153 129 114 0
33.880000 27.940000 38.060000 155 131 116 0
34.100000 27.940000 38.280000 157 135 117 0
34.320000 27.940000 36.740000 159 137 119 0
34.540000 27.940000 35.420000 164 141 122 0
34.760000 27.940000 38.280000 170 147 128 0
34.980000 27.940000 39.600000 172 153 133 0
35.200000 27.940000 39.600000 176 157 137 0
35.420000 27.940000 39.820000 178 162 142 0
35.640000 27.940000 38.280000 184 168 148 0
35.860000 27.940000 28.820000 191 174 159 0
36.080000 27.940000 8.140000 197 180 165 0
0.000000 28.160000 18.480000 139 111 103 0
0.220000 28.160000 11.660000 139 111 102 0
0.440000 28.160000 4.840000 139 111 102 0
0.660000 28.160000 5.060000 140 112 104 0
0.880000 28.160000 5.060000 140 112 104 0
1.100000 28.160000 6.600000 140 112 104 0
1.320000 28.160000 6.820000 139 111 103 0
1.540000 28.160000 6.600000 140 112 103 0
1.760000 28.160000 8.800000 142 114 105 0
1.980000 28.160000 8.580000 143 115 106 0
2.200000 28.160000 6.160000 141 113 104 0
2.420000 28.160000 5.280000 140 112 103 0
2.640000 28.160000 3.960000 137 109 100 0
2.860000 28.160000 10.780000 136 107 98 0
3.080000 28.160000 27.280000 134 105 96 0
3.300000 28.160000 35.640000 135 100 93 0
3.520000 28.160000 34.320000 134 99 92 0
3.740000 28.160000 34.320000 146 91 84 0
3.960000 28.160000 31.460000 140 85 78 0
4.180000 28.160000 31.460000 140 80 75 0
4.400000 28.160000 31.460000 139 79 74 0
4.620000 28.160000 33.000000 139 79 74 0
4.840000 28.160000 34.320000 139 79 74 0
5.060000 28.160000 35.860000 139 79 74 0
5.280000 28.160000 35.860000 137 77 72 0
5.500000 28.160000 37.180000 139 79 74 0
5.720000 28.160000 35.640000 138 78 73 0
5.940000 28.160000 34.320000 140 79 73 0
6.160000 28.160000 36.960000 140 79 73 0
6.380000 28.160000 28.820000 141 79 75 0
6.600000 28.160000 8.140000 141 79 75 0
8.360000 28.160000 1.320000 143 81 77 0
8.580000 28.160000 1.320000 143 81 77 0
8.800000 28.160000 1.320000 144 82 78 0
9.020000 28.160000 1.320000 145 81 77 0
9.240000 28.160000 1.320000 145 81 77 0
9.460000 28.160000 1.320000 145 81 77 0
9.680000 28.160000 1.100000 146 82 78 0
9.900000 28.160000 1.100000 147 83 79 0
10.120000 28.160000 1.100000 148 84 80 0
10.340000 28.160000 1.100000 148 84 80 0
10.560000 28.160000 1.100000 148 84 80 0
10.780000 28.160000 1.320000 149 85 81 0
11.220000 28.160000 0.880000 150 86 82 0
11.440000 28.160000 1.760000 150 86 82 0
11.660000 28.160000 8.360000 151 87 83 0
11.880000 28.160000 25.080000 152 88 84 0
12.100000 28.160000 26.400000 150 88 84 0
12.320000 28.160000 14.080000 151 89 85 0
12.540000 28.160000 4.400000 152 88 84 0
12.760000 28.160000 1.540000 154 90 86 0
12.980000 28.160000 1.540000 154 89 88 0
13.200000 28.160000 1.540000 155 90 89 0
13.420000 28.160000 1.540000 157 92 91 0
13.640000 28.160000 1.540000 156 91 90 0
13.860000 28.160000 1.540000 155 93 89 0
14.080000 28.160000 1.540000 155 93 89 0
14.520000 28.160000 0.440000 158 93 92 0
15.180000 28.160000 8.360000 154 88 85 0
15.400000 28.160000 23.760000 150 84 81 0
15.620000 28.160000 32.120000 151 83 79 0
15.840000 28.160000 33.660000 151 83 79 0
16.060000 28.160000 31.020000 150 80 75 0
16.280000 28.160000 15.840000 150 80 75 0
16.500000 28.160000 3.300000 151 75 72 0
16.720000 28.160000 1.980000 150 74 71 0
16.940000 28.160000 3.520000 150 72 67 0
17.160000 28.160000 2.200000 148 70 65 0
17.380000 28.160000 2.200000 148 70 65 0
17.600000 28.160000 2.420000 149 71 66 0
17.820000 28.160000 1.100000 149 71 66 0
18.040000 28.160000 1.100000 148 70 65 0
18.260000 28.160000 1.100000 148 68 64 0
18.480000 28.160000 2.640000 147 67 63 0
18.700000 28.160000 2.640000 146 68 63 0
18.920000 28.160000 2.640000 146 68 63 0
19.140000 28.160000 2.420000 146 67 65 0
19.360000 28.160000 3.740000 145 66 64 0
19.580000 28.160000 5.060000 143 65 60 0
19.800000 28.160000 6.600000 143 65 60 0
20.020000 28.160000 6.600000 146 66 62 0
20.240000 28.160000 7.920000 144 64 60 0
20.460000 28.160000 6.600000 143 65 60 0
20.680000 28.160000 6.600000 144 66 61 0
20.900000 28.160000 8.140000 144 66 61 0
21.120000 28.160000 8.140000 145 67 62 0
21.340000 28.160000 9.460000 146 68 63 0
21.560000 28.160000 9.460000 147 69 64 0
21.780000 28.160000 9.460000 147 69 64 0
22.000000 28.160000 8.140000 149 71 66 0
22.220000 28.160000 6.820000 150 72 67 0
22.440000 28.160000 5.500000 150 72 67 0
22.660000 28.160000 5.500000 147 71 66 0
22.880000 28.160000 4.180000 148 72 67 0
23.100000 28.160000 4.180000 149 75 69 0
23.320000 28.160000 3.960000 149 75 69 0
23.540000 28.160000 2.420000 149 73 68 0
23.760000 28.160000 2.420000 150 74 69 0
23.980000 28.160000 2.420000 148 74 68 0
24.200000 28.160000 2.640000 147 73 67 0
24.420000 28.160000 2.420000 149 75 69 0
24.640000 28.160000 2.420000 147 73 67 0
24.860000 28.160000 3.960000 145 74 67 0
25.080000 28.160000 5.280000 147 76 69 0
25.300000 28.160000 5.280000 149 75 69 0
25.520000 28.160000 5.060000 151 77 71 0
25.740000 28.160000 5.280000 151 80 73 0
25.960000 28.160000 5.280000 149 78 71 0
26.180000 28.160000 6.820000 152 83 75 0
26.400000 28.160000 5.280000 152 83 75 0
26.620000 28.160000 3.960000 153 85 79 0
26.840000 28.160000 2.640000 154 86 80 0
27.060000 28.160000 1.320000 153 89 84 0
27.280000 28.160000 1.320000 155 91 86 0
27.500000 28.160000 2.640000 158 90 86 0
27.720000 28.160000 3.960000 157 89 85 0
27.940000 28.160000 6.820000 156 88 82 0
28.160000 28.160000 9.460000 155 87 81 0
28.380000 28.160000 13.420000 153 85 77 0
28.600000 28.160000 17.160000 153 85 77 0
28.820000 28.160000 23.760000 151 83 75 0
29.040000 28.160000 30.800000 152 84 76 0
29.260000 28.160000 23.100000 152 84 78 0
29.480000 28.160000 9.460000 154 86 80 0
29.700000 28.160000 6.600000 149 94 87 0
29.920000 28.160000 12.100000 153 98 91 0
30.140000 28.160000 16.060000 142 113 102 0
30.360000 28.160000 18.700000 145 116 105 0
30.580000 28.160000 21.780000 146 124 108 0
30.800000 28.160000 24.860000 147 125 109 0
31.020000 28.160000 27.500000 148 126 110 0
31.240000 28.160000 28.600000 149 127 111 0
31.460000 28.160000 30.800000 148 126 110 0
31.680000 28.160000 33.220000 148 126 110 0
31.900000 28.160000 33.220000 149 127 111 0
32.120000 28.160000 33.220000 149 127 111 0
32.340000 28.160000 33.440000 149 127 111 0
32.560000 28.160000 33.440000 149 127 111 0
32.780000 28.160000 34.760000 150 126 111 0
33.000000 28.160000 34.980000 150 126 111 0
33.220000 28.160000 35.200000 150 126 111 0
33.440000 28.160000 35.200000 151 127 112 0
33.660000 28.160000 35.420000 152 128 113 0
33.880000 28.160000 36.740000 155 131 116 0
34.100000 28.160000 38.280000 156 134 116 0
34.320000 28.160000 39.600000 159 137 119 0
34.540000 28.160000 40.920000 165 142 123 0
34.760000 28.160000 40.920000 169 146 127 0
34.980000 28.160000 39.600000 170 151 131 0
35.200000 28.160000 39.600000 176 157 137 0
35.420000 28.160000 38.280000 178 162 142 0
35.640000 28.160000 38.280000 183 167 147 0
35.860000 28.160000 31.460000 191 174 159 0
36.080000 28.160000 13.640000 195 178 163 0
0.000000 28.380000 18.480000 138 110 102 0
0.220000 28.380000 10.340000 139 111 103 0
0.440000 28.380000 4.840000 139 111 103 0
0.660000 28.380000 5.060000 139 111 103 0
0.880000 28.380000 5.280000 140 112 104 0
1.100000 28.380000 6.600000 136 111 101 0
1.320000 28.380000 6.820000 135 110 100 0
1.540000 28.380000 6.600000 141 113 105 0
1.760000 28.380000 8.580000 141 113 105 0
1.980000 28.380000 8.580000 140 115 105 0
2.200000 28.380000 6.380000 140 115 105 0
2.420000 28.380000 5.280000 141 113 105 0
2.640000 28.380000 3.960000 138 110 102 0
2.860000 28.380000 9.460000 136 107 98 0
3.080000 28.380000 23.100000 133 104 95 0
3.300000 28.380000 32.780000 136 102 96 0
3.520000 28.380000 34.320000 133 99 93 0
3.740000 28.380000 34.320000 137 96 89 0
3.960000 28.380000 32.780000 133 92 85 0
4.180000 28.380000 31.460000 141 83 77 0
4.400000 28.380000 31.460000 139 81 75 0
4.620000 28.380000 33.000000 139 79 74 0
4.840000 28.380000 34.320000 139 79 74 0
5.060000 28.380000 35.860000 139 79 74 0
5.280000 28.380000 35.860000 139 79 74 0
5.500000 28.380000 37.180000 140 80 75 0
5.720000 28.380000 33.000000 139 79 74 0
5.940000 28.380000 28.820000 140 80 75 0
6.160000 28.380000 34.320000 140 80 75 0
6.380000 28.380000 28.820000 140 78 74 0
6.600000 28.380000 8.140000 141 79 75 0
8.360000 28.380000 1.320000 143 81 77 0
8.580000 28.380000 1.320000 143 81 77 0
8.800000 28.380000 1.100000 144 82 78 0
9.020000 28.380000 1.100000 144 82 78 0
9.240000 28.380000 1.320000 144 82 78 0
9.680000 28.380000 1.320000 145 83 79 0
9.900000 28.380000 1.100000 146 84 80 0
10.120000 28.380000 1.100000 147 85 81 0
10.340000 28.380000 1.100000 146 84 80 0
10.560000 28.380000 1.100000 147 85 81 0
11.440000 28.380000 2.200000 148 86 82 0
11.660000 28.380000 15.620000 149 87 83 0
11.880000 28.380000 33.660000 150 88 84 0
12.100000 28.380000 38.060000 150 88 84 0
12.320000 28.380000 25.520000 151 89 85 0
12.540000 28.380000 8.800000 152 88 84 0
12.760000 28.380000 1.760000 153 89 85 0
12.980000 28.380000 1.760000 152 90 86 0
13.200000 28.380000 1.540000 153 91 87 0
13.420000 28.380000 1.540000 152 90 86 0
13.640000 28.380000 1.540000 154 92 88 0
13.860000 28.380000 0.220000 155 93 91 0
14.080000 28.380000 0.220000 155 93 91 0
14.300000 28.380000 1.540000 158 93 92 0
14.520000 28.380000 0.220000 159 94 93 0
15.180000 28.380000 3.080000 155 91 87 0
15.400000 28.380000 8.360000 152 88 84 0
15.620000 28.380000 9.900000 151 82 80 0
15.840000 28.380000 18.480000 150 81 79 0
16.060000 28.380000 30.800000 150 80 77 0
16.280000 28.380000 26.840000 149 79 76 0
16.500000 28.380000 8.800000 151 77 73 0
16.720000 28.380000 1.980000 148 74 70 0
16.940000 28.380000 3.520000 149 73 70 0
17.160000 28.380000 3.520000 147 71 68 0
17.380000 28.380000 2.200000 150 71 69 0
17.600000 28.380000 2.200000 149 70 68 0
17.820000 28.380000 2.420000 145 69 66 0
18.040000 28.380000 1.100000 147 71 68 0
18.260000 28.380000 1.100000 148 69 67 0
18.480000 28.380000 1.100000 148 69 67 0
18.700000 28.380000 2.640000 147 68 66 0
18.920000 28.380000 2.640000 146 67 65 0
19.140000 28.380000 2.420000 147 67 63 0
19.360000 28.380000 3.740000 146 66 62 0
19.580000 28.380000 3.740000 144 66 61 0
19.800000 28.380000 5.060000 144 66 61 0
20.020000 28.380000 6.600000 143 65 60 0
20.240000 28.380000 6.600000 143 65 60 0
20.460000 28.380000 6.600000 144 65 63 0
20.680000 28.380000 6.600000 145 66 64 0
20.900000 28.380000 6.600000 142 64 59 0
21.120000 28.380000 8.140000 144 66 61 0
21.340000 28.380000 9.460000 145 66 64 0
21.560000 28.380000 9.460000 146 67 65 0
21.780000 28.380000 9.460000 149 70 68 0
22.000000 28.380000 8.140000 148 69 67 0
22.220000 28.380000 6.820000 147 71 68 0
22.440000 28.380000 5.500000 149 73 70 0
22.660000 28.380000 5.500000 147 71 66 0
22.880000 28.380000 3.960000 148 72 67 0
23.100000 28.380000 3.960000 149 73 70 0
23.320000 28.380000 3.960000 150 74 71 0
23.540000 28.380000 2.640000 150 74 71 0
23.760000 28.380000 2.420000 149 73 70 0
23.980000 28.380000 2.420000 149 75 71 0
24.200000 28.380000 2.640000 148 74 70 0
24.420000 28.380000 2.640000 149 73 68 0
24.640000 28.380000 2.420000 147 71 66 0
24.860000 28.380000 3.960000 148 72 69 0
25.080000 28.380000 5.280000 149 73 70 0
25.300000 28.380000 5.060000 149 75 69 0
25.520000 28.380000 5.060000 151 77 71 0
25.740000 28.380000 5.280000 149 79 74 0
25.960000 28.380000 6.600000 150 80 75 0
26.180000 28.380000 6.820000 151 82 74 0
26.400000 28.380000 5.500000 153 84 76 0
26.620000 28.380000 3.960000 155 85 80 0
26.840000 28.380000 2.640000 156 86 81 0
27.060000 28.380000 1.320000 154 89 82 0
27.280000 28.380000 1.320000 156 91 84 0
27.500000 28.380000 1.320000 155 91 84 0
27.720000 28.380000 3.960000 155 91 84 0
27.940000 28.380000 5.280000 158 90 84 0
28.160000 28.380000 8.140000 156 88 82 0
28.380000 28.380000 13.420000 155 85 80 0
28.600000 28.380000 18.480000 154 84 79 0
28.820000 28.380000 25.080000 153 82 75 0
29.040000 28.380000 32.120000 153 82 75 0
29.260000 28.380000 27.060000 152 84 78 0
29.480000 28.380000 10.780000 154 86 80 0
29.700000 28.380000 5.280000 153 89 84 0
29.920000 28.380000 10.560000 156 92 87 0
30.140000 28.380000 13.420000 141 108 98 0
30.360000 28.380000 16.060000 147 114 104 0
30.580000 28.380000 19.140000 143 119 106 0
30.800000 28.380000 23.320000 146 122 109 0
31.020000 28.380000 26.180000 148 125 112 0
31.240000 28.380000 28.600000 148 125 112 0
31.460000 28.380000 30.800000 148 125 112 0
31.680000 28.380000 31.900000 148 125 112 0
31.900000 28.380000 33.220000 148 126 110 0
32.120000 28.380000 33.220000 148 126 110 0
32.340000 28.380000 33.440000 148 125 112 0
32.560000 28.380000 33.440000 149 126 113 0
32.780000 28.380000 33.440000 148 125 112 0
33.000000 28.380000 33.660000 148 125 112 0
33.220000 28.380000 35.200000 149 127 111 0
33.440000 28.380000 35.200000 149 127 111 0
33.660000 28.380000 35.420000 152 130 114 0
33.880000 28.380000 36.740000 153 131 115 0
34.100000 28.380000 38.280000 157 133 118 0
34.320000 28.380000 39.600000 159 135 120 0
34.540000 28.380000 40.920000 163 139 124 0
34.760000 28.380000 40.920000 169 145 130 0
34.980000 28.380000 39.600000 170 150 134 0
35.200000 28.380000 39.600000 175 155 139 0
35.420000 28.380000 38.280000 179 162 147 0
35.640000 28.380000 38.280000 183 166 151 0
35.860000 28.380000 36.960000 187 174 161 0
36.080000 28.380000 24.640000 192 179 166 0
36.300000 28.380000 8.140000 196 185 174 0
36.520000 28.380000 2.640000 200 189 178 0
36.740000 28.380000 1.320000 206 198 191 0
0.000000 28.600000 18.480000 139 111 103 0
0.220000 28.600000 10.340000 139 111 103 0
0.440000 28.600000 4.840000 138 110 102 0
0.660000 28.600000 5.060000 138 110 102 0
0.880000 28.600000 5.280000 138 110 102 0
1.100000 28.600000 6.600000 135 110 100 0
1.320000 28.600000 6.600000 136 111 101 0
1.540000 28.600000 7.700000 139 111 103 0
1.760000 28.600000 8.580000 140 112 104 0
1.980000 28.600000 8.580000 139 114 104 0
2.200000 28.600000 6.600000 140 115 105 0
2.420000 28.600000 5.500000 140 112 104 0
2.640000 28.600000 3.960000 139 111 103 0
2.860000 28.600000 5.280000 137 108 99 0
3.080000 28.600000 13.420000 135 106 97 0
3.300000 28.600000 28.600000 135 101 95 0
3.520000 28.600000 34.100000 134 100 94 0
3.740000 28.600000 34.320000 137 96 89 0
3.960000 28.600000 32.780000 134 93 86 0
4.180000 28.600000 31.460000 141 83 77 0
4.400000 28.600000 30.140000 138 80 74 0
4.620000 28.600000 31.460000 140 80 75 0
4.840000 28.600000 34.320000 139 79 74 0
5.060000 28.600000 35.640000 138 78 73 0
5.280000 28.600000 35.860000 138 78 73 0
5.500000 28.600000 37.180000 139 79 74 0
5.720000 28.600000 35.640000 140 80 75 0
5.940000 28.600000 34.320000 140 80 75 0
6.160000 28.600000 36.960000 139 79 74 0
6.380000 28.600000 30.140000 140 78 74 0
6.600000 28.600000 9.460000 140 78 74 0
8.360000 28.600000 1.320000 143 81 77 0
8.580000 28.600000 1.320000 143 81 77 0
8.800000 28.600000 1.100000 144 82 78 0
9.020000 28.600000 1.100000 144 82 78 0
9.900000 28.600000 1.100000 146 84 80 0
10.120000 28.600000 1.100000 147 85 81 0
10.340000 28.600000 1.100000 147 85 81 0
10.560000 28.600000 1.100000 147 85 81 0
11.220000 28.600000 1.320000 148 86 82 0
11.440000 28.600000 10.780000 148 86 82 0
11.660000 28.600000 27.280000 148 86 82 0
11.880000 28.600000 36.960000 150 88 84 0
12.100000 28.600000 38.500000 150 88 84 0
12.320000 28.600000 31.460000 150 88 84 0
12.540000 28.600000 14.740000 153 89 85 0
12.760000 28.600000 2.200000 153 89 85 0
12.980000 28.600000 0.660000 152 90 86 0
13.200000 28.600000 1.760000 152 90 86 0
13.420000 28.600000 1.540000 154 92 88 0
13.640000 28.600000 1.540000 154 92 88 0
13.860000 28.600000 0.220000 155 93 91 0
14.300000 28.600000 1.540000 160 95 94 0
14.520000 28.600000 1.540000 159 94 93 0
14.740000 28.600000 0.440000 157 95 93 0
14.960000 28.600000 0.880000 156 94 92 0
15.180000 28.600000 1.760000 156 92 88 0
15.400000 28.600000 1.540000 153 89 85 0
15.620000 28.600000 0.220000 153 84 82 0
15.840000 28.600000 7.260000 151 82 80 0
16.060000 28.600000 23.980000 151 81 78 0
16.280000 28.600000 23.980000 150 80 77 0
16.500000 28.600000 8.800000 151 77 73 0
16.720000 28.600000 3.300000 150 76 72 0
16.940000 28.600000 3.300000 149 73 70 0
17.160000 28.600000 3.520000 149 73 70 0
17.380000 28.600000 3.520000 149 70 68 0
17.600000 28.600000 2.200000 150 71 69 0
17.820000 28.600000 2.200000 147 71 68 0
18.040000 28.600000 2.420000 147 71 68 0
18.260000 28.600000 1.100000 148 69 67 0
18.480000 28.600000 1.100000 148 69 67 0
18.700000 28.600000 2.640000 147 68 66 0
18.920000 28.600000 2.420000 147 68 66 0
19.140000 28.600000 2.420000 147 67 63 0
19.360000 28.600000 2.420000 146 66 62 0
19.580000 28.600000 3.740000 145 67 62 0
19.800000 28.600000 5.280000 145 67 62 0
20.020000 28.600000 5.280000 144 66 61 0
20.240000 28.600000 6.600000 145 67 62 0
20.460000 28.600000 6.600000 144 65 63 0
20.680000 28.600000 6.600000 144 65 63 0
20.900000 28.600000 6.600000 145 67 62 0
21.120000 28.600000 8.140000 144 66 61 0
21.340000 28.600000 9.460000 145 66 64 0
21.560000 28.600000 9.460000 148 69 67 0
21.780000 28.600000 9.460000 148 69 67 0
22.000000 28.600000 8.140000 149 70 68 0
22.220000 28.600000 6.820000 148 72 69 0
22.440000 28.600000 5.280000 148 72 69 0
22.660000 28.600000 5.500000 148 72 67 0
22.880000 28.600000 3.960000 148 72 67 0
23.100000 28.600000 3.960000 149 73 70 0
23.320000 28.600000 3.960000 149 73 70 0
23.540000 28.600000 2.640000 149 73 70 0
23.760000 28.600000 2.640000 149 73 70 0
23.980000 28.600000 3.960000 147 73 69 0
24.200000 28.600000 3.960000 147 73 69 0
24.420000 28.600000 2.640000 148 72 67 0
24.640000 28.600000 3.740000 148 72 67 0
24.860000 28.600000 5.280000 147 71 68 0
25.080000 28.600000 5.060000 148 72 69 0
25.300000 28.600000 5.060000 149 75 69 0
25.520000 28.600000 5.060000 151 77 71 0
25.740000 28.600000 6.600000 149 79 74 0
25.960000 28.600000 6.600000 150 80 75 0
26.180000 28.600000 6.820000 151 82 74 0
26.400000 28.600000 5.280000 152 83 75 0
26.620000 28.600000 3.960000 153 83 78 0
26.840000 28.600000 2.640000 156 86 81 0
27.060000 28.600000 1.320000 155 90 83 0
27.280000 28.600000 1.320000 156 91 84 0
27.500000 28.600000 1.320000 156 92 85 0
27.720000 28.600000 2.640000 156 92 85 0
27.940000 28.600000 5.500000 159 91 85 0
28.160000 28.600000 6.820000 156 88 82 0
28.380000 28.600000 11.880000 155 85 80 0
28.600000 28.600000 16.940000 153 83 78 0
28.820000 28.600000 23.760000 153 82 75 0
29.040000 28.600000 32.120000 153 82 75 0
29.260000 28.600000 26.840000 151 83 77 0
29.480000 28.600000 9.240000 153 85 79 0
29.700000 28.600000 3.960000 152 88 83 0
29.920000 28.600000 7.920000 155 91 86 0
30.140000 28.600000 11.880000 140 107 97 0
30.360000 28.600000 14.740000 144 111 101 0
30.580000 28.600000 17.820000 142 118 105 0
30.800000 28.600000 20.680000 144 120 107 0
31.020000 28.600000 26.180000 147 124 111 0
31.240000 28.600000 28.600000 147 124 111 0
31.460000 28.600000 30.800000 148 125 112 0
31.680000 28.600000 31.900000 148 125 112 0
31.900000 28.600000 33.220000 147 125 109 0
32.120000 28.600000 33.220000 149 127 111 0
32.340000 28.600000 33.440000 148 125 112 0
32.560000 28.600000 33.440000 147 124 111 0
32.780000 28.600000 33.440000 147 124 111 0
33.000000 28.600000 33.660000 148 125 112 0
33.220000 28.600000 33.660000 148 126 110 0
33.440000 28.600000 33.880000 149 127 111 0
33.660000 28.600000 35.420000 151 129 113 0
33.880000 28.600000 36.740000 152 130 114 0
34.100000 28.600000 38.280000 157 133 118 0
34.320000 28.600000 38.280000 160 136 121 0
34.540000 28.600000 39.600000 163 139 124 0
34.760000 28.600000 40.920000 167 143 128 0
34.980000 28.600000 39.600000 169 149 133 0
35.200000 28.600000 39.820000 174 154 138 0
35.420000 28.600000 38.280000 176 159 144 0
35.640000 28.600000 38.280000 182 165 150 0
35.860000 28.600000 39.820000 185 172 159 0
