ply
format ascii 1.0
element vertex 1189
property float x
property float y
property float z
property uchar red
property uchar green
property uchar blue
property uchar alpha
end_header
7.700000 6.600000 19.250000 147 84 74 0
7.920000 6.600000 19.250000 148 85 75 0
8.140000 6.600000 18.590000 148 85 73 0
8.360000 6.600000 19.250000 149 86 74 0
8.580000 6.600000 18.590000 149 86 76 0
8.800000 6.600000 18.590000 148 85 75 0
9.020000 6.600000 17.930000 151 86 75 0
9.240000 6.600000 18.480000 151 86 75 0
9.460000 6.600000 19.140000 153 88 79 0
9.680000 6.600000 14.740000 152 87 78 0
9.900000 6.600000 5.610000 153 88 77 0
10.120000 6.600000 0.770000 154 89 78 0
10.340000 6.600000 1.430000 155 90 81 0
10.560000 6.600000 2.090000 156 91 82 0
10.780000 6.600000 4.840000 156 91 82 0
11.000000 6.600000 4.180000 156 91 82 0
11.220000 6.600000 2.090000 157 93 86 0
11.440000 6.600000 0.770000 157 93 86 0
11.660000 6.600000 0.110000 160 95 86 0
11.880000 6.600000 1.430000 160 95 86 0
12.100000 6.600000 4.290000 160 95 86 0
12.320000 6.600000 5.060000 159 94 85 0
12.540000 6.600000 3.630000 159 94 85 0
12.760000 6.600000 2.970000 163 98 89 0
12.980000 6.600000 7.150000 163 99 92 0
13.200000 6.600000 10.670000 162 98 91 0
13.420000 6.600000 6.600000 162 95 84 0
13.640000 6.600000 1.870000 157 90 79 0
13.860000 6.600000 1.210000 155 88 77 0
14.080000 6.600000 1.210000 153 86 75 0
14.300000 6.600000 0.550000 153 84 74 0
14.520000 6.600000 0.550000 152 83 73 0
15.400000 6.600000 0.660000 152 74 65 0
15.620000 6.600000 0.660000 152 75 64 0
15.840000 6.600000 1.320000 150 73 62 0
16.060000 6.600000 1.320000 150 69 61 0
16.280000 6.600000 1.320000 149 68 60 0
16.500000 6.600000 1.320000 147 66 58 0
16.720000 6.600000 1.980000 147 66 58 0
16.940000 6.600000 2.640000 148 64 57 0
17.160000 6.600000 2.530000 146 62 55 0
17.380000 6.600000 3.190000 143 62 54 0
17.600000 6.600000 3.190000 142 61 53 0
17.820000 6.600000 3.850000 142 61 53 0
18.040000 6.600000 3.850000 141 60 52 0
18.260000 6.600000 3.850000 140 59 53 0
18.480000 6.600000 3.190000 139 58 52 0
18.700000 6.600000 2.530000 141 57 50 0
18.920000 6.600000 2.530000 140 56 49 0
19.140000 6.600000 3.300000 138 57 49 0
19.360000 6.600000 3.300000 138 57 49 0
19.580000 6.600000 2.640000 140 59 53 0
19.800000 6.600000 2.640000 141 60 54 0
20.020000 6.600000 1.980000 142 62 56 0
20.240000 6.600000 1.980000 142 62 56 0
20.460000 6.600000 1.980000 142 62 56 0
20.680000 6.600000 2.530000 142 62 56 0
20.900000 6.600000 1.980000 142 62 56 0
21.120000 6.600000 1.320000 143 63 57 0
21.340000 6.600000 1.320000 142 62 56 0
21.560000 6.600000 1.320000 142 62 56 0
21.780000 6.600000 1.320000 143 63 57 0
22.000000 6.600000 1.320000 142 62 56 0
22.220000 6.600000 2.090000 142 62 56 0
22.440000 6.600000 2.090000 142 62 56 0
22.660000 6.600000 2.090000 141 63 56 0
22.880000 6.600000 2.090000 142 64 57 0
23.100000 6.600000 2.750000 142 64 57 0
23.320000 6.600000 2.750000 143 65 58 0
23.540000 6.600000 3.410000 142 64 57 0
23.760000 6.600000 3.300000 142 64 57 0
23.980000 6.600000 3.850000 141 63 56 0
24.200000 6.600000 3.850000 140 62 55 0
24.420000 6.600000 3.850000 139 61 54 0
24.640000 6.600000 3.850000 138 60 53 0
24.860000 6.600000 3.850000 140 60 56 0
25.080000 6.600000 4.620000 140 60 56 0
25.300000 6.600000 5.280000 139 61 54 0
25.520000 6.600000 6.050000 140 62 55 0
25.740000 6.600000 6.050000 137 66 57 0
25.960000 6.600000 6.160000 140 69 60 0
26.180000 6.600000 6.160000 137 77 64 0
26.400000 6.600000 6.160000 142 82 69 0
26.620000 6.600000 4.840000 142 82 69 0
26.840000 6.600000 3.960000 142 82 69 0
27.060000 6.600000 3.630000 143 83 70 0
27.280000 6.600000 2.750000 143 83 70 0
27.500000 6.600000 2.090000 143 83 70 0
27.720000 6.600000 2.090000 142 82 69 0
27.940000 6.600000 2.860000 143 83 70 0
28.160000 6.600000 2.860000 143 83 70 0
28.380000 6.600000 2.860000 144 84 71 0
28.600000 6.600000 2.860000 144 84 71 0
28.820000 6.600000 2.310000 143 84 71 0
29.040000 6.600000 1.210000 143 84 71 0
29.260000 6.600000 0.660000 142 82 69 0
29.480000 6.600000 0.550000 142 82 69 0
29.700000 6.600000 1.100000 141 81 68 0
29.920000 6.600000 1.760000 140 80 67 0
30.140000 6.600000 2.420000 140 77 65 0
30.360000 6.600000 3.080000 139 76 64 0
30.580000 6.600000 3.080000 140 77 65 0
30.800000 6.600000 3.850000 139 76 64 0
31.020000 6.600000 3.850000 138 78 65 0
31.240000 6.600000 5.280000 138 78 65 0
31.460000 6.600000 6.050000 138 79 66 0
31.680000 6.600000 6.050000 141 82 69 0
31.900000 6.600000 6.160000 131 92 80 0
32.120000 6.600000 7.480000 134 95 83 0
32.340000 6.600000 8.910000 126 108 91 0
32.560000 6.600000 11.000000 131 113 96 0
32.780000 6.600000 11.770000 134 118 100 0
33.000000 6.600000 13.090000 135 119 101 0
33.220000 6.600000 14.960000 138 122 104 0
33.440000 6.600000 18.810000 138 122 104 0
33.660000 6.600000 20.130000 138 122 104 0
33.880000 6.600000 20.130000 137 121 103 0
34.100000 6.600000 19.470000 137 121 103 0
34.320000 6.600000 13.200000 138 122 104 0
34.540000 6.600000 4.290000 138 122 102 0
34.760000 6.600000 0.880000 138 122 102 0
34.980000 6.600000 1.540000 137 121 103 0
35.200000 6.600000 1.540000 138 122 104 0
35.420000 6.600000 0.770000 138 122 104 0
35.640000 6.600000 0.110000 139 123 105 0
35.860000 6.600000 0.880000 140 122 105 0
36.080000 6.600000 1.540000 140 122 105 0
36.300000 6.600000 2.310000 140 124 104 0
36.520000 6.600000 2.310000 143 127 107 0
36.740000 6.600000 2.310000 146 128 109 0
36.960000 6.600000 2.420000 147 129 110 0
37.180000 6.600000 2.420000 151 132 112 0
0.000000 6.820000 3.630000 136 106 91 0
0.220000 6.820000 4.290000 135 105 90 0
0.440000 6.820000 4.290000 133 103 88 0
0.660000 6.820000 4.290000 133 103 87 0
0.880000 6.820000 3.630000 132 102 86 0
1.100000 6.820000 2.860000 135 103 87 0
1.320000 6.820000 2.970000 134 102 86 0
1.540000 6.820000 2.420000 134 102 86 0
1.760000 6.820000 1.870000 133 101 85 0
1.980000 6.820000 5.390000 133 99 85 0
2.200000 6.820000 13.640000 133 99 85 0
2.420000 6.820000 17.050000 133 99 84 0
2.640000 6.820000 14.300000 132 98 83 0
2.860000 6.820000 11.550000 138 94 80 0
3.080000 6.820000 10.230000 133 89 75 0
3.300000 6.820000 8.800000 139 82 68 0
3.520000 6.820000 7.480000 137 80 66 0
3.740000 6.820000 8.140000 137 80 66 0
3.960000 6.820000 10.230000 138 81 67 0
4.180000 6.820000 12.320000 139 80 67 0
4.400000 6.820000 13.750000 139 80 67 0
4.620000 6.820000 15.070000 141 81 68 0
4.840000 6.820000 16.500000 140 80 67 0
5.060000 6.820000 12.980000 139 80 67 0
5.280000 6.820000 9.570000 140 81 68 0
5.500000 6.820000 9.570000 141 81 68 0
5.720000 6.820000 4.730000 142 82 69 0
7.040000 6.820000 4.730000 146 83 71 0
7.260000 6.820000 15.070000 147 84 72 0
7.480000 6.820000 19.250000 146 83 71 0
7.700000 6.820000 19.250000 148 85 73 0
7.920000 6.820000 18.590000 148 85 73 0
8.140000 6.820000 18.590000 148 85 75 0
8.360000 6.820000 18.590000 149 86 76 0
8.580000 6.820000 18.590000 150 87 77 0
8.800000 6.820000 17.930000 150 87 77 0
9.020000 6.820000 18.480000 152 87 78 0
9.240000 6.820000 18.920000 151 86 77 0
9.460000 6.820000 20.130000 152 87 78 0
9.680000 6.820000 15.290000 153 88 79 0
9.900000 6.820000 5.500000 154 89 80 0
10.120000 6.820000 1.430000 154 89 80 0
10.340000 6.820000 1.430000 155 90 81 0
10.560000 6.820000 1.430000 156 91 82 0
10.780000 6.820000 1.430000 157 92 85 0
11.000000 6.820000 1.430000 157 92 85 0
11.220000 6.820000 0.770000 159 94 85 0
11.440000 6.820000 0.770000 159 94 85 0
11.660000 6.820000 0.770000 160 97 87 0
11.880000 6.820000 0.770000 160 97 87 0
12.100000 6.820000 0.110000 161 96 87 0
12.320000 6.820000 0.220000 159 94 85 0
12.760000 6.820000 2.310000 161 96 89 0
12.980000 6.820000 9.240000 162 97 88 0
13.200000 6.820000 10.010000 161 96 87 0
13.420000 6.820000 3.850000 160 92 84 0
13.640000 6.820000 0.440000 156 88 80 0
13.860000 6.820000 0.440000 156 87 79 0
14.080000 6.820000 0.550000 156 87 79 0
14.300000 6.820000 0.550000 154 83 74 0
14.520000 6.820000 0.550000 153 82 73 0
15.400000 6.820000 0.660000 152 77 66 0
15.620000 6.820000 0.660000 151 76 66 0
15.840000 6.820000 0.660000 149 74 64 0
16.060000 6.820000 1.320000 150 71 62 0
16.280000 6.820000 1.320000 149 70 61 0
16.500000 6.820000 1.320000 148 69 60 0
16.720000 6.820000 1.980000 146 67 58 0
16.940000 6.820000 1.980000 147 66 58 0
17.160000 6.820000 2.640000 144 63 55 0
17.380000 6.820000 2.530000 143 62 54 0
17.600000 6.820000 3.190000 143 62 54 0
17.820000 6.820000 3.850000 144 60 53 0
18.040000 6.820000 3.850000 143 59 52 0
18.260000 6.820000 3.190000 143 59 52 0
18.480000 6.820000 2.530000 142 58 51 0
18.700000 6.820000 2.530000 140 59 51 0
18.920000 6.820000 2.530000 138 57 49 0
19.140000 6.820000 2.530000 138 57 49 0
19.360000 6.820000 2.640000 139 58 50 0
19.580000 6.820000 2.640000 140 59 53 0
19.800000 6.820000 2.640000 142 61 55 0
20.020000 6.820000 1.980000 141 61 55 0
20.240000 6.820000 2.090000 143 63 57 0
20.460000 6.820000 1.870000 143 63 57 0
20.680000 6.820000 2.420000 143 63 57 0
20.900000 6.820000 2.530000 141 63 56 0
21.120000 6.820000 1.980000 142 64 57 0
21.340000 6.820000 2.090000 144 64 58 0
21.560000 6.820000 1.980000 143 63 57 0
21.780000 6.820000 1.980000 143 65 58 0
22.000000 6.820000 1.980000 142 64 57 0
22.220000 6.820000 2.090000 141 63 56 0
22.440000 6.820000 2.090000 141 63 56 0
22.660000 6.820000 1.980000 140 65 57 0
22.880000 6.820000 2.750000 140 65 57 0
23.100000 6.820000 2.750000 143 65 58 0
23.320000 6.820000 2.750000 143 65 58 0
23.540000 6.820000 3.300000 143 65 58 0
23.760000 6.820000 3.960000 142 64 57 0
23.980000 6.820000 3.850000 140 62 55 0
24.200000 6.820000 4.510000 139 61 54 0
24.420000 6.820000 3.850000 139 61 54 0
24.640000 6.820000 4.510000 138 60 53 0
24.860000 6.820000 4.620000 139 61 54 0
25.080000 6.820000 5.280000 139 61 54 0
25.300000 6.820000 6.050000 137 63 55 0
25.520000 6.820000 6.710000 139 65 57 0
25.740000 6.820000 6.820000 136 71 60 0
25.960000 6.820000 6.820000 140 75 64 0
26.180000 6.820000 6.820000 140 80 67 0
26.400000 6.820000 6.160000 142 82 69 0
26.620000 6.820000 4.840000 143 83 70 0
26.840000 6.820000 3.300000 143 83 70 0
27.060000 6.820000 2.970000 143 83 70 0
27.280000 6.820000 2.750000 142 82 69 0
27.500000 6.820000 2.090000 143 83 70 0
27.720000 6.820000 2.090000 143 83 70 0
27.940000 6.820000 2.860000 143 84 71 0
28.160000 6.820000 2.860000 142 83 70 0
28.380000 6.820000 2.860000 143 84 71 0
28.600000 6.820000 2.860000 143 84 71 0
28.820000 6.820000 2.310000 143 84 73 0
29.040000 6.820000 1.870000 143 84 73 0
29.260000 6.820000 0.550000 144 84 71 0
29.480000 6.820000 1.100000 143 83 70 0
29.700000 6.820000 1.650000 141 82 69 0
29.920000 6.820000 2.310000 139 80 67 0
30.140000 6.820000 3.080000 139 79 64 0
30.360000 6.820000 3.080000 139 79 64 0
30.580000 6.820000 3.740000 138 78 65 0
30.800000 6.820000 3.740000 137 77 64 0
31.020000 6.820000 3.850000 139 79 64 0
31.240000 6.820000 4.620000 139 79 64 0
31.460000 6.820000 5.940000 138 79 66 0
31.680000 6.820000 6.050000 141 82 69 0
31.900000 6.820000 6.050000 134 89 78 0
32.120000 6.820000 7.480000 137 92 81 0
32.340000 6.820000 8.910000 126 107 88 0
32.560000 6.820000 11.000000 131 112 93 0
32.780000 6.820000 12.430000 133 117 99 0
33.000000 6.820000 12.430000 135 119 101 0
33.220000 6.820000 13.640000 136 123 102 0
33.440000 6.820000 16.830000 137 124 103 0
33.660000 6.820000 18.700000 137 123 105 0
33.880000 6.820000 19.360000 137 123 105 0
34.100000 6.820000 16.610000 138 122 102 0
34.320000 6.820000 8.360000 138 122 102 0
34.540000 6.820000 2.200000 138 122 104 0
34.760000 6.820000 1.540000 139 123 105 0
34.980000 6.820000 1.540000 139 123 103 0
35.200000 6.820000 1.430000 140 124 104 0
35.420000 6.820000 0.770000 138 125 104 0
35.640000 6.820000 0.880000 138 125 104 0
35.860000 6.820000 0.880000 140 124 104 0
36.080000 6.820000 1.540000 141 125 105 0
36.300000 6.820000 1.540000 142 126 108 0
36.520000 6.820000 1.650000 143 127 109 0
36.740000 6.820000 1.650000 144 128 108 0
36.960000 6.820000 2.420000 147 131 111 0
37.180000 6.820000 2.420000 151 132 110 0
0.000000 7.040000 3.630000 134 104 89 0
0.220000 7.040000 3.630000 134 104 89 0
0.440000 7.040000 4.180000 133 103 88 0
0.660000 7.040000 3.520000 133 103 87 0
0.880000 7.040000 3.630000 132 102 86 0
1.100000 7.040000 2.860000 134 102 86 0
1.320000 7.040000 2.970000 134 102 86 0
1.540000 7.040000 2.530000 133 101 85 0
1.760000 7.040000 1.980000 133 101 85 0
1.980000 7.040000 5.390000 133 99 85 0
2.200000 7.040000 12.320000 132 98 84 0
2.420000 7.040000 14.300000 132 98 83 0
2.640000 7.040000 12.210000 131 97 82 0
2.860000 7.040000 10.890000 137 93 79 0
3.080000 7.040000 10.230000 134 90 76 0
3.300000 7.040000 8.140000 138 81 67 0
3.520000 7.040000 6.820000 138 81 67 0
3.740000 7.040000 6.160000 137 80 66 0
3.960000 7.040000 8.910000 138 81 67 0
4.180000 7.040000 13.090000 139 80 67 0
4.400000 7.040000 16.500000 139 80 67 0
4.620000 7.040000 14.410000 141 81 68 0
4.840000 7.040000 11.660000 141 81 68 0
5.060000 7.040000 10.890000 141 82 69 0
5.280000 7.040000 8.140000 141 82 69 0
5.500000 7.040000 7.480000 141 81 68 0
5.720000 7.040000 3.300000 142 82 69 0
6.160000 7.040000 0.550000 143 83 70 0
6.380000 7.040000 0.550000 145 82 70 0
7.040000 7.040000 3.410000 147 84 72 0
7.260000 7.040000 11.000000 147 84 72 0
7.480000 7.040000 15.840000 147 84 72 0
7.700000 7.040000 17.930000 147 84 72 0
7.920000 7.040000 18.590000 148 85 73 0
8.140000 7.040000 18.590000 148 85 75 0
8.360000 7.040000 18.590000 149 86 76 0
8.580000 7.040000 18.590000 150 87 77 0
8.800000 7.040000 17.820000 150 87 77 0
9.020000 7.040000 18.260000 152 87 78 0
9.240000 7.040000 19.360000 152 87 78 0
9.460000 7.040000 20.020000 153 88 79 0
9.680000 7.040000 15.180000 154 89 80 0
9.900000 7.040000 5.500000 154 89 80 0
10.120000 7.040000 1.430000 154 89 80 0
10.340000 7.040000 1.430000 154 89 80 0
10.560000 7.040000 1.430000 156 91 82 0
10.780000 7.040000 2.090000 156 91 84 0
11.000000 7.040000 2.090000 158 93 86 0
11.220000 7.040000 1.430000 158 93 84 0
11.440000 7.040000 1.430000 160 95 86 0
11.660000 7.040000 1.430000 161 98 88 0
11.880000 7.040000 0.770000 161 98 88 0
12.100000 7.040000 0.880000 160 95 86 0
12.320000 7.040000 0.220000 159 94 85 0
12.540000 7.040000 0.220000 159 94 87 0
12.760000 7.040000 1.650000 160 95 88 0
12.980000 7.040000 4.400000 159 94 85 0
13.200000 7.040000 3.740000 160 95 86 0
13.420000 7.040000 1.650000 158 90 82 0
13.640000 7.040000 0.330000 156 88 80 0
13.860000 7.040000 0.440000 156 87 79 0
14.080000 7.040000 0.440000 156 87 79 0
14.300000 7.040000 0.550000 156 85 76 0
15.400000 7.040000 0.660000 152 77 66 0
15.620000 7.040000 0.660000 150 75 65 0
15.840000 7.040000 0.660000 150 75 65 0
16.060000 7.040000 1.320000 151 72 63 0
16.280000 7.040000 1.320000 150 71 62 0
16.500000 7.040000 1.980000 148 69 60 0
16.720000 7.040000 1.980000 147 68 59 0
16.940000 7.040000 1.980000 146 65 57 0
17.160000 7.040000 2.640000 145 64 56 0
17.380000 7.040000 2.530000 144 63 55 0
17.600000 7.040000 3.190000 142 61 53 0
17.820000 7.040000 3.190000 144 60 53 0
18.040000 7.040000 3.190000 143 59 52 0
18.260000 7.040000 2.530000 141 57 50 0
18.480000 7.040000 1.760000 142 58 51 0
18.700000 7.040000 1.870000 138 57 49 0
18.920000 7.040000 2.530000 138 57 49 0
19.140000 7.040000 2.640000 138 57 49 0
19.360000 7.040000 2.640000 140 59 51 0
19.580000 7.040000 2.640000 141 60 54 0
19.800000 7.040000 1.980000 142 61 55 0
20.020000 7.040000 1.980000 143 63 57 0
20.240000 7.040000 1.980000 143 63 57 0
20.460000 7.040000 2.530000 143 63 57 0
20.680000 7.040000 2.310000 143 63 57 0
20.900000 7.040000 2.420000 143 65 58 0
21.120000 7.040000 1.980000 143 65 58 0
21.340000 7.040000 2.090000 144 64 58 0
21.560000 7.040000 1.980000 144 64 58 0
21.780000 7.040000 2.640000 142 64 57 0
22.000000 7.040000 2.640000 143 65 58 0
22.220000 7.040000 2.090000 142 64 57 0
22.440000 7.040000 2.750000 142 64 57 0
22.660000 7.040000 2.750000 141 66 58 0
22.880000 7.040000 2.750000 142 67 59 0
23.100000 7.040000 2.750000 144 66 59 0
23.320000 7.040000 3.410000 143 65 58 0
23.540000 7.040000 3.960000 142 64 57 0
23.760000 7.040000 4.510000 141 63 56 0
23.980000 7.040000 4.510000 139 61 54 0
24.200000 7.040000 4.510000 138 60 53 0
24.420000 7.040000 4.510000 138 60 53 0
24.640000 7.040000 4.620000 138 60 53 0
24.860000 7.040000 5.280000 138 60 53 0
25.080000 7.040000 5.280000 140 62 55 0
25.300000 7.040000 6.050000 138 64 56 0
25.520000 7.040000 6.820000 141 67 59 0
25.740000 7.040000 6.820000 138 73 62 0
25.960000 7.040000 7.480000 141 76 65 0
26.180000 7.040000 6.820000 141 81 68 0
26.400000 7.040000 6.160000 141 81 68 0
26.620000 7.040000 4.730000 142 82 69 0
26.840000 7.040000 3.190000 143 83 70 0
27.060000 7.040000 2.860000 143 83 70 0
27.280000 7.040000 2.090000 142 82 69 0
27.500000 7.040000 2.090000 143 83 70 0
27.720000 7.040000 2.090000 143 83 70 0
27.940000 7.040000 2.860000 142 83 70 0
28.160000 7.040000 2.860000 143 84 71 0
28.380000 7.040000 2.860000 144 85 72 0
28.600000 7.040000 2.860000 144 85 72 0
28.820000 7.040000 2.420000 143 84 73 0
29.040000 7.040000 1.980000 143 84 73 0
29.260000 7.040000 1.210000 144 84 71 0
29.480000 7.040000 1.650000 144 84 71 0
29.700000 7.040000 2.200000 141 82 69 0
29.920000 7.040000 2.970000 140 81 68 0
30.140000 7.040000 3.080000 139 79 64 0
30.360000 7.040000 3.740000 139 79 64 0
30.580000 7.040000 3.740000 137 77 64 0
30.800000 7.040000 3.740000 138 78 65 0
31.020000 7.040000 3.850000 139 79 64 0
31.240000 7.040000 4.510000 139 79 64 0
31.460000 7.040000 5.940000 139 80 67 0
31.680000 7.040000 6.050000 140 81 68 0
31.900000 7.040000 6.050000 133 88 77 0
32.120000 7.040000 7.480000 137 92 81 0
32.340000 7.040000 8.910000 125 106 87 0
32.560000 7.040000 11.000000 130 111 92 0
32.780000 7.040000 12.430000 132 116 98 0
33.000000 7.040000 12.430000 135 119 101 0
33.220000 7.040000 13.090000 135 122 101 0
33.440000 7.040000 14.960000 138 125 104 0
33.660000 7.040000 16.720000 136 122 104 0
33.880000 7.040000 18.700000 136 122 104 0
34.100000 7.040000 14.520000 139 123 103 0
34.320000 7.040000 5.610000 140 124 104 0
34.540000 7.040000 1.430000 140 124 106 0
34.760000 7.040000 1.540000 140 124 106 0
34.980000 7.040000 2.200000 140 124 104 0
35.200000 7.040000 1.430000 140 124 104 0
35.420000 7.040000 0.770000 138 125 104 0
35.640000 7.040000 0.880000 139 126 105 0
35.860000 7.040000 0.880000 141 125 105 0
36.080000 7.040000 1.540000 140 124 104 0
36.300000 7.040000 1.540000 141 125 107 0
36.520000 7.040000 1.650000 144 128 110 0
36.740000 7.040000 1.650000 145 129 109 0
36.960000 7.040000 2.420000 147 131 111 0
37.180000 7.040000 2.420000 152 133 111 0
0.000000 7.260000 3.630000 132 99 85 0
0.220000 7.260000 3.630000 132 99 85 0
0.440000 7.260000 3.630000 131 98 84 0
0.660000 7.260000 3.630000 133 99 84 0
0.880000 7.260000 3.630000 132 98 83 0
1.100000 7.260000 3.630000 133 99 84 0
1.320000 7.260000 3.630000 131 97 82 0
1.540000 7.260000 3.850000 133 96 83 0
1.760000 7.260000 5.390000 132 95 82 0
1.980000 7.260000 8.140000 132 95 81 0
2.200000 7.260000 12.320000 133 96 82 0
2.420000 7.260000 13.640000 135 92 78 0
2.640000 7.260000 12.980000 135 92 78 0
2.860000 7.260000 12.320000 140 88 72 0
3.080000 7.260000 10.890000 138 86 70 0
3.300000 7.260000 6.820000 138 81 67 0
3.520000 7.260000 4.070000 138 81 67 0
3.740000 7.260000 3.300000 138 82 65 0
3.960000 7.260000 6.160000 137 81 64 0
4.180000 7.260000 11.000000 138 80 64 0
4.400000 7.260000 13.750000 140 82 66 0
4.620000 7.260000 10.230000 140 81 68 0
4.840000 7.260000 8.140000 140 81 68 0
5.060000 7.260000 9.570000 141 81 66 0
5.280000 7.260000 5.390000 142 82 67 0
5.500000 7.260000 1.980000 143 80 68 0
5.720000 7.260000 0.550000 143 80 68 0
6.160000 7.260000 0.550000 143 83 70 0
6.380000 7.260000 0.550000 142 82 69 0
6.600000 7.260000 0.550000 142 82 69 0
7.040000 7.260000 1.320000 146 83 71 0
7.260000 7.260000 3.410000 147 84 72 0
7.480000 7.260000 6.820000 147 84 72 0
7.700000 7.260000 13.090000 147 84 72 0
7.920000 7.260000 17.930000 149 86 74 0
8.140000 7.260000 18.590000 149 86 74 0
8.360000 7.260000 18.590000 150 87 75 0
8.580000 7.260000 18.590000 150 87 75 0
8.800000 7.260000 17.820000 150 87 75 0
9.020000 7.260000 18.150000 151 86 77 0
9.240000 7.260000 18.700000 152 87 78 0
9.460000 7.260000 19.360000 153 88 79 0
9.680000 7.260000 16.610000 154 89 80 0
9.900000 7.260000 8.360000 153 90 80 0
10.120000 7.260000 2.090000 153 90 80 0
10.340000 7.260000 1.430000 155 90 81 0
10.560000 7.260000 1.430000 156 91 82 0
10.780000 7.260000 2.090000 157 92 83 0
11.000000 7.260000 2.090000 158 93 84 0
11.220000 7.260000 2.090000 158 95 85 0
11.440000 7.260000 1.430000 159 96 86 0
11.660000 7.260000 1.430000 160 97 87 0
11.880000 7.260000 1.430000 161 98 88 0
12.100000 7.260000 0.770000 160 95 86 0
12.320000 7.260000 0.220000 159 94 85 0
12.540000 7.260000 0.220000 159 94 85 0
12.760000 7.260000 0.220000 159 94 85 0
12.980000 7.260000 0.880000 158 93 84 0
13.200000 7.260000 0.880000 157 92 83 0
13.420000 7.260000 0.880000 158 89 79 0
13.640000 7.260000 0.990000 156 87 77 0
13.860000 7.260000 0.440000 155 87 79 0
14.080000 7.260000 0.440000 154 86 78 0
14.300000 7.260000 0.440000 154 86 78 0
14.520000 7.260000 0.550000 154 86 78 0
15.180000 7.260000 0.660000 157 84 73 0
15.400000 7.260000 0.660000 153 80 69 0
15.620000 7.260000 0.660000 153 75 66 0
15.840000 7.260000 1.320000 151 73 64 0
16.060000 7.260000 1.320000 152 73 64 0
16.280000 7.260000 1.320000 150 71 62 0
16.500000 7.260000 1.980000 148 69 60 0
16.720000 7.260000 1.980000 146 67 58 0
16.940000 7.260000 2.640000 145 66 57 0
17.160000 7.260000 2.640000 144 65 56 0
17.380000 7.260000 3.190000 143 64 55 0
17.600000 7.260000 3.190000 141 62 53 0
17.820000 7.260000 3.190000 142 61 53 0
18.040000 7.260000 2.530000 141 60 52 0
18.260000 7.260000 1.760000 141 60 54 0
18.480000 7.260000 1.100000 139 58 52 0
18.700000 7.260000 1.870000 139 58 50 0
18.920000 7.260000 2.530000 139 58 50 0
19.140000 7.260000 2.640000 140 61 52 0
19.360000 7.260000 2.640000 140 61 52 0
19.580000 7.260000 2.640000 141 61 55 0
19.800000 7.260000 1.980000 143 63 57 0
20.020000 7.260000 1.980000 141 63 56 0
20.240000 7.260000 1.980000 142 64 57 0
20.460000 7.260000 2.420000 143 64 55 0
20.680000 7.260000 2.420000 143 64 55 0
20.900000 7.260000 1.870000 143 65 58 0
21.120000 7.260000 1.980000 144 66 59 0
21.340000 7.260000 1.980000 143 65 58 0
21.560000 7.260000 1.980000 144 66 59 0
21.780000 7.260000 1.980000 143 65 58 0
22.000000 7.260000 2.750000 144 66 59 0
22.220000 7.260000 2.750000 143 65 58 0
22.440000 7.260000 2.750000 142 64 57 0
22.660000 7.260000 2.750000 141 66 58 0
22.880000 7.260000 2.750000 141 66 58 0
23.100000 7.260000 2.750000 142 67 59 0
23.320000 7.260000 3.300000 141 66 58 0
23.540000 7.260000 3.850000 142 64 57 0
23.760000 7.260000 4.510000 141 63 56 0
23.980000 7.260000 5.280000 139 61 54 0
24.200000 7.260000 5.280000 139 61 54 0
24.420000 7.260000 4.620000 136 61 53 0
24.640000 7.260000 5.280000 136 61 53 0
24.860000 7.260000 5.280000 136 62 56 0
25.080000 7.260000 6.050000 138 64 58 0
25.300000 7.260000 6.820000 137 68 60 0
25.520000 7.260000 6.820000 141 72 64 0
25.740000 7.260000 7.480000 137 77 64 0
25.960000 7.260000 7.590000 140 80 67 0
26.180000 7.260000 7.590000 143 80 68 0
26.400000 7.260000 6.160000 145 82 70 0
26.620000 7.260000 4.620000 143 83 70 0
26.840000 7.260000 3.630000 143 83 70 0
27.060000 7.260000 2.860000 143 83 70 0
27.280000 7.260000 2.090000 143 83 70 0
27.500000 7.260000 2.090000 143 83 70 0
27.720000 7.260000 2.860000 143 83 70 0
27.940000 7.260000 2.860000 144 84 71 0
28.160000 7.260000 2.860000 145 85 72 0
28.380000 7.260000 2.860000 146 86 73 0
28.600000 7.260000 2.860000 145 85 72 0
28.820000 7.260000 2.310000 144 85 74 0
29.040000 7.260000 1.870000 144 85 74 0
29.260000 7.260000 1.760000 144 85 72 0
29.480000 7.260000 2.200000 142 83 70 0
29.700000 7.260000 2.860000 142 82 69 0
29.920000 7.260000 2.970000 140 80 67 0
30.140000 7.260000 3.740000 138 78 65 0
30.360000 7.260000 3.740000 138 78 65 0
30.580000 7.260000 3.740000 138 78 65 0
30.800000 7.260000 3.740000 138 78 65 0
31.020000 7.260000 3.850000 138 78 63 0
31.240000 7.260000 4.510000 138 78 63 0
31.460000 7.260000 5.280000 139 80 67 0
31.680000 7.260000 5.940000 140 81 68 0
31.900000 7.260000 6.710000 136 86 72 0
32.120000 7.260000 7.480000 139 89 75 0
32.340000 7.260000 8.910000 129 100 87 0
32.560000 7.260000 11.000000 134 105 92 0
32.780000 7.260000 12.430000 131 115 95 0
33.000000 7.260000 13.090000 133 117 97 0
33.220000 7.260000 12.430000 137 121 103 0
33.440000 7.260000 13.640000 139 123 105 0
33.660000 7.260000 15.400000 139 123 105 0
33.880000 7.260000 16.610000 139 123 105 0
34.100000 7.260000 12.540000 140 124 104 0
34.320000 7.260000 4.950000 140 124 104 0
34.540000 7.260000 1.430000 141 125 105 0
34.760000 7.260000 2.200000 141 125 105 0
34.980000 7.260000 2.200000 140 124 106 0
35.200000 7.260000 2.200000 141 125 107 0
35.420000 7.260000 1.540000 140 124 104 0
35.640000 7.260000 0.880000 140 124 104 0
35.860000 7.260000 0.880000 142 124 105 0
36.080000 7.260000 1.540000 142 124 105 0
36.300000 7.260000 0.880000 142 126 106 0
36.520000 7.260000 0.880000 143 127 107 0
36.740000 7.260000 1.650000 146 128 109 0
36.960000 7.260000 2.420000 148 130 111 0
37.180000 7.260000 3.080000 150 133 112 0
0.000000 7.480000 2.970000 129 96 82 0
0.220000 7.480000 2.310000 127 94 80 0
0.440000 7.480000 2.420000 127 94 80 0
0.660000 7.480000 2.970000 127 93 78 0
0.880000 7.480000 3.520000 128 94 79 0
1.100000 7.480000 4.290000 127 93 78 0
1.320000 7.480000 4.400000 127 93 78 0
1.540000 7.480000 5.940000 129 92 79 0
1.760000 7.480000 10.230000 128 91 78 0
1.980000 7.480000 13.640000 127 90 76 0
2.200000 7.480000 14.410000 129 92 78 0
2.420000 7.480000 14.300000 132 89 75 0
2.640000 7.480000 14.300000 131 88 74 0
2.860000 7.480000 14.410000 137 85 69 0
3.080000 7.480000 10.890000 136 84 68 0
3.300000 7.480000 5.390000 138 81 67 0
3.520000 7.480000 2.640000 138 81 67 0
3.740000 7.480000 1.980000 138 82 65 0
3.960000 7.480000 1.980000 138 82 65 0
4.180000 7.480000 4.070000 139 81 65 0
4.400000 7.480000 5.390000 139 81 65 0
4.620000 7.480000 6.820000 140 81 68 0
4.840000 7.480000 9.570000 140 81 68 0
5.060000 7.480000 11.000000 142 82 67 0
5.280000 7.480000 4.070000 141 81 66 0
6.160000 7.480000 0.660000 143 83 70 0
6.380000 7.480000 0.550000 143 83 70 0
6.600000 7.480000 0.550000 143 83 70 0
7.480000 7.480000 0.660000 147 84 72 0
7.700000 7.480000 6.930000 149 86 74 0
7.920000 7.480000 15.840000 149 86 74 0
8.140000 7.480000 19.360000 149 86 74 0
8.360000 7.480000 19.360000 150 87 75 0
8.580000 7.480000 18.590000 150 87 75 0
8.800000 7.480000 17.820000 150 87 75 0
9.020000 7.480000 18.150000 151 86 77 0
9.240000 7.480000 18.700000 152 87 78 0
9.460000 7.480000 19.360000 153 88 79 0
9.680000 7.480000 18.700000 153 88 79 0
9.900000 7.480000 13.200000 153 90 80 0
10.120000 7.480000 4.840000 154 91 81 0
10.340000 7.480000 0.770000 156 91 82 0
10.560000 7.480000 1.430000 156 91 82 0
10.780000 7.480000 1.430000 157 92 83 0
11.000000 7.480000 1.430000 158 93 84 0
11.220000 7.480000 1.430000 158 95 85 0
11.440000 7.480000 1.430000 159 96 86 0
11.660000 7.480000 1.430000 160 97 87 0
11.880000 7.480000 1.430000 160 97 87 0
12.100000 7.480000 0.770000 160 95 86 0
12.320000 7.480000 0.880000 158 93 84 0
12.540000 7.480000 0.880000 157 92 83 0
12.760000 7.480000 0.880000 157 92 83 0
12.980000 7.480000 0.880000 157 92 83 0
13.200000 7.480000 1.540000 156 91 82 0
13.420000 7.480000 1.540000 156 87 77 0
13.640000 7.480000 1.650000 155 86 76 0
13.860000 7.480000 1.760000 154 86 78 0
14.080000 7.480000 1.870000 153 85 77 0
14.300000 7.480000 1.210000 153 85 77 0
14.520000 7.480000 0.550000 155 87 79 0
14.740000 7.480000 0.660000 154 87 76 0
14.960000 7.480000 0.660000 153 86 75 0
15.180000 7.480000 1.320000 157 84 73 0
15.400000 7.480000 1.320000 153 80 69 0
15.620000 7.480000 1.320000 153 75 66 0
15.840000 7.480000 1.320000 151 73 64 0
16.060000 7.480000 1.320000 152 73 64 0
16.280000 7.480000 1.980000 150 71 62 0
16.500000 7.480000 1.980000 148 69 60 0
16.720000 7.480000 2.640000 147 68 59 0
16.940000 7.480000 2.530000 145 66 57 0
17.160000 7.480000 3.190000 145 66 57 0
17.380000 7.480000 3.190000 143 64 55 0
17.600000 7.480000 3.190000 142 63 54 0
17.820000 7.480000 3.190000 142 61 53 0
18.040000 7.480000 2.530000 141 60 52 0
18.260000 7.480000 1.100000 140 59 53 0
18.480000 7.480000 1.100000 139 58 52 0
18.700000 7.480000 1.870000 138 57 49 0
18.920000 7.480000 2.640000 140 59 51 0
19.140000 7.480000 2.640000 140 61 52 0
19.360000 7.480000 2.640000 141 62 53 0
19.580000 7.480000 2.640000 143 63 57 0
19.800000 7.480000 1.980000 142 62 56 0
20.020000 7.480000 1.980000 143 65 58 0
20.240000 7.480000 1.980000 142 64 57 0
20.460000 7.480000 1.980000 144 65 56 0
20.680000 7.480000 1.980000 143 64 55 0
20.900000 7.480000 1.980000 144 66 59 0
21.120000 7.480000 1.870000 143 65 58 0
21.340000 7.480000 2.420000 144 66 59 0
21.560000 7.480000 2.640000 144 66 59 0
21.780000 7.480000 2.090000 143 65 58 0
22.000000 7.480000 2.750000 143 65 58 0
22.220000 7.480000 2.750000 144 66 59 0
22.440000 7.480000 2.750000 144 66 59 0
22.660000 7.480000 2.750000 142 67 59 0
22.880000 7.480000 2.640000 142 67 59 0
23.100000 7.480000 3.300000 141 66 58 0
23.320000 7.480000 3.960000 141 66 58 0
23.540000 7.480000 4.510000 141 63 56 0
23.760000 7.480000 5.280000 140 62 55 0
23.980000 7.480000 5.280000 138 60 53 0
24.200000 7.480000 5.280000 139 61 54 0
24.420000 7.480000 5.280000 136 61 53 0
24.640000 7.480000 5.280000 137 62 54 0
24.860000 7.480000 5.390000 137 63 57 0
25.080000 7.480000 6.050000 140 66 60 0
25.300000 7.480000 6.820000 140 71 63 0
25.520000 7.480000 7.480000 142 73 65 0
25.740000 7.480000 8.250000 138 78 65 0
25.960000 7.480000 8.250000 141 81 68 0
26.180000 7.480000 7.590000 143 80 68 0
26.400000 7.480000 5.390000 144 81 69 0
26.620000 7.480000 4.400000 143 83 70 0
26.840000 7.480000 3.520000 142 82 69 0
27.060000 7.480000 2.750000 142 82 69 0
27.280000 7.480000 2.750000 144 84 71 0
27.500000 7.480000 2.750000 143 83 70 0
27.720000 7.480000 2.860000 143 83 70 0
27.940000 7.480000 2.860000 144 84 71 0
28.160000 7.480000 2.860000 144 84 71 0
28.380000 7.480000 2.750000 145 85 72 0
28.600000 7.480000 2.750000 145 85 72 0
28.820000 7.480000 2.860000 145 86 75 0
29.040000 7.480000 2.420000 145 86 75 0
29.260000 7.480000 2.310000 144 85 72 0
29.480000 7.480000 2.200000 144 85 72 0
29.700000 7.480000 2.200000 142 82 69 0
29.920000 7.480000 2.970000 141 81 68 0
30.140000 7.480000 3.630000 139 79 66 0
30.360000 7.480000 3.740000 140 80 67 0
30.580000 7.480000 3.740000 139 79 66 0
30.800000 7.480000 3.740000 139 79 66 0
31.020000 7.480000 3.740000 140 80 65 0
31.240000 7.480000 4.510000 138 78 63 0
31.460000 7.480000 5.280000 138 79 66 0
31.680000 7.480000 5.940000 139 80 67 0
31.900000 7.480000 6.710000 135 85 71 0
32.120000 7.480000 7.480000 138 88 74 0
32.340000 7.480000 8.910000 127 98 85 0
32.560000 7.480000 11.000000 132 103 90 0
32.780000 7.480000 12.430000 129 113 93 0
33.000000 7.480000 13.090000 133 117 97 0
33.220000 7.480000 12.430000 136 120 102 0
33.440000 7.480000 12.980000 139 123 105 0
33.660000 7.480000 14.740000 140 124 106 0
33.880000 7.480000 13.200000 140 124 106 0
34.100000 7.480000 6.930000 141 125 105 0
34.320000 7.480000 2.860000 141 125 105 0
34.540000 7.480000 2.200000 141 125 105 0
34.760000 7.480000 2.200000 141 125 105 0
34.980000 7.480000 2.200000 141 125 107 0
35.200000 7.480000 2.200000 141 125 107 0
35.420000 7.480000 1.540000 141 125 105 0
35.640000 7.480000 0.880000 141 125 105 0
35.860000 7.480000 0.880000 142 124 105 0
36.080000 7.480000 0.880000 142 124 105 0
36.300000 7.480000 0.880000 142 126 106 0
36.520000 7.480000 0.880000 144 128 108 0
36.740000 7.480000 0.990000 146 128 109 0
36.960000 7.480000 2.420000 148 130 111 0
37.180000 7.480000 3.080000 152 135 114 0
0.000000 7.700000 2.970000 126 92 77 0
0.220000 7.700000 2.310000 125 91 76 0
0.440000 7.700000 1.760000 125 91 76 0
0.660000 7.700000 2.310000 126 89 75 0
0.880000 7.700000 3.520000 125 88 74 0
1.100000 7.700000 4.290000 126 89 75 0
1.320000 7.700000 5.170000 125 88 74 0
1.540000 7.700000 8.690000 129 86 72 0
1.760000 7.700000 14.300000 129 86 72 0
1.980000 7.700000 17.160000 128 84 70 0
2.200000 7.700000 16.390000 129 85 71 0
2.420000 7.700000 15.730000 128 84 68 0
2.640000 7.700000 15.070000 129 85 69 0
2.860000 7.700000 11.550000 135 83 67 0
3.080000 7.700000 6.050000 135 83 67 0
3.300000 7.700000 2.640000 135 81 66 0
3.520000 7.700000 1.320000 135 81 66 0
3.740000 7.700000 0.550000 139 80 67 0
3.960000 7.700000 0.550000 138 79 66 0
4.400000 7.700000 1.980000 140 82 66 0
4.620000 7.700000 6.820000 139 80 67 0
4.840000 7.700000 11.000000 140 81 68 0
5.060000 7.700000 9.570000 142 82 69 0
5.280000 7.700000 3.410000 141 81 68 0
6.160000 7.700000 0.660000 145 82 70 0
7.700000 7.700000 3.410000 149 84 73 0
7.920000 7.700000 11.000000 150 85 74 0
8.140000 7.700000 15.840000 150 85 74 0
8.360000 7.700000 17.930000 149 84 73 0
8.580000 7.700000 18.590000 151 86 75 0
8.800000 7.700000 17.820000 152 87 76 0
9.020000 7.700000 17.490000 152 87 76 0
9.240000 7.700000 18.040000 152 87 76 0
9.460000 7.700000 18.700000 153 88 79 0
9.680000 7.700000 20.130000 153 88 79 0
9.900000 7.700000 15.950000 154 89 80 0
10.120000 7.700000 5.610000 155 90 81 0
10.340000 7.700000 2.090000 155 90 79 0
10.560000 7.700000 3.520000 156 91 80 0
10.780000 7.700000 2.200000 157 92 83 0
11.000000 7.700000 0.770000 158 93 84 0
11.220000 7.700000 0.770000 159 94 85 0
11.440000 7.700000 0.770000 160 95 86 0
11.660000 7.700000 0.770000 161 96 87 0
11.880000 7.700000 0.770000 161 96 87 0
12.100000 7.700000 0.770000 159 94 83 0
12.320000 7.700000 0.880000 158 93 82 0
12.540000 7.700000 0.880000 159 91 83 0
12.760000 7.700000 0.880000 159 91 83 0
12.980000 7.700000 1.540000 158 90 82 0
13.200000 7.700000 2.200000 158 90 82 0
13.420000 7.700000 2.200000 157 88 78 0
13.640000 7.700000 2.310000 155 86 76 0
13.860000 7.700000 2.420000 153 86 75 0
14.080000 7.700000 2.530000 154 87 76 0
14.300000 7.700000 1.870000 154 86 78 0
14.520000 7.700000 1.320000 155 87 79 0
14.740000 7.700000 1.320000 157 88 78 0
14.960000 7.700000 1.320000 154 85 75 0
15.180000 7.700000 1.980000 157 82 72 0
15.400000 7.700000 1.980000 153 78 68 0
15.620000 7.700000 1.980000 153 75 66 0
15.840000 7.700000 1.980000 151 73 64 0
16.060000 7.700000 1.980000 151 71 65 0
16.280000 7.700000 2.530000 149 69 63 0
16.500000 7.700000 3.080000 148 67 59 0
16.720000 7.700000 3.080000 147 66 58 0
16.940000 7.700000 3.190000 147 66 58 0
17.160000 7.700000 3.190000 145 64 56 0
17.380000 7.700000 3.190000 144 63 55 0
17.600000 7.700000 3.190000 143 62 54 0
17.820000 7.700000 3.190000 142 61 53 0
18.040000 7.700000 1.760000 141 60 52 0
18.260000 7.700000 0.440000 140 59 53 0
18.480000 7.700000 1.100000 140 59 53 0
18.700000 7.700000 1.870000 140 59 51 0
18.920000 7.700000 2.640000 141 60 52 0
19.140000 7.700000 2.640000 142 63 54 0
19.360000 7.700000 2.640000 142 63 54 0
19.580000 7.700000 1.980000 142 64 57 0
19.800000 7.700000 1.980000 143 65 58 0
20.020000 7.700000 2.090000 143 63 57 0
20.240000 7.700000 1.320000 143 63 57 0
20.460000 7.700000 1.320000 144 64 58 0
20.680000 7.700000 1.320000 144 64 58 0
20.900000 7.700000 1.870000 143 65 58 0
21.120000 7.700000 2.970000 144 66 59 0
21.340000 7.700000 2.970000 144 66 59 0
21.560000 7.700000 2.530000 143 65 58 0
21.780000 7.700000 2.090000 144 64 58 0
22.000000 7.700000 2.750000 144 64 58 0
22.220000 7.700000 2.750000 144 66 59 0
22.440000 7.700000 2.750000 143 65 58 0
22.660000 7.700000 2.640000 142 67 59 0
22.880000 7.700000 3.300000 141 66 58 0
23.100000 7.700000 3.960000 144 66 59 0
23.320000 7.700000 4.620000 141 63 56 0
23.540000 7.700000 5.280000 141 61 55 0
23.760000 7.700000 5.280000 141 61 55 0
23.980000 7.700000 5.280000 138 60 53 0
24.200000 7.700000 5.280000 138 60 53 0
24.420000 7.700000 5.280000 138 63 55 0
24.640000 7.700000 5.390000 137 62 54 0
24.860000 7.700000 5.390000 136 67 57 0
25.080000 7.700000 6.050000 139 70 60 0
25.300000 7.700000 6.820000 139 74 63 0
25.520000 7.700000 7.480000 142 77 66 0
25.740000 7.700000 8.250000 142 79 67 0
25.960000 7.700000 8.250000 144 81 69 0
26.180000 7.700000 6.820000 144 81 71 0
26.400000 7.700000 5.280000 144 81 71 0
26.620000 7.700000 3.630000 142 82 69 0
26.840000 7.700000 3.520000 143 83 70 0
27.060000 7.700000 2.750000 145 82 70 0
27.280000 7.700000 2.750000 145 82 70 0
27.500000 7.700000 2.750000 145 82 70 0
27.720000 7.700000 2.750000 145 82 70 0
27.940000 7.700000 2.860000 144 84 71 0
28.160000 7.700000 2.860000 144 84 71 0
28.380000 7.700000 2.750000 145 85 72 0
28.600000 7.700000 2.750000 145 85 72 0
28.820000 7.700000 2.860000 145 85 72 0
29.040000 7.700000 2.200000 145 85 72 0
29.260000 7.700000 2.090000 145 85 72 0
29.480000 7.700000 2.090000 144 84 71 0
29.700000 7.700000 1.430000 144 81 69 0
29.920000 7.700000 2.200000 143 80 68 0
30.140000 7.700000 2.970000 140 80 67 0
30.360000 7.700000 3.740000 139 79 66 0
30.580000 7.700000 3.740000 140 77 63 0
30.800000 7.700000 3.740000 142 79 65 0
31.020000 7.700000 3.740000 141 78 64 0
31.240000 7.700000 4.510000 141 78 64 0
31.460000 7.700000 5.280000 141 78 66 0
31.680000 7.700000 5.940000 141 78 66 0
31.900000 7.700000 6.710000 140 81 68 0
32.120000 7.700000 7.480000 142 83 70 0
32.340000 7.700000 8.910000 132 94 80 0
32.560000 7.700000 11.000000 136 98 84 0
32.780000 7.700000 12.430000 129 109 93 0
33.000000 7.700000 13.090000 133 113 97 0
33.220000 7.700000 12.430000 134 118 98 0
33.440000 7.700000 12.210000 137 121 101 0
33.660000 7.700000 13.970000 139 123 103 0
33.880000 7.700000 11.770000 140 124 104 0
34.100000 7.700000 4.840000 142 126 106 0
34.320000 7.700000 1.430000 142 126 106 0
34.540000 7.700000 2.200000 141 125 107 0
34.760000 7.700000 2.200000 141 125 107 0
34.980000 7.700000 2.200000 143 125 106 0
35.200000 7.700000 2.200000 143 125 106 0
35.420000 7.700000 1.540000 142 126 106 0
35.640000 7.700000 0.770000 141 125 105 0
35.860000 7.700000 0.880000 142 126 108 0
36.080000 7.700000 0.880000 142 126 108 0
36.300000 7.700000 0.220000 142 126 108 0
36.520000 7.700000 0.220000 143 127 109 0
36.740000 7.700000 0.990000 147 129 110 0
36.960000 7.700000 2.420000 149 131 112 0
37.180000 7.700000 3.080000 152 133 113 0
0.000000 7.920000 2.200000 124 90 75 0
0.220000 7.920000 2.310000 123 89 74 0
0.440000 7.920000 1.760000 123 89 74 0
0.660000 7.920000 1.540000 125 88 74 0
0.880000 7.920000 2.860000 124 87 73 0
1.100000 7.920000 4.400000 124 87 73 0
1.320000 7.920000 8.690000 124 87 73 0
1.540000 7.920000 14.300000 127 84 70 0
1.760000 7.920000 17.050000 127 84 70 0
1.980000 7.920000 17.820000 127 83 69 0
2.200000 7.920000 17.820000 126 82 68 0
2.420000 7.920000 17.820000 126 82 66 0
2.640000 7.920000 15.070000 127 83 67 0
2.860000 7.920000 7.480000 133 81 65 0
3.080000 7.920000 1.980000 133 81 65 0
3.300000 7.920000 1.210000 134 80 65 0
3.520000 7.920000 0.550000 135 81 66 0
3.740000 7.920000 0.550000 137 78 65 0
4.400000 7.920000 1.980000 139 81 65 0
4.620000 7.920000 5.390000 139 80 67 0
4.840000 7.920000 5.500000 140 81 68 0
5.060000 7.920000 3.410000 141 81 68 0
5.280000 7.920000 0.660000 141 81 68 0
7.700000 7.920000 0.660000 149 84 73 0
7.920000 7.920000 2.750000 149 84 73 0
8.140000 7.920000 8.250000 150 85 74 0
8.360000 7.920000 15.840000 150 85 74 0
8.580000 7.920000 18.590000 151 86 75 0
8.800000 7.920000 17.820000 151 86 75 0
9.020000 7.920000 17.490000 151 86 75 0
9.240000 7.920000 18.040000 152 87 76 0
9.460000 7.920000 18.040000 153 88 79 0
9.680000 7.920000 19.360000 153 88 79 0
9.900000 7.920000 16.610000 154 89 80 0
10.120000 7.920000 9.680000 155 90 81 0
10.340000 7.920000 8.360000 155 90 79 0
10.560000 7.920000 11.110000 156 91 80 0
10.780000 7.920000 8.360000 157 92 83 0
11.000000 7.920000 5.610000 157 92 83 0
11.220000 7.920000 5.610000 159 94 85 0
11.440000 7.920000 5.610000 160 95 86 0
11.660000 7.920000 5.610000 161 96 87 0
11.880000 7.920000 4.180000 161 96 87 0
12.100000 7.920000 1.540000 158 93 82 0
12.320000 7.920000 0.880000 158 93 82 0
12.540000 7.920000 0.880000 158 90 82 0
12.760000 7.920000 1.650000 158 90 82 0
12.980000 7.920000 1.540000 158 90 82 0
13.200000 7.920000 2.200000 157 89 81 0
13.420000 7.920000 2.860000 157 88 78 0
13.640000 7.920000 2.970000 155 86 76 0
13.860000 7.920000 3.080000 153 86 75 0
14.080000 7.920000 2.530000 155 88 77 0
14.300000 7.920000 2.640000 155 87 79 0
14.520000 7.920000 1.980000 155 87 79 0
14.740000 7.920000 2.090000 156 87 77 0
14.960000 7.920000 2.090000 155 86 76 0
15.180000 7.920000 2.750000 154 79 69 0
15.400000 7.920000 2.750000 152 77 67 0
15.620000 7.920000 2.640000 153 75 66 0
15.840000 7.920000 2.530000 152 74 65 0
16.060000 7.920000 3.080000 150 70 64 0
16.280000 7.920000 3.630000 149 69 63 0
16.500000 7.920000 3.630000 148 67 59 0
16.720000 7.920000 3.740000 148 67 59 0
16.940000 7.920000 3.080000 147 66 58 0
17.160000 7.920000 3.850000 145 64 56 0
17.380000 7.920000 3.850000 144 63 55 0
17.600000 7.920000 3.850000 142 61 53 0
17.820000 7.920000 3.190000 142 61 53 0
18.040000 7.920000 1.760000 140 59 51 0
18.260000 7.920000 0.440000 141 60 54 0
18.480000 7.920000 1.210000 141 60 54 0
18.700000 7.920000 1.870000 140 59 51 0
18.920000 7.920000 2.640000 142 61 53 0
19.140000 7.920000 2.640000 142 63 54 0
19.360000 7.920000 2.640000 143 64 55 0
19.580000 7.920000 1.980000 142 64 57 0
19.800000 7.920000 1.980000 143 65 58 0
20.020000 7.920000 2.090000 145 65 59 0
20.240000 7.920000 1.320000 143 63 57 0
20.460000 7.920000 1.320000 144 64 58 0
20.680000 7.920000 1.980000 144 64 58 0
20.900000 7.920000 2.310000 144 66 59 0
21.120000 7.920000 2.860000 143 65 58 0
21.340000 7.920000 2.970000 142 64 57 0
21.560000 7.920000 2.530000 142 64 57 0
21.780000 7.920000 2.090000 144 64 58 0
22.000000 7.920000 2.750000 143 63 57 0
22.220000 7.920000 2.750000 143 65 58 0
22.440000 7.920000 2.750000 143 65 58 0
22.660000 7.920000 3.300000 142 67 59 0
22.880000 7.920000 3.300000 142 67 59 0
23.100000 7.920000 3.850000 143 65 58 0
23.320000 7.920000 4.510000 140 62 55 0
23.540000 7.920000 5.280000 140 60 54 0
23.760000 7.920000 5.940000 139 59 53 0
23.980000 7.920000 5.940000 139 61 54 0
24.200000 7.920000 5.940000 139 61 54 0
24.420000 7.920000 5.280000 138 63 55 0
24.640000 7.920000 5.390000 139 64 56 0
24.860000 7.920000 5.390000 138 69 59 0
25.080000 7.920000 6.160000 142 73 63 0
25.300000 7.920000 6.160000 141 76 65 0
25.520000 7.920000 6.820000 143 78 67 0
25.740000 7.920000 7.590000 144 81 69 0
25.960000 7.920000 7.480000 144 81 69 0
26.180000 7.920000 6.490000 145 82 72 0
26.400000 7.920000 4.950000 144 81 71 0
26.620000 7.920000 3.520000 142 82 69 0
26.840000 7.920000 3.520000 142 82 69 0
27.060000 7.920000 2.750000 144 81 69 0
27.280000 7.920000 2.750000 145 82 70 0
27.500000 7.920000 2.750000 145 82 70 0
27.720000 7.920000 2.750000 145 82 70 0
27.940000 7.920000 2.860000 144 84 71 0
28.160000 7.920000 2.860000 144 84 71 0
28.380000 7.920000 2.750000 146 86 73 0
28.600000 7.920000 2.750000 145 85 72 0
28.820000 7.920000 2.750000 146 86 73 0
29.040000 7.920000 2.090000 145 85 72 0
29.260000 7.920000 2.090000 145 85 72 0
29.480000 7.920000 1.430000 144 84 71 0
29.700000 7.920000 1.430000 144 81 69 0
29.920000 7.920000 1.540000 142 79 67 0
30.140000 7.920000 2.310000 140 80 67 0
30.360000 7.920000 2.310000 140 80 67 0
30.580000 7.920000 3.080000 141 78 64 0
30.800000 7.920000 3.740000 141 78 64 0
31.020000 7.920000 3.740000 141 78 64 0
31.240000 7.920000 3.850000 141 78 64 0
31.460000 7.920000 4.510000 140 77 65 0
31.680000 7.920000 5.940000 140 77 65 0
31.900000 7.920000 6.710000 140 81 68 0
32.120000 7.920000 7.480000 142 83 70 0
32.340000 7.920000 8.910000 132 94 80 0
32.560000 7.920000 10.340000 135 97 83 0
32.780000 7.920000 11.660000 128 108 92 0
33.000000 7.920000 12.430000 131 111 95 0
33.220000 7.920000 12.430000 134 118 98 0
33.440000 7.920000 12.210000 137 121 101 0
33.660000 7.920000 13.310000 139 123 103 0
33.880000 7.920000 11.110000 141 125 105 0
34.100000 7.920000 4.840000 142 126 106 0
34.320000 7.920000 2.090000 142 126 106 0
34.540000 7.920000 2.200000 143 127 109 0
34.760000 7.920000 2.200000 142 126 108 0
34.980000 7.920000 2.200000 143 125 106 0
35.200000 7.920000 2.200000 143 125 106 0
35.420000 7.920000 1.540000 142 126 106 0
35.640000 7.920000 0.770000 142 126 106 0
35.860000 7.920000 0.880000 141 125 107 0
36.080000 7.920000 0.880000 140 124 106 0
36.300000 7.920000 0.220000 142 126 108 0
36.520000 7.920000 0.220000 144 128 110 0
36.740000 7.920000 0.990000 146 128 109 0
36.960000 7.920000 2.420000 148 130 111 0
37.180000 7.920000 3.080000 151 132 112 0
0.000000 8.140000 2.200000 126 89 75 0
0.220000 8.140000 2.310000 125 88 74 0
0.440000 8.140000 1.760000 125 88 74 0
0.660000 8.140000 1.540000 125 87 73 0
0.880000 8.140000 2.200000 125 87 73 0
1.100000 8.140000 5.060000 126 86 71 0
1.320000 8.140000 13.530000 125 85 70 0
1.540000 8.140000 18.480000 124 86 70 0
1.760000 8.140000 19.140000 123 85 69 0
1.980000 8.140000 18.480000 129 82 67 0
2.200000 8.140000 17.160000 128 81 66 0
2.420000 8.140000 14.960000 132 80 64 0
2.640000 8.140000 11.550000 132 80 64 0
2.860000 8.140000 4.730000 134 77 63 0
3.080000 8.140000 0.550000 136 79 65 0
3.300000 8.140000 0.550000 136 79 65 0
3.520000 8.140000 0.550000 137 80 66 0
4.400000 8.140000 1.980000 139 80 67 0
4.620000 8.140000 4.070000 139 80 67 0
4.840000 8.140000 1.980000 140 81 68 0
8.140000 8.140000 4.070000 150 85 74 0
8.360000 8.140000 13.750000 150 85 74 0
8.580000 8.140000 18.590000 149 86 76 0
8.800000 8.140000 17.820000 149 86 76 0
9.020000 8.140000 17.490000 151 86 75 0
9.240000 8.140000 18.040000 152 87 76 0
9.460000 8.140000 18.040000 152 87 78 0
9.680000 8.140000 19.360000 153 88 79 0
9.900000 8.140000 18.700000 153 88 77 0
10.120000 8.140000 17.270000 154 89 78 0
10.340000 8.140000 17.380000 155 90 81 0
10.560000 8.140000 18.700000 156 91 82 0
10.780000 8.140000 17.380000 157 92 81 0
11.000000 8.140000 15.950000 158 93 82 0
11.220000 8.140000 15.950000 158 93 84 0
11.440000 8.140000 15.950000 160 95 86 0
11.660000 8.140000 15.290000 160 95 86 0
11.880000 8.140000 11.770000 160 95 86 0
12.100000 8.140000 4.290000 158 93 84 0
12.320000 8.140000 0.880000 157 92 83 0
12.540000 8.140000 0.990000 158 91 80 0
12.760000 8.140000 1.650000 157 90 79 0
12.980000 8.140000 1.540000 157 89 81 0
13.200000 8.140000 2.200000 156 88 80 0
13.420000 8.140000 2.860000 156 87 77 0
13.640000 8.140000 2.970000 155 86 76 0
13.860000 8.140000 3.080000 154 85 75 0
14.080000 8.140000 3.190000 155 86 76 0
14.300000 8.140000 2.640000 155 88 77 0
14.520000 8.140000 2.640000 154 87 76 0
14.740000 8.140000 2.090000 156 85 76 0
14.960000 8.140000 2.750000 154 83 74 0
15.180000 8.140000 2.750000 156 78 71 0
15.400000 8.140000 2.750000 154 76 69 0
15.620000 8.140000 3.190000 151 76 66 0
15.840000 8.140000 3.740000 150 75 65 0
16.060000 8.140000 3.520000 151 72 63 0
16.280000 8.140000 3.520000 149 70 61 0
16.500000 8.140000 3.630000 148 67 61 0
16.720000 8.140000 3.740000 146 65 59 0
16.940000 8.140000 3.740000 146 65 57 0
17.160000 8.140000 3.850000 144 63 55 0
17.380000 8.140000 3.850000 143 62 54 0
17.600000 8.140000 3.850000 142 61 53 0
17.820000 8.140000 3.190000 141 60 52 0
18.040000 8.140000 1.760000 140 59 51 0
18.260000 8.140000 1.100000 140 59 53 0
18.480000 8.140000 1.870000 140 59 53 0
18.700000 8.140000 1.870000 140 60 54 0
18.920000 8.140000 2.640000 143 63 57 0
19.140000 8.140000 2.640000 143 64 55 0
19.360000 8.140000 2.640000 142 63 54 0
19.580000 8.140000 1.980000 143 65 58 0
19.800000 8.140000 1.980000 143 65 58 0
20.020000 8.140000 2.090000 145 65 59 0
20.240000 8.140000 2.090000 145 65 59 0
20.460000 8.140000 1.980000 144 64 58 0
20.680000 8.140000 2.530000 144 64 58 0
20.900000 8.140000 2.860000 144 66 59 0
21.120000 8.140000 3.520000 143 65 58 0
21.340000 8.140000 2.970000 143 65 58 0
21.560000 8.140000 2.530000 143 65 58 0
21.780000 8.140000 2.090000 143 65 58 0
22.000000 8.140000 2.750000 143 65 58 0
22.220000 8.140000 2.750000 144 66 59 0
