ply
format ascii 1.0
element vertex 1127
property float x
property float y
property float z
property uchar red
property uchar green
property uchar blue
property uchar alpha
end_header
33.440000 18.040000 8.250000 202 92 98 0
33.660000 18.040000 9.020000 202 92 98 0
33.880000 18.040000 9.460000 204 94 100 0
34.100000 18.040000 10.560000 202 92 98 0
34.320000 18.040000 11.110000 202 92 98 0
34.540000 18.040000 10.450000 203 93 99 0
34.760000 18.040000 9.790000 202 92 98 0
34.980000 18.040000 10.450000 201 91 97 0
35.200000 18.040000 15.950000 201 91 97 0
35.420000 18.040000 20.130000 200 90 96 0
35.640000 18.040000 20.130000 201 91 97 0
35.860000 18.040000 20.790000 200 90 96 0
36.080000 18.040000 20.130000 201 91 97 0
36.300000 18.040000 19.470000 200 90 96 0
36.520000 18.040000 18.810000 198 91 96 0
36.740000 18.040000 19.470000 198 91 96 0
36.960000 18.040000 19.580000 199 92 97 0
37.180000 18.040000 19.580000 199 92 97 0
0.000000 18.260000 15.070000 135 90 79 0
0.220000 18.260000 15.070000 140 95 84 0
0.440000 18.260000 15.840000 130 104 87 0
0.660000 18.260000 16.500000 137 111 94 0
0.880000 18.260000 16.500000 139 120 101 0
1.100000 18.260000 16.500000 143 124 105 0
1.320000 18.260000 15.730000 145 127 108 0
1.540000 18.260000 16.720000 148 130 111 0
1.760000 18.260000 17.270000 150 131 111 0
1.980000 18.260000 17.270000 151 132 112 0
2.200000 18.260000 17.380000 150 131 112 0
2.420000 18.260000 18.040000 149 130 111 0
2.640000 18.260000 18.040000 151 129 110 0
2.860000 18.260000 18.810000 152 130 111 0
3.080000 18.260000 19.470000 150 131 111 0
3.300000 18.260000 20.240000 151 132 112 0
3.520000 18.260000 15.400000 153 134 114 0
3.740000 18.260000 5.060000 155 136 116 0
3.960000 18.260000 0.220000 159 138 116 0
4.180000 18.260000 0.330000 162 141 119 0
4.400000 18.260000 0.330000 166 148 123 0
4.620000 18.260000 0.330000 169 151 126 0
6.380000 18.260000 0.550000 207 199 183 0
6.600000 18.260000 1.320000 208 200 184 0
6.820000 18.260000 1.320000 210 202 186 0
7.040000 18.260000 0.660000 210 202 186 0
7.480000 18.260000 4.070000 213 203 189 0
7.700000 18.260000 15.070000 214 204 190 0
7.920000 18.260000 20.240000 215 205 190 0
8.140000 18.260000 20.240000 215 205 190 0
8.360000 18.260000 19.800000 215 205 191 0
8.580000 18.260000 20.020000 215 205 191 0
8.800000 18.260000 15.180000 215 205 191 0
9.020000 18.260000 4.840000 215 205 191 0
9.460000 18.260000 0.220000 215 205 191 0
9.680000 18.260000 4.180000 215 205 190 0
9.900000 18.260000 11.880000 214 204 189 0
10.120000 18.260000 16.060000 213 203 188 0
10.340000 18.260000 17.380000 214 204 189 0
10.560000 18.260000 19.580000 213 203 189 0
10.780000 18.260000 16.170000 213 203 189 0
11.000000 18.260000 5.830000 213 203 189 0
11.220000 18.260000 0.330000 212 202 188 0
11.440000 18.260000 0.330000 212 202 187 0
11.660000 18.260000 0.330000 211 201 186 0
11.880000 18.260000 0.440000 213 200 186 0
12.100000 18.260000 0.440000 212 199 185 0
12.320000 18.260000 0.440000 211 198 185 0
13.420000 18.260000 0.550000 211 198 184 0
13.640000 18.260000 0.550000 212 199 185 0
13.860000 18.260000 0.660000 213 200 186 0
14.080000 18.260000 0.660000 215 200 188 0
14.300000 18.260000 0.660000 215 200 188 0
14.520000 18.260000 0.660000 216 203 190 0
14.740000 18.260000 1.100000 216 203 190 0
14.960000 18.260000 1.540000 217 204 191 0
15.180000 18.260000 1.430000 217 204 191 0
15.400000 18.260000 0.770000 218 205 192 0
15.620000 18.260000 0.770000 217 204 191 0
15.840000 18.260000 0.770000 219 204 194 0
16.060000 18.260000 0.770000 218 203 193 0
16.280000 18.260000 0.880000 218 203 191 0
16.500000 18.260000 0.880000 216 201 189 0
16.720000 18.260000 1.650000 211 197 183 0
16.940000 18.260000 1.650000 203 189 175 0
17.160000 18.260000 2.310000 207 175 159 0
17.380000 18.260000 2.420000 195 163 147 0
17.600000 18.260000 3.080000 203 142 132 0
17.820000 18.260000 4.510000 190 129 119 0
18.040000 18.260000 6.600000 202 110 108 0
18.260000 18.260000 8.690000 199 107 105 0
18.480000 18.260000 10.010000 201 106 105 0
18.700000 18.260000 10.780000 200 105 104 0
18.920000 18.260000 11.550000 200 104 103 0
19.140000 18.260000 10.890000 201 105 104 0
19.360000 18.260000 11.550000 199 107 105 0
19.580000 18.260000 10.890000 201 109 107 0
19.800000 18.260000 6.820000 204 108 107 0
20.020000 18.260000 3.410000 206 110 109 0
20.240000 18.260000 2.640000 206 107 107 0
20.460000 18.260000 3.300000 204 105 105 0
20.680000 18.260000 8.140000 205 104 105 0
20.900000 18.260000 15.620000 200 99 100 0
21.120000 18.260000 19.580000 202 96 101 0
21.340000 18.260000 20.130000 201 95 100 0
21.560000 18.260000 16.610000 197 98 100 0
21.780000 18.260000 11.770000 198 99 101 0
22.000000 18.260000 14.520000 198 103 104 0
22.220000 18.260000 18.700000 202 107 108 0
22.440000 18.260000 15.290000 199 112 113 0
22.660000 18.260000 9.020000 213 126 127 0
22.880000 18.260000 11.770000 220 133 136 0
23.100000 18.260000 16.720000 221 134 137 0
23.320000 18.260000 19.470000 214 129 132 0
23.540000 18.260000 20.240000 210 125 128 0
23.760000 18.260000 20.240000 209 118 122 0
23.980000 18.260000 20.900000 207 116 120 0
24.200000 18.260000 20.900000 207 101 106 0
24.420000 18.260000 18.920000 201 95 100 0
24.640000 18.260000 13.640000 198 88 94 0
24.860000 18.260000 5.390000 197 87 93 0
25.080000 18.260000 1.210000 197 87 93 0
25.740000 18.260000 1.210000 198 88 94 0
25.960000 18.260000 2.200000 198 88 94 0
26.180000 18.260000 3.520000 196 86 92 0
26.400000 18.260000 3.520000 196 86 92 0
26.620000 18.260000 3.630000 196 86 92 0
26.840000 18.260000 3.630000 197 87 93 0
27.060000 18.260000 4.290000 196 86 92 0
27.280000 18.260000 4.400000 196 86 92 0
27.500000 18.260000 3.960000 197 87 93 0
27.720000 18.260000 4.070000 197 87 93 0
27.940000 18.260000 3.960000 197 87 93 0
28.160000 18.260000 3.960000 199 89 95 0
28.380000 18.260000 4.070000 199 89 95 0
28.600000 18.260000 4.730000 199 89 95 0
28.820000 18.260000 4.840000 200 90 96 0
29.040000 18.260000 5.390000 201 91 97 0
29.260000 18.260000 5.720000 202 92 98 0
29.480000 18.260000 6.270000 204 94 100 0
29.700000 18.260000 6.930000 204 94 100 0
29.920000 18.260000 6.930000 201 91 97 0
30.140000 18.260000 6.270000 199 89 95 0
30.360000 18.260000 6.270000 199 89 95 0
30.580000 18.260000 6.380000 199 89 95 0
30.800000 18.260000 6.380000 199 89 95 0
31.020000 18.260000 6.380000 199 89 95 0
31.240000 18.260000 6.380000 199 89 95 0
31.460000 18.260000 6.490000 199 89 95 0
31.680000 18.260000 6.600000 200 90 96 0
31.900000 18.260000 6.600000 200 90 96 0
32.120000 18.260000 6.710000 200 90 96 0
32.340000 18.260000 6.710000 200 90 96 0
32.560000 18.260000 6.710000 200 90 96 0
32.780000 18.260000 6.820000 201 91 97 0
33.000000 18.260000 6.820000 201 91 97 0
33.220000 18.260000 6.820000 200 90 96 0
33.440000 18.260000 8.250000 202 92 98 0
33.660000 18.260000 8.910000 203 93 99 0
33.880000 18.260000 9.460000 203 93 99 0
34.100000 18.260000 10.560000 203 93 99 0
34.320000 18.260000 11.110000 203 93 99 0
34.540000 18.260000 11.110000 203 93 99 0
34.760000 18.260000 12.540000 201 91 97 0
34.980000 18.260000 15.290000 201 91 97 0
35.200000 18.260000 18.700000 200 90 96 0
35.420000 18.260000 20.130000 200 90 96 0
35.640000 18.260000 20.790000 200 90 96 0
35.860000 18.260000 20.790000 201 91 97 0
36.080000 18.260000 20.130000 198 91 96 0
36.300000 18.260000 18.700000 198 91 96 0
36.520000 18.260000 18.810000 198 91 96 0
36.740000 18.260000 18.810000 198 91 96 0
36.960000 18.260000 19.580000 200 90 96 0
37.180000 18.260000 19.580000 201 91 97 0
0.000000 18.480000 15.070000 139 94 83 0
0.220000 18.480000 15.070000 144 99 88 0
0.440000 18.480000 15.840000 136 110 93 0
0.660000 18.480000 16.500000 143 117 100 0
0.880000 18.480000 16.500000 142 123 104 0
1.100000 18.480000 15.840000 146 127 108 0
1.320000 18.480000 15.730000 147 129 110 0
1.540000 18.480000 16.720000 148 130 111 0
1.760000 18.480000 17.270000 150 131 111 0
1.980000 18.480000 17.380000 150 131 111 0
2.200000 18.480000 17.380000 149 130 111 0
2.420000 18.480000 18.040000 149 130 111 0
2.640000 18.480000 18.810000 152 130 111 0
2.860000 18.480000 18.810000 152 130 111 0
3.080000 18.480000 19.470000 149 130 110 0
3.300000 18.480000 18.810000 151 132 112 0
3.520000 18.480000 13.310000 154 135 115 0
3.740000 18.480000 4.290000 155 136 116 0
3.960000 18.480000 0.220000 160 139 117 0
4.180000 18.480000 0.330000 163 142 120 0
4.400000 18.480000 0.330000 164 146 121 0
4.620000 18.480000 0.330000 171 153 128 0
6.160000 18.480000 0.550000 204 196 180 0
6.380000 18.480000 0.550000 207 199 183 0
6.600000 18.480000 1.320000 208 200 184 0
6.820000 18.480000 1.320000 210 202 186 0
7.040000 18.480000 0.660000 210 202 186 0
7.480000 18.480000 4.070000 214 204 190 0
7.700000 18.480000 15.070000 215 205 191 0
7.920000 18.480000 20.240000 215 205 190 0
8.140000 18.480000 20.240000 215 205 190 0
8.360000 18.480000 19.800000 216 206 192 0
8.580000 18.480000 20.020000 216 206 192 0
8.800000 18.480000 14.520000 216 206 192 0
9.020000 18.480000 4.840000 215 205 191 0
9.460000 18.480000 0.220000 215 205 191 0
9.680000 18.480000 1.430000 216 206 191 0
9.900000 18.480000 7.700000 215 205 190 0
10.120000 18.480000 17.380000 215 205 190 0
10.340000 18.480000 20.900000 214 204 189 0
10.560000 18.480000 20.900000 213 203 189 0
10.780000 18.480000 16.170000 214 204 190 0
11.000000 18.480000 5.170000 213 203 189 0
11.220000 18.480000 0.330000 212 202 188 0
11.440000 18.480000 0.330000 212 202 187 0
11.660000 18.480000 0.330000 211 201 186 0
11.880000 18.480000 0.440000 212 199 185 0
12.100000 18.480000 0.440000 211 198 184 0
12.320000 18.480000 0.440000 211 198 185 0
13.860000 18.480000 0.660000 212 199 185 0
14.080000 18.480000 0.660000 214 199 187 0
14.300000 18.480000 0.660000 214 199 187 0
14.520000 18.480000 0.660000 214 201 188 0
14.740000 18.480000 1.210000 215 202 189 0
14.960000 18.480000 1.540000 215 202 189 0
15.180000 18.480000 1.430000 216 203 190 0
15.400000 18.480000 1.430000 217 204 191 0
15.620000 18.480000 1.430000 218 205 192 0
15.840000 18.480000 0.770000 219 204 194 0
16.060000 18.480000 0.770000 219 204 194 0
16.280000 18.480000 0.880000 219 204 192 0
16.500000 18.480000 1.540000 218 203 191 0
16.720000 18.480000 1.650000 219 205 191 0
16.940000 18.480000 2.310000 214 200 186 0
17.160000 18.480000 2.310000 218 186 170 0
17.380000 18.480000 2.420000 207 175 159 0
17.600000 18.480000 2.420000 216 155 145 0
17.820000 18.480000 3.080000 205 144 134 0
18.040000 18.480000 4.510000 211 119 117 0
18.260000 18.480000 6.600000 203 111 109 0
18.480000 18.480000 8.030000 202 107 106 0
18.700000 18.480000 8.690000 201 106 105 0
18.920000 18.480000 9.460000 201 105 104 0
19.140000 18.480000 10.890000 201 105 104 0
19.360000 18.480000 13.640000 199 107 105 0
19.580000 18.480000 15.840000 200 108 106 0
19.800000 18.480000 15.070000 204 108 107 0
20.020000 18.480000 11.660000 203 107 106 0
20.240000 18.480000 5.500000 204 105 105 0
20.460000 18.480000 1.320000 202 103 103 0
20.680000 18.480000 3.960000 203 102 103 0
20.900000 18.480000 12.650000 200 99 100 0
21.120000 18.480000 18.700000 203 97 102 0
21.340000 18.480000 20.130000 202 96 101 0
21.560000 18.480000 18.810000 198 99 101 0
21.780000 18.480000 18.040000 202 103 105 0
22.000000 18.480000 18.810000 203 108 109 0
22.220000 18.480000 20.130000 204 109 110 0
22.440000 18.480000 16.060000 200 113 114 0
22.660000 18.480000 12.540000 207 120 121 0
22.880000 18.480000 16.720000 213 126 129 0
23.100000 18.480000 20.130000 213 126 129 0
23.320000 18.480000 20.130000 207 122 125 0
23.540000 18.480000 20.240000 208 123 126 0
23.760000 18.480000 20.240000 212 121 125 0
23.980000 18.480000 20.900000 211 120 124 0
24.200000 18.480000 19.580000 210 104 109 0
24.420000 18.480000 14.190000 200 94 99 0
24.640000 18.480000 8.800000 198 88 94 0
24.860000 18.480000 6.160000 197 87 93 0
25.080000 18.480000 2.640000 197 87 93 0
25.300000 18.480000 0.550000 196 86 92 0
25.520000 18.480000 0.660000 195 85 91 0
25.740000 18.480000 1.210000 195 85 91 0
25.960000 18.480000 2.200000 198 88 94 0
26.180000 18.480000 3.520000 197 87 93 0
26.400000 18.480000 3.520000 196 86 92 0
26.620000 18.480000 3.630000 196 86 92 0
26.840000 18.480000 4.290000 196 86 92 0
27.060000 18.480000 4.290000 197 87 93 0
27.280000 18.480000 4.400000 196 86 92 0
27.500000 18.480000 3.960000 197 87 93 0
27.720000 18.480000 4.070000 197 87 93 0
27.940000 18.480000 3.960000 197 87 93 0
28.160000 18.480000 3.960000 198 88 94 0
28.380000 18.480000 4.070000 199 89 95 0
28.600000 18.480000 4.070000 200 90 96 0
28.820000 18.480000 4.840000 200 90 96 0
29.040000 18.480000 4.730000 201 91 97 0
29.260000 18.480000 5.830000 202 92 98 0
29.480000 18.480000 6.270000 203 93 99 0
29.700000 18.480000 6.930000 203 93 99 0
29.920000 18.480000 6.930000 203 93 99 0
30.140000 18.480000 7.040000 201 91 97 0
30.360000 18.480000 6.380000 200 90 96 0
30.580000 18.480000 6.380000 200 90 96 0
30.800000 18.480000 6.380000 199 89 95 0
31.020000 18.480000 6.380000 199 89 95 0
31.240000 18.480000 6.380000 199 89 95 0
31.460000 18.480000 6.490000 199 89 95 0
31.680000 18.480000 6.600000 200 90 96 0
31.900000 18.480000 6.600000 200 90 96 0
32.120000 18.480000 6.710000 200 90 96 0
32.340000 18.480000 6.710000 200 90 96 0
32.560000 18.480000 6.710000 201 91 97 0
32.780000 18.480000 6.820000 200 90 96 0
33.000000 18.480000 6.820000 201 91 97 0
33.220000 18.480000 6.820000 201 91 97 0
33.440000 18.480000 8.250000 204 94 100 0
33.660000 18.480000 8.910000 203 93 99 0
33.880000 18.480000 9.460000 203 93 99 0
34.100000 18.480000 9.900000 203 93 99 0
34.320000 18.480000 11.110000 202 92 98 0
34.540000 18.480000 11.110000 203 93 99 0
34.760000 18.480000 13.860000 203 93 99 0
34.980000 18.480000 18.040000 202 92 98 0
35.200000 18.480000 20.130000 201 91 97 0
35.420000 18.480000 20.130000 201 91 97 0
35.640000 18.480000 20.130000 201 91 97 0
35.860000 18.480000 20.130000 202 92 98 0
36.080000 18.480000 19.470000 199 92 97 0
36.300000 18.480000 18.700000 198 91 96 0
36.520000 18.480000 18.040000 198 91 96 0
36.740000 18.480000 18.810000 198 91 96 0
36.960000 18.480000 19.580000 200 90 96 0
37.180000 18.480000 19.580000 200 90 96 0
0.000000 18.700000 15.730000 130 107 88 0
0.220000 18.700000 15.840000 135 112 93 0
0.440000 18.700000 15.840000 136 117 98 0
0.660000 18.700000 15.840000 141 122 103 0
0.880000 18.700000 16.500000 144 126 107 0
1.100000 18.700000 15.840000 146 128 109 0
1.320000 18.700000 15.730000 149 130 111 0
1.540000 18.700000 16.830000 149 130 111 0
1.760000 18.700000 17.270000 149 130 110 0
1.980000 18.700000 17.380000 149 130 110 0
2.200000 18.700000 18.040000 149 130 110 0
2.420000 18.700000 18.040000 149 130 110 0
2.640000 18.700000 18.810000 149 130 111 0
2.860000 18.700000 19.470000 150 131 112 0
3.080000 18.700000 20.130000 150 131 112 0
3.300000 18.700000 16.720000 151 132 113 0
3.520000 18.700000 7.810000 155 134 112 0
3.740000 18.700000 1.540000 157 136 114 0
3.960000 18.700000 0.220000 160 139 115 0
4.180000 18.700000 0.990000 163 142 118 0
4.400000 18.700000 0.330000 166 148 123 0
4.620000 18.700000 0.330000 170 152 127 0
6.160000 18.700000 0.550000 204 198 181 0
6.380000 18.700000 0.550000 205 199 182 0
6.600000 18.700000 1.320000 209 201 186 0
6.820000 18.700000 1.320000 211 203 188 0
7.040000 18.700000 0.660000 211 203 188 0
7.480000 18.700000 4.840000 212 204 189 0
7.700000 18.700000 14.960000 213 205 190 0
7.920000 18.700000 20.900000 215 207 192 0
8.140000 18.700000 20.130000 215 207 192 0
8.360000 18.700000 19.800000 215 207 192 0
8.580000 18.700000 19.910000 216 208 193 0
8.800000 18.700000 14.520000 216 208 193 0
9.020000 18.700000 4.180000 216 208 193 0
9.680000 18.700000 0.220000 217 207 193 0
9.900000 18.700000 5.610000 216 206 192 0
10.120000 18.700000 16.060000 217 207 192 0
10.340000 18.700000 20.900000 215 205 190 0
10.560000 18.700000 20.900000 215 205 191 0
10.780000 18.700000 16.170000 215 205 191 0
11.000000 18.700000 5.170000 214 204 190 0
11.220000 18.700000 0.330000 214 204 190 0
11.440000 18.700000 0.330000 214 201 187 0
11.660000 18.700000 0.330000 213 200 186 0
11.880000 18.700000 0.440000 212 199 185 0
12.100000 18.700000 0.440000 211 198 184 0
12.320000 18.700000 0.440000 210 197 183 0
14.080000 18.700000 0.660000 212 199 186 0
14.300000 18.700000 0.660000 214 201 188 0
14.520000 18.700000 0.660000 214 201 188 0
14.740000 18.700000 1.210000 215 202 189 0
14.960000 18.700000 1.540000 215 202 189 0
15.180000 18.700000 2.090000 216 203 190 0
15.400000 18.700000 2.090000 217 204 191 0
15.620000 18.700000 1.430000 217 204 191 0
15.840000 18.700000 1.540000 219 206 195 0
16.060000 18.700000 1.540000 219 206 195 0
16.280000 18.700000 1.540000 219 206 195 0
16.500000 18.700000 1.540000 219 206 195 0
16.720000 18.700000 1.540000 219 206 193 0
16.940000 18.700000 2.310000 218 205 192 0
17.160000 18.700000 2.310000 216 199 186 0
17.380000 18.700000 2.420000 208 191 178 0
17.600000 18.700000 2.420000 213 176 162 0
17.820000 18.700000 2.420000 201 164 150 0
18.040000 18.700000 3.080000 204 145 134 0
18.260000 18.700000 4.510000 192 133 122 0
18.480000 18.700000 6.600000 202 112 109 0
18.700000 18.700000 7.370000 199 109 106 0
18.920000 18.700000 8.030000 202 106 103 0
19.140000 18.700000 9.460000 202 106 103 0
19.360000 18.700000 12.320000 201 105 104 0
19.580000 18.700000 15.070000 202 106 105 0
19.800000 18.700000 17.160000 202 105 107 0
20.020000 18.700000 15.840000 201 104 106 0
20.240000 18.700000 9.680000 202 103 103 0
20.460000 18.700000 2.640000 202 103 103 0
20.680000 18.700000 1.650000 201 101 99 0
20.900000 18.700000 8.360000 200 100 98 0
21.120000 18.700000 16.610000 201 100 101 0
21.340000 18.700000 20.130000 199 98 99 0
21.560000 18.700000 20.130000 201 104 106 0
21.780000 18.700000 20.130000 204 107 109 0
22.000000 18.700000 19.470000 203 112 114 0
22.220000 18.700000 19.580000 203 112 114 0
22.440000 18.700000 18.810000 198 116 115 0
22.660000 18.700000 17.490000 202 120 119 0
22.880000 18.700000 18.150000 206 119 122 0
23.100000 18.700000 19.580000 207 120 123 0
23.320000 18.700000 19.580000 204 119 119 0
23.540000 18.700000 19.690000 210 125 125 0
23.760000 18.700000 20.460000 214 123 127 0
23.980000 18.700000 20.350000 209 118 122 0
24.200000 18.700000 16.280000 208 101 104 0
24.420000 18.700000 7.370000 201 94 97 0
24.640000 18.700000 1.980000 198 88 94 0
24.860000 18.700000 1.980000 197 87 93 0
25.080000 18.700000 0.550000 198 88 94 0
25.300000 18.700000 0.550000 196 86 92 0
25.520000 18.700000 0.660000 195 85 91 0
25.740000 18.700000 1.210000 196 86 92 0
25.960000 18.700000 2.970000 198 88 94 0
26.180000 18.700000 3.520000 196 86 92 0
26.400000 18.700000 3.520000 197 87 93 0
26.620000 18.700000 3.520000 197 87 93 0
26.840000 18.700000 4.290000 197 87 93 0
27.060000 18.700000 4.290000 197 87 93 0
27.280000 18.700000 4.290000 197 87 93 0
27.500000 18.700000 3.850000 197 87 93 0
27.720000 18.700000 3.960000 197 87 93 0
27.940000 18.700000 3.960000 197 87 93 0
28.160000 18.700000 3.960000 199 89 95 0
28.380000 18.700000 4.070000 197 87 93 0
28.600000 18.700000 4.070000 199 89 95 0
28.820000 18.700000 4.840000 200 90 96 0
29.040000 18.700000 4.730000 200 93 98 0
29.260000 18.700000 5.280000 200 93 98 0
29.480000 18.700000 6.380000 201 95 100 0
29.700000 18.700000 6.930000 203 97 102 0
29.920000 18.700000 6.930000 203 96 101 0
30.140000 18.700000 7.040000 201 94 99 0
30.360000 18.700000 7.040000 201 91 97 0
30.580000 18.700000 6.380000 199 89 95 0
30.800000 18.700000 6.380000 197 90 95 0
31.020000 18.700000 6.380000 197 90 95 0
31.240000 18.700000 6.380000 198 88 94 0
31.460000 18.700000 6.490000 199 89 95 0
31.680000 18.700000 6.600000 200 90 96 0
31.900000 18.700000 6.600000 201 91 97 0
32.120000 18.700000 6.710000 201 91 97 0
32.340000 18.700000 6.710000 201 91 97 0
32.560000 18.700000 6.710000 199 92 97 0
32.780000 18.700000 6.820000 198 91 96 0
33.000000 18.700000 6.820000 199 92 97 0
33.220000 18.700000 7.480000 200 93 98 0
33.440000 18.700000 7.590000 201 94 99 0
33.660000 18.700000 8.250000 201 94 99 0
33.880000 18.700000 8.800000 203 93 99 0
34.100000 18.700000 9.900000 203 93 99 0
34.320000 18.700000 11.110000 200 93 98 0
34.540000 18.700000 11.770000 201 94 99 0
34.760000 18.700000 14.630000 202 95 100 0
34.980000 18.700000 18.040000 201 94 99 0
35.200000 18.700000 20.130000 201 91 97 0
35.420000 18.700000 20.130000 200 90 96 0
35.640000 18.700000 20.130000 200 93 98 0
35.860000 18.700000 20.130000 200 93 98 0
36.080000 18.700000 19.470000 198 91 96 0
36.300000 18.700000 18.040000 199 92 97 0
36.520000 18.700000 18.810000 199 92 97 0
36.740000 18.700000 19.580000 198 91 96 0
36.960000 18.700000 19.580000 198 91 96 0
37.180000 18.700000 19.580000 199 92 97 0
0.000000 18.920000 15.840000 134 111 92 0
0.220000 18.920000 15.840000 141 118 99 0
0.440000 18.920000 15.840000 141 122 103 0
0.660000 18.920000 15.840000 145 126 107 0
0.880000 18.920000 15.840000 145 127 108 0
1.100000 18.920000 15.840000 147 129 110 0
1.320000 18.920000 16.280000 149 130 111 0
1.540000 18.920000 16.720000 150 131 112 0
1.760000 18.920000 17.270000 149 130 110 0
1.980000 18.920000 17.380000 149 130 110 0
2.200000 18.920000 18.040000 149 130 110 0
2.420000 18.920000 18.040000 148 129 109 0
2.640000 18.920000 18.810000 148 129 110 0
2.860000 18.920000 19.470000 149 130 111 0
3.080000 18.920000 20.130000 150 131 112 0
3.300000 18.920000 15.400000 150 131 112 0
3.520000 18.920000 4.950000 155 134 112 0
3.740000 18.920000 0.220000 158 137 115 0
3.960000 18.920000 0.220000 160 139 115 0
4.180000 18.920000 0.990000 162 141 117 0
4.400000 18.920000 0.330000 166 148 123 0
4.620000 18.920000 0.330000 169 151 126 0
5.940000 18.920000 0.440000 200 194 177 0
6.160000 18.920000 0.550000 205 199 182 0
6.380000 18.920000 0.550000 207 201 184 0
6.600000 18.920000 1.320000 209 201 186 0
6.820000 18.920000 1.320000 211 203 188 0
7.040000 18.920000 0.660000 212 204 189 0
7.480000 18.920000 4.840000 213 205 190 0
7.700000 18.920000 14.960000 214 206 191 0
7.920000 18.920000 20.900000 215 207 192 0
8.140000 18.920000 20.790000 215 207 192 0
8.360000 18.920000 20.350000 216 208 193 0
8.580000 18.920000 19.910000 216 208 193 0
8.800000 18.920000 14.520000 217 209 194 0
9.020000 18.920000 4.180000 217 209 194 0
9.680000 18.920000 0.220000 217 207 193 0
9.900000 18.920000 5.610000 218 208 194 0
10.120000 18.920000 15.950000 218 208 193 0
10.340000 18.920000 20.900000 216 206 191 0
10.560000 18.920000 20.900000 216 206 192 0
10.780000 18.920000 15.400000 216 206 192 0
11.000000 18.920000 5.170000 215 205 191 0
11.220000 18.920000 0.330000 214 204 190 0
11.440000 18.920000 0.330000 214 201 187 0
11.660000 18.920000 0.440000 213 200 186 0
11.880000 18.920000 0.440000 212 199 185 0
12.100000 18.920000 0.440000 211 198 184 0
12.320000 18.920000 0.440000 209 196 182 0
14.080000 18.920000 0.660000 213 200 187 0
14.300000 18.920000 0.660000 215 202 189 0
14.520000 18.920000 0.660000 215 202 189 0
14.740000 18.920000 1.100000 215 202 189 0
14.960000 18.920000 2.200000 216 203 190 0
15.180000 18.920000 2.090000 216 203 190 0
15.400000 18.920000 2.090000 216 203 190 0
15.620000 18.920000 2.200000 218 205 192 0
15.840000 18.920000 2.200000 218 205 194 0
16.060000 18.920000 1.540000 218 205 194 0
16.280000 18.920000 1.540000 219 206 195 0
16.500000 18.920000 1.540000 219 206 195 0
16.720000 18.920000 1.540000 220 207 194 0
16.940000 18.920000 2.310000 220 207 194 0
17.160000 18.920000 2.310000 221 204 191 0
17.380000 18.920000 2.310000 217 200 187 0
17.600000 18.920000 2.420000 224 187 173 0
17.820000 18.920000 2.420000 213 176 162 0
18.040000 18.920000 2.420000 217 158 147 0
18.260000 18.920000 3.850000 205 146 135 0
18.480000 18.920000 5.280000 213 123 120 0
18.700000 18.920000 6.710000 203 113 110 0
18.920000 18.920000 7.370000 203 107 104 0
19.140000 18.920000 8.800000 200 104 101 0
19.360000 18.920000 10.230000 200 104 103 0
19.580000 18.920000 12.980000 202 106 105 0
19.800000 18.920000 15.840000 201 104 106 0
20.020000 18.920000 13.750000 201 104 106 0
20.240000 18.920000 6.160000 202 103 103 0
20.460000 18.920000 1.870000 201 102 102 0
20.680000 18.920000 4.290000 201 101 99 0
20.900000 18.920000 9.680000 200 100 98 0
21.120000 18.920000 17.380000 200 99 100 0
21.340000 18.920000 20.130000 202 101 102 0
21.560000 18.920000 19.470000 202 105 107 0
21.780000 18.920000 19.470000 205 108 110 0
22.000000 18.920000 19.470000 204 113 115 0
22.220000 18.920000 19.580000 205 114 116 0
22.440000 18.920000 19.580000 200 118 117 0
22.660000 18.920000 19.690000 205 123 122 0
22.880000 18.920000 18.260000 209 122 125 0
23.100000 18.920000 18.370000 208 121 124 0
23.320000 18.920000 19.030000 205 120 120 0
23.540000 18.920000 19.140000 211 126 126 0
23.760000 18.920000 19.910000 214 123 127 0
23.980000 18.920000 19.910000 211 120 124 0
24.200000 18.920000 15.070000 205 98 101 0
24.420000 18.920000 4.730000 199 92 95 0
25.300000 18.920000 0.660000 197 87 93 0
25.520000 18.920000 0.660000 196 86 92 0
25.740000 18.920000 1.210000 196 86 92 0
25.960000 18.920000 2.970000 195 85 91 0
26.180000 18.920000 3.520000 197 87 93 0
26.400000 18.920000 4.180000 197 87 93 0
26.620000 18.920000 4.290000 197 87 93 0
26.840000 18.920000 4.290000 197 87 93 0
27.060000 18.920000 4.180000 197 87 93 0
27.280000 18.920000 4.290000 198 88 94 0
27.500000 18.920000 4.510000 197 87 93 0
27.720000 18.920000 3.960000 198 88 94 0
27.940000 18.920000 4.070000 199 89 95 0
28.160000 18.920000 4.070000 199 89 95 0
28.380000 18.920000 4.070000 198 88 94 0
28.600000 18.920000 4.070000 199 89 95 0
28.820000 18.920000 4.840000 201 91 97 0
29.040000 18.920000 4.840000 199 92 97 0
29.260000 18.920000 5.390000 200 93 98 0
29.480000 18.920000 6.380000 203 97 102 0
29.700000 18.920000 6.270000 206 100 105 0
29.920000 18.920000 6.930000 206 99 104 0
30.140000 18.920000 7.040000 202 95 100 0
30.360000 18.920000 7.040000 201 91 97 0
30.580000 18.920000 6.380000 199 89 95 0
30.800000 18.920000 6.380000 197 90 95 0
31.020000 18.920000 6.380000 198 91 96 0
31.240000 18.920000 6.380000 199 89 95 0
31.460000 18.920000 6.490000 200 90 96 0
31.680000 18.920000 6.600000 200 90 96 0
31.900000 18.920000 6.600000 200 90 96 0
32.120000 18.920000 6.710000 200 90 96 0
32.340000 18.920000 7.370000 201 91 97 0
32.560000 18.920000 7.480000 200 93 98 0
32.780000 18.920000 7.480000 200 93 98 0
33.000000 18.920000 7.480000 199 92 97 0
33.220000 18.920000 7.480000 200 93 98 0
33.440000 18.920000 7.590000 200 93 98 0
33.660000 18.920000 7.590000 202 95 100 0
33.880000 18.920000 8.140000 204 94 100 0
34.100000 18.920000 9.130000 203 93 99 0
34.320000 18.920000 11.110000 202 95 100 0
34.540000 18.920000 11.770000 200 93 98 0
34.760000 18.920000 14.630000 201 94 99 0
34.980000 18.920000 18.040000 201 94 99 0
35.200000 18.920000 20.130000 201 91 97 0
35.420000 18.920000 20.130000 201 91 97 0
35.640000 18.920000 20.130000 200 93 98 0
35.860000 18.920000 20.130000 200 93 98 0
36.080000 18.920000 18.810000 200 93 98 0
36.300000 18.920000 18.810000 200 93 98 0
36.520000 18.920000 18.810000 198 91 96 0
36.740000 18.920000 19.580000 198 91 96 0
36.960000 18.920000 19.580000 198 91 96 0
37.180000 18.920000 19.580000 199 92 97 0
0.000000 19.140000 15.840000 136 117 98 0
0.220000 19.140000 15.840000 142 123 104 0
0.440000 19.140000 15.840000 144 125 105 0
0.660000 19.140000 15.840000 147 128 108 0
0.880000 19.140000 15.840000 147 129 110 0
1.100000 19.140000 16.390000 149 131 112 0
1.320000 19.140000 16.830000 149 130 111 0
1.540000 19.140000 17.380000 150 131 112 0
1.760000 19.140000 17.380000 150 131 111 0
1.980000 19.140000 17.380000 149 130 110 0
2.200000 19.140000 18.040000 149 130 110 0
2.420000 19.140000 18.040000 149 130 110 0
2.640000 19.140000 18.810000 148 130 111 0
2.860000 19.140000 19.470000 148 130 111 0
3.080000 19.140000 20.130000 149 130 110 0
3.300000 19.140000 16.720000 150 131 111 0
3.520000 19.140000 7.810000 153 134 112 0
3.740000 19.140000 1.540000 156 137 115 0
3.960000 19.140000 0.220000 161 140 118 0
4.180000 19.140000 0.990000 164 143 121 0
4.400000 19.140000 0.330000 167 150 127 0
4.620000 19.140000 0.330000 168 151 128 0
5.720000 19.140000 0.440000 198 190 175 0
5.940000 19.140000 0.440000 203 195 180 0
6.160000 19.140000 0.550000 207 200 185 0
6.380000 19.140000 0.550000 209 202 187 0
6.600000 19.140000 0.550000 210 203 188 0
6.820000 19.140000 1.320000 212 205 190 0
7.040000 19.140000 0.660000 212 205 190 0
7.480000 19.140000 3.410000 214 206 191 0
7.700000 19.140000 12.210000 215 207 192 0
7.920000 19.140000 19.580000 216 208 193 0
8.140000 19.140000 20.790000 215 207 192 0
8.360000 19.140000 20.900000 216 208 193 0
8.580000 19.140000 20.460000 216 208 193 0
8.800000 19.140000 14.410000 218 210 195 0
9.020000 19.140000 4.180000 217 209 194 0
9.680000 19.140000 0.220000 219 211 196 0
9.900000 19.140000 5.610000 219 211 196 0
10.120000 19.140000 15.950000 219 211 196 0
10.340000 19.140000 20.900000 219 211 196 0
10.560000 19.140000 20.900000 218 210 195 0
10.780000 19.140000 16.830000 217 209 194 0
11.000000 19.140000 7.920000 217 209 194 0
11.220000 19.140000 0.990000 216 208 193 0
11.440000 19.140000 0.330000 215 205 191 0
11.660000 19.140000 0.440000 213 203 189 0
11.880000 19.140000 0.440000 211 201 186 0
12.100000 19.140000 0.440000 208 198 183 0
12.320000 19.140000 0.440000 209 197 180 0
12.540000 19.140000 0.550000 209 197 180 0
14.300000 19.140000 0.660000 215 202 189 0
14.520000 19.140000 1.210000 217 204 193 0
14.740000 19.140000 1.650000 217 204 193 0
14.960000 19.140000 2.090000 214 204 190 0
15.180000 19.140000 2.860000 214 204 190 0
15.400000 19.140000 2.860000 217 204 191 0
15.620000 19.140000 2.200000 217 204 191 0
15.840000 19.140000 2.200000 218 205 194 0
16.060000 19.140000 2.200000 219 206 195 0
16.280000 19.140000 2.200000 219 206 195 0
16.500000 19.140000 1.540000 220 207 196 0
16.720000 19.140000 1.540000 219 208 199 0
16.940000 19.140000 2.310000 220 209 200 0
17.160000 19.140000 2.310000 222 209 198 0
17.380000 19.140000 2.310000 220 207 196 0
17.600000 19.140000 3.080000 216 203 190 0
17.820000 19.140000 3.080000 210 197 184 0
18.040000 19.140000 2.420000 214 181 161 0
18.260000 19.140000 3.190000 203 170 150 0
18.480000 19.140000 3.850000 207 148 137 0
18.700000 19.140000 5.280000 195 136 125 0
18.920000 19.140000 6.050000 202 113 110 0
19.140000 19.140000 7.370000 197 108 105 0
19.360000 19.140000 8.800000 202 106 105 0
19.580000 19.140000 11.660000 202 106 105 0
19.800000 19.140000 13.750000 200 105 104 0
20.020000 19.140000 12.430000 201 106 105 0
20.240000 19.140000 6.930000 203 102 103 0
20.460000 19.140000 6.710000 203 102 103 0
20.680000 19.140000 13.310000 201 100 101 0
20.900000 19.140000 17.270000 200 99 100 0
21.120000 19.140000 19.470000 201 100 103 0
21.340000 19.140000 20.130000 201 100 103 0
21.560000 19.140000 19.470000 201 104 106 0
21.780000 19.140000 19.470000 205 108 110 0
22.000000 19.140000 19.470000 204 115 116 0
22.220000 19.140000 19.580000 205 116 117 0
22.440000 19.140000 19.690000 202 133 131 0
22.660000 19.140000 18.370000 202 133 131 0
22.880000 19.140000 17.050000 216 131 131 0
23.100000 19.140000 17.710000 209 124 124 0
23.320000 19.140000 18.480000 205 123 124 0
23.540000 19.140000 19.250000 210 128 129 0
23.760000 19.140000 19.250000 220 123 125 0
23.980000 19.140000 19.910000 215 118 120 0
24.200000 19.140000 15.070000 207 97 103 0
24.420000 19.140000 5.390000 200 90 96 0
25.300000 19.140000 0.660000 198 88 94 0
25.520000 19.140000 0.660000 195 88 93 0
25.740000 19.140000 1.870000 196 89 94 0
25.960000 19.140000 2.970000 197 87 93 0
26.180000 19.140000 4.180000 198 88 94 0
26.400000 19.140000 4.180000 198 88 94 0
26.620000 19.140000 4.290000 198 88 94 0
26.840000 19.140000 4.290000 198 88 94 0
27.060000 19.140000 4.180000 199 89 95 0
27.280000 19.140000 4.290000 198 88 94 0
27.500000 19.140000 3.850000 199 89 95 0
27.720000 19.140000 4.070000 199 89 95 0
27.940000 19.140000 4.070000 199 89 95 0
28.160000 19.140000 4.070000 199 89 95 0
28.380000 19.140000 4.070000 200 90 96 0
28.600000 19.140000 4.070000 201 91 97 0
28.820000 19.140000 4.840000 202 92 98 0
29.040000 19.140000 4.730000 201 93 101 0
29.260000 19.140000 5.280000 201 93 101 0
29.480000 19.140000 6.380000 200 97 103 0
29.700000 19.140000 6.270000 206 103 109 0
29.920000 19.140000 6.930000 207 101 108 0
30.140000 19.140000 6.930000 203 97 104 0
30.360000 19.140000 7.040000 200 93 98 0
30.580000 19.140000 7.040000 199 92 97 0
30.800000 19.140000 6.380000 198 91 96 0
31.020000 19.140000 6.380000 199 92 97 0
31.240000 19.140000 6.380000 200 90 96 0
31.460000 19.140000 6.490000 200 90 96 0
31.680000 19.140000 6.600000 199 89 97 0
31.900000 19.140000 6.710000 200 90 98 0
32.120000 19.140000 6.710000 199 92 97 0
32.340000 19.140000 7.370000 199 92 97 0
32.560000 19.140000 7.480000 199 92 97 0
32.780000 19.140000 7.480000 200 93 98 0
33.000000 19.140000 7.480000 200 93 98 0
33.220000 19.140000 7.480000 202 95 100 0
33.440000 19.140000 7.590000 202 94 102 0
33.660000 19.140000 7.590000 204 96 104 0
33.880000 19.140000 8.140000 204 97 102 0
34.100000 19.140000 9.130000 203 96 101 0
34.320000 19.140000 11.110000 204 94 100 0
34.540000 19.140000 12.540000 203 93 99 0
34.760000 19.140000 15.290000 202 95 100 0
34.980000 19.140000 18.700000 202 95 100 0
35.200000 19.140000 19.470000 204 94 100 0
35.420000 19.140000 19.470000 204 94 100 0
35.640000 19.140000 20.130000 202 95 100 0
35.860000 19.140000 20.130000 201 94 99 0
36.080000 19.140000 19.470000 200 93 98 0
36.300000 19.140000 18.810000 200 93 98 0
36.520000 19.140000 19.470000 200 93 98 0
36.740000 19.140000 19.580000 199 92 97 0
36.960000 19.140000 19.580000 199 92 97 0
37.180000 19.140000 19.580000 200 93 98 0
0.000000 19.360000 16.390000 141 122 103 0
0.220000 19.360000 16.500000 146 127 108 0
0.440000 19.360000 16.500000 147 128 108 0
0.660000 19.360000 15.840000 150 131 111 0
0.880000 19.360000 16.610000 148 130 111 0
1.100000 19.360000 16.390000 149 131 112 0
1.320000 19.360000 16.830000 150 131 112 0
1.540000 19.360000 17.270000 150 131 112 0
1.760000 19.360000 17.380000 150 131 111 0
1.980000 19.360000 17.380000 150 131 111 0
2.200000 19.360000 18.040000 150 131 111 0
2.420000 19.360000 18.040000 149 130 110 0
2.640000 19.360000 18.810000 148 130 111 0
2.860000 19.360000 19.470000 149 131 112 0
3.080000 19.360000 20.130000 150 131 111 0
3.300000 19.360000 19.470000 152 133 113 0
3.520000 19.360000 13.310000 154 135 113 0
3.740000 19.360000 4.290000 155 136 114 0
3.960000 19.360000 0.220000 159 138 116 0
4.180000 19.360000 0.990000 164 143 121 0
4.400000 19.360000 0.330000 166 149 126 0
4.620000 19.360000 0.330000 171 154 131 0
5.500000 19.360000 0.440000 194 185 163 0
5.720000 19.360000 0.440000 200 192 177 0
5.940000 19.360000 0.440000 205 197 182 0
6.160000 19.360000 0.550000 209 202 187 0
6.380000 19.360000 0.550000 212 205 190 0
6.600000 19.360000 0.550000 215 208 193 0
6.820000 19.360000 1.320000 216 209 194 0
7.040000 19.360000 0.660000 213 206 191 0
7.480000 19.360000 1.980000 215 207 192 0
7.700000 19.360000 9.460000 216 208 193 0
7.920000 19.360000 18.150000 216 208 193 0
8.140000 19.360000 20.790000 216 208 193 0
8.360000 19.360000 20.790000 216 208 193 0
8.580000 19.360000 21.010000 217 209 194 0
8.800000 19.360000 15.070000 218 210 195 0
9.020000 19.360000 4.180000 218 210 195 0
9.680000 19.360000 0.220000 219 211 196 0
9.900000 19.360000 4.180000 220 212 197 0
10.120000 19.360000 13.200000 220 212 197 0
10.340000 19.360000 19.470000 220 212 197 0
10.560000 19.360000 20.900000 220 212 197 0
10.780000 19.360000 19.580000 219 211 196 0
11.000000 19.360000 13.420000 219 211 196 0
11.220000 19.360000 3.740000 219 211 196 0
11.440000 19.360000 0.330000 217 207 193 0
11.660000 19.360000 0.440000 214 204 190 0
11.880000 19.360000 0.440000 213 203 188 0
12.100000 19.360000 0.440000 210 200 185 0
12.320000 19.360000 0.440000 210 198 181 0
12.540000 19.360000 0.550000 209 197 180 0
14.300000 19.360000 0.660000 216 203 190 0
14.520000 19.360000 1.210000 217 204 193 0
14.740000 19.360000 2.200000 218 205 194 0
14.960000 19.360000 2.750000 214 204 190 0
15.180000 19.360000 2.860000 214 204 190 0
15.400000 19.360000 2.860000 217 204 191 0
15.620000 19.360000 2.860000 216 203 190 0
15.840000 19.360000 2.860000 217 204 193 0
16.060000 19.360000 2.200000 218 205 194 0
16.280000 19.360000 2.200000 218 205 194 0
16.500000 19.360000 2.200000 220 207 196 0
16.720000 19.360000 2.310000 219 208 199 0
16.940000 19.360000 2.310000 221 210 201 0
17.160000 19.360000 2.310000 222 209 198 0
17.380000 19.360000 2.310000 223 210 199 0
17.600000 19.360000 3.080000 221 208 195 0
17.820000 19.360000 3.080000 217 204 191 0
18.040000 19.360000 3.080000 226 193 173 0
18.260000 19.360000 3.190000 214 181 161 0
18.480000 19.360000 3.190000 222 163 152 0
18.700000 19.360000 4.620000 207 148 137 0
18.920000 19.360000 5.280000 214 125 122 0
19.140000 19.360000 6.710000 202 113 110 0
19.360000 19.360000 8.140000 202 106 105 0
19.580000 19.360000 10.230000 202 106 105 0
19.800000 19.360000 13.090000 201 106 105 0
20.020000 19.360000 14.410000 201 106 105 0
20.240000 19.360000 14.520000 203 102 103 0
20.460000 19.360000 15.730000 202 101 102 0
20.680000 19.360000 19.580000 201 100 101 0
20.900000 19.360000 21.450000 201 100 101 0
21.120000 19.360000 20.790000 200 99 102 0
21.340000 19.360000 19.470000 201 100 103 0
21.560000 19.360000 18.810000 200 103 105 0
21.780000 19.360000 18.810000 201 104 106 0
22.000000 19.360000 19.580000 199 110 111 0
22.220000 19.360000 18.920000 207 118 119 0
22.440000 19.360000 18.370000 210 141 139 0
22.660000 19.360000 16.940000 211 142 140 0
22.880000 19.360000 16.280000 218 133 133 0
23.100000 19.360000 17.050000 211 126 126 0
23.320000 19.360000 17.820000 206 124 125 0
23.540000 19.360000 19.250000 210 128 129 0
23.760000 19.360000 19.250000 217 120 122 0
23.980000 19.360000 18.590000 209 112 114 0
24.200000 19.360000 12.320000 205 95 101 0
24.420000 19.360000 4.070000 200 90 96 0
24.640000 19.360000 0.660000 199 89 95 0
25.300000 19.360000 0.660000 198 88 94 0
25.520000 19.360000 1.320000 196 89 94 0
25.740000 19.360000 1.870000 195 88 93 0
25.960000 19.360000 2.970000 197 87 93 0
26.180000 19.360000 4.180000 198 88 94 0
26.400000 19.360000 4.180000 198 88 94 0
26.620000 19.360000 4.290000 197 87 93 0
26.840000 19.360000 4.290000 197 87 93 0
27.060000 19.360000 4.180000 198 88 94 0
27.280000 19.360000 4.400000 198 88 94 0
27.500000 19.360000 3.960000 198 88 94 0
27.720000 19.360000 3.410000 198 88 94 0
27.940000 19.360000 4.070000 200 90 96 0
28.160000 19.360000 4.070000 201 91 97 0
28.380000 19.360000 4.070000 201 91 97 0
28.600000 19.360000 4.070000 202 92 98 0
28.820000 19.360000 4.840000 202 92 98 0
29.040000 19.360000 4.730000 201 93 101 0
29.260000 19.360000 5.830000 202 94 102 0
29.480000 19.360000 6.270000 201 98 104 0
29.700000 19.360000 6.930000 204 101 107 0
29.920000 19.360000 6.930000 208 102 109 0
30.140000 19.360000 6.930000 205 99 106 0
30.360000 19.360000 7.040000 201 94 99 0
30.580000 19.360000 7.040000 200 93 98 0
30.800000 19.360000 6.380000 199 92 97 0
31.020000 19.360000 6.380000 199 92 97 0
31.240000 19.360000 6.380000 200 90 96 0
31.460000 19.360000 6.490000 201 91 97 0
31.680000 19.360000 6.600000 200 90 98 0
31.900000 19.360000 6.710000 200 90 98 0
32.120000 19.360000 6.710000 198 91 96 0
32.340000 19.360000 7.480000 199 92 97 0
32.560000 19.360000 8.140000 199 92 97 0
32.780000 19.360000 8.140000 199 92 97 0
33.000000 19.360000 8.140000 202 95 100 0
33.220000 19.360000 8.250000 202 95 100 0
33.440000 19.360000 7.590000 203 95 103 0
33.660000 19.360000 7.590000 204 96 104 0
33.880000 19.360000 8.030000 204 97 102 0
34.100000 19.360000 9.130000 201 94 99 0
34.320000 19.360000 11.110000 204 94 100 0
34.540000 19.360000 12.540000 202 92 98 0
34.760000 19.360000 15.290000 201 94 99 0
34.980000 19.360000 18.700000 202 95 100 0
35.200000 19.360000 19.470000 202 92 98 0
35.420000 19.360000 19.470000 202 92 98 0
35.640000 19.360000 18.810000 202 95 100 0
35.860000 19.360000 17.380000 202 95 100 0
36.080000 19.360000 18.150000 200 93 98 0
36.300000 19.360000 18.810000 201 94 99 0
36.520000 19.360000 19.470000 200 93 98 0
36.740000 19.360000 20.240000 200 93 98 0
36.960000 19.360000 20.240000 199 92 97 0
37.180000 19.360000 19.580000 201 94 99 0
0.000000 19.580000 16.940000 145 126 107 0
0.220000 19.580000 16.940000 147 128 109 0
0.440000 19.580000 17.050000 147 130 109 0
0.660000 19.580000 16.500000 149 132 111 0
0.880000 19.580000 16.500000 150 131 112 0
1.100000 19.580000 16.280000 150 131 112 0
1.320000 19.580000 16.720000 150 131 112 0
1.540000 19.580000 17.380000 151 132 113 0
1.760000 19.580000 17.380000 149 130 110 0
1.980000 19.580000 17.380000 150 131 111 0
2.200000 19.580000 18.040000 148 131 110 0
2.420000 19.580000 18.040000 148 131 110 0
2.640000 19.580000 18.810000 149 130 111 0
2.860000 19.580000 19.470000 149 130 111 0
3.080000 19.580000 20.130000 149 130 110 0
3.300000 19.580000 20.900000 150 131 111 0
3.520000 19.580000 16.060000 156 134 115 0
3.740000 19.580000 5.060000 156 134 115 0
3.960000 19.580000 0.220000 158 139 117 0
4.180000 19.580000 0.990000 162 143 121 0
4.400000 19.580000 0.330000 165 148 123 0
4.620000 19.580000 0.330000 171 154 129 0
5.500000 19.580000 0.440000 195 184 162 0
5.720000 19.580000 0.440000 200 192 177 0
5.940000 19.580000 0.440000 204 196 181 0
6.160000 19.580000 0.550000 212 205 192 0
6.380000 19.580000 0.550000 216 209 196 0
6.600000 19.580000 0.550000 221 214 201 0
6.820000 19.580000 0.550000 221 214 201 0
7.040000 19.580000 0.660000 219 210 198 0
7.480000 19.580000 3.410000 215 207 192 0
7.700000 19.580000 12.210000 214 206 191 0
7.920000 19.580000 19.580000 215 207 192 0
8.140000 19.580000 20.790000 214 206 191 0
8.360000 19.580000 20.790000 216 207 195 0
8.580000 19.580000 20.900000 215 206 194 0
8.800000 19.580000 14.960000 217 208 196 0
9.020000 19.580000 4.070000 218 209 197 0
9.900000 19.580000 1.540000 221 211 197 0
10.120000 19.580000 8.360000 221 211 197 0
10.340000 19.580000 17.380000 222 212 198 0
10.560000 19.580000 19.470000 221 211 197 0
10.780000 19.580000 18.150000 221 211 197 0
11.000000 19.580000 14.080000 221 211 197 0
11.220000 19.580000 5.170000 221 211 197 0
11.440000 19.580000 0.330000 220 210 196 0
11.660000 19.580000 0.440000 215 205 191 0
11.880000 19.580000 0.440000 215 202 189 0
12.100000 19.580000 0.440000 212 199 186 0
12.320000 19.580000 0.440000 210 196 182 0
12.540000 19.580000 0.550000 210 196 182 0
14.080000 19.580000 0.660000 215 202 191 0
14.300000 19.580000 0.660000 216 203 192 0
14.520000 19.580000 1.210000 217 204 191 0
14.740000 19.580000 2.200000 216 203 190 0
14.960000 19.580000 2.750000 217 204 191 0
15.180000 19.580000 2.860000 216 203 190 0
15.400000 19.580000 2.860000 216 203 192 0
15.620000 19.580000 2.860000 216 203 192 0
15.840000 19.580000 2.860000 217 202 190 0
16.060000 19.580000 2.860000 218 203 191 0
16.280000 19.580000 2.860000 218 205 194 0
16.500000 19.580000 2.200000 219 206 195 0
16.720000 19.580000 2.310000 219 206 193 0
16.940000 19.580000 2.310000 222 209 196 0
17.160000 19.580000 2.310000 222 208 200 0
17.380000 19.580000 2.310000 222 208 200 0
17.600000 19.580000 3.080000 222 209 198 0
17.820000 19.580000 3.080000 220 207 196 0
18.040000 19.580000 3.080000 218 203 191 0
18.260000 19.580000 3.190000 209 194 182 0
18.480000 19.580000 3.190000 216 179 165 0
18.700000 19.580000 3.960000 204 167 153 0
18.920000 19.580000 4.620000 213 145 139 0
19.140000 19.580000 5.390000 200 132 126 0
19.360000 19.580000 6.820000 202 114 108 0
19.580000 19.580000 10.230000 198 110 104 0
19.800000 19.580000 13.090000 203 107 106 0
20.020000 19.580000 15.180000 201 105 104 0
20.240000 19.580000 17.270000 202 103 103 0
20.460000 19.580000 19.140000 200 101 101 0
20.680000 19.580000 20.240000 201 100 101 0
20.900000 19.580000 20.790000 202 101 102 0
21.120000 19.580000 20.130000 200 99 100 0
21.340000 19.580000 18.810000 201 100 101 0
21.560000 19.580000 18.810000 201 102 102 0
21.780000 19.580000 18.810000 202 103 103 0
22.000000 19.580000 18.810000 193 108 108 0
22.220000 19.580000 18.260000 207 122 122 0
22.440000 19.580000 16.940000 216 141 141 0
22.660000 19.580000 16.280000 219 144 144 0
22.880000 19.580000 16.280000 218 131 135 0
23.100000 19.580000 17.050000 210 123 127 0
23.320000 19.580000 17.820000 210 125 128 0
23.540000 19.580000 17.820000 213 128 131 0
23.760000 19.580000 17.160000 220 121 121 0
23.980000 19.580000 15.070000 207 108 108 0
24.200000 19.580000 7.480000 203 93 99 0
24.420000 19.580000 1.980000 199 89 95 0
24.640000 19.580000 0.660000 198 88 94 0
25.300000 19.580000 0.660000 198 88 94 0
25.520000 19.580000 1.320000 197 87 93 0
25.740000 19.580000 1.320000 197 87 93 0
25.960000 19.580000 2.530000 196 86 92 0
26.180000 19.580000 3.630000 197 87 93 0
26.400000 19.580000 4.180000 197 87 93 0
26.620000 19.580000 4.290000 197 87 93 0
26.840000 19.580000 4.290000 197 87 93 0
27.060000 19.580000 4.180000 197 87 93 0
27.280000 19.580000 4.400000 197 87 93 0
27.500000 19.580000 3.960000 198 88 94 0
27.720000 19.580000 3.410000 198 88 94 0
27.940000 19.580000 4.070000 199 89 95 0
28.160000 19.580000 4.070000 200 90 96 0
28.380000 19.580000 4.070000 200 90 96 0
28.600000 19.580000 4.070000 201 91 97 0
28.820000 19.580000 4.730000 202 92 98 0
29.040000 19.580000 5.280000 202 94 102 0
29.260000 19.580000 6.380000 203 95 103 0
29.480000 19.580000 6.270000 205 97 105 0
29.700000 19.580000 6.930000 205 97 105 0
29.920000 19.580000 6.930000 206 98 106 0
30.140000 19.580000 6.930000 206 98 106 0
30.360000 19.580000 7.040000 205 95 103 0
30.580000 19.580000 7.040000 201 91 99 0
30.800000 19.580000 6.380000 201 91 97 0
31.020000 19.580000 6.380000 201 91 97 0
31.240000 19.580000 6.490000 200 90 96 0
31.460000 19.580000 6.600000 199 89 95 0
31.680000 19.580000 6.710000 199 89 97 0
31.900000 19.580000 6.710000 201 91 99 0
32.120000 19.580000 6.710000 200 90 98 0
32.340000 19.580000 7.480000 200 90 98 0
32.560000 19.580000 8.140000 202 92 98 0
32.780000 19.580000 8.140000 201 91 97 0
33.000000 19.580000 8.140000 200 93 98 0
33.220000 19.580000 8.250000 202 95 100 0
33.440000 19.580000 8.250000 203 95 103 0
33.660000 19.580000 8.140000 204 96 104 0
33.880000 19.580000 8.580000 206 96 102 0
34.100000 19.580000 9.020000 205 95 101 0
34.320000 19.580000 10.450000 204 94 100 0
34.540000 19.580000 12.540000 202 92 98 0
34.760000 19.580000 15.950000 202 92 98 0
34.980000 19.580000 18.700000 203 93 99 0
35.200000 19.580000 19.470000 203 93 99 0
35.420000 19.580000 19.470000 203 93 99 0
35.640000 19.580000 15.950000 203 93 99 0
35.860000 19.580000 11.880000 203 93 99 0
36.080000 19.580000 15.290000 202 92 98 0
36.300000 19.580000 18.810000 202 92 98 0
36.520000 19.580000 19.470000 199 92 97 0
36.740000 19.580000 20.240000 200 93 98 0
36.960000 19.580000 20.240000 200 93 98 0
37.180000 19.580000 20.240000 201 94 99 0
0.000000 19.800000 17.600000 147 128 109 0
0.220000 19.800000 17.600000 149 130 111 0
0.440000 19.800000 16.940000 149 132 111 0
0.660000 19.800000 17.050000 150 133 112 0
0.880000 19.800000 17.050000 151 132 113 0
1.100000 19.800000 16.830000 149 130 111 0
1.320000 19.800000 17.380000 150 131 112 0
1.540000 19.800000 17.380000 148 129 110 0
1.760000 19.800000 17.380000 150 131 111 0
1.980000 19.800000 17.380000 150 131 111 0
2.200000 19.800000 18.040000 148 131 110 0
2.420000 19.800000 18.040000 148 131 110 0
2.640000 19.800000 18.810000 150 131 112 0
2.860000 19.800000 19.470000 149 130 111 0
3.080000 19.800000 20.130000 150 131 111 0
3.300000 19.800000 20.900000 150 131 111 0
3.520000 19.800000 16.060000 155 133 114 0
3.740000 19.800000 5.060000 156 134 115 0
3.960000 19.800000 0.220000 158 139 117 0
4.180000 19.800000 0.220000 161 142 120 0
4.400000 19.800000 0.330000 164 147 122 0
4.620000 19.800000 0.330000 171 154 129 0
5.720000 19.800000 0.440000 200 192 177 0
5.940000 19.800000 0.440000 206 198 183 0
6.160000 19.800000 0.550000 215 208 195 0
6.380000 19.800000 0.550000 217 210 197 0
6.600000 19.800000 0.550000 220 213 200 0
6.820000 19.800000 0.550000 221 214 201 0
7.040000 19.800000 0.660000 221 212 200 0
