ply
format ascii 1.0
element vertex 1098
property float x
property float y
property float z
property uchar red
property uchar green
property uchar blue
property uchar alpha
end_header
36.080000 30.360000 24.640000 204 236 220 0
36.300000 30.360000 24.860000 205 235 220 0
36.520000 30.360000 24.860000 205 235 220 0
36.740000 30.360000 24.860000 203 235 219 0
36.960000 30.360000 25.960000 203 235 219 0
37.180000 30.360000 27.060000 204 236 220 0
0.000000 30.580000 22.660000 150 133 120 0
0.220000 30.580000 22.660000 150 133 121 0
0.440000 30.580000 22.660000 150 133 121 0
0.660000 30.580000 22.660000 149 134 122 0
0.880000 30.580000 21.340000 148 133 121 0
1.100000 30.580000 21.340000 148 133 121 0
1.320000 30.580000 21.340000 148 133 121 0
1.540000 30.580000 21.340000 149 135 121 0
1.760000 30.580000 20.020000 149 135 121 0
1.980000 30.580000 20.020000 150 135 123 0
2.200000 30.580000 20.020000 149 134 122 0
2.420000 30.580000 18.700000 149 134 122 0
2.640000 30.580000 18.920000 150 135 123 0
2.860000 30.580000 18.920000 148 135 122 0
3.080000 30.580000 20.240000 147 134 121 0
3.300000 30.580000 20.460000 149 135 121 0
3.520000 30.580000 20.460000 150 136 122 0
3.740000 30.580000 20.460000 150 135 123 0
3.960000 30.580000 20.240000 150 135 123 0
4.180000 30.580000 20.240000 149 136 123 0
4.400000 30.580000 20.460000 149 136 123 0
4.620000 30.580000 20.460000 149 136 123 0
4.840000 30.580000 20.460000 149 136 123 0
5.060000 30.580000 20.460000 148 135 122 0
5.280000 30.580000 20.460000 149 136 123 0
5.500000 30.580000 20.460000 150 137 124 0
5.720000 30.580000 20.460000 150 137 124 0
5.940000 30.580000 20.460000 151 138 125 0
6.160000 30.580000 20.460000 150 137 124 0
6.380000 30.580000 22.000000 148 138 124 0
6.600000 30.580000 23.100000 149 139 125 0
6.820000 30.580000 23.760000 150 140 126 0
7.040000 30.580000 24.860000 149 139 125 0
7.260000 30.580000 26.400000 152 139 126 0
7.480000 30.580000 26.400000 152 139 126 0
7.700000 30.580000 26.400000 153 140 127 0
7.920000 30.580000 26.400000 155 142 129 0
8.140000 30.580000 26.400000 154 144 130 0
8.360000 30.580000 26.400000 156 146 132 0
8.580000 30.580000 25.080000 156 149 134 0
8.800000 30.580000 26.400000 158 151 136 0
9.020000 30.580000 26.400000 157 154 142 0
9.240000 30.580000 26.400000 162 159 147 0
9.460000 30.580000 26.400000 163 163 156 0
9.680000 30.580000 26.400000 168 168 161 0
9.900000 30.580000 25.080000 168 176 174 0
10.120000 30.580000 25.300000 175 183 181 0
10.340000 30.580000 23.980000 181 195 193 0
10.560000 30.580000 23.980000 189 203 201 0
10.780000 30.580000 25.520000 193 214 206 0
11.000000 30.580000 26.840000 199 220 212 0
11.220000 30.580000 27.060000 203 229 221 0
11.440000 30.580000 28.380000 207 233 225 0
11.660000 30.580000 28.600000 208 237 228 0
11.880000 30.580000 29.920000 209 238 229 0
12.100000 30.580000 30.140000 209 238 228 0
12.320000 30.580000 30.140000 209 238 228 0
12.540000 30.580000 30.140000 206 237 224 0
12.760000 30.580000 31.680000 203 234 221 0
12.980000 30.580000 31.680000 204 229 218 0
13.200000 30.580000 31.680000 201 226 215 0
13.420000 30.580000 33.000000 199 225 211 0
13.640000 30.580000 34.540000 198 224 210 0
13.860000 30.580000 35.640000 198 221 208 0
14.080000 30.580000 37.840000 198 221 208 0
14.300000 30.580000 38.940000 197 220 209 0
14.520000 30.580000 40.260000 197 220 209 0
14.740000 30.580000 40.260000 195 218 205 0
14.960000 30.580000 41.800000 196 219 206 0
15.180000 30.580000 30.800000 196 219 206 0
15.400000 30.580000 10.120000 196 219 206 0
15.620000 30.580000 0.440000 195 218 205 0
15.840000 30.580000 0.660000 196 219 206 0
16.060000 30.580000 0.660000 196 219 206 0
16.280000 30.580000 0.660000 196 219 206 0
16.500000 30.580000 0.660000 195 218 205 0
16.720000 30.580000 2.200000 195 218 205 0
16.940000 30.580000 2.200000 195 218 205 0
17.160000 30.580000 2.420000 196 219 206 0
17.380000 30.580000 2.420000 196 219 206 0
17.600000 30.580000 2.420000 196 219 206 0
17.820000 30.580000 2.420000 196 219 206 0
18.040000 30.580000 2.420000 196 219 206 0
18.260000 30.580000 3.960000 197 220 207 0
18.480000 30.580000 3.960000 197 220 207 0
18.700000 30.580000 3.960000 197 220 205 0
18.920000 30.580000 3.960000 197 220 205 0
19.140000 30.580000 4.180000 197 220 205 0
19.360000 30.580000 5.280000 197 220 205 0
19.580000 30.580000 7.260000 195 221 207 0
19.800000 30.580000 7.040000 196 222 208 0
20.020000 30.580000 8.360000 196 222 206 0
20.240000 30.580000 8.580000 197 223 207 0
20.460000 30.580000 8.580000 197 223 207 0
20.680000 30.580000 8.580000 197 223 207 0
20.900000 30.580000 7.260000 198 224 208 0
21.120000 30.580000 7.260000 198 224 208 0
21.340000 30.580000 7.480000 198 225 211 0
21.560000 30.580000 7.480000 199 226 212 0
21.780000 30.580000 7.480000 201 229 212 0
22.000000 30.580000 8.800000 202 230 213 0
22.220000 30.580000 9.020000 201 229 212 0
22.440000 30.580000 9.020000 201 229 212 0
22.660000 30.580000 9.020000 201 229 212 0
22.880000 30.580000 9.240000 202 230 213 0
23.100000 30.580000 9.240000 200 228 211 0
23.320000 30.580000 10.560000 200 228 211 0
23.540000 30.580000 10.780000 200 228 211 0
23.760000 30.580000 10.780000 200 228 211 0
23.980000 30.580000 10.780000 199 227 210 0
24.200000 30.580000 10.780000 200 228 211 0
24.420000 30.580000 11.000000 200 228 211 0
24.640000 30.580000 11.000000 200 228 211 0
24.860000 30.580000 11.000000 200 228 211 0
25.080000 30.580000 12.100000 200 228 211 0
25.300000 30.580000 14.080000 200 228 211 0
25.520000 30.580000 15.180000 201 229 212 0
25.740000 30.580000 15.400000 198 228 211 0
25.960000 30.580000 15.400000 198 228 211 0
26.180000 30.580000 15.400000 198 228 211 0
26.400000 30.580000 15.400000 199 229 212 0
26.620000 30.580000 15.620000 199 229 212 0
26.840000 30.580000 15.620000 199 229 212 0
27.060000 30.580000 15.620000 199 229 212 0
27.280000 30.580000 15.620000 199 229 212 0
27.500000 30.580000 15.840000 200 230 213 0
27.720000 30.580000 15.840000 200 230 213 0
27.940000 30.580000 15.840000 201 231 216 0
28.160000 30.580000 15.840000 200 230 215 0
28.380000 30.580000 15.840000 201 231 214 0
28.600000 30.580000 16.060000 201 231 214 0
28.820000 30.580000 16.060000 201 231 214 0
29.040000 30.580000 16.060000 201 231 214 0
29.260000 30.580000 17.600000 201 231 214 0
29.480000 30.580000 17.600000 202 232 215 0
29.700000 30.580000 17.600000 200 232 214 0
29.920000 30.580000 17.820000 201 233 215 0
30.140000 30.580000 17.820000 202 232 215 0
30.360000 30.580000 17.820000 202 232 215 0
30.580000 30.580000 17.820000 201 233 215 0
30.800000 30.580000 17.820000 202 234 216 0
31.020000 30.580000 18.920000 203 233 216 0
31.240000 30.580000 21.120000 203 233 216 0
31.460000 30.580000 22.220000 202 234 218 0
31.680000 30.580000 22.220000 202 234 218 0
31.900000 30.580000 22.220000 201 233 215 0
32.120000 30.580000 22.440000 202 234 216 0
32.340000 30.580000 22.440000 202 234 218 0
32.560000 30.580000 22.440000 203 235 219 0
32.780000 30.580000 22.440000 203 235 217 0
33.000000 30.580000 22.660000 204 236 218 0
33.220000 30.580000 22.660000 205 237 219 0
33.440000 30.580000 22.660000 204 236 218 0
33.660000 30.580000 22.660000 204 236 218 0
33.880000 30.580000 22.880000 205 237 219 0
34.100000 30.580000 24.200000 205 237 221 0
34.320000 30.580000 24.200000 205 237 221 0
34.540000 30.580000 24.420000 206 236 219 0
34.760000 30.580000 24.420000 206 236 219 0
34.980000 30.580000 24.420000 205 237 221 0
35.200000 30.580000 23.100000 205 237 221 0
35.420000 30.580000 23.100000 204 236 220 0
35.640000 30.580000 23.100000 204 236 220 0
35.860000 30.580000 23.320000 205 237 221 0
36.080000 30.580000 24.640000 205 237 221 0
36.300000 30.580000 24.860000 205 235 220 0
36.520000 30.580000 24.860000 205 235 220 0
36.740000 30.580000 24.860000 204 236 220 0
36.960000 30.580000 25.960000 204 236 220 0
37.180000 30.580000 27.060000 204 236 220 0
0.000000 30.800000 22.660000 150 133 121 0
0.220000 30.800000 22.660000 151 134 121 0
0.440000 30.800000 22.660000 152 135 122 0
0.660000 30.800000 22.660000 149 134 122 0
0.880000 30.800000 21.340000 149 134 122 0
1.100000 30.800000 21.340000 150 133 121 0
1.320000 30.800000 21.340000 152 135 123 0
1.540000 30.800000 21.340000 149 134 122 0
1.760000 30.800000 21.340000 149 134 122 0
1.980000 30.800000 21.340000 149 135 121 0
2.200000 30.800000 20.020000 150 136 122 0
2.420000 30.800000 20.240000 149 134 122 0
2.640000 30.800000 20.240000 150 135 123 0
2.860000 30.800000 20.240000 151 136 124 0
3.080000 30.800000 20.240000 149 134 122 0
3.300000 30.800000 20.460000 150 135 123 0
3.520000 30.800000 20.460000 151 136 124 0
3.740000 30.800000 20.460000 150 137 123 0
3.960000 30.800000 20.240000 150 137 123 0
4.180000 30.800000 20.240000 150 137 123 0
4.400000 30.800000 20.460000 150 137 123 0
4.620000 30.800000 20.460000 150 137 124 0
4.840000 30.800000 20.460000 150 137 124 0
5.060000 30.800000 20.460000 150 137 124 0
5.280000 30.800000 20.460000 151 138 125 0
5.500000 30.800000 21.780000 151 138 125 0
5.720000 30.800000 21.780000 152 139 126 0
5.940000 30.800000 21.780000 150 140 126 0
6.160000 30.800000 21.780000 149 139 125 0
6.380000 30.800000 22.000000 151 138 125 0
6.600000 30.800000 23.100000 152 139 126 0
6.820000 30.800000 23.760000 154 141 128 0
7.040000 30.800000 24.860000 153 140 127 0
7.260000 30.800000 25.080000 154 141 128 0
7.480000 30.800000 26.400000 154 141 128 0
7.700000 30.800000 26.400000 155 142 128 0
7.920000 30.800000 26.400000 156 143 129 0
8.140000 30.800000 26.400000 155 145 131 0
8.360000 30.800000 26.400000 157 147 133 0
8.580000 30.800000 26.400000 159 150 138 0
8.800000 30.800000 26.400000 161 152 140 0
9.020000 30.800000 26.400000 161 156 145 0
9.240000 30.800000 27.940000 165 160 149 0
9.460000 30.800000 26.400000 160 162 154 0
9.680000 30.800000 26.620000 167 169 161 0
9.900000 30.800000 25.080000 170 178 175 0
10.120000 30.800000 25.300000 177 185 182 0
10.340000 30.800000 23.980000 183 197 195 0
10.560000 30.800000 23.980000 188 202 200 0
10.780000 30.800000 25.520000 194 215 207 0
11.000000 30.800000 25.520000 201 222 214 0
11.220000 30.800000 27.060000 202 228 220 0
11.440000 30.800000 27.060000 208 234 226 0
11.660000 30.800000 28.600000 209 238 229 0
11.880000 30.800000 28.600000 210 239 230 0
12.100000 30.800000 30.140000 210 239 229 0
12.320000 30.800000 30.140000 209 238 228 0
12.540000 30.800000 30.140000 206 237 224 0
12.760000 30.800000 31.680000 204 235 222 0
12.980000 30.800000 31.680000 204 231 219 0
13.200000 30.800000 31.680000 201 228 216 0
13.420000 30.800000 33.000000 200 225 214 0
13.640000 30.800000 34.540000 198 223 212 0
13.860000 30.800000 34.320000 198 221 208 0
14.080000 30.800000 36.740000 197 220 207 0
14.300000 30.800000 37.620000 197 220 209 0
14.520000 30.800000 40.260000 196 219 208 0
14.740000 30.800000 40.260000 196 219 206 0
14.960000 30.800000 41.800000 196 219 206 0
15.180000 30.800000 30.800000 197 220 207 0
15.400000 30.800000 10.120000 196 219 206 0
15.620000 30.800000 0.440000 196 219 206 0
15.840000 30.800000 0.660000 196 219 206 0
16.060000 30.800000 0.660000 196 219 206 0
16.280000 30.800000 0.660000 196 219 206 0
16.500000 30.800000 0.660000 195 218 205 0
16.720000 30.800000 0.880000 195 218 205 0
16.940000 30.800000 2.200000 195 218 205 0
17.160000 30.800000 2.420000 196 219 206 0
17.380000 30.800000 2.420000 195 218 205 0
17.600000 30.800000 2.420000 196 219 206 0
17.820000 30.800000 2.420000 195 218 205 0
18.040000 30.800000 3.960000 196 219 206 0
18.260000 30.800000 3.960000 194 220 206 0
18.480000 30.800000 3.960000 194 220 206 0
18.700000 30.800000 3.960000 194 220 206 0
18.920000 30.800000 3.960000 195 221 207 0
19.140000 30.800000 4.180000 194 220 206 0
19.360000 30.800000 5.280000 195 221 207 0
19.580000 30.800000 7.260000 196 222 208 0
19.800000 30.800000 7.040000 195 221 207 0
20.020000 30.800000 8.360000 196 222 208 0
20.240000 30.800000 8.580000 196 222 208 0
20.460000 30.800000 8.580000 197 223 209 0
20.680000 30.800000 7.260000 197 223 209 0
20.900000 30.800000 7.260000 197 224 210 0
21.120000 30.800000 7.260000 197 224 210 0
21.340000 30.800000 7.480000 197 224 210 0
21.560000 30.800000 7.480000 198 225 211 0
21.780000 30.800000 8.800000 199 226 212 0
22.000000 30.800000 8.800000 200 227 213 0
22.220000 30.800000 9.020000 201 229 212 0
22.440000 30.800000 9.020000 201 229 212 0
22.660000 30.800000 9.020000 199 226 212 0
22.880000 30.800000 9.240000 200 227 213 0
23.100000 30.800000 9.240000 200 227 213 0
23.320000 30.800000 10.560000 200 227 213 0
23.540000 30.800000 10.780000 199 226 212 0
23.760000 30.800000 10.780000 199 226 212 0
23.980000 30.800000 10.780000 199 226 212 0
24.200000 30.800000 10.780000 201 228 214 0
24.420000 30.800000 11.000000 199 229 214 0
24.640000 30.800000 11.000000 199 229 214 0
24.860000 30.800000 11.000000 199 229 214 0
25.080000 30.800000 12.100000 199 229 214 0
25.300000 30.800000 14.080000 199 229 214 0
25.520000 30.800000 15.180000 199 229 214 0
25.740000 30.800000 15.400000 198 228 213 0
25.960000 30.800000 15.400000 198 228 213 0
26.180000 30.800000 15.400000 199 229 214 0
26.400000 30.800000 15.400000 199 229 214 0
26.620000 30.800000 15.620000 199 229 214 0
26.840000 30.800000 15.620000 199 229 214 0
27.060000 30.800000 15.620000 200 230 215 0
27.280000 30.800000 15.620000 200 230 215 0
27.500000 30.800000 15.840000 199 231 215 0
27.720000 30.800000 15.840000 200 232 216 0
27.940000 30.800000 15.840000 201 231 216 0
28.160000 30.800000 15.840000 200 230 215 0
28.380000 30.800000 15.840000 201 231 216 0
28.600000 30.800000 16.060000 201 231 216 0
28.820000 30.800000 16.060000 201 233 217 0
29.040000 30.800000 16.060000 201 233 217 0
29.260000 30.800000 16.280000 201 233 217 0
29.480000 30.800000 17.600000 201 233 217 0
29.700000 30.800000 17.600000 201 233 217 0
29.920000 30.800000 17.820000 200 232 216 0
30.140000 30.800000 17.820000 202 234 218 0
30.360000 30.800000 17.820000 201 233 217 0
30.580000 30.800000 17.820000 201 233 217 0
30.800000 30.800000 17.820000 202 234 218 0
31.020000 30.800000 18.920000 202 234 218 0
31.240000 30.800000 21.120000 202 234 218 0
31.460000 30.800000 22.220000 202 234 218 0
31.680000 30.800000 22.220000 202 234 218 0
31.900000 30.800000 22.220000 202 234 218 0
32.120000 30.800000 22.440000 202 234 218 0
32.340000 30.800000 22.440000 202 234 218 0
32.560000 30.800000 22.440000 202 234 218 0
32.780000 30.800000 22.440000 203 235 219 0
33.000000 30.800000 22.660000 204 236 220 0
33.220000 30.800000 22.660000 204 236 220 0
33.440000 30.800000 22.660000 205 237 221 0
33.660000 30.800000 22.660000 205 237 221 0
33.880000 30.800000 22.880000 204 236 220 0
34.100000 30.800000 24.200000 204 236 220 0
34.320000 30.800000 24.200000 205 237 221 0
34.540000 30.800000 24.420000 205 237 221 0
34.760000 30.800000 24.420000 205 237 221 0
34.980000 30.800000 24.420000 205 237 221 0
35.200000 30.800000 23.100000 204 236 220 0
35.420000 30.800000 23.100000 204 236 220 0
35.640000 30.800000 23.100000 204 236 220 0
35.860000 30.800000 23.320000 204 236 220 0
36.080000 30.800000 24.640000 204 236 220 0
36.300000 30.800000 24.860000 204 236 220 0
36.520000 30.800000 24.860000 204 236 220 0
36.740000 30.800000 24.860000 204 236 220 0
36.960000 30.800000 25.960000 204 236 220 0
37.180000 30.800000 27.060000 204 236 220 0
0.000000 31.020000 22.660000 151 134 122 0
0.220000 31.020000 22.660000 151 134 121 0
0.440000 31.020000 22.660000 150 133 120 0
0.660000 31.020000 22.660000 149 134 122 0
0.880000 31.020000 21.340000 149 134 122 0
1.100000 31.020000 21.340000 152 135 123 0
1.320000 31.020000 21.340000 151 134 122 0
1.540000 31.020000 21.340000 150 135 123 0
1.760000 31.020000 21.340000 148 133 121 0
1.980000 31.020000 21.340000 149 135 121 0
2.200000 31.020000 20.020000 149 135 121 0
2.420000 31.020000 20.020000 149 134 122 0
2.640000 31.020000 20.240000 150 135 123 0
2.860000 31.020000 20.240000 151 136 124 0
3.080000 31.020000 20.240000 150 135 123 0
3.300000 31.020000 20.460000 151 136 124 0
3.520000 31.020000 20.460000 150 135 123 0
3.740000 31.020000 20.460000 151 138 124 0
3.960000 31.020000 20.460000 151 138 124 0
4.180000 31.020000 20.460000 151 138 124 0
4.400000 31.020000 20.460000 151 138 124 0
4.620000 31.020000 20.460000 150 137 124 0
4.840000 31.020000 20.460000 152 139 126 0
5.060000 31.020000 20.460000 151 138 125 0
5.280000 31.020000 21.780000 151 138 125 0
5.500000 31.020000 21.780000 152 139 126 0
5.720000 31.020000 21.780000 153 140 127 0
5.940000 31.020000 21.780000 150 140 126 0
6.160000 31.020000 21.780000 150 140 126 0
6.380000 31.020000 21.780000 152 139 126 0
6.600000 31.020000 23.100000 153 140 127 0
6.820000 31.020000 25.300000 154 141 128 0
7.040000 31.020000 24.860000 154 141 128 0
7.260000 31.020000 25.080000 155 142 129 0
7.480000 31.020000 25.080000 155 142 129 0
7.700000 31.020000 25.080000 157 144 130 0
7.920000 31.020000 25.080000 158 145 131 0
8.140000 31.020000 25.080000 157 147 133 0
8.360000 31.020000 26.620000 158 148 134 0
8.580000 31.020000 26.620000 158 149 137 0
8.800000 31.020000 26.400000 161 152 140 0
9.020000 31.020000 27.940000 161 156 145 0
9.240000 31.020000 27.940000 166 161 150 0
9.460000 31.020000 27.940000 162 164 156 0
9.680000 31.020000 26.620000 167 169 161 0
9.900000 31.020000 25.080000 170 178 175 0
10.120000 31.020000 25.300000 175 183 180 0
10.340000 31.020000 23.980000 183 197 195 0
10.560000 31.020000 23.980000 190 204 202 0
10.780000 31.020000 25.520000 194 215 207 0
11.000000 31.020000 25.520000 201 222 214 0
11.220000 31.020000 27.060000 203 229 221 0
11.440000 31.020000 27.060000 207 233 225 0
11.660000 31.020000 28.600000 209 238 229 0
11.880000 31.020000 28.600000 210 239 230 0
12.100000 31.020000 30.140000 211 240 230 0
12.320000 31.020000 30.140000 209 238 228 0
12.540000 31.020000 30.140000 207 238 225 0
12.760000 31.020000 30.140000 206 237 224 0
12.980000 31.020000 31.680000 204 231 219 0
13.200000 31.020000 31.680000 201 228 216 0
13.420000 31.020000 33.000000 199 224 213 0
13.640000 31.020000 33.000000 199 224 213 0
13.860000 31.020000 34.540000 198 221 208 0
14.080000 31.020000 35.640000 197 220 207 0
14.300000 31.020000 37.620000 197 220 209 0
14.520000 31.020000 40.260000 197 220 209 0
14.740000 31.020000 40.260000 197 220 207 0
14.960000 31.020000 41.800000 197 220 207 0
15.180000 31.020000 30.800000 196 219 206 0
15.400000 31.020000 10.120000 196 219 206 0
15.620000 31.020000 0.660000 196 219 206 0
15.840000 31.020000 0.660000 196 219 206 0
16.060000 31.020000 0.660000 195 218 205 0
16.280000 31.020000 0.660000 195 218 205 0
16.500000 31.020000 0.660000 195 218 205 0
16.720000 31.020000 0.880000 195 218 205 0
16.940000 31.020000 0.880000 195 218 205 0
17.160000 31.020000 2.420000 194 217 204 0
17.380000 31.020000 2.420000 194 217 204 0
17.600000 31.020000 2.420000 195 218 205 0
17.820000 31.020000 3.740000 195 218 205 0
18.040000 31.020000 3.960000 195 218 205 0
18.260000 31.020000 3.960000 193 219 205 0
18.480000 31.020000 3.960000 194 220 206 0
18.700000 31.020000 3.960000 194 220 206 0
18.920000 31.020000 3.960000 194 220 206 0
19.140000 31.020000 4.180000 195 221 207 0
19.360000 31.020000 5.280000 194 220 206 0
19.580000 31.020000 7.260000 195 221 207 0
19.800000 31.020000 7.040000 196 222 208 0
20.020000 31.020000 8.360000 195 221 207 0
20.240000 31.020000 8.580000 196 222 208 0
20.460000 31.020000 8.580000 196 222 208 0
20.680000 31.020000 8.580000 197 223 209 0
20.900000 31.020000 8.580000 196 223 209 0
21.120000 31.020000 8.800000 196 223 209 0
21.340000 31.020000 8.800000 197 224 210 0
21.560000 31.020000 8.800000 197 224 210 0
21.780000 31.020000 8.800000 197 224 210 0
22.000000 31.020000 8.800000 197 224 210 0
22.220000 31.020000 9.020000 198 226 209 0
22.440000 31.020000 9.020000 199 227 210 0
22.660000 31.020000 9.020000 199 226 212 0
22.880000 31.020000 9.020000 199 226 212 0
23.100000 31.020000 9.240000 199 226 212 0
23.320000 31.020000 10.560000 199 226 212 0
23.540000 31.020000 10.780000 200 227 213 0
23.760000 31.020000 10.780000 199 226 212 0
23.980000 31.020000 10.780000 200 227 213 0
24.200000 31.020000 10.780000 200 227 213 0
24.420000 31.020000 11.000000 199 229 214 0
24.640000 31.020000 11.000000 198 228 213 0
24.860000 31.020000 11.000000 198 228 213 0
25.080000 31.020000 12.100000 199 229 214 0
25.300000 31.020000 12.980000 198 228 213 0
25.520000 31.020000 13.860000 199 229 214 0
25.740000 31.020000 15.400000 197 227 212 0
25.960000 31.020000 15.400000 198 228 213 0
26.180000 31.020000 15.400000 198 228 213 0
26.400000 31.020000 15.400000 199 229 214 0
26.620000 31.020000 15.620000 199 229 214 0
26.840000 31.020000 15.620000 199 229 214 0
27.060000 31.020000 15.620000 200 230 215 0
27.280000 31.020000 15.620000 200 230 215 0
27.500000 31.020000 15.840000 199 231 215 0
27.720000 31.020000 15.840000 199 231 215 0
27.940000 31.020000 15.840000 201 231 216 0
28.160000 31.020000 15.840000 200 230 215 0
28.380000 31.020000 15.840000 201 231 216 0
28.600000 31.020000 16.060000 200 230 215 0
28.820000 31.020000 16.060000 200 232 216 0
29.040000 31.020000 16.060000 201 233 217 0
29.260000 31.020000 16.280000 201 233 217 0
29.480000 31.020000 16.280000 201 233 217 0
29.700000 31.020000 17.600000 201 233 217 0
29.920000 31.020000 17.820000 202 234 218 0
30.140000 31.020000 17.820000 202 234 218 0
30.360000 31.020000 17.820000 201 233 217 0
30.580000 31.020000 17.820000 201 233 217 0
30.800000 31.020000 17.820000 202 234 218 0
31.020000 31.020000 18.920000 202 234 218 0
31.240000 31.020000 19.800000 202 234 218 0
31.460000 31.020000 22.220000 202 234 218 0
31.680000 31.020000 22.220000 202 234 218 0
31.900000 31.020000 22.220000 202 234 218 0
32.120000 31.020000 22.440000 202 234 218 0
32.340000 31.020000 22.440000 202 234 218 0
32.560000 31.020000 22.440000 202 234 218 0
32.780000 31.020000 22.440000 203 235 219 0
33.000000 31.020000 22.660000 204 236 220 0
33.220000 31.020000 22.660000 205 237 221 0
33.440000 31.020000 22.660000 205 237 221 0
33.660000 31.020000 22.660000 205 237 221 0
33.880000 31.020000 22.880000 205 237 221 0
34.100000 31.020000 22.880000 204 236 220 0
34.320000 31.020000 24.200000 205 237 221 0
34.540000 31.020000 24.420000 205 237 221 0
34.760000 31.020000 24.420000 204 236 220 0
34.980000 31.020000 24.420000 204 236 220 0
35.200000 31.020000 23.100000 204 236 220 0
35.420000 31.020000 23.100000 204 236 220 0
35.640000 31.020000 23.100000 204 236 220 0
35.860000 31.020000 23.320000 204 236 220 0
36.080000 31.020000 24.640000 204 236 220 0
36.300000 31.020000 24.640000 204 236 220 0
36.520000 31.020000 24.860000 204 236 220 0
36.740000 31.020000 24.860000 204 236 220 0
36.960000 31.020000 25.960000 204 236 220 0
37.180000 31.020000 27.060000 203 235 219 0
0.000000 31.240000 22.660000 150 133 121 0
0.220000 31.240000 22.660000 148 133 121 0
0.440000 31.240000 22.660000 149 134 122 0
0.660000 31.240000 22.660000 150 133 120 0
0.880000 31.240000 21.340000 151 134 121 0
1.100000 31.240000 21.340000 152 135 122 0
1.320000 31.240000 21.340000 150 133 120 0
1.540000 31.240000 21.340000 148 134 120 0
1.760000 31.240000 21.340000 149 135 121 0
1.980000 31.240000 21.340000 148 133 121 0
2.200000 31.240000 21.560000 149 134 122 0
2.420000 31.240000 20.020000 149 134 122 0
2.640000 31.240000 21.560000 149 134 122 0
2.860000 31.240000 21.560000 151 134 121 0
3.080000 31.240000 21.780000 152 135 122 0
3.300000 31.240000 20.460000 151 136 124 0
3.520000 31.240000 20.460000 150 135 123 0
3.740000 31.240000 20.460000 151 138 124 0
3.960000 31.240000 21.780000 150 137 123 0
4.180000 31.240000 21.780000 151 138 125 0
4.400000 31.240000 21.780000 150 137 124 0
4.620000 31.240000 21.780000 152 137 125 0
4.840000 31.240000 21.780000 152 137 125 0
5.060000 31.240000 21.780000 152 139 126 0
5.280000 31.240000 21.780000 152 139 126 0
5.500000 31.240000 21.780000 152 139 125 0
5.720000 31.240000 23.100000 153 140 126 0
5.940000 31.240000 23.100000 153 140 127 0
6.160000 31.240000 23.100000 152 139 126 0
6.380000 31.240000 23.320000 153 140 127 0
6.600000 31.240000 24.420000 154 141 128 0
6.820000 31.240000 25.300000 153 143 129 0
7.040000 31.240000 26.400000 153 143 129 0
7.260000 31.240000 25.080000 154 144 129 0
7.480000 31.240000 25.080000 155 145 130 0
7.700000 31.240000 25.080000 157 144 130 0
7.920000 31.240000 25.080000 159 146 132 0
8.140000 31.240000 25.080000 158 148 134 0
8.360000 31.240000 26.620000 159 149 135 0
8.580000 31.240000 26.620000 159 152 139 0
8.800000 31.240000 26.620000 162 155 142 0
9.020000 31.240000 27.940000 161 157 143 0
9.240000 31.240000 27.940000 165 161 147 0
9.460000 31.240000 27.940000 164 163 154 0
9.680000 31.240000 26.620000 170 169 160 0
9.900000 31.240000 25.080000 170 176 171 0
10.120000 31.240000 25.300000 180 186 181 0
10.340000 31.240000 23.980000 183 197 195 0
10.560000 31.240000 23.980000 190 204 202 0
10.780000 31.240000 23.980000 194 214 208 0
11.000000 31.240000 25.520000 201 221 215 0
11.220000 31.240000 25.520000 203 229 221 0
11.440000 31.240000 27.060000 208 234 226 0
11.660000 31.240000 27.060000 209 238 229 0
11.880000 31.240000 28.600000 210 239 230 0
12.100000 31.240000 30.140000 209 240 230 0
12.320000 31.240000 30.140000 208 239 229 0
12.540000 31.240000 30.140000 207 238 225 0
12.760000 31.240000 30.140000 206 237 224 0
12.980000 31.240000 31.680000 204 231 221 0
13.200000 31.240000 31.680000 201 228 218 0
13.420000 31.240000 33.000000 201 224 211 0
13.640000 31.240000 33.000000 200 223 210 0
13.860000 31.240000 34.540000 199 222 209 0
14.080000 31.240000 35.640000 197 220 207 0
14.300000 31.240000 37.620000 197 218 208 0
14.520000 31.240000 40.260000 198 219 209 0
14.740000 31.240000 40.260000 196 219 206 0
14.960000 31.240000 40.480000 197 220 207 0
15.180000 31.240000 30.800000 196 219 206 0
15.400000 31.240000 10.120000 195 218 205 0
15.620000 31.240000 0.660000 195 218 205 0
15.840000 31.240000 0.660000 195 218 205 0
16.060000 31.240000 0.660000 195 216 204 0
16.280000 31.240000 0.660000 195 216 204 0
16.500000 31.240000 0.660000 194 217 204 0
16.720000 31.240000 0.880000 195 218 205 0
16.940000 31.240000 0.880000 194 217 204 0
17.160000 31.240000 2.420000 193 216 203 0
17.380000 31.240000 2.420000 193 216 203 0
17.600000 31.240000 2.420000 193 216 203 0
17.820000 31.240000 3.740000 194 217 204 0
18.040000 31.240000 3.960000 193 216 203 0
18.260000 31.240000 3.960000 193 216 203 0
18.480000 31.240000 3.960000 194 217 204 0
18.700000 31.240000 3.960000 192 218 204 0
18.920000 31.240000 3.960000 192 218 204 0
19.140000 31.240000 4.180000 195 218 203 0
19.360000 31.240000 5.280000 196 219 204 0
19.580000 31.240000 7.260000 196 219 204 0
19.800000 31.240000 7.040000 196 219 204 0
20.020000 31.240000 8.360000 194 220 206 0
20.240000 31.240000 8.580000 194 220 206 0
20.460000 31.240000 8.580000 194 220 204 0
20.680000 31.240000 8.580000 196 222 206 0
20.900000 31.240000 8.580000 196 222 206 0
21.120000 31.240000 8.800000 198 224 208 0
21.340000 31.240000 8.800000 196 222 208 0
21.560000 31.240000 8.800000 198 224 210 0
21.780000 31.240000 8.800000 198 224 210 0
22.000000 31.240000 8.800000 198 224 210 0
22.220000 31.240000 9.020000 198 224 210 0
22.440000 31.240000 9.020000 198 224 210 0
22.660000 31.240000 9.020000 199 225 209 0
22.880000 31.240000 9.020000 199 225 209 0
23.100000 31.240000 10.560000 198 225 211 0
23.320000 31.240000 10.560000 198 225 211 0
23.540000 31.240000 10.780000 198 225 211 0
23.760000 31.240000 10.780000 198 225 211 0
23.980000 31.240000 10.780000 199 226 212 0
24.200000 31.240000 10.780000 200 227 213 0
24.420000 31.240000 11.000000 199 226 212 0
24.640000 31.240000 11.000000 200 227 213 0
24.860000 31.240000 11.000000 200 227 213 0
25.080000 31.240000 11.000000 200 227 213 0
25.300000 31.240000 11.880000 200 228 211 0
25.520000 31.240000 14.080000 200 228 211 0
25.740000 31.240000 15.400000 200 227 213 0
25.960000 31.240000 15.400000 200 227 213 0
26.180000 31.240000 15.400000 200 227 213 0
26.400000 31.240000 15.400000 200 227 213 0
26.620000 31.240000 15.620000 198 228 211 0
26.840000 31.240000 15.620000 199 229 212 0
27.060000 31.240000 15.620000 199 229 212 0
27.280000 31.240000 15.620000 200 230 213 0
27.500000 31.240000 15.840000 200 230 215 0
27.720000 31.240000 15.840000 200 230 215 0
27.940000 31.240000 15.840000 200 230 215 0
28.160000 31.240000 15.840000 200 230 215 0
28.380000 31.240000 15.840000 201 231 216 0
28.600000 31.240000 16.060000 201 231 216 0
28.820000 31.240000 16.060000 202 232 215 0
29.040000 31.240000 16.060000 202 232 215 0
29.260000 31.240000 16.280000 201 231 216 0
29.480000 31.240000 16.280000 202 232 217 0
29.700000 31.240000 16.280000 202 232 217 0
29.920000 31.240000 17.820000 203 233 218 0
30.140000 31.240000 17.820000 203 233 218 0
30.360000 31.240000 17.820000 203 233 218 0
30.580000 31.240000 17.820000 202 232 215 0
30.800000 31.240000 17.820000 203 233 216 0
31.020000 31.240000 18.920000 203 233 218 0
31.240000 31.240000 19.800000 203 233 218 0
31.460000 31.240000 20.900000 202 234 218 0
31.680000 31.240000 22.220000 202 234 218 0
31.900000 31.240000 22.220000 202 234 218 0
32.120000 31.240000 22.440000 201 233 217 0
32.340000 31.240000 22.440000 202 234 216 0
32.560000 31.240000 22.440000 202 234 216 0
32.780000 31.240000 22.440000 202 234 218 0
33.000000 31.240000 22.660000 203 235 219 0
33.220000 31.240000 22.660000 204 236 220 0
33.440000 31.240000 22.660000 205 237 221 0
33.660000 31.240000 22.660000 205 237 221 0
33.880000 31.240000 22.880000 204 236 220 0
34.100000 31.240000 22.880000 204 236 220 0
34.320000 31.240000 24.200000 204 236 220 0
34.540000 31.240000 24.420000 204 236 220 0
34.760000 31.240000 24.420000 204 236 220 0
34.980000 31.240000 24.420000 203 235 219 0
35.200000 31.240000 23.100000 204 236 220 0
35.420000 31.240000 23.100000 204 236 220 0
35.640000 31.240000 23.100000 203 235 219 0
35.860000 31.240000 23.320000 204 236 220 0
36.080000 31.240000 24.640000 204 236 220 0
36.300000 31.240000 24.640000 204 236 220 0
36.520000 31.240000 24.860000 204 236 220 0
36.740000 31.240000 24.860000 204 236 220 0
36.960000 31.240000 25.960000 203 235 219 0
37.180000 31.240000 27.060000 204 236 220 0
0.000000 31.460000 22.660000 150 133 121 0
0.220000 31.460000 22.660000 147 132 120 0
0.440000 31.460000 22.660000 147 132 120 0
0.660000 31.460000 21.340000 149 132 119 0
0.880000 31.460000 21.340000 149 132 119 0
1.100000 31.460000 21.340000 150 133 120 0
1.320000 31.460000 22.660000 150 133 120 0
1.540000 31.460000 21.340000 149 135 121 0
1.760000 31.460000 21.340000 150 136 122 0
1.980000 31.460000 21.340000 148 133 121 0
2.200000 31.460000 21.560000 149 134 122 0
2.420000 31.460000 21.560000 150 135 123 0
2.640000 31.460000 21.560000 150 135 123 0
2.860000 31.460000 21.560000 151 134 121 0
3.080000 31.460000 21.780000 152 135 122 0
3.300000 31.460000 21.780000 151 136 124 0
3.520000 31.460000 20.460000 150 135 123 0
3.740000 31.460000 21.780000 149 136 122 0
3.960000 31.460000 21.780000 150 137 123 0
4.180000 31.460000 21.780000 152 139 126 0
4.400000 31.460000 21.780000 151 138 125 0
4.620000 31.460000 21.780000 152 137 125 0
4.840000 31.460000 21.780000 153 138 126 0
5.060000 31.460000 21.780000 152 139 126 0
5.280000 31.460000 23.100000 152 139 126 0
5.500000 31.460000 23.100000 152 139 125 0
5.720000 31.460000 23.100000 152 139 125 0
5.940000 31.460000 23.100000 154 141 128 0
6.160000 31.460000 23.100000 154 141 128 0
6.380000 31.460000 23.320000 154 141 128 0
6.600000 31.460000 24.420000 153 140 127 0
6.820000 31.460000 25.300000 153 143 129 0
7.040000 31.460000 26.400000 153 143 129 0
7.260000 31.460000 25.080000 154 144 129 0
7.480000 31.460000 25.080000 155 145 130 0
7.700000 31.460000 25.080000 157 144 130 0
7.920000 31.460000 25.080000 159 146 132 0
8.140000 31.460000 25.080000 159 149 135 0
8.360000 31.460000 25.080000 160 150 136 0
8.580000 31.460000 26.620000 160 153 140 0
8.800000 31.460000 26.620000 163 156 143 0
9.020000 31.460000 27.940000 162 158 144 0
9.240000 31.460000 27.940000 165 161 147 0
9.460000 31.460000 27.940000 167 166 157 0
9.680000 31.460000 26.620000 171 170 161 0
9.900000 31.460000 25.080000 171 177 172 0
10.120000 31.460000 23.760000 182 188 183 0
10.340000 31.460000 23.980000 182 196 194 0
10.560000 31.460000 22.660000 190 204 202 0
10.780000 31.460000 23.980000 193 213 207 0
11.000000 31.460000 25.520000 201 221 215 0
11.220000 31.460000 25.520000 203 229 221 0
11.440000 31.460000 25.740000 208 234 226 0
11.660000 31.460000 27.060000 209 238 229 0
11.880000 31.460000 28.600000 210 239 230 0
12.100000 31.460000 28.600000 209 240 230 0
12.320000 31.460000 30.140000 209 240 230 0
12.540000 31.460000 30.140000 208 239 226 0
12.760000 31.460000 30.140000 205 236 223 0
12.980000 31.460000 31.680000 205 232 222 0
13.200000 31.460000 31.680000 203 230 220 0
13.420000 31.460000 33.000000 202 225 212 0
13.640000 31.460000 33.000000 200 223 210 0
13.860000 31.460000 34.540000 199 222 209 0
14.080000 31.460000 35.640000 198 221 208 0
14.300000 31.460000 37.620000 198 219 209 0
14.520000 31.460000 40.260000 198 219 209 0
14.740000 31.460000 40.260000 197 220 207 0
14.960000 31.460000 40.480000 197 220 207 0
15.180000 31.460000 33.660000 196 219 206 0
15.400000 31.460000 15.620000 195 218 205 0
15.620000 31.460000 1.980000 195 218 205 0
15.840000 31.460000 0.660000 195 218 205 0
16.060000 31.460000 0.660000 195 216 204 0
16.280000 31.460000 0.660000 195 216 204 0
16.500000 31.460000 0.660000 193 216 203 0
16.720000 31.460000 0.880000 193 216 203 0
16.940000 31.460000 0.880000 193 216 203 0
17.160000 31.460000 2.420000 191 214 201 0
17.380000 31.460000 2.420000 191 214 201 0
17.600000 31.460000 3.740000 190 213 200 0
17.820000 31.460000 3.960000 192 215 202 0
18.040000 31.460000 3.960000 192 215 202 0
18.260000 31.460000 3.960000 191 214 201 0
18.480000 31.460000 3.960000 192 215 202 0
18.700000 31.460000 3.960000 190 216 202 0
18.920000 31.460000 3.960000 190 216 202 0
19.140000 31.460000 4.180000 192 215 200 0
19.360000 31.460000 5.280000 193 216 201 0
19.580000 31.460000 7.260000 194 217 202 0
19.800000 31.460000 7.040000 194 217 202 0
20.020000 31.460000 8.360000 194 220 206 0
20.240000 31.460000 8.580000 193 219 205 0
20.460000 31.460000 8.580000 195 221 205 0
20.680000 31.460000 8.580000 195 221 205 0
20.900000 31.460000 8.580000 196 222 206 0
21.120000 31.460000 8.800000 196 222 206 0
21.340000 31.460000 8.800000 197 223 209 0
21.560000 31.460000 8.800000 196 222 208 0
21.780000 31.460000 8.800000 197 223 209 0
22.000000 31.460000 8.800000 197 223 209 0
22.220000 31.460000 9.020000 197 223 209 0
22.440000 31.460000 9.020000 198 224 210 0
22.660000 31.460000 9.020000 198 224 208 0
22.880000 31.460000 9.020000 198 224 208 0
23.100000 31.460000 10.560000 198 225 211 0
23.320000 31.460000 10.560000 198 225 211 0
23.540000 31.460000 10.780000 198 225 211 0
23.760000 31.460000 10.780000 198 225 211 0
23.980000 31.460000 10.780000 198 225 211 0
24.200000 31.460000 10.780000 199 226 212 0
24.420000 31.460000 11.000000 199 226 212 0
24.640000 31.460000 11.000000 200 227 213 0
24.860000 31.460000 11.000000 200 227 213 0
25.080000 31.460000 11.000000 200 227 213 0
25.300000 31.460000 11.880000 200 228 211 0
25.520000 31.460000 14.080000 200 228 211 0
25.740000 31.460000 15.400000 200 227 213 0
25.960000 31.460000 15.400000 200 227 213 0
26.180000 31.460000 15.400000 199 226 212 0
26.400000 31.460000 15.400000 200 227 213 0
26.620000 31.460000 15.620000 199 229 212 0
26.840000 31.460000 15.620000 199 229 212 0
27.060000 31.460000 15.620000 199 229 212 0
27.280000 31.460000 15.620000 199 229 212 0
27.500000 31.460000 15.840000 199 229 214 0
27.720000 31.460000 15.840000 200 230 215 0
27.940000 31.460000 15.840000 200 230 215 0
28.160000 31.460000 15.840000 200 230 215 0
28.380000 31.460000 15.840000 201 231 216 0
28.600000 31.460000 16.060000 201 231 216 0
28.820000 31.460000 16.060000 201 231 214 0
29.040000 31.460000 16.060000 201 231 214 0
29.260000 31.460000 16.280000 201 231 216 0
29.480000 31.460000 16.280000 202 232 217 0
29.700000 31.460000 16.280000 202 232 217 0
29.920000 31.460000 16.280000 202 232 217 0
30.140000 31.460000 16.500000 202 232 217 0
30.360000 31.460000 17.820000 202 232 217 0
30.580000 31.460000 17.820000 202 232 215 0
30.800000 31.460000 17.820000 203 233 216 0
31.020000 31.460000 18.920000 202 232 217 0
31.240000 31.460000 19.800000 203 233 218 0
31.460000 31.460000 20.900000 202 234 218 0
31.680000 31.460000 22.220000 202 234 218 0
31.900000 31.460000 22.220000 202 234 218 0
32.120000 31.460000 22.440000 202 234 218 0
32.340000 31.460000 22.440000 202 234 216 0
32.560000 31.460000 22.440000 202 234 216 0
32.780000 31.460000 22.440000 202 234 218 0
33.000000 31.460000 22.660000 203 235 219 0
33.220000 31.460000 22.660000 203 235 219 0
33.440000 31.460000 22.660000 204 236 220 0
33.660000 31.460000 22.660000 205 237 221 0
33.880000 31.460000 22.880000 205 237 221 0
34.100000 31.460000 22.880000 204 236 220 0
34.320000 31.460000 24.200000 204 236 220 0
34.540000 31.460000 24.420000 204 236 220 0
34.760000 31.460000 24.420000 204 236 220 0
34.980000 31.460000 24.420000 203 235 219 0
35.200000 31.460000 23.100000 203 235 219 0
35.420000 31.460000 23.100000 204 236 220 0
35.640000 31.460000 23.100000 205 237 221 0
35.860000 31.460000 23.320000 205 237 221 0
36.080000 31.460000 23.320000 204 236 220 0
36.300000 31.460000 24.640000 204 236 220 0
36.520000 31.460000 24.860000 205 237 221 0
36.740000 31.460000 24.860000 204 236 220 0
36.960000 31.460000 25.960000 204 236 220 0
37.180000 31.460000 27.060000 204 236 220 0
0.000000 31.680000 22.660000 147 130 118 0
0.220000 31.680000 22.660000 148 131 118 0
0.440000 31.680000 22.660000 147 130 117 0
0.660000 31.680000 21.340000 148 131 119 0
0.880000 31.680000 21.340000 148 131 119 0
1.100000 31.680000 21.340000 146 132 118 0
1.320000 31.680000 21.340000 146 132 118 0
1.540000 31.680000 21.340000 147 132 120 0
1.760000 31.680000 21.340000 147 132 120 0
1.980000 31.680000 21.340000 147 133 119 0
2.200000 31.680000 21.340000 147 133 119 0
2.420000 31.680000 21.560000 147 133 119 0
2.640000 31.680000 21.560000 148 134 120 0
2.860000 31.680000 21.560000 148 134 120 0
3.080000 31.680000 21.780000 149 135 121 0
3.300000 31.680000 21.780000 149 134 122 0
3.520000 31.680000 21.780000 149 134 122 0
3.740000 31.680000 21.780000 148 134 120 0
3.960000 31.680000 21.780000 150 136 122 0
4.180000 31.680000 21.780000 150 137 123 0
4.400000 31.680000 21.780000 151 138 124 0
4.620000 31.680000 21.780000 150 137 123 0
4.840000 31.680000 21.780000 152 139 125 0
5.060000 31.680000 21.780000 152 139 126 0
5.280000 31.680000 23.100000 152 139 126 0
5.500000 31.680000 23.100000 153 139 125 0
5.720000 31.680000 23.100000 154 140 126 0
5.940000 31.680000 24.420000 151 141 126 0
6.160000 31.680000 24.420000 152 142 127 0
6.380000 31.680000 24.640000 153 140 126 0
6.600000 31.680000 24.420000 153 140 126 0
6.820000 31.680000 26.620000 155 142 129 0
7.040000 31.680000 26.400000 156 143 130 0
7.260000 31.680000 26.400000 158 144 130 0
7.480000 31.680000 25.080000 159 145 131 0
7.700000 31.680000 25.080000 156 146 131 0
7.920000 31.680000 25.080000 157 147 132 0
8.140000 31.680000 25.080000 158 150 135 0
8.360000 31.680000 25.080000 160 152 137 0
8.580000 31.680000 26.620000 161 154 141 0
8.800000 31.680000 27.940000 163 156 143 0
9.020000 31.680000 27.940000 162 159 147 0
9.240000 31.680000 27.940000 163 160 148 0
9.460000 31.680000 27.940000 167 166 159 0
9.680000 31.680000 26.620000 172 171 164 0
9.900000 31.680000 25.080000 171 177 174 0
10.120000 31.680000 23.760000 182 188 185 0
10.340000 31.680000 23.980000 182 196 194 0
10.560000 31.680000 22.440000 190 204 202 0
10.780000 31.680000 22.660000 192 212 206 0
11.000000 31.680000 23.980000 201 221 215 0
11.220000 31.680000 25.520000 201 230 221 0
11.440000 31.680000 25.520000 206 235 226 0
11.660000 31.680000 27.060000 209 238 229 0
11.880000 31.680000 28.600000 209 238 229 0
12.100000 31.680000 28.600000 210 239 229 0
12.320000 31.680000 28.600000 209 238 228 0
12.540000 31.680000 30.140000 208 238 225 0
12.760000 31.680000 30.140000 207 237 224 0
12.980000 31.680000 31.680000 207 234 224 0
13.200000 31.680000 31.680000 203 230 220 0
13.420000 31.680000 33.000000 203 226 213 0
13.640000 31.680000 34.540000 201 224 211 0
13.860000 31.680000 34.540000 199 222 209 0
14.080000 31.680000 36.960000 198 221 208 0
14.300000 31.680000 39.160000 198 219 209 0
14.520000 31.680000 40.260000 198 219 209 0
14.740000 31.680000 40.260000 197 220 207 0
14.960000 31.680000 40.480000 197 220 207 0
15.180000 31.680000 39.160000 197 220 207 0
15.400000 31.680000 25.520000 196 219 206 0
15.620000 31.680000 7.480000 195 218 205 0
15.840000 31.680000 0.660000 194 217 204 0
16.060000 31.680000 0.660000 194 216 201 0
16.280000 31.680000 0.660000 193 215 200 0
16.500000 31.680000 0.880000 192 214 199 0
16.720000 31.680000 0.880000 191 213 198 0
16.940000 31.680000 0.880000 189 212 199 0
17.160000 31.680000 2.420000 191 214 201 0
17.380000 31.680000 2.420000 188 210 195 0
17.600000 31.680000 3.740000 189 211 196 0
17.820000 31.680000 3.960000 189 211 196 0
18.040000 31.680000 3.960000 190 212 197 0
18.260000 31.680000 3.960000 191 213 198 0
18.480000 31.680000 3.960000 190 212 197 0
18.700000 31.680000 3.960000 190 211 199 0
18.920000 31.680000 4.180000 191 212 200 0
19.140000 31.680000 3.960000 189 212 199 0
19.360000 31.680000 5.060000 192 215 202 0
19.580000 31.680000 7.260000 193 216 201 0
19.800000 31.680000 8.360000 192 215 200 0
20.020000 31.680000 8.360000 192 215 200 0
20.240000 31.680000 8.580000 194 217 202 0
20.460000 31.680000 8.580000 194 217 202 0
20.680000 31.680000 8.580000 196 219 204 0
20.900000 31.680000 8.800000 196 219 204 0
21.120000 31.680000 8.800000 197 220 205 0
21.340000 31.680000 8.800000 196 222 206 0
21.560000 31.680000 8.800000 196 222 206 0
21.780000 31.680000 8.800000 196 222 206 0
22.000000 31.680000 9.020000 196 222 206 0
22.220000 31.680000 9.020000 196 222 206 0
22.440000 31.680000 9.020000 197 223 207 0
22.660000 31.680000 9.020000 198 224 208 0
22.880000 31.680000 9.020000 198 224 208 0
23.100000 31.680000 10.560000 196 224 207 0
23.320000 31.680000 10.560000 197 225 208 0
23.540000 31.680000 10.780000 198 224 208 0
23.760000 31.680000 10.780000 199 225 209 0
23.980000 31.680000 10.780000 199 225 209 0
24.200000 31.680000 10.780000 199 225 209 0
24.420000 31.680000 11.000000 198 226 209 0
24.640000 31.680000 11.000000 199 227 210 0
24.860000 31.680000 11.000000 198 226 209 0
25.080000 31.680000 12.100000 198 226 209 0
25.300000 31.680000 12.980000 198 226 209 0
25.520000 31.680000 13.860000 200 228 211 0
25.740000 31.680000 15.400000 199 226 212 0
25.960000 31.680000 15.400000 200 227 213 0
26.180000 31.680000 15.400000 200 227 213 0
26.400000 31.680000 15.400000 200 227 213 0
26.620000 31.680000 15.620000 198 228 211 0
26.840000 31.680000 15.620000 199 229 212 0
27.060000 31.680000 15.620000 200 228 211 0
27.280000 31.680000 15.620000 201 229 212 0
27.500000 31.680000 15.840000 199 229 212 0
27.720000 31.680000 15.840000 199 229 212 0
27.940000 31.680000 15.840000 200 230 213 0
28.160000 31.680000 15.840000 200 230 213 0
28.380000 31.680000 15.840000 200 230 213 0
28.600000 31.680000 16.060000 200 230 213 0
28.820000 31.680000 16.060000 201 231 216 0
29.040000 31.680000 16.060000 200 230 215 0
29.260000 31.680000 16.280000 200 230 213 0
29.480000 31.680000 16.280000 201 231 214 0
29.700000 31.680000 16.280000 201 231 216 0
29.920000 31.680000 16.280000 201 231 216 0
30.140000 31.680000 16.500000 202 232 215 0
30.360000 31.680000 17.820000 201 231 214 0
30.580000 31.680000 17.820000 202 232 215 0
30.800000 31.680000 17.820000 202 232 215 0
31.020000 31.680000 18.920000 201 231 214 0
31.240000 31.680000 19.800000 203 233 216 0
31.460000 31.680000 20.900000 202 234 218 0
31.680000 31.680000 22.220000 201 233 217 0
31.900000 31.680000 22.220000 201 233 215 0
32.120000 31.680000 22.440000 202 234 216 0
32.340000 31.680000 22.440000 202 234 216 0
32.560000 31.680000 22.440000 201 233 215 0
32.780000 31.680000 22.440000 202 234 216 0
33.000000 31.680000 22.660000 202 234 216 0
33.220000 31.680000 22.660000 203 235 219 0
33.440000 31.680000 22.660000 203 235 219 0
33.660000 31.680000 22.660000 203 235 217 0
33.880000 31.680000 22.880000 203 235 217 0
34.100000 31.680000 22.880000 203 235 219 0
34.320000 31.680000 24.200000 203 235 219 0
34.540000 31.680000 24.420000 203 235 217 0
34.760000 31.680000 24.420000 204 236 218 0
34.980000 31.680000 24.420000 203 235 219 0
35.200000 31.680000 23.100000 203 235 219 0
35.420000 31.680000 23.100000 204 236 218 0
35.640000 31.680000 23.100000 204 236 218 0
35.860000 31.680000 23.320000 204 236 220 0
36.080000 31.680000 23.320000 204 236 220 0
36.300000 31.680000 24.640000 204 236 220 0
36.520000 31.680000 24.860000 205 237 221 0
36.740000 31.680000 24.860000 205 237 221 0
36.960000 31.680000 25.960000 204 236 220 0
37.180000 31.680000 27.060000 204 236 220 0
0.000000 31.900000 22.660000 145 128 116 0
0.220000 31.900000 21.340000 146 129 116 0
0.440000 31.900000 21.340000 146 129 116 0
0.660000 31.900000 21.340000 148 131 119 0
0.880000 31.900000 21.340000 147 130 118 0
1.100000 31.900000 21.340000 145 131 117 0
1.320000 31.900000 21.340000 145 131 117 0
1.540000 31.900000 21.340000 145 130 118 0
1.760000 31.900000 21.340000 146 131 119 0
1.980000 31.900000 22.880000 147 133 119 0
2.200000 31.900000 21.340000 147 133 119 0
2.420000 31.900000 21.340000 147 133 119 0
2.640000 31.900000 21.560000 147 133 119 0
2.860000 31.900000 21.560000 147 133 119 0
3.080000 31.900000 21.780000 148 134 120 0
3.300000 31.900000 21.780000 149 134 122 0
3.520000 31.900000 21.780000 149 134 122 0
3.740000 31.900000 21.780000 149 135 121 0
3.960000 31.900000 21.780000 150 136 122 0
4.180000 31.900000 21.780000 149 136 122 0
4.400000 31.900000 21.780000 150 137 123 0
4.620000 31.900000 21.780000 150 137 123 0
4.840000 31.900000 21.780000 151 138 124 0
5.060000 31.900000 23.100000 152 139 126 0
5.280000 31.900000 23.100000 152 139 126 0
5.500000 31.900000 23.100000 153 139 125 0
5.720000 31.900000 24.420000 153 139 125 0
5.940000 31.900000 24.420000 152 142 127 0
6.160000 31.900000 24.420000 151 141 126 0
6.380000 31.900000 24.640000 154 141 127 0
6.600000 31.900000 25.740000 154 141 127 0
6.820000 31.900000 26.620000 155 142 129 0
7.040000 31.900000 26.400000 156 143 130 0
7.260000 31.900000 26.400000 157 143 129 0
7.480000 31.900000 25.080000 158 144 130 0
7.700000 31.900000 25.080000 156 146 131 0
7.920000 31.900000 25.080000 158 148 133 0
8.140000 31.900000 25.080000 158 150 135 0
8.360000 31.900000 25.080000 160 152 137 0
8.580000 31.900000 26.620000 161 154 141 0
8.800000 31.900000 27.940000 162 155 142 0
9.020000 31.900000 27.940000 162 159 147 0
9.240000 31.900000 27.940000 166 163 151 0
9.460000 31.900000 27.940000 166 165 158 0
9.680000 31.900000 26.620000 171 170 163 0
9.900000 31.900000 25.080000 173 179 176 0
10.120000 31.900000 23.760000 180 186 183 0
10.340000 31.900000 22.440000 182 196 194 0
10.560000 31.900000 22.440000 190 204 202 0
10.780000 31.900000 22.660000 193 213 207 0
11.000000 31.900000 22.660000 201 221 215 0
11.220000 31.900000 24.200000 201 230 221 0
11.440000 31.900000 24.200000 207 236 227 0
11.660000 31.900000 25.740000 210 239 230 0
11.880000 31.900000 27.060000 210 239 230 0
12.100000 31.900000 28.600000 210 239 229 0
12.320000 31.900000 28.600000 209 238 228 0
12.540000 31.900000 30.140000 208 238 225 0
12.760000 31.900000 30.140000 206 236 223 0
12.980000 31.900000 30.140000 207 234 224 0
13.200000 31.900000 31.680000 202 229 219 0
13.420000 31.900000 33.000000 203 226 213 0
13.640000 31.900000 34.540000 200 223 210 0
13.860000 31.900000 34.540000 199 222 209 0
14.080000 31.900000 36.960000 198 221 208 0
14.300000 31.900000 39.160000 199 220 210 0
14.520000 31.900000 40.260000 199 220 210 0
14.740000 31.900000 40.260000 197 220 207 0
14.960000 31.900000 40.480000 197 220 207 0
15.180000 31.900000 40.480000 196 219 206 0
15.400000 31.900000 31.020000 196 219 206 0
15.620000 31.900000 10.340000 195 218 205 0
