ply
format ascii 1.0
element vertex 1099
property float x
property float y
property float z
property uchar red
property uchar green
property uchar blue
property uchar alpha
end_header
20.240000 14.300000 40.920000 188 208 192 0
20.460000 14.300000 39.600000 191 213 198 0
20.680000 14.300000 38.280000 192 214 199 0
20.900000 14.300000 31.460000 193 216 203 0
21.120000 14.300000 13.420000 194 217 204 0
21.340000 14.300000 1.100000 193 219 203 0
22.000000 14.300000 1.100000 198 221 206 0
22.220000 14.300000 1.100000 197 223 207 0
22.440000 14.300000 1.320000 198 224 208 0
22.660000 14.300000 2.640000 198 224 208 0
22.880000 14.300000 2.640000 199 225 209 0
23.100000 14.300000 3.740000 199 227 210 0
23.320000 14.300000 5.940000 199 227 210 0
23.540000 14.300000 7.040000 201 227 211 0
23.760000 14.300000 7.040000 202 228 212 0
23.980000 14.300000 7.040000 201 229 212 0
24.200000 14.300000 7.040000 202 230 213 0
24.420000 14.300000 7.260000 202 230 213 0
24.640000 14.300000 8.580000 201 229 212 0
24.860000 14.300000 8.580000 202 230 213 0
25.080000 14.300000 8.800000 202 230 213 0
25.300000 14.300000 8.800000 203 231 214 0
25.520000 14.300000 8.800000 203 231 214 0
25.740000 14.300000 8.800000 203 233 216 0
25.960000 14.300000 9.020000 204 234 217 0
26.180000 14.300000 9.020000 202 232 215 0
26.400000 14.300000 9.020000 203 233 216 0
26.620000 14.300000 9.020000 203 233 216 0
26.840000 14.300000 9.240000 203 233 216 0
27.060000 14.300000 9.240000 203 233 216 0
27.280000 14.300000 10.780000 203 233 216 0
27.500000 14.300000 10.780000 203 233 216 0
27.720000 14.300000 10.780000 203 233 216 0
27.940000 14.300000 10.780000 203 233 216 0
28.160000 14.300000 10.780000 203 233 216 0
28.380000 14.300000 11.000000 203 233 216 0
28.600000 14.300000 11.000000 204 234 217 0
28.820000 14.300000 12.100000 204 234 217 0
29.040000 14.300000 12.980000 204 234 217 0
29.260000 14.300000 13.860000 204 234 217 0
29.480000 14.300000 15.400000 204 234 217 0
29.700000 14.300000 15.400000 203 233 216 0
29.920000 14.300000 15.400000 204 234 217 0
30.140000 14.300000 15.400000 203 233 216 0
30.360000 14.300000 15.620000 204 234 217 0
30.580000 14.300000 15.620000 205 235 218 0
30.800000 14.300000 15.620000 206 236 219 0
31.020000 14.300000 15.620000 205 237 219 0
31.240000 14.300000 15.840000 205 237 219 0
31.460000 14.300000 17.160000 206 236 221 0
31.680000 14.300000 17.160000 207 237 222 0
31.900000 14.300000 17.160000 206 236 219 0
32.120000 14.300000 17.380000 206 236 219 0
32.340000 14.300000 17.380000 205 235 218 0
32.560000 14.300000 17.380000 205 235 218 0
32.780000 14.300000 17.600000 204 236 218 0
33.000000 14.300000 17.600000 203 235 217 0
33.220000 14.300000 17.600000 205 235 218 0
33.440000 14.300000 17.600000 205 235 218 0
33.660000 14.300000 17.820000 205 235 218 0
33.880000 14.300000 17.820000 204 234 217 0
34.100000 14.300000 17.820000 205 235 218 0
34.320000 14.300000 17.820000 205 235 218 0
34.540000 14.300000 17.820000 205 235 218 0
34.760000 14.300000 18.920000 206 236 219 0
34.980000 14.300000 19.800000 206 236 219 0
35.200000 14.300000 20.900000 206 236 219 0
35.420000 14.300000 20.900000 206 236 219 0
35.640000 14.300000 20.900000 206 236 219 0
35.860000 14.300000 20.900000 206 236 219 0
36.080000 14.300000 22.220000 205 235 218 0
36.300000 14.300000 22.440000 206 236 221 0
36.520000 14.300000 22.440000 205 235 220 0
36.740000 14.300000 22.660000 204 234 217 0
36.960000 14.300000 22.660000 203 233 216 0
37.180000 14.300000 22.660000 203 233 216 0
0.000000 14.520000 19.800000 135 118 106 0
0.220000 14.520000 18.480000 133 118 106 0
0.440000 14.520000 17.160000 134 119 107 0
0.660000 14.520000 17.160000 134 119 107 0
0.880000 14.520000 17.160000 135 120 108 0
1.100000 14.520000 17.160000 137 120 108 0
1.320000 14.520000 18.480000 137 120 108 0
1.540000 14.520000 20.020000 136 119 107 0
1.760000 14.520000 21.340000 136 119 107 0
1.980000 14.520000 21.340000 134 120 106 0
2.200000 14.520000 21.340000 134 120 106 0
2.420000 14.520000 21.340000 135 121 107 0
2.640000 14.520000 22.660000 136 122 108 0
2.860000 14.520000 22.880000 136 122 108 0
3.080000 14.520000 21.780000 136 122 108 0
3.300000 14.520000 21.780000 136 122 108 0
3.520000 14.520000 21.780000 136 122 108 0
3.740000 14.520000 21.780000 136 122 108 0
3.960000 14.520000 23.100000 137 123 109 0
4.180000 14.520000 23.100000 138 124 110 0
4.400000 14.520000 21.780000 138 124 110 0
4.620000 14.520000 21.780000 138 124 110 0
4.840000 14.520000 23.100000 138 124 110 0
5.060000 14.520000 23.100000 139 125 111 0
5.280000 14.520000 24.640000 139 125 111 0
5.500000 14.520000 24.640000 138 124 110 0
5.720000 14.520000 24.640000 141 127 113 0
5.940000 14.520000 25.960000 141 128 114 0
6.160000 14.520000 25.960000 141 128 114 0
6.380000 14.520000 25.960000 142 129 115 0
6.600000 14.520000 26.180000 143 130 116 0
6.820000 14.520000 24.860000 145 131 117 0
7.040000 14.520000 24.420000 146 132 118 0
7.260000 14.520000 25.300000 147 134 120 0
7.480000 14.520000 26.400000 149 136 122 0
7.700000 14.520000 25.080000 148 138 123 0
7.920000 14.520000 25.080000 149 139 124 0
8.140000 14.520000 25.080000 153 143 129 0
8.360000 14.520000 26.400000 154 144 130 0
8.580000 14.520000 27.940000 154 148 131 0
8.800000 14.520000 27.940000 159 153 136 0
9.020000 14.520000 29.260000 161 154 141 0
9.240000 14.520000 29.260000 163 156 143 0
9.460000 14.520000 29.260000 163 160 148 0
9.680000 14.520000 29.260000 166 163 151 0
9.900000 14.520000 27.940000 169 170 160 0
10.120000 14.520000 25.080000 174 175 165 0
10.340000 14.520000 23.980000 177 187 183 0
10.560000 14.520000 22.660000 186 196 192 0
10.780000 14.520000 22.660000 190 206 201 0
11.000000 14.520000 22.880000 197 213 208 0
11.220000 14.520000 24.200000 198 224 216 0
11.440000 14.520000 25.740000 205 231 223 0
11.660000 14.520000 25.740000 208 237 230 0
11.880000 14.520000 28.600000 210 239 232 0
12.100000 14.520000 29.920000 215 241 237 0
12.320000 14.520000 31.460000 215 241 237 0
12.540000 14.520000 31.460000 211 241 234 0
12.760000 14.520000 31.460000 210 240 233 0
12.980000 14.520000 31.460000 210 239 230 0
13.200000 14.520000 31.680000 208 237 228 0
13.420000 14.520000 33.000000 206 235 225 0
13.640000 14.520000 34.320000 201 230 220 0
13.860000 14.520000 35.860000 201 228 218 0
14.080000 14.520000 35.860000 201 228 218 0
14.300000 14.520000 36.960000 202 227 216 0
14.520000 14.520000 39.160000 201 226 215 0
14.740000 14.520000 40.260000 200 225 216 0
14.960000 14.520000 40.260000 198 223 214 0
15.180000 14.520000 40.260000 195 222 210 0
15.400000 14.520000 30.800000 194 221 209 0
15.620000 14.520000 10.120000 192 217 206 0
15.840000 14.520000 0.440000 189 214 203 0
16.060000 14.520000 0.660000 188 210 195 0
16.280000 14.520000 0.660000 183 205 190 0
16.500000 14.520000 1.980000 178 201 180 0
16.720000 14.520000 4.840000 172 195 174 0
16.940000 14.520000 2.200000 170 187 164 0
17.160000 14.520000 0.880000 166 183 160 0
17.380000 14.520000 0.880000 166 178 153 0
18.480000 14.520000 0.440000 169 182 159 0
18.700000 14.520000 0.220000 170 184 162 0
18.920000 14.520000 0.440000 174 188 166 0
19.800000 14.520000 10.340000 181 201 185 0
20.020000 14.520000 31.240000 186 206 190 0
20.240000 14.520000 40.920000 189 209 193 0
20.460000 14.520000 39.600000 190 212 197 0
20.680000 14.520000 38.280000 193 215 200 0
20.900000 14.520000 28.600000 193 216 203 0
21.120000 14.520000 7.920000 194 217 204 0
22.000000 14.520000 1.100000 200 223 208 0
22.220000 14.520000 1.100000 198 224 208 0
22.440000 14.520000 1.320000 198 224 208 0
22.660000 14.520000 1.320000 199 225 209 0
22.880000 14.520000 2.640000 200 226 210 0
23.100000 14.520000 3.740000 199 227 210 0
23.320000 14.520000 5.940000 200 228 211 0
23.540000 14.520000 7.040000 202 228 212 0
23.760000 14.520000 7.040000 202 228 212 0
23.980000 14.520000 7.040000 203 231 214 0
24.200000 14.520000 7.040000 202 230 213 0
24.420000 14.520000 7.260000 203 231 214 0
24.640000 14.520000 8.580000 202 230 213 0
24.860000 14.520000 8.580000 203 231 214 0
25.080000 14.520000 8.800000 203 231 214 0
25.300000 14.520000 8.800000 204 232 215 0
25.520000 14.520000 8.800000 205 233 216 0
25.740000 14.520000 8.800000 204 234 217 0
25.960000 14.520000 9.020000 204 234 217 0
26.180000 14.520000 9.020000 204 234 217 0
26.400000 14.520000 9.020000 204 234 217 0
26.620000 14.520000 9.020000 204 234 217 0
26.840000 14.520000 9.240000 204 234 217 0
27.060000 14.520000 9.240000 204 234 217 0
27.280000 14.520000 10.780000 203 233 216 0
27.500000 14.520000 10.780000 204 234 217 0
27.720000 14.520000 10.780000 203 233 216 0
27.940000 14.520000 10.780000 204 234 217 0
28.160000 14.520000 10.780000 204 234 217 0
28.380000 14.520000 11.000000 204 234 217 0
28.600000 14.520000 11.000000 205 235 218 0
28.820000 14.520000 11.000000 205 235 218 0
29.040000 14.520000 13.200000 205 235 218 0
29.260000 14.520000 14.080000 205 235 218 0
29.480000 14.520000 15.400000 204 234 217 0
29.700000 14.520000 15.400000 205 235 218 0
29.920000 14.520000 15.400000 205 235 218 0
30.140000 14.520000 15.400000 205 235 218 0
30.360000 14.520000 15.620000 204 234 217 0
30.580000 14.520000 15.620000 205 235 218 0
30.800000 14.520000 15.620000 206 236 219 0
31.020000 14.520000 15.620000 206 238 220 0
31.240000 14.520000 15.840000 205 237 219 0
31.460000 14.520000 17.160000 207 237 222 0
31.680000 14.520000 17.160000 207 237 222 0
31.900000 14.520000 17.160000 207 237 220 0
32.120000 14.520000 17.380000 206 236 219 0
32.340000 14.520000 17.380000 206 236 219 0
32.560000 14.520000 17.380000 206 236 219 0
32.780000 14.520000 17.600000 205 237 219 0
33.000000 14.520000 17.600000 205 237 219 0
33.220000 14.520000 17.600000 206 236 219 0
33.440000 14.520000 17.600000 207 237 220 0
33.660000 14.520000 17.820000 206 236 219 0
33.880000 14.520000 17.820000 206 236 219 0
34.100000 14.520000 17.820000 206 236 219 0
34.320000 14.520000 17.820000 207 237 220 0
34.540000 14.520000 17.820000 206 236 219 0
34.760000 14.520000 18.920000 206 236 219 0
34.980000 14.520000 19.800000 207 237 220 0
35.200000 14.520000 20.900000 207 237 220 0
35.420000 14.520000 20.900000 207 237 220 0
35.640000 14.520000 20.900000 206 236 219 0
35.860000 14.520000 20.900000 207 237 220 0
36.080000 14.520000 22.220000 207 237 220 0
36.300000 14.520000 22.440000 206 236 221 0
36.520000 14.520000 22.440000 205 235 220 0
36.740000 14.520000 22.660000 205 235 218 0
36.960000 14.520000 22.660000 205 235 218 0
37.180000 14.520000 22.660000 205 235 218 0
0.000000 14.740000 19.800000 134 119 107 0
0.220000 14.740000 18.480000 135 120 108 0
0.440000 14.740000 17.160000 134 119 107 0
0.660000 14.740000 17.160000 136 119 107 0
0.880000 14.740000 17.160000 136 119 107 0
1.100000 14.740000 17.160000 136 119 106 0
1.320000 14.740000 18.480000 137 120 107 0
1.540000 14.740000 20.020000 134 119 107 0
1.760000 14.740000 21.340000 134 119 107 0
1.980000 14.740000 21.340000 134 119 107 0
2.200000 14.740000 21.340000 135 120 108 0
2.420000 14.740000 21.340000 138 121 109 0
2.640000 14.740000 21.340000 137 120 108 0
2.860000 14.740000 21.560000 138 121 108 0
3.080000 14.740000 21.780000 138 121 108 0
3.300000 14.740000 21.780000 136 122 108 0
3.520000 14.740000 22.000000 136 122 108 0
3.740000 14.740000 21.780000 138 123 111 0
3.960000 14.740000 23.100000 137 122 110 0
4.180000 14.740000 23.100000 138 123 111 0
4.400000 14.740000 21.780000 138 123 111 0
4.620000 14.740000 21.780000 138 124 110 0
4.840000 14.740000 23.100000 138 124 110 0
5.060000 14.740000 23.100000 139 125 111 0
5.280000 14.740000 24.640000 140 126 112 0
5.500000 14.740000 24.640000 139 125 111 0
5.720000 14.740000 24.640000 139 125 111 0
5.940000 14.740000 25.960000 141 127 113 0
6.160000 14.740000 25.960000 142 128 114 0
6.380000 14.740000 25.960000 143 129 115 0
6.600000 14.740000 26.180000 144 130 116 0
6.820000 14.740000 24.860000 145 131 115 0
7.040000 14.740000 24.420000 147 133 117 0
7.260000 14.740000 25.300000 147 134 120 0
7.480000 14.740000 26.400000 149 136 122 0
7.700000 14.740000 25.080000 150 137 123 0
7.920000 14.740000 25.080000 151 138 124 0
8.140000 14.740000 25.080000 154 144 129 0
8.360000 14.740000 26.400000 155 145 130 0
8.580000 14.740000 27.940000 156 148 132 0
8.800000 14.740000 27.940000 160 152 136 0
9.020000 14.740000 29.260000 159 152 139 0
9.240000 14.740000 29.260000 163 156 143 0
9.460000 14.740000 29.260000 161 160 150 0
9.680000 14.740000 29.260000 164 163 153 0
9.900000 14.740000 27.940000 167 167 162 0
10.120000 14.740000 25.080000 176 176 171 0
10.340000 14.740000 23.980000 177 185 182 0
10.560000 14.740000 22.660000 186 194 191 0
10.780000 14.740000 22.660000 191 205 201 0
11.000000 14.740000 22.880000 197 211 207 0
11.220000 14.740000 24.200000 198 223 214 0
11.440000 14.740000 24.420000 206 231 222 0
11.660000 14.740000 25.740000 208 237 230 0
11.880000 14.740000 28.600000 211 240 233 0
12.100000 14.740000 29.920000 214 240 234 0
12.320000 14.740000 31.460000 214 240 234 0
12.540000 14.740000 31.460000 211 241 234 0
12.760000 14.740000 31.460000 210 240 233 0
12.980000 14.740000 31.460000 210 239 230 0
13.200000 14.740000 31.680000 208 237 228 0
13.420000 14.740000 33.000000 207 236 226 0
13.640000 14.740000 34.320000 203 232 222 0
13.860000 14.740000 35.860000 201 228 218 0
14.080000 14.740000 35.860000 201 228 218 0
14.300000 14.740000 36.960000 201 226 217 0
14.520000 14.740000 39.160000 201 226 217 0
14.740000 14.740000 40.260000 199 224 215 0
14.960000 14.740000 40.260000 198 223 214 0
15.180000 14.740000 40.260000 196 223 213 0
15.400000 14.740000 30.800000 195 222 212 0
15.620000 14.740000 10.120000 192 219 207 0
15.840000 14.740000 0.440000 187 214 202 0
16.060000 14.740000 0.440000 186 209 194 0
16.280000 14.740000 0.660000 182 205 190 0
16.500000 14.740000 7.480000 180 202 184 0
16.720000 14.740000 14.520000 174 196 178 0
16.940000 14.740000 7.700000 172 186 164 0
17.160000 14.740000 0.880000 168 182 160 0
17.380000 14.740000 0.880000 166 179 154 0
18.480000 14.740000 0.440000 169 182 157 0
18.700000 14.740000 0.220000 170 184 162 0
18.920000 14.740000 0.440000 173 187 165 0
19.800000 14.740000 10.340000 181 203 186 0
20.020000 14.740000 31.240000 185 207 192 0
20.240000 14.740000 40.920000 187 209 194 0
20.460000 14.740000 39.600000 190 211 199 0
20.680000 14.740000 39.600000 193 214 202 0
20.900000 14.740000 28.600000 194 217 202 0
21.120000 14.740000 9.240000 195 218 203 0
22.000000 14.740000 1.100000 197 223 207 0
22.220000 14.740000 1.100000 198 224 208 0
22.440000 14.740000 1.320000 198 224 208 0
22.660000 14.740000 1.320000 200 226 210 0
22.880000 14.740000 2.640000 200 226 210 0
23.100000 14.740000 3.740000 199 227 210 0
23.320000 14.740000 5.940000 200 228 211 0
23.540000 14.740000 7.040000 201 229 212 0
23.760000 14.740000 7.040000 202 230 213 0
23.980000 14.740000 7.040000 202 230 213 0
24.200000 14.740000 7.040000 203 231 214 0
24.420000 14.740000 7.260000 203 231 214 0
24.640000 14.740000 8.580000 203 231 214 0
24.860000 14.740000 8.580000 201 231 214 0
25.080000 14.740000 8.800000 202 232 215 0
25.300000 14.740000 8.800000 202 232 215 0
25.520000 14.740000 8.800000 203 233 216 0
25.740000 14.740000 8.800000 203 233 216 0
25.960000 14.740000 9.020000 204 234 217 0
26.180000 14.740000 9.020000 204 234 217 0
26.400000 14.740000 9.020000 205 235 218 0
26.620000 14.740000 9.020000 203 233 216 0
26.840000 14.740000 9.240000 204 234 217 0
27.060000 14.740000 9.240000 204 234 217 0
27.280000 14.740000 10.780000 204 234 217 0
27.500000 14.740000 10.780000 204 234 217 0
27.720000 14.740000 10.780000 204 234 217 0
27.940000 14.740000 10.780000 203 235 217 0
28.160000 14.740000 10.780000 204 236 218 0
28.380000 14.740000 11.000000 204 236 218 0
28.600000 14.740000 11.000000 205 237 219 0
28.820000 14.740000 11.000000 204 236 218 0
29.040000 14.740000 12.100000 204 236 218 0
29.260000 14.740000 14.300000 205 235 218 0
29.480000 14.740000 15.400000 205 235 218 0
29.700000 14.740000 15.400000 204 236 218 0
29.920000 14.740000 15.400000 204 236 218 0
30.140000 14.740000 15.400000 205 237 219 0
30.360000 14.740000 15.400000 204 236 218 0
30.580000 14.740000 15.620000 205 237 219 0
30.800000 14.740000 15.620000 205 237 219 0
31.020000 14.740000 15.620000 207 237 220 0
31.240000 14.740000 15.840000 207 237 220 0
31.460000 14.740000 17.160000 205 237 219 0
31.680000 14.740000 17.160000 206 238 220 0
31.900000 14.740000 17.160000 206 238 220 0
32.120000 14.740000 17.380000 206 238 220 0
32.340000 14.740000 17.380000 205 237 219 0
32.560000 14.740000 17.380000 205 237 219 0
32.780000 14.740000 17.600000 205 237 219 0
33.000000 14.740000 17.600000 206 238 220 0
33.220000 14.740000 17.600000 206 238 220 0
33.440000 14.740000 17.600000 205 237 219 0
33.660000 14.740000 17.820000 205 237 219 0
33.880000 14.740000 17.820000 206 238 220 0
34.100000 14.740000 17.820000 205 237 219 0
34.320000 14.740000 17.820000 206 238 220 0
34.540000 14.740000 17.820000 206 238 222 0
34.760000 14.740000 18.920000 206 238 222 0
34.980000 14.740000 19.800000 207 237 220 0
35.200000 14.740000 20.900000 207 237 220 0
35.420000 14.740000 20.900000 206 238 222 0
35.640000 14.740000 20.900000 206 238 222 0
35.860000 14.740000 20.900000 206 236 219 0
36.080000 14.740000 22.220000 206 236 219 0
36.300000 14.740000 22.440000 207 237 222 0
36.520000 14.740000 22.440000 206 236 221 0
36.740000 14.740000 22.660000 205 235 220 0
36.960000 14.740000 22.660000 205 235 220 0
37.180000 14.740000 22.660000 205 235 220 0
0.000000 14.960000 19.800000 135 120 108 0
0.220000 14.960000 19.800000 134 119 107 0
0.440000 14.960000 17.160000 134 119 107 0
0.660000 14.960000 17.160000 136 119 107 0
0.880000 14.960000 17.160000 136 119 107 0
1.100000 14.960000 18.480000 136 119 106 0
1.320000 14.960000 18.480000 137 120 107 0
1.540000 14.960000 20.020000 134 119 107 0
1.760000 14.960000 21.340000 134 119 107 0
1.980000 14.960000 21.340000 134 119 107 0
2.200000 14.960000 21.340000 135 120 108 0
2.420000 14.960000 21.340000 136 119 107 0
2.640000 14.960000 21.560000 137 120 108 0
2.860000 14.960000 21.780000 137 120 107 0
3.080000 14.960000 21.780000 138 121 108 0
3.300000 14.960000 21.780000 136 122 108 0
3.520000 14.960000 22.000000 136 122 108 0
3.740000 14.960000 21.780000 136 121 109 0
3.960000 14.960000 23.100000 136 121 109 0
4.180000 14.960000 23.100000 137 122 110 0
4.400000 14.960000 21.780000 137 122 110 0
4.620000 14.960000 21.780000 139 125 111 0
4.840000 14.960000 23.100000 138 124 110 0
5.060000 14.960000 23.100000 139 125 111 0
5.280000 14.960000 24.640000 139 125 111 0
5.500000 14.960000 24.640000 139 125 111 0
5.720000 14.960000 24.640000 140 126 112 0
5.940000 14.960000 25.960000 141 127 113 0
6.160000 14.960000 25.960000 142 128 114 0
6.380000 14.960000 25.960000 143 129 115 0
6.600000 14.960000 26.180000 145 131 117 0
6.820000 14.960000 24.860000 144 130 114 0
7.040000 14.960000 24.420000 146 132 116 0
7.260000 14.960000 25.300000 147 134 120 0
7.480000 14.960000 26.400000 149 136 122 0
7.700000 14.960000 25.080000 150 137 123 0
7.920000 14.960000 25.080000 153 140 126 0
8.140000 14.960000 25.080000 152 142 127 0
8.360000 14.960000 26.400000 155 145 130 0
8.580000 14.960000 27.940000 156 148 132 0
8.800000 14.960000 27.940000 158 150 134 0
9.020000 14.960000 29.260000 161 154 141 0
9.240000 14.960000 29.260000 162 155 142 0
9.460000 14.960000 29.260000 160 159 149 0
9.680000 14.960000 29.260000 164 163 153 0
9.900000 14.960000 27.940000 167 167 162 0
10.120000 14.960000 25.080000 174 174 169 0
10.340000 14.960000 23.980000 175 183 180 0
10.560000 14.960000 22.660000 185 193 190 0
10.780000 14.960000 21.340000 190 204 200 0
11.000000 14.960000 22.880000 196 210 206 0
11.220000 14.960000 24.200000 198 223 214 0
11.440000 14.960000 24.420000 205 230 221 0
11.660000 14.960000 25.740000 207 236 229 0
11.880000 14.960000 28.600000 211 240 233 0
12.100000 14.960000 29.920000 213 239 233 0
12.320000 14.960000 31.460000 214 240 234 0
12.540000 14.960000 31.460000 211 241 234 0
12.760000 14.960000 31.460000 210 240 233 0
12.980000 14.960000 31.460000 209 238 229 0
13.200000 14.960000 33.000000 207 236 227 0
13.420000 14.960000 33.000000 206 235 225 0
13.640000 14.960000 34.320000 203 232 222 0
13.860000 14.960000 35.860000 202 229 219 0
14.080000 14.960000 37.180000 201 228 218 0
14.300000 14.960000 36.960000 201 226 217 0
14.520000 14.960000 39.160000 201 226 217 0
14.740000 14.960000 40.260000 200 225 216 0
14.960000 14.960000 40.260000 198 223 214 0
15.180000 14.960000 40.260000 195 222 212 0
15.400000 14.960000 30.800000 194 221 211 0
15.620000 14.960000 10.120000 194 221 209 0
16.060000 14.960000 0.440000 187 210 195 0
16.280000 14.960000 0.660000 182 205 190 0
16.500000 14.960000 10.340000 178 200 182 0
16.720000 14.960000 20.020000 175 197 179 0
16.940000 14.960000 10.560000 173 187 165 0
17.160000 14.960000 0.880000 167 181 159 0
17.380000 14.960000 0.880000 166 179 154 0
18.480000 14.960000 0.440000 168 181 156 0
18.700000 14.960000 0.220000 171 185 163 0
18.920000 14.960000 0.440000 175 189 167 0
19.800000 14.960000 10.340000 181 203 186 0
20.020000 14.960000 31.240000 186 208 193 0
20.240000 14.960000 40.920000 188 210 195 0
20.460000 14.960000 39.600000 191 212 200 0
20.680000 14.960000 39.600000 193 214 202 0
20.900000 14.960000 29.920000 194 217 202 0
21.120000 14.960000 9.240000 194 217 202 0
22.000000 14.960000 1.100000 197 223 207 0
22.220000 14.960000 1.100000 198 224 208 0
22.440000 14.960000 1.320000 199 225 209 0
22.660000 14.960000 1.320000 199 225 209 0
22.880000 14.960000 2.640000 200 226 210 0
23.100000 14.960000 3.740000 200 228 211 0
23.320000 14.960000 5.940000 200 228 211 0
23.540000 14.960000 7.040000 201 229 212 0
23.760000 14.960000 7.040000 201 229 212 0
23.980000 14.960000 7.040000 202 230 213 0
24.200000 14.960000 7.040000 203 231 214 0
24.420000 14.960000 7.260000 203 231 214 0
24.640000 14.960000 8.580000 203 231 214 0
24.860000 14.960000 8.580000 202 232 215 0
25.080000 14.960000 8.800000 203 233 216 0
25.300000 14.960000 8.800000 203 233 216 0
25.520000 14.960000 8.800000 203 233 216 0
25.740000 14.960000 8.800000 203 233 216 0
25.960000 14.960000 9.020000 203 233 216 0
26.180000 14.960000 9.020000 203 233 216 0
26.400000 14.960000 9.020000 203 233 216 0
26.620000 14.960000 9.020000 204 234 217 0
26.840000 14.960000 9.240000 203 233 216 0
27.060000 14.960000 9.240000 204 234 217 0
27.280000 14.960000 10.780000 204 234 217 0
27.500000 14.960000 10.780000 204 234 217 0
27.720000 14.960000 10.780000 204 234 217 0
27.940000 14.960000 10.780000 203 235 217 0
28.160000 14.960000 10.780000 203 235 217 0
28.380000 14.960000 11.000000 204 236 218 0
28.600000 14.960000 11.000000 204 236 218 0
28.820000 14.960000 11.000000 205 237 219 0
29.040000 14.960000 12.100000 204 236 218 0
29.260000 14.960000 14.300000 205 235 218 0
29.480000 14.960000 15.400000 206 236 219 0
29.700000 14.960000 15.400000 205 237 219 0
29.920000 14.960000 15.400000 205 237 219 0
30.140000 14.960000 15.400000 205 237 219 0
30.360000 14.960000 15.400000 205 237 219 0
30.580000 14.960000 15.620000 205 237 219 0
30.800000 14.960000 15.620000 205 237 219 0
31.020000 14.960000 15.620000 206 236 219 0
31.240000 14.960000 15.620000 206 236 219 0
31.460000 14.960000 17.160000 205 237 219 0
31.680000 14.960000 17.160000 206 238 220 0
31.900000 14.960000 17.160000 205 237 219 0
32.120000 14.960000 17.380000 206 238 220 0
32.340000 14.960000 17.380000 205 237 219 0
32.560000 14.960000 17.380000 205 237 219 0
32.780000 14.960000 17.600000 206 238 220 0
33.000000 14.960000 17.600000 206 238 220 0
33.220000 14.960000 17.600000 206 238 220 0
33.440000 14.960000 17.600000 205 237 219 0
33.660000 14.960000 17.820000 206 238 220 0
33.880000 14.960000 17.820000 205 237 219 0
34.100000 14.960000 17.820000 206 238 220 0
34.320000 14.960000 17.820000 206 238 220 0
34.540000 14.960000 17.820000 206 238 222 0
34.760000 14.960000 18.920000 206 238 222 0
34.980000 14.960000 19.800000 207 237 220 0
35.200000 14.960000 20.900000 207 237 220 0
35.420000 14.960000 20.900000 206 238 222 0
35.640000 14.960000 20.900000 205 237 221 0
35.860000 14.960000 20.900000 206 236 219 0
36.080000 14.960000 22.220000 207 237 220 0
36.300000 14.960000 22.440000 206 236 221 0
36.520000 14.960000 22.440000 205 235 220 0
36.740000 14.960000 22.660000 205 235 220 0
36.960000 14.960000 22.660000 206 236 221 0
37.180000 14.960000 22.660000 204 234 219 0
0.000000 15.180000 19.800000 135 118 106 0
0.220000 15.180000 19.800000 137 120 108 0
0.440000 15.180000 17.160000 137 120 108 0
0.660000 15.180000 17.160000 137 120 108 0
0.880000 15.180000 17.160000 137 120 108 0
1.100000 15.180000 18.480000 136 119 107 0
1.320000 15.180000 18.480000 136 119 107 0
1.540000 15.180000 20.020000 134 119 107 0
1.760000 15.180000 21.340000 134 119 107 0
1.980000 15.180000 21.340000 135 120 108 0
2.200000 15.180000 21.340000 134 119 107 0
2.420000 15.180000 21.560000 135 120 108 0
2.640000 15.180000 21.780000 135 120 108 0
2.860000 15.180000 21.780000 135 121 107 0
3.080000 15.180000 21.780000 135 121 107 0
3.300000 15.180000 21.780000 136 122 108 0
3.520000 15.180000 22.000000 137 123 109 0
3.740000 15.180000 21.780000 136 121 109 0
3.960000 15.180000 21.780000 136 121 109 0
4.180000 15.180000 23.100000 137 122 110 0
4.400000 15.180000 21.780000 137 122 110 0
4.620000 15.180000 21.780000 139 125 111 0
4.840000 15.180000 23.320000 138 124 110 0
5.060000 15.180000 23.100000 139 125 111 0
5.280000 15.180000 24.640000 139 125 111 0
5.500000 15.180000 24.640000 139 124 112 0
5.720000 15.180000 24.640000 140 125 113 0
5.940000 15.180000 25.960000 142 128 114 0
6.160000 15.180000 25.960000 141 127 113 0
6.380000 15.180000 25.960000 143 129 115 0
6.600000 15.180000 26.180000 144 130 116 0
6.820000 15.180000 24.860000 146 132 118 0
7.040000 15.180000 24.420000 146 132 118 0
7.260000 15.180000 25.300000 147 133 119 0
7.480000 15.180000 26.400000 148 134 120 0
7.700000 15.180000 25.080000 151 138 124 0
7.920000 15.180000 25.080000 151 138 124 0
8.140000 15.180000 25.080000 153 143 128 0
8.360000 15.180000 26.400000 155 145 130 0
8.580000 15.180000 27.940000 153 147 130 0
8.800000 15.180000 27.940000 156 150 133 0
9.020000 15.180000 29.260000 157 153 139 0
9.240000 15.180000 29.260000 161 157 143 0
9.460000 15.180000 29.260000 160 160 145 0
9.680000 15.180000 29.260000 164 164 149 0
9.900000 15.180000 27.940000 168 170 160 0
10.120000 15.180000 25.080000 174 176 166 0
10.340000 15.180000 23.980000 175 184 178 0
10.560000 15.180000 22.660000 185 194 188 0
10.780000 15.180000 21.340000 192 203 200 0
11.000000 15.180000 22.880000 200 211 208 0
11.220000 15.180000 24.200000 197 222 213 0
11.440000 15.180000 24.420000 204 229 220 0
11.660000 15.180000 25.740000 209 235 229 0
11.880000 15.180000 28.600000 212 238 232 0
12.100000 15.180000 29.920000 213 239 235 0
12.320000 15.180000 31.460000 213 239 235 0
12.540000 15.180000 31.460000 211 240 233 0
12.760000 15.180000 31.460000 210 239 232 0
12.980000 15.180000 31.460000 209 238 229 0
13.200000 15.180000 33.000000 207 236 227 0
13.420000 15.180000 33.000000 206 235 225 0
13.640000 15.180000 34.320000 202 231 221 0
13.860000 15.180000 35.860000 202 229 217 0
14.080000 15.180000 37.180000 199 226 214 0
14.300000 15.180000 36.960000 200 225 214 0
14.520000 15.180000 39.160000 200 225 214 0
14.740000 15.180000 40.260000 199 224 213 0
14.960000 15.180000 40.260000 198 223 212 0
15.180000 15.180000 40.260000 196 223 211 0
15.400000 15.180000 30.800000 194 221 209 0
15.620000 15.180000 10.120000 193 220 208 0
16.060000 15.180000 0.440000 188 210 195 0
16.500000 15.180000 10.340000 179 201 183 0
16.720000 15.180000 20.020000 175 197 179 0
16.940000 15.180000 10.560000 174 189 165 0
17.160000 15.180000 0.880000 168 183 159 0
17.380000 15.180000 0.880000 167 178 156 0
18.480000 15.180000 0.440000 168 181 158 0
18.700000 15.180000 0.220000 170 185 161 0
18.920000 15.180000 0.440000 174 189 165 0
19.800000 15.180000 10.340000 182 204 187 0
20.020000 15.180000 31.240000 186 206 192 0
20.240000 15.180000 40.920000 188 208 194 0
20.460000 15.180000 39.600000 191 213 198 0
20.680000 15.180000 39.600000 193 215 200 0
20.900000 15.180000 29.920000 194 217 202 0
21.120000 15.180000 9.240000 194 217 202 0
22.000000 15.180000 1.100000 199 222 207 0
22.220000 15.180000 1.100000 198 224 208 0
22.440000 15.180000 1.320000 199 225 209 0
22.660000 15.180000 1.320000 199 225 209 0
22.880000 15.180000 2.640000 200 226 210 0
23.100000 15.180000 3.740000 201 227 211 0
23.320000 15.180000 5.940000 201 227 211 0
23.540000 15.180000 7.040000 202 228 212 0
23.760000 15.180000 7.040000 202 228 212 0
23.980000 15.180000 7.040000 201 229 212 0
24.200000 15.180000 7.040000 202 230 213 0
24.420000 15.180000 7.260000 203 231 214 0
24.640000 15.180000 8.580000 204 232 215 0
24.860000 15.180000 8.580000 203 231 214 0
25.080000 15.180000 8.800000 204 232 215 0
25.300000 15.180000 8.800000 203 233 216 0
25.520000 15.180000 8.800000 203 233 216 0
25.740000 15.180000 8.800000 205 233 216 0
25.960000 15.180000 9.020000 205 233 216 0
26.180000 15.180000 9.020000 203 233 216 0
26.400000 15.180000 9.020000 203 233 216 0
26.620000 15.180000 9.020000 204 234 217 0
26.840000 15.180000 9.240000 203 233 216 0
27.060000 15.180000 9.240000 203 233 216 0
27.280000 15.180000 10.780000 204 234 217 0
27.500000 15.180000 10.780000 204 234 217 0
27.720000 15.180000 10.780000 204 234 217 0
27.940000 15.180000 10.780000 204 234 217 0
28.160000 15.180000 10.780000 204 234 217 0
28.380000 15.180000 11.000000 205 235 218 0
28.600000 15.180000 11.000000 205 235 218 0
28.820000 15.180000 11.000000 206 236 219 0
29.040000 15.180000 12.100000 206 236 219 0
29.260000 15.180000 14.300000 205 235 218 0
29.480000 15.180000 15.400000 205 235 218 0
29.700000 15.180000 15.400000 205 235 218 0
29.920000 15.180000 15.400000 206 236 219 0
30.140000 15.180000 15.400000 206 236 219 0
30.360000 15.180000 15.400000 206 236 219 0
30.580000 15.180000 15.620000 206 236 219 0
30.800000 15.180000 15.620000 206 236 219 0
31.020000 15.180000 15.620000 207 237 220 0
31.240000 15.180000 15.620000 206 236 219 0
31.460000 15.180000 17.160000 206 236 219 0
31.680000 15.180000 17.160000 206 236 219 0
31.900000 15.180000 17.160000 206 238 220 0
32.120000 15.180000 17.380000 205 237 219 0
32.340000 15.180000 17.380000 206 236 219 0
32.560000 15.180000 17.380000 206 236 219 0
32.780000 15.180000 17.600000 207 237 220 0
33.000000 15.180000 17.600000 207 237 220 0
33.220000 15.180000 17.600000 207 237 220 0
33.440000 15.180000 17.600000 206 236 219 0
33.660000 15.180000 17.820000 206 238 220 0
33.880000 15.180000 17.820000 206 238 220 0
34.100000 15.180000 17.820000 207 237 220 0
34.320000 15.180000 17.820000 207 237 220 0
34.540000 15.180000 17.820000 207 237 220 0
34.760000 15.180000 18.920000 207 237 220 0
34.980000 15.180000 19.800000 206 236 219 0
35.200000 15.180000 20.900000 207 237 220 0
35.420000 15.180000 20.900000 207 237 220 0
35.640000 15.180000 20.900000 206 236 219 0
35.860000 15.180000 20.900000 207 237 220 0
36.080000 15.180000 22.220000 206 236 219 0
36.300000 15.180000 22.440000 205 235 218 0
36.520000 15.180000 22.440000 205 235 218 0
36.740000 15.180000 22.660000 206 236 219 0
36.960000 15.180000 22.660000 206 236 219 0
37.180000 15.180000 22.660000 205 235 218 0
0.000000 15.400000 19.800000 136 119 107 0
0.220000 15.400000 19.800000 137 120 108 0
0.440000 15.400000 17.160000 137 120 108 0
0.660000 15.400000 17.160000 137 120 108 0
0.880000 15.400000 17.160000 137 120 108 0
1.100000 15.400000 18.480000 136 119 107 0
1.320000 15.400000 18.480000 136 119 107 0
1.540000 15.400000 20.020000 134 119 107 0
1.760000 15.400000 21.340000 134 119 107 0
1.980000 15.400000 21.340000 135 120 108 0
2.200000 15.400000 21.340000 135 120 108 0
2.420000 15.400000 21.560000 134 119 107 0
2.640000 15.400000 20.460000 135 120 108 0
2.860000 15.400000 21.780000 136 122 108 0
3.080000 15.400000 21.780000 136 122 108 0
3.300000 15.400000 21.780000 136 122 108 0
3.520000 15.400000 22.000000 136 122 108 0
3.740000 15.400000 21.780000 137 122 110 0
3.960000 15.400000 21.780000 137 122 110 0
4.180000 15.400000 21.780000 136 121 109 0
4.400000 15.400000 22.000000 137 122 110 0
4.620000 15.400000 22.000000 139 125 111 0
4.840000 15.400000 23.320000 138 124 110 0
5.060000 15.400000 23.100000 139 125 111 0
5.280000 15.400000 24.640000 140 126 112 0
5.500000 15.400000 24.640000 140 125 113 0
5.720000 15.400000 24.640000 140 125 113 0
5.940000 15.400000 25.960000 141 127 113 0
6.160000 15.400000 25.960000 142 128 114 0
6.380000 15.400000 25.960000 143 129 115 0
6.600000 15.400000 26.180000 143 129 115 0
6.820000 15.400000 24.640000 146 132 118 0
7.040000 15.400000 24.420000 146 132 118 0
7.260000 15.400000 25.300000 146 132 118 0
7.480000 15.400000 26.400000 149 135 121 0
7.700000 15.400000 25.080000 150 137 123 0
7.920000 15.400000 25.080000 153 140 126 0
8.140000 15.400000 25.080000 153 143 128 0
8.360000 15.400000 26.400000 154 144 129 0
8.580000 15.400000 27.940000 154 148 131 0
8.800000 15.400000 27.940000 156 150 133 0
9.020000 15.400000 29.260000 156 152 138 0
9.240000 15.400000 29.260000 161 157 143 0
9.460000 15.400000 29.260000 160 160 145 0
9.680000 15.400000 29.260000 165 165 150 0
9.900000 15.400000 27.940000 167 169 159 0
10.120000 15.400000 25.080000 174 176 166 0
10.340000 15.400000 23.980000 175 184 178 0
10.560000 15.400000 22.660000 185 194 188 0
10.780000 15.400000 21.340000 191 202 199 0
11.000000 15.400000 22.880000 197 208 205 0
11.220000 15.400000 24.200000 198 223 214 0
11.440000 15.400000 24.420000 204 229 220 0
11.660000 15.400000 25.740000 209 235 229 0
11.880000 15.400000 28.600000 212 238 232 0
12.100000 15.400000 29.920000 213 239 235 0
12.320000 15.400000 31.460000 213 239 235 0
12.540000 15.400000 31.460000 211 240 233 0
12.760000 15.400000 31.460000 211 240 233 0
12.980000 15.400000 31.460000 209 238 229 0
13.200000 15.400000 33.000000 207 236 227 0
13.420000 15.400000 33.000000 206 235 225 0
13.640000 15.400000 34.320000 201 230 220 0
13.860000 15.400000 35.860000 201 228 216 0
14.080000 15.400000 37.180000 200 227 215 0
14.300000 15.400000 36.960000 199 224 213 0
14.520000 15.400000 39.160000 198 223 212 0
14.740000 15.400000 40.260000 198 223 212 0
14.960000 15.400000 40.260000 198 223 212 0
15.180000 15.400000 40.260000 196 223 211 0
15.400000 15.400000 30.800000 195 222 210 0
15.620000 15.400000 10.120000 194 221 209 0
16.060000 15.400000 0.440000 189 211 196 0
16.280000 15.400000 0.660000 183 205 190 0
16.500000 15.400000 10.340000 179 201 183 0
16.720000 15.400000 20.020000 173 195 177 0
16.940000 15.400000 10.560000 175 190 166 0
17.160000 15.400000 0.880000 168 183 159 0
17.380000 15.400000 0.880000 167 178 156 0
18.480000 15.400000 0.440000 169 182 159 0
18.700000 15.400000 0.220000 170 185 161 0
18.920000 15.400000 0.440000 173 188 164 0
19.800000 15.400000 7.480000 182 204 187 0
20.020000 15.400000 25.520000 185 205 191 0
20.240000 15.400000 38.060000 188 208 194 0
20.460000 15.400000 39.600000 191 213 198 0
20.680000 15.400000 39.600000 194 216 201 0
20.900000 15.400000 29.920000 194 217 202 0
21.120000 15.400000 9.240000 195 218 203 0
21.780000 15.400000 1.100000 198 221 206 0
22.000000 15.400000 1.100000 199 222 207 0
22.220000 15.400000 1.100000 198 224 208 0
22.440000 15.400000 1.320000 199 225 209 0
22.660000 15.400000 1.320000 199 225 209 0
22.880000 15.400000 2.640000 199 225 209 0
23.100000 15.400000 3.740000 200 226 210 0
23.320000 15.400000 5.940000 202 228 212 0
23.540000 15.400000 7.040000 202 228 212 0
23.760000 15.400000 7.040000 202 228 212 0
23.980000 15.400000 7.040000 201 229 212 0
24.200000 15.400000 7.040000 202 230 213 0
24.420000 15.400000 7.260000 202 230 213 0
24.640000 15.400000 7.260000 203 231 214 0
24.860000 15.400000 8.580000 204 232 215 0
25.080000 15.400000 8.800000 204 232 215 0
25.300000 15.400000 8.800000 202 232 215 0
25.520000 15.400000 8.800000 203 233 216 0
25.740000 15.400000 8.800000 204 232 215 0
25.960000 15.400000 9.020000 205 233 216 0
26.180000 15.400000 9.020000 202 232 215 0
26.400000 15.400000 9.020000 203 233 216 0
26.620000 15.400000 9.020000 203 233 216 0
26.840000 15.400000 9.240000 204 234 217 0
27.060000 15.400000 9.240000 203 233 216 0
27.280000 15.400000 10.780000 204 234 217 0
27.500000 15.400000 10.780000 203 233 216 0
27.720000 15.400000 10.780000 204 234 217 0
27.940000 15.400000 10.780000 204 234 217 0
28.160000 15.400000 10.780000 205 235 218 0
28.380000 15.400000 11.000000 205 235 218 0
28.600000 15.400000 11.000000 205 235 218 0
28.820000 15.400000 11.000000 206 236 219 0
29.040000 15.400000 12.100000 206 236 219 0
29.260000 15.400000 14.300000 207 237 220 0
29.480000 15.400000 15.400000 206 236 219 0
29.700000 15.400000 15.400000 206 236 219 0
29.920000 15.400000 15.400000 206 236 219 0
30.140000 15.400000 15.400000 206 236 219 0
30.360000 15.400000 15.400000 206 236 219 0
30.580000 15.400000 15.620000 207 237 220 0
30.800000 15.400000 15.620000 207 237 220 0
31.020000 15.400000 15.620000 206 236 219 0
31.240000 15.400000 15.620000 207 237 220 0
31.460000 15.400000 17.160000 207 237 220 0
31.680000 15.400000 17.160000 207 237 220 0
31.900000 15.400000 17.160000 206 238 220 0
32.120000 15.400000 17.380000 206 238 220 0
32.340000 15.400000 17.380000 207 237 220 0
32.560000 15.400000 17.380000 207 237 220 0
32.780000 15.400000 17.600000 207 237 220 0
33.000000 15.400000 17.600000 206 236 219 0
33.220000 15.400000 17.600000 207 237 220 0
33.440000 15.400000 17.600000 207 237 220 0
33.660000 15.400000 17.600000 206 238 220 0
33.880000 15.400000 17.820000 206 238 220 0
34.100000 15.400000 17.820000 207 237 220 0
34.320000 15.400000 17.820000 207 237 220 0
34.540000 15.400000 17.820000 207 237 220 0
34.760000 15.400000 18.920000 207 237 220 0
34.980000 15.400000 19.800000 206 236 219 0
35.200000 15.400000 20.900000 206 236 219 0
35.420000 15.400000 20.900000 207 237 220 0
35.640000 15.400000 20.900000 207 237 220 0
35.860000 15.400000 20.900000 206 236 219 0
36.080000 15.400000 22.220000 206 236 219 0
36.300000 15.400000 22.440000 205 235 218 0
36.520000 15.400000 22.440000 206 236 219 0
36.740000 15.400000 22.660000 206 236 219 0
36.960000 15.400000 22.660000 205 235 218 0
37.180000 15.400000 22.660000 205 235 218 0
0.000000 15.620000 19.800000 137 120 108 0
0.220000 15.620000 19.800000 135 118 106 0
0.440000 15.620000 17.160000 137 120 108 0
0.660000 15.620000 17.160000 135 120 108 0
0.880000 15.620000 17.160000 134 119 107 0
1.100000 15.620000 18.480000 136 119 107 0
1.320000 15.620000 18.480000 136 119 107 0
1.540000 15.620000 20.020000 135 121 107 0
1.760000 15.620000 21.340000 135 121 107 0
1.980000 15.620000 21.340000 137 120 108 0
2.200000 15.620000 21.340000 137 120 108 0
2.420000 15.620000 21.560000 134 120 106 0
2.640000 15.620000 21.780000 136 122 108 0
2.860000 15.620000 21.780000 135 121 107 0
3.080000 15.620000 21.780000 135 121 107 0
3.300000 15.620000 21.780000 136 122 108 0
3.520000 15.620000 21.780000 136 122 108 0
3.740000 15.620000 21.780000 138 124 110 0
3.960000 15.620000 21.780000 137 123 109 0
4.180000 15.620000 21.780000 137 123 109 0
4.400000 15.620000 22.000000 137 123 109 0
4.620000 15.620000 22.000000 137 123 109 0
4.840000 15.620000 23.320000 137 123 109 0
5.060000 15.620000 23.100000 139 125 111 0
5.280000 15.620000 24.420000 139 125 111 0
5.500000 15.620000 24.420000 140 126 112 0
5.720000 15.620000 24.420000 140 126 112 0
5.940000 15.620000 25.960000 141 127 113 0
6.160000 15.620000 25.960000 141 127 113 0
6.380000 15.620000 25.960000 143 129 115 0
6.600000 15.620000 26.180000 143 129 115 0
6.820000 15.620000 24.640000 144 130 116 0
7.040000 15.620000 25.520000 146 132 118 0
7.260000 15.620000 26.400000 149 135 121 0
7.480000 15.620000 25.080000 151 137 123 0
7.700000 15.620000 25.080000 151 138 124 0
7.920000 15.620000 25.080000 154 141 127 0
8.140000 15.620000 25.080000 153 145 129 0
8.360000 15.620000 26.400000 154 146 130 0
8.580000 15.620000 27.940000 157 149 134 0
8.800000 15.620000 27.940000 158 150 135 0
9.020000 15.620000 29.260000 160 153 140 0
9.240000 15.620000 29.260000 161 154 141 0
9.460000 15.620000 29.260000 163 160 146 0
9.680000 15.620000 29.260000 166 163 149 0
9.900000 15.620000 27.940000 168 170 160 0
10.120000 15.620000 25.300000 173 175 165 0
10.340000 15.620000 23.980000 175 184 178 0
10.560000 15.620000 22.660000 184 193 187 0
10.780000 15.620000 21.340000 187 203 198 0
11.000000 15.620000 22.880000 195 211 206 0
11.220000 15.620000 24.200000 198 223 215 0
11.440000 15.620000 25.740000 205 230 222 0
11.660000 15.620000 25.740000 209 235 229 0
11.880000 15.620000 28.600000 212 238 232 0
12.100000 15.620000 29.920000 213 239 233 0
12.320000 15.620000 31.460000 214 240 234 0
12.540000 15.620000 31.460000 212 241 234 0
12.760000 15.620000 31.460000 211 240 233 0
12.980000 15.620000 31.460000 210 239 230 0
13.200000 15.620000 33.000000 208 237 228 0
13.420000 15.620000 33.000000 205 235 222 0
13.640000 15.620000 34.320000 200 230 217 0
13.860000 15.620000 35.860000 202 227 216 0
14.080000 15.620000 37.180000 202 227 216 0
14.300000 15.620000 36.960000 200 225 214 0
14.520000 15.620000 39.160000 198 223 212 0
14.740000 15.620000 40.260000 198 223 212 0
14.960000 15.620000 40.260000 198 223 212 0
15.180000 15.620000 40.260000 197 223 209 0
15.400000 15.620000 30.800000 196 222 208 0
15.620000 15.620000 10.120000 195 220 209 0
15.840000 15.620000 0.440000 191 216 205 0
16.060000 15.620000 0.440000 189 211 196 0
16.280000 15.620000 0.660000 182 204 189 0
16.500000 15.620000 10.340000 177 198 180 0
16.720000 15.620000 20.020000 175 196 178 0
16.940000 15.620000 10.560000 177 190 167 0
17.160000 15.620000 0.880000 170 183 160 0
17.380000 15.620000 0.880000 166 178 153 0
18.480000 15.620000 0.440000 170 183 160 0
18.700000 15.620000 0.220000 170 185 161 0
18.920000 15.620000 0.440000 174 189 165 0
19.800000 15.620000 1.980000 182 202 186 0
20.020000 15.620000 14.520000 187 207 193 0
20.240000 15.620000 32.560000 189 209 195 0
20.460000 15.620000 39.600000 192 212 198 0
20.680000 15.620000 39.600000 194 214 200 0
20.900000 15.620000 29.920000 196 218 203 0
21.120000 15.620000 9.240000 197 219 204 0
21.780000 15.620000 1.100000 198 222 204 0
22.000000 15.620000 1.100000 200 224 206 0
22.220000 15.620000 1.100000 200 223 208 0
22.440000 15.620000 1.320000 201 224 209 0
22.660000 15.620000 1.320000 199 225 209 0
22.880000 15.620000 2.640000 200 226 210 0
23.100000 15.620000 3.740000 201 227 211 0
23.320000 15.620000 5.940000 202 228 212 0
23.540000 15.620000 7.040000 202 228 210 0
23.760000 15.620000 7.040000 202 228 210 0
23.980000 15.620000 7.040000 203 229 213 0
24.200000 15.620000 7.040000 203 229 213 0
24.420000 15.620000 7.260000 203 229 211 0
24.640000 15.620000 7.260000 204 230 212 0
24.860000 15.620000 8.580000 205 231 215 0
25.080000 15.620000 8.800000 205 231 215 0
25.300000 15.620000 8.800000 204 232 213 0
25.520000 15.620000 8.800000 205 233 214 0
25.740000 15.620000 8.800000 204 232 213 0
25.960000 15.620000 9.020000 205 233 214 0
26.180000 15.620000 9.020000 205 233 214 0
26.400000 15.620000 9.020000 206 234 215 0
26.620000 15.620000 9.020000 205 233 214 0
26.840000 15.620000 9.240000 205 233 214 0
27.060000 15.620000 9.240000 206 234 217 0
27.280000 15.620000 10.780000 205 233 216 0
27.500000 15.620000 10.780000 206 234 217 0
27.720000 15.620000 10.780000 207 235 218 0
27.940000 15.620000 10.780000 207 235 218 0
28.160000 15.620000 10.780000 207 235 218 0
28.380000 15.620000 11.000000 207 235 218 0
28.600000 15.620000 11.000000 207 235 218 0
28.820000 15.620000 11.000000 208 236 219 0
29.040000 15.620000 12.100000 208 236 219 0
29.260000 15.620000 14.300000 205 235 218 0
29.480000 15.620000 15.400000 206 236 219 0
29.700000 15.620000 15.400000 207 235 218 0
29.920000 15.620000 15.400000 207 235 218 0
30.140000 15.620000 15.400000 208 236 219 0
30.360000 15.620000 15.400000 208 236 219 0
30.580000 15.620000 15.620000 207 237 220 0
30.800000 15.620000 15.620000 206 236 219 0
31.020000 15.620000 15.620000 206 236 219 0
31.240000 15.620000 15.620000 206 236 219 0
31.460000 15.620000 17.160000 208 236 219 0
31.680000 15.620000 17.160000 209 237 220 0
31.900000 15.620000 17.160000 209 237 220 0
32.120000 15.620000 17.380000 209 237 220 0
32.340000 15.620000 17.380000 209 237 220 0
32.560000 15.620000 17.380000 209 237 220 0
32.780000 15.620000 17.600000 207 237 220 0
33.000000 15.620000 17.600000 206 236 219 0
33.220000 15.620000 17.600000 208 236 219 0
33.440000 15.620000 17.600000 209 237 220 0
33.660000 15.620000 17.600000 209 237 220 0
33.880000 15.620000 17.820000 208 236 219 0
34.100000 15.620000 17.820000 207 237 220 0
34.320000 15.620000 17.820000 207 237 220 0
34.540000 15.620000 17.820000 207 237 220 0
34.760000 15.620000 18.920000 207 237 220 0
34.980000 15.620000 19.800000 206 236 219 0
35.200000 15.620000 20.900000 207 237 220 0
35.420000 15.620000 20.900000 209 237 220 0
35.640000 15.620000 20.900000 208 236 219 0
35.860000 15.620000 20.900000 208 236 219 0
36.080000 15.620000 22.220000 208 236 219 0
36.300000 15.620000 22.440000 206 236 219 0
36.520000 15.620000 22.440000 205 235 218 0
36.740000 15.620000 22.660000 208 236 219 0
36.960000 15.620000 22.660000 208 236 219 0
37.180000 15.620000 22.660000 208 236 219 0
0.000000 15.840000 19.800000 137 120 108 0
0.220000 15.840000 19.800000 136 119 107 0
0.440000 15.840000 17.160000 136 119 107 0
0.660000 15.840000 17.160000 134 119 107 0
0.880000 15.840000 17.160000 135 120 108 0
1.100000 15.840000 17.160000 135 118 106 0
1.320000 15.840000 18.480000 137 120 108 0
1.540000 15.840000 20.020000 135 121 107 0
1.760000 15.840000 21.340000 136 122 108 0
1.980000 15.840000 21.340000 138 121 109 0
2.200000 15.840000 21.340000 136 119 107 0
2.420000 15.840000 21.340000 136 122 108 0
2.640000 15.840000 21.560000 136 122 108 0
2.860000 15.840000 21.780000 136 122 108 0
3.080000 15.840000 21.780000 136 122 108 0
3.300000 15.840000 21.780000 136 122 108 0
3.520000 15.840000 21.780000 136 122 108 0
3.740000 15.840000 21.780000 137 123 109 0
3.960000 15.840000 21.780000 137 123 109 0
4.180000 15.840000 21.780000 137 123 109 0
4.400000 15.840000 22.000000 137 123 109 0
4.620000 15.840000 22.000000 138 124 110 0
4.840000 15.840000 23.320000 138 124 110 0
5.060000 15.840000 23.320000 138 124 110 0
5.280000 15.840000 24.420000 139 125 111 0
5.500000 15.840000 24.420000 140 126 112 0
5.720000 15.840000 24.420000 141 127 113 0
5.940000 15.840000 25.960000 141 127 113 0
6.160000 15.840000 25.960000 141 127 113 0
6.380000 15.840000 25.960000 144 130 116 0
6.600000 15.840000 26.180000 143 129 115 0
6.820000 15.840000 25.960000 144 130 116 0
7.040000 15.840000 25.300000 146 132 118 0
7.260000 15.840000 26.400000 150 136 122 0
7.480000 15.840000 25.080000 151 137 123 0
7.700000 15.840000 25.080000 152 139 125 0
7.920000 15.840000 25.080000 153 140 126 0
8.140000 15.840000 25.080000 152 144 128 0
8.360000 15.840000 26.400000 155 147 131 0
8.580000 15.840000 27.940000 155 147 132 0
8.800000 15.840000 27.940000 158 150 135 0
9.020000 15.840000 29.260000 160 153 140 0
9.240000 15.840000 29.260000 163 156 143 0
9.460000 15.840000 29.260000 163 160 146 0
9.680000 15.840000 29.260000 166 163 149 0
9.900000 15.840000 27.940000 168 170 160 0
10.120000 15.840000 25.300000 174 176 166 0
10.340000 15.840000 23.980000 174 183 177 0
10.560000 15.840000 22.660000 184 193 187 0
10.780000 15.840000 21.340000 187 203 198 0
11.000000 15.840000 22.880000 195 211 206 0
11.220000 15.840000 24.200000 195 220 212 0
11.440000 15.840000 25.740000 203 228 220 0
11.660000 15.840000 27.060000 209 235 229 0
11.880000 15.840000 28.600000 212 238 232 0
12.100000 15.840000 29.920000 214 240 234 0
12.320000 15.840000 31.460000 214 240 234 0
12.540000 15.840000 31.460000 212 241 234 0
12.760000 15.840000 31.460000 211 240 233 0
12.980000 15.840000 31.460000 210 239 230 0
13.200000 15.840000 33.000000 208 237 228 0
13.420000 15.840000 33.000000 204 234 221 0
13.640000 15.840000 34.320000 201 231 218 0
13.860000 15.840000 35.860000 202 227 216 0
14.080000 15.840000 37.180000 201 226 215 0
