ply
format ascii 1.0
element vertex 1175
property float x
property float y
property float z
property uchar red
property uchar green
property uchar blue
property uchar alpha
end_header
32.780000 4.180000 7.480000 140 77 65 0
33.000000 4.180000 7.480000 140 77 65 0
33.220000 4.180000 7.480000 140 77 67 0
33.440000 4.180000 7.480000 141 78 68 0
33.660000 4.180000 7.480000 142 79 69 0
33.880000 4.180000 6.820000 141 78 68 0
34.100000 4.180000 6.820000 142 79 69 0
34.320000 4.180000 7.590000 142 79 69 0
34.540000 4.180000 7.590000 143 80 70 0
34.760000 4.180000 8.250000 142 79 69 0
34.980000 4.180000 8.800000 144 81 71 0
35.200000 4.180000 9.240000 143 80 70 0
35.420000 4.180000 9.790000 144 81 71 0
35.640000 4.180000 9.790000 145 82 72 0
35.860000 4.180000 9.900000 145 82 72 0
36.080000 4.180000 9.350000 145 82 72 0
36.300000 4.180000 7.370000 144 83 73 0
36.520000 4.180000 5.280000 143 82 72 0
36.740000 4.180000 4.620000 143 82 72 0
36.960000 4.180000 5.940000 143 82 72 0
37.180000 4.180000 5.940000 144 83 75 0
0.000000 4.400000 9.680000 204 236 220 0
0.220000 4.400000 10.340000 204 236 220 0
0.440000 4.400000 11.550000 204 236 220 0
0.660000 4.400000 12.650000 203 235 219 0
0.880000 4.400000 13.200000 203 235 219 0
1.100000 4.400000 13.860000 204 236 220 0
1.320000 4.400000 13.860000 204 236 220 0
1.540000 4.400000 13.970000 203 235 219 0
1.760000 4.400000 13.970000 203 235 219 0
1.980000 4.400000 14.630000 204 236 220 0
2.200000 4.400000 14.740000 204 236 220 0
2.420000 4.400000 14.740000 203 235 219 0
2.640000 4.400000 14.740000 203 235 219 0
2.860000 4.400000 14.740000 202 234 218 0
3.080000 4.400000 14.850000 203 235 219 0
3.300000 4.400000 15.510000 203 235 219 0
3.520000 4.400000 15.510000 203 235 219 0
3.740000 4.400000 15.620000 202 234 218 0
3.960000 4.400000 15.620000 202 234 218 0
4.180000 4.400000 15.620000 202 232 219 0
4.400000 4.400000 16.390000 201 231 218 0
4.620000 4.400000 15.730000 200 230 215 0
4.840000 4.400000 16.390000 200 230 215 0
5.060000 4.400000 16.390000 199 229 214 0
5.280000 4.400000 16.500000 199 229 214 0
5.500000 4.400000 17.160000 198 228 215 0
5.720000 4.400000 17.930000 196 226 213 0
5.940000 4.400000 17.270000 197 224 212 0
6.160000 4.400000 12.210000 194 221 209 0
6.380000 4.400000 4.290000 194 217 206 0
6.600000 4.400000 0.660000 190 213 202 0
6.820000 4.400000 6.270000 183 206 193 0
7.040000 4.400000 15.950000 178 201 188 0
7.260000 4.400000 20.790000 178 195 174 0
7.480000 4.400000 15.290000 167 184 163 0
7.700000 4.400000 6.380000 170 175 150 0
7.920000 4.400000 2.970000 157 162 137 0
8.140000 4.400000 3.630000 155 153 127 0
8.360000 4.400000 4.400000 150 148 122 0
8.580000 4.400000 5.060000 147 142 118 0
8.800000 4.400000 5.720000 143 138 114 0
9.020000 4.400000 5.720000 142 133 111 0
9.240000 4.400000 5.720000 140 131 109 0
9.460000 4.400000 5.720000 139 128 105 0
9.680000 4.400000 5.060000 137 126 103 0
9.900000 4.400000 5.060000 137 124 102 0
10.120000 4.400000 5.060000 135 122 100 0
10.340000 4.400000 5.830000 135 119 98 0
10.560000 4.400000 5.830000 133 117 96 0
10.780000 4.400000 5.830000 133 117 96 0
11.000000 4.400000 5.830000 132 116 95 0
11.220000 4.400000 5.830000 133 116 95 0
11.440000 4.400000 6.490000 131 114 93 0
11.660000 4.400000 6.490000 130 113 92 0
11.880000 4.400000 6.490000 130 113 92 0
12.100000 4.400000 6.490000 130 113 92 0
12.320000 4.400000 6.490000 128 111 90 0
12.540000 4.400000 6.490000 127 109 90 0
12.760000 4.400000 5.830000 126 108 89 0
12.980000 4.400000 5.830000 126 109 88 0
13.200000 4.400000 5.830000 125 108 87 0
13.420000 4.400000 6.600000 126 107 87 0
13.640000 4.400000 6.600000 124 105 85 0
13.860000 4.400000 6.600000 124 105 85 0
14.080000 4.400000 6.600000 123 104 84 0
14.300000 4.400000 7.260000 124 102 83 0
14.520000 4.400000 7.260000 123 101 82 0
14.740000 4.400000 7.260000 123 101 82 0
14.960000 4.400000 8.030000 122 100 81 0
15.180000 4.400000 8.690000 121 99 80 0
15.400000 4.400000 8.690000 121 99 80 0
15.620000 4.400000 8.690000 120 96 79 0
15.840000 4.400000 9.350000 120 96 79 0
16.060000 4.400000 9.350000 120 97 78 0
16.280000 4.400000 9.350000 119 96 77 0
16.500000 4.400000 10.120000 120 94 76 0
16.720000 4.400000 10.010000 119 93 75 0
16.940000 4.400000 9.350000 120 94 76 0
17.160000 4.400000 8.690000 120 94 76 0
17.380000 4.400000 8.030000 119 93 75 0
17.600000 4.400000 8.030000 119 93 75 0
17.820000 4.400000 8.030000 120 92 73 0
18.040000 4.400000 8.030000 119 91 72 0
18.260000 4.400000 8.030000 119 89 73 0
18.480000 4.400000 8.030000 119 89 73 0
18.700000 4.400000 8.030000 119 90 71 0
18.920000 4.400000 7.370000 118 89 70 0
19.140000 4.400000 7.370000 121 89 71 0
19.360000 4.400000 8.030000 120 88 70 0
19.580000 4.400000 8.030000 121 88 68 0
19.800000 4.400000 8.030000 121 88 68 0
20.020000 4.400000 8.030000 119 87 69 0
20.240000 4.400000 7.370000 119 87 69 0
20.460000 4.400000 7.370000 120 87 67 0
20.680000 4.400000 7.370000 119 86 66 0
20.900000 4.400000 7.370000 121 85 66 0
21.120000 4.400000 7.370000 121 85 66 0
21.340000 4.400000 7.370000 121 85 66 0
21.560000 4.400000 8.030000 121 85 66 0
21.780000 4.400000 8.030000 120 83 62 0
22.000000 4.400000 8.030000 120 83 62 0
22.220000 4.400000 8.030000 123 81 64 0
22.440000 4.400000 8.030000 122 80 63 0
22.660000 4.400000 8.030000 121 79 60 0
22.880000 4.400000 8.800000 122 80 61 0
23.100000 4.400000 9.460000 124 78 60 0
23.320000 4.400000 10.120000 124 78 60 0
23.540000 4.400000 10.890000 127 75 57 0
23.760000 4.400000 10.230000 126 74 56 0
23.980000 4.400000 10.230000 127 73 58 0
24.200000 4.400000 9.570000 127 73 58 0
24.420000 4.400000 9.570000 128 70 54 0
24.640000 4.400000 9.570000 128 70 54 0
24.860000 4.400000 10.230000 128 72 55 0
25.080000 4.400000 11.000000 127 71 54 0
25.300000 4.400000 11.000000 129 70 57 0
25.520000 4.400000 11.000000 129 70 57 0
25.740000 4.400000 11.000000 131 71 58 0
25.960000 4.400000 10.340000 130 70 57 0
26.180000 4.400000 10.340000 131 71 56 0
26.400000 4.400000 9.680000 132 72 57 0
26.620000 4.400000 10.120000 130 72 56 0
26.840000 4.400000 10.560000 130 72 56 0
27.060000 4.400000 10.450000 131 71 56 0
27.280000 4.400000 10.120000 131 71 56 0
27.500000 4.400000 9.570000 132 72 59 0
27.720000 4.400000 9.570000 132 72 59 0
27.940000 4.400000 8.910000 134 71 59 0
28.160000 4.400000 8.910000 135 72 60 0
28.380000 4.400000 8.250000 135 72 60 0
28.600000 4.400000 8.250000 135 72 60 0
28.820000 4.400000 8.250000 134 71 59 0
29.040000 4.400000 8.250000 135 72 60 0
29.260000 4.400000 8.250000 136 73 61 0
29.480000 4.400000 8.250000 136 73 61 0
29.700000 4.400000 7.480000 135 72 60 0
29.920000 4.400000 7.480000 136 73 61 0
30.140000 4.400000 7.590000 136 73 61 0
30.360000 4.400000 7.590000 137 74 62 0
30.580000 4.400000 7.590000 136 73 61 0
30.800000 4.400000 7.590000 137 74 62 0
31.020000 4.400000 6.930000 138 75 63 0
31.240000 4.400000 6.930000 138 75 63 0
31.460000 4.400000 6.930000 139 74 63 0
31.680000 4.400000 6.930000 139 74 63 0
31.900000 4.400000 6.930000 140 75 66 0
32.120000 4.400000 7.590000 139 74 65 0
32.340000 4.400000 7.590000 139 76 64 0
32.560000 4.400000 7.590000 140 77 65 0
32.780000 4.400000 6.820000 140 77 65 0
33.000000 4.400000 6.820000 140 77 65 0
33.220000 4.400000 7.480000 140 77 67 0
33.440000 4.400000 7.480000 141 78 68 0
33.660000 4.400000 6.820000 141 78 68 0
33.880000 4.400000 6.820000 142 79 69 0
34.100000 4.400000 6.930000 142 79 69 0
34.320000 4.400000 6.820000 142 79 69 0
34.540000 4.400000 7.590000 143 80 70 0
34.760000 4.400000 8.250000 143 80 70 0
34.980000 4.400000 8.800000 142 79 69 0
35.200000 4.400000 9.240000 143 80 70 0
35.420000 4.400000 9.790000 144 81 71 0
35.640000 4.400000 9.790000 145 82 72 0
35.860000 4.400000 9.900000 144 81 71 0
36.080000 4.400000 8.690000 144 81 71 0
36.300000 4.400000 7.370000 142 81 71 0
36.520000 4.400000 5.280000 143 82 72 0
36.740000 4.400000 4.620000 143 82 72 0
36.960000 4.400000 5.280000 144 83 73 0
37.180000 4.400000 5.940000 144 83 75 0
0.000000 4.620000 9.680000 204 235 222 0
0.220000 4.620000 10.340000 203 234 221 0
0.440000 4.620000 10.890000 204 235 222 0
0.660000 4.620000 12.650000 204 235 222 0
0.880000 4.620000 13.200000 204 235 222 0
1.100000 4.620000 13.860000 204 235 222 0
1.320000 4.620000 13.860000 203 234 221 0
1.540000 4.620000 13.970000 203 234 221 0
1.760000 4.620000 13.970000 204 235 222 0
1.980000 4.620000 14.630000 203 234 221 0
2.200000 4.620000 14.740000 203 234 221 0
2.420000 4.620000 14.740000 203 234 221 0
2.640000 4.620000 14.740000 202 233 220 0
2.860000 4.620000 14.740000 202 233 220 0
3.080000 4.620000 14.850000 202 233 220 0
3.300000 4.620000 14.850000 204 234 221 0
3.520000 4.620000 15.510000 204 234 221 0
3.740000 4.620000 15.620000 203 233 220 0
3.960000 4.620000 15.620000 203 233 220 0
4.180000 4.620000 15.620000 202 232 219 0
4.400000 4.620000 15.620000 202 232 219 0
4.620000 4.620000 15.730000 201 231 218 0
4.840000 4.620000 15.730000 200 230 217 0
5.060000 4.620000 15.730000 199 229 216 0
5.280000 4.620000 16.500000 199 229 216 0
5.500000 4.620000 16.500000 198 228 215 0
5.720000 4.620000 17.930000 197 227 214 0
5.940000 4.620000 15.180000 197 224 212 0
6.160000 4.620000 7.370000 194 221 209 0
6.380000 4.620000 2.200000 193 218 207 0
6.600000 4.620000 1.430000 186 211 200 0
6.820000 4.620000 6.270000 185 206 194 0
7.040000 4.620000 15.950000 178 199 187 0
7.260000 4.620000 20.790000 176 192 174 0
7.480000 4.620000 16.060000 166 182 164 0
7.700000 4.620000 6.380000 167 169 150 0
7.920000 4.620000 2.970000 159 161 142 0
8.140000 4.620000 3.630000 154 153 128 0
8.360000 4.620000 4.400000 147 146 121 0
8.580000 4.620000 5.060000 149 140 118 0
8.800000 4.620000 5.720000 146 137 115 0
9.020000 4.620000 5.720000 143 134 112 0
9.240000 4.620000 5.720000 140 131 109 0
9.460000 4.620000 5.720000 139 128 106 0
9.680000 4.620000 5.060000 137 126 104 0
9.900000 4.620000 5.060000 135 124 102 0
10.120000 4.620000 5.060000 134 123 101 0
10.340000 4.620000 5.830000 133 120 98 0
10.560000 4.620000 5.830000 132 119 97 0
10.780000 4.620000 5.830000 131 118 97 0
11.000000 4.620000 5.830000 129 116 95 0
11.220000 4.620000 6.490000 131 115 94 0
11.440000 4.620000 6.490000 131 115 94 0
11.660000 4.620000 6.490000 130 113 92 0
11.880000 4.620000 6.490000 130 113 92 0
12.100000 4.620000 6.490000 128 112 92 0
12.320000 4.620000 6.490000 127 111 91 0
12.540000 4.620000 5.830000 127 111 91 0
12.760000 4.620000 5.830000 124 108 88 0
12.980000 4.620000 5.830000 127 108 88 0
13.200000 4.620000 5.830000 126 107 87 0
13.420000 4.620000 6.600000 126 107 88 0
13.640000 4.620000 6.600000 125 106 87 0
13.860000 4.620000 6.600000 123 104 85 0
14.080000 4.620000 6.600000 124 105 86 0
14.300000 4.620000 7.260000 123 101 83 0
14.520000 4.620000 7.260000 123 101 83 0
14.740000 4.620000 8.030000 123 100 81 0
14.960000 4.620000 8.030000 122 99 80 0
15.180000 4.620000 8.690000 121 99 81 0
15.400000 4.620000 8.690000 120 98 80 0
15.620000 4.620000 8.690000 120 96 79 0
15.840000 4.620000 8.690000 120 96 79 0
16.060000 4.620000 9.460000 120 97 78 0
16.280000 4.620000 9.460000 119 96 77 0
16.500000 4.620000 10.120000 121 95 77 0
16.720000 4.620000 10.010000 120 94 76 0
16.940000 4.620000 9.350000 120 94 76 0
17.160000 4.620000 8.690000 119 93 75 0
17.380000 4.620000 8.030000 120 92 75 0
17.600000 4.620000 8.030000 120 92 75 0
17.820000 4.620000 8.030000 119 91 72 0
18.040000 4.620000 8.690000 119 91 72 0
18.260000 4.620000 8.690000 120 91 72 0
18.480000 4.620000 8.030000 118 89 70 0
18.700000 4.620000 8.030000 118 89 70 0
18.920000 4.620000 7.370000 119 90 71 0
19.140000 4.620000 8.030000 118 89 70 0
19.360000 4.620000 8.030000 118 89 70 0
19.580000 4.620000 8.030000 121 88 68 0
19.800000 4.620000 8.030000 120 87 67 0
20.020000 4.620000 8.030000 119 87 69 0
20.240000 4.620000 8.030000 118 86 68 0
20.460000 4.620000 7.370000 119 86 66 0
20.680000 4.620000 7.370000 120 87 67 0
20.900000 4.620000 8.030000 122 86 67 0
21.120000 4.620000 8.030000 121 85 66 0
21.340000 4.620000 8.030000 122 85 64 0
21.560000 4.620000 8.030000 121 84 63 0
21.780000 4.620000 8.030000 121 83 65 0
22.000000 4.620000 8.030000 120 82 64 0
22.220000 4.620000 8.030000 120 82 64 0
22.440000 4.620000 8.030000 120 82 64 0
22.660000 4.620000 8.030000 123 79 61 0
22.880000 4.620000 8.800000 122 78 60 0
23.100000 4.620000 9.460000 123 79 61 0
23.320000 4.620000 10.120000 121 77 59 0
23.540000 4.620000 10.230000 125 75 59 0
23.760000 4.620000 10.230000 124 74 58 0
23.980000 4.620000 9.570000 128 71 57 0
24.200000 4.620000 9.570000 129 72 58 0
24.420000 4.620000 9.570000 128 69 56 0
24.640000 4.620000 9.570000 127 68 55 0
24.860000 4.620000 10.340000 128 69 56 0
25.080000 4.620000 10.340000 129 70 57 0
25.300000 4.620000 11.000000 128 69 56 0
25.520000 4.620000 11.000000 130 71 58 0
25.740000 4.620000 10.340000 129 70 57 0
25.960000 4.620000 10.340000 130 71 58 0
26.180000 4.620000 9.680000 132 72 59 0
26.400000 4.620000 9.680000 131 71 58 0
26.620000 4.620000 10.120000 132 72 59 0
26.840000 4.620000 10.560000 130 70 57 0
27.060000 4.620000 10.670000 131 71 58 0
27.280000 4.620000 9.460000 132 72 59 0
27.500000 4.620000 9.570000 132 71 61 0
27.720000 4.620000 9.570000 132 71 61 0
27.940000 4.620000 8.910000 134 71 59 0
28.160000 4.620000 8.910000 134 71 59 0
28.380000 4.620000 8.910000 134 71 59 0
28.600000 4.620000 8.910000 135 72 60 0
28.820000 4.620000 8.910000 135 72 62 0
29.040000 4.620000 8.910000 135 72 62 0
29.260000 4.620000 8.140000 136 73 61 0
29.480000 4.620000 8.250000 136 73 61 0
29.700000 4.620000 8.250000 136 73 61 0
29.920000 4.620000 7.480000 136 73 61 0
30.140000 4.620000 7.590000 137 74 62 0
30.360000 4.620000 7.590000 137 74 62 0
30.580000 4.620000 7.590000 138 73 64 0
30.800000 4.620000 7.590000 137 72 63 0
31.020000 4.620000 6.930000 137 74 64 0
31.240000 4.620000 6.930000 139 76 66 0
31.460000 4.620000 6.930000 138 75 65 0
31.680000 4.620000 6.930000 139 76 66 0
31.900000 4.620000 6.930000 139 76 66 0
32.120000 4.620000 7.590000 138 75 65 0
32.340000 4.620000 7.590000 141 76 67 0
32.560000 4.620000 6.930000 140 75 66 0
32.780000 4.620000 6.820000 140 77 67 0
33.000000 4.620000 6.820000 140 77 67 0
33.220000 4.620000 6.820000 140 77 67 0
33.440000 4.620000 6.820000 141 78 68 0
33.660000 4.620000 6.820000 142 79 69 0
33.880000 4.620000 6.930000 141 78 68 0
34.100000 4.620000 6.930000 142 79 69 0
34.320000 4.620000 6.930000 142 79 69 0
34.540000 4.620000 7.590000 143 80 70 0
34.760000 4.620000 7.590000 143 80 70 0
34.980000 4.620000 8.140000 142 79 69 0
35.200000 4.620000 9.240000 144 81 71 0
35.420000 4.620000 9.790000 144 80 73 0
35.640000 4.620000 9.790000 145 81 74 0
35.860000 4.620000 9.900000 145 81 74 0
36.080000 4.620000 8.690000 145 81 74 0
36.300000 4.620000 7.370000 144 83 75 0
36.520000 4.620000 5.280000 143 82 74 0
36.740000 4.620000 4.620000 144 80 73 0
36.960000 4.620000 5.280000 144 80 73 0
37.180000 4.620000 5.940000 144 83 75 0
0.000000 4.840000 9.680000 204 235 222 0
0.220000 4.840000 10.340000 204 235 222 0
0.440000 4.840000 10.890000 203 234 221 0
0.660000 4.840000 12.650000 203 234 221 0
0.880000 4.840000 13.200000 203 234 221 0
1.100000 4.840000 13.200000 204 235 222 0
1.320000 4.840000 13.860000 203 234 221 0
1.540000 4.840000 13.970000 204 235 222 0
1.760000 4.840000 13.970000 203 234 221 0
1.980000 4.840000 14.630000 203 234 221 0
2.200000 4.840000 14.740000 202 233 220 0
2.420000 4.840000 14.740000 203 234 221 0
2.640000 4.840000 14.740000 202 233 220 0
2.860000 4.840000 14.740000 202 233 220 0
3.080000 4.840000 14.850000 202 233 220 0
3.300000 4.840000 14.850000 203 233 220 0
3.520000 4.840000 15.510000 203 233 220 0
3.740000 4.840000 15.620000 203 233 220 0
3.960000 4.840000 15.620000 202 232 219 0
4.180000 4.840000 15.620000 203 233 220 0
4.400000 4.840000 15.620000 202 232 219 0
4.620000 4.840000 15.730000 201 231 218 0
4.840000 4.840000 15.730000 200 230 217 0
5.060000 4.840000 15.730000 199 229 216 0
5.280000 4.840000 16.500000 199 229 216 0
5.500000 4.840000 16.500000 199 229 216 0
5.720000 4.840000 17.930000 198 228 215 0
5.940000 4.840000 13.750000 198 225 213 0
6.160000 4.840000 4.620000 196 223 211 0
6.380000 4.840000 0.880000 194 219 208 0
6.600000 4.840000 1.430000 187 212 201 0
6.820000 4.840000 6.270000 185 206 194 0
7.040000 4.840000 15.950000 179 200 188 0
7.260000 4.840000 20.790000 177 193 175 0
7.480000 4.840000 16.060000 166 182 164 0
7.700000 4.840000 6.380000 167 169 150 0
7.920000 4.840000 2.970000 159 161 142 0
8.140000 4.840000 4.290000 154 153 128 0
8.360000 4.840000 4.400000 149 148 123 0
8.580000 4.840000 5.060000 149 140 118 0
8.800000 4.840000 5.720000 145 136 114 0
9.020000 4.840000 5.720000 143 134 112 0
9.240000 4.840000 5.720000 139 130 108 0
9.460000 4.840000 5.720000 138 127 105 0
9.680000 4.840000 5.060000 137 126 104 0
9.900000 4.840000 5.060000 135 124 102 0
10.120000 4.840000 5.830000 134 123 101 0
10.340000 4.840000 5.720000 134 121 99 0
10.560000 4.840000 5.720000 132 119 97 0
10.780000 4.840000 5.830000 131 118 97 0
11.000000 4.840000 6.490000 130 117 96 0
11.220000 4.840000 6.490000 130 114 93 0
11.440000 4.840000 6.490000 130 114 93 0
11.660000 4.840000 6.490000 131 114 93 0
11.880000 4.840000 6.490000 131 114 93 0
12.100000 4.840000 6.490000 128 112 92 0
12.320000 4.840000 6.490000 128 112 92 0
12.540000 4.840000 5.830000 126 110 90 0
12.760000 4.840000 5.830000 126 110 90 0
12.980000 4.840000 5.830000 126 107 87 0
13.200000 4.840000 5.830000 126 107 87 0
13.420000 4.840000 6.600000 125 106 87 0
13.640000 4.840000 6.600000 124 105 86 0
13.860000 4.840000 6.600000 123 104 85 0
14.080000 4.840000 6.600000 124 105 86 0
14.300000 4.840000 7.260000 124 102 84 0
14.520000 4.840000 7.260000 123 101 83 0
14.740000 4.840000 8.030000 124 101 82 0
14.960000 4.840000 8.030000 122 99 80 0
15.180000 4.840000 8.690000 121 99 81 0
15.400000 4.840000 8.690000 120 98 80 0
15.620000 4.840000 8.690000 120 96 79 0
15.840000 4.840000 8.800000 120 96 79 0
16.060000 4.840000 8.800000 119 96 77 0
16.280000 4.840000 9.460000 119 96 77 0
16.500000 4.840000 10.120000 121 95 77 0
16.720000 4.840000 10.010000 120 94 76 0
16.940000 4.840000 9.350000 119 93 75 0
17.160000 4.840000 8.690000 119 93 75 0
17.380000 4.840000 8.030000 120 92 75 0
17.600000 4.840000 8.030000 120 92 75 0
17.820000 4.840000 8.690000 119 91 72 0
18.040000 4.840000 8.690000 119 91 72 0
18.260000 4.840000 8.690000 120 91 72 0
18.480000 4.840000 8.030000 119 90 71 0
18.700000 4.840000 8.030000 118 89 70 0
18.920000 4.840000 8.030000 118 89 70 0
19.140000 4.840000 8.030000 118 89 70 0
19.360000 4.840000 8.030000 119 90 71 0
19.580000 4.840000 8.690000 121 88 68 0
19.800000 4.840000 8.690000 120 87 67 0
20.020000 4.840000 8.030000 119 87 69 0
20.240000 4.840000 8.030000 119 87 69 0
20.460000 4.840000 8.030000 119 86 66 0
20.680000 4.840000 8.030000 119 86 66 0
20.900000 4.840000 8.030000 122 86 67 0
21.120000 4.840000 8.030000 121 85 66 0
21.340000 4.840000 8.030000 121 84 63 0
21.560000 4.840000 8.030000 121 84 63 0
21.780000 4.840000 8.030000 121 83 65 0
22.000000 4.840000 8.030000 121 83 65 0
22.220000 4.840000 8.030000 121 83 65 0
22.440000 4.840000 8.030000 120 82 64 0
22.660000 4.840000 8.030000 123 79 61 0
22.880000 4.840000 8.800000 123 79 61 0
23.100000 4.840000 9.460000 123 79 61 0
23.320000 4.840000 9.460000 122 78 60 0
23.540000 4.840000 10.230000 124 74 58 0
23.760000 4.840000 10.230000 124 74 58 0
23.980000 4.840000 9.570000 129 72 58 0
24.200000 4.840000 9.570000 128 71 57 0
24.420000 4.840000 9.570000 129 70 57 0
24.640000 4.840000 9.570000 129 70 57 0
24.860000 4.840000 10.340000 128 69 56 0
25.080000 4.840000 10.340000 128 69 56 0
25.300000 4.840000 10.340000 128 69 56 0
25.520000 4.840000 11.000000 129 70 57 0
25.740000 4.840000 10.340000 129 70 57 0
25.960000 4.840000 10.340000 130 71 58 0
26.180000 4.840000 9.680000 131 71 58 0
26.400000 4.840000 9.680000 132 72 59 0
26.620000 4.840000 9.570000 132 72 59 0
26.840000 4.840000 10.010000 131 71 58 0
27.060000 4.840000 10.120000 130 70 57 0
27.280000 4.840000 9.570000 131 71 58 0
27.500000 4.840000 9.570000 132 71 61 0
27.720000 4.840000 8.910000 131 70 60 0
27.940000 4.840000 8.910000 135 72 60 0
28.160000 4.840000 8.910000 135 72 60 0
28.380000 4.840000 8.800000 135 72 60 0
28.600000 4.840000 8.800000 135 72 60 0
28.820000 4.840000 8.910000 135 72 62 0
29.040000 4.840000 8.910000 136 73 63 0
29.260000 4.840000 8.910000 136 73 61 0
29.480000 4.840000 8.250000 135 72 60 0
29.700000 4.840000 8.250000 136 73 61 0
29.920000 4.840000 7.590000 136 73 61 0
30.140000 4.840000 7.590000 136 73 61 0
30.360000 4.840000 7.590000 136 73 61 0
30.580000 4.840000 7.590000 138 73 64 0
30.800000 4.840000 7.590000 137 72 63 0
31.020000 4.840000 6.930000 137 74 64 0
31.240000 4.840000 6.930000 137 74 64 0
31.460000 4.840000 6.820000 138 75 65 0
31.680000 4.840000 6.820000 138 75 65 0
31.900000 4.840000 6.820000 138 75 65 0
32.120000 4.840000 7.590000 139 76 66 0
32.340000 4.840000 7.590000 140 75 66 0
32.560000 4.840000 6.930000 140 75 66 0
32.780000 4.840000 6.820000 139 76 66 0
33.000000 4.840000 6.820000 139 76 66 0
33.220000 4.840000 6.820000 140 77 67 0
33.440000 4.840000 6.820000 140 77 67 0
33.660000 4.840000 6.820000 140 77 67 0
33.880000 4.840000 6.930000 142 79 69 0
34.100000 4.840000 6.930000 141 78 68 0
34.320000 4.840000 6.930000 142 79 69 0
34.540000 4.840000 7.590000 142 79 69 0
34.760000 4.840000 7.590000 142 79 69 0
34.980000 4.840000 8.140000 143 80 70 0
35.200000 4.840000 9.240000 144 81 71 0
35.420000 4.840000 9.790000 144 80 73 0
35.640000 4.840000 9.790000 144 80 73 0
35.860000 4.840000 9.130000 144 80 73 0
36.080000 4.840000 8.690000 145 81 74 0
36.300000 4.840000 7.370000 142 81 73 0
36.520000 4.840000 5.280000 143 82 74 0
36.740000 4.840000 4.620000 145 81 74 0
36.960000 4.840000 5.280000 145 81 74 0
37.180000 4.840000 5.940000 144 83 75 0
0.000000 5.060000 9.680000 202 235 221 0
0.220000 5.060000 10.340000 202 233 220 0
0.440000 5.060000 10.890000 203 234 221 0
0.660000 5.060000 12.650000 202 233 220 0
0.880000 5.060000 13.200000 202 233 220 0
1.100000 5.060000 13.200000 203 234 221 0
1.320000 5.060000 13.860000 204 235 222 0
1.540000 5.060000 13.970000 204 235 222 0
1.760000 5.060000 13.970000 203 234 221 0
1.980000 5.060000 13.970000 203 234 221 0
2.200000 5.060000 14.740000 202 233 220 0
2.420000 5.060000 14.740000 202 233 220 0
2.640000 5.060000 14.740000 201 232 219 0
2.860000 5.060000 14.740000 202 233 220 0
3.080000 5.060000 14.850000 202 233 220 0
3.300000 5.060000 14.850000 202 233 220 0
3.520000 5.060000 15.510000 202 233 220 0
3.740000 5.060000 15.620000 202 233 220 0
3.960000 5.060000 15.620000 202 233 220 0
4.180000 5.060000 15.620000 201 232 219 0
4.400000 5.060000 15.620000 200 231 218 0
4.620000 5.060000 15.730000 200 231 218 0
4.840000 5.060000 15.730000 199 230 217 0
5.060000 5.060000 15.730000 199 230 217 0
5.280000 5.060000 16.500000 198 229 216 0
5.500000 5.060000 16.500000 198 229 216 0
5.720000 5.060000 17.930000 197 228 215 0
5.940000 5.060000 14.410000 196 226 213 0
6.160000 5.060000 5.390000 192 222 209 0
6.380000 5.060000 0.990000 191 218 206 0
6.600000 5.060000 1.430000 188 215 203 0
6.820000 5.060000 6.270000 183 206 193 0
7.040000 5.060000 15.950000 176 199 186 0
7.260000 5.060000 20.790000 176 192 176 0
7.480000 5.060000 16.060000 166 182 166 0
7.700000 5.060000 6.380000 166 171 148 0
7.920000 5.060000 2.970000 156 161 138 0
8.140000 5.060000 4.290000 155 152 130 0
8.360000 5.060000 5.060000 148 145 123 0
8.580000 5.060000 5.060000 147 140 117 0
8.800000 5.060000 5.720000 144 137 114 0
9.020000 5.060000 5.720000 142 133 111 0
9.240000 5.060000 5.720000 139 130 108 0
9.460000 5.060000 5.720000 140 129 107 0
9.680000 5.060000 5.060000 137 126 104 0
9.900000 5.060000 5.060000 136 125 103 0
10.120000 5.060000 5.830000 134 123 101 0
10.340000 5.060000 5.720000 133 120 98 0
10.560000 5.060000 5.720000 132 119 97 0
10.780000 5.060000 5.720000 133 117 97 0
11.000000 5.060000 6.490000 131 115 95 0
11.220000 5.060000 6.490000 131 115 95 0
11.440000 5.060000 6.490000 131 115 95 0
11.660000 5.060000 6.490000 129 113 93 0
11.880000 5.060000 6.490000 128 112 92 0
12.100000 5.060000 6.490000 128 110 91 0
12.320000 5.060000 6.490000 128 110 91 0
12.540000 5.060000 5.830000 127 109 90 0
12.760000 5.060000 5.830000 126 108 89 0
12.980000 5.060000 5.830000 126 108 89 0
13.200000 5.060000 5.830000 125 107 88 0
13.420000 5.060000 6.600000 123 107 87 0
13.640000 5.060000 6.600000 122 106 86 0
13.860000 5.060000 6.600000 124 105 86 0
14.080000 5.060000 6.600000 123 104 85 0
14.300000 5.060000 6.600000 123 104 85 0
14.520000 5.060000 7.260000 121 102 83 0
14.740000 5.060000 8.030000 122 100 82 0
14.960000 5.060000 8.030000 122 100 82 0
15.180000 5.060000 8.690000 121 99 80 0
15.400000 5.060000 8.690000 120 98 79 0
15.620000 5.060000 8.800000 122 96 79 0
15.840000 5.060000 8.800000 121 95 78 0
16.060000 5.060000 9.460000 121 95 77 0
16.280000 5.060000 9.460000 120 94 76 0
16.500000 5.060000 10.120000 119 96 77 0
16.720000 5.060000 9.350000 119 96 77 0
16.940000 5.060000 8.690000 120 94 76 0
17.160000 5.060000 8.030000 119 93 75 0
17.380000 5.060000 8.030000 120 92 76 0
17.600000 5.060000 8.030000 120 92 76 0
17.820000 5.060000 8.690000 119 91 74 0
18.040000 5.060000 8.690000 119 91 74 0
18.260000 5.060000 8.030000 119 89 73 0
18.480000 5.060000 8.030000 119 89 73 0
18.700000 5.060000 8.030000 119 90 71 0
18.920000 5.060000 8.030000 119 90 71 0
19.140000 5.060000 8.030000 118 88 72 0
19.360000 5.060000 8.690000 118 88 72 0
19.580000 5.060000 8.690000 120 88 70 0
19.800000 5.060000 8.690000 120 88 70 0
20.020000 5.060000 8.800000 120 86 69 0
20.240000 5.060000 8.030000 120 86 69 0
20.460000 5.060000 8.030000 120 86 69 0
20.680000 5.060000 8.030000 118 84 67 0
20.900000 5.060000 8.030000 119 85 68 0
21.120000 5.060000 8.030000 118 84 67 0
21.340000 5.060000 8.030000 121 85 68 0
21.560000 5.060000 8.030000 121 85 68 0
21.780000 5.060000 8.030000 121 83 65 0
22.000000 5.060000 8.030000 121 83 65 0
22.220000 5.060000 8.030000 122 83 65 0
22.440000 5.060000 8.030000 121 82 64 0
22.660000 5.060000 8.030000 126 80 62 0
22.880000 5.060000 8.800000 125 79 61 0
23.100000 5.060000 8.800000 124 77 62 0
23.320000 5.060000 9.460000 123 76 61 0
23.540000 5.060000 10.230000 124 76 59 0
23.760000 5.060000 10.230000 124 76 59 0
23.980000 5.060000 9.570000 127 73 58 0
24.200000 5.060000 9.570000 127 73 58 0
24.420000 5.060000 9.570000 127 71 54 0
24.640000 5.060000 9.570000 128 72 55 0
24.860000 5.060000 10.230000 129 70 57 0
25.080000 5.060000 10.340000 129 70 57 0
25.300000 5.060000 10.340000 129 70 57 0
25.520000 5.060000 11.000000 129 70 57 0
25.740000 5.060000 10.340000 129 70 57 0
25.960000 5.060000 10.340000 130 71 58 0
26.180000 5.060000 9.680000 130 71 58 0
26.400000 5.060000 9.680000 131 72 59 0
26.620000 5.060000 9.570000 132 72 59 0
26.840000 5.060000 9.570000 131 71 58 0
27.060000 5.060000 9.570000 131 71 58 0
27.280000 5.060000 8.910000 131 71 58 0
27.500000 5.060000 8.910000 131 71 58 0
27.720000 5.060000 8.910000 132 72 59 0
27.940000 5.060000 8.910000 132 72 59 0
28.160000 5.060000 8.910000 132 72 59 0
28.380000 5.060000 8.800000 134 71 59 0
28.600000 5.060000 8.800000 135 72 60 0
28.820000 5.060000 8.910000 135 72 60 0
29.040000 5.060000 8.910000 136 73 61 0
29.260000 5.060000 8.910000 136 73 61 0
29.480000 5.060000 8.250000 136 73 61 0
29.700000 5.060000 8.250000 136 73 61 0
29.920000 5.060000 7.590000 136 73 61 0
30.140000 5.060000 7.590000 136 73 63 0
30.360000 5.060000 7.590000 136 73 63 0
30.580000 5.060000 7.590000 137 74 64 0
30.800000 5.060000 7.590000 137 74 64 0
31.020000 5.060000 6.820000 138 75 65 0
31.240000 5.060000 7.480000 137 74 64 0
31.460000 5.060000 7.370000 137 74 64 0
31.680000 5.060000 7.260000 137 74 64 0
31.900000 5.060000 7.480000 139 76 66 0
32.120000 5.060000 6.930000 138 75 65 0
32.340000 5.060000 6.930000 139 76 66 0
32.560000 5.060000 6.930000 138 75 65 0
32.780000 5.060000 6.820000 140 77 67 0
33.000000 5.060000 6.820000 140 77 67 0
33.220000 5.060000 6.820000 140 77 67 0
33.440000 5.060000 6.820000 141 78 68 0
33.660000 5.060000 6.820000 141 77 70 0
33.880000 5.060000 6.930000 140 76 69 0
34.100000 5.060000 6.820000 141 77 70 0
34.320000 5.060000 7.480000 142 78 71 0
34.540000 5.060000 7.480000 143 79 72 0
34.760000 5.060000 7.590000 142 78 71 0
34.980000 5.060000 8.140000 143 80 70 0
35.200000 5.060000 9.130000 144 81 71 0
35.420000 5.060000 9.020000 141 80 72 0
35.640000 5.060000 9.790000 142 81 73 0
35.860000 5.060000 9.130000 142 81 73 0
36.080000 5.060000 8.690000 143 82 74 0
36.300000 5.060000 6.710000 143 82 74 0
36.520000 5.060000 5.280000 142 81 73 0
36.740000 5.060000 4.620000 143 82 74 0
36.960000 5.060000 5.280000 144 83 75 0
37.180000 5.060000 5.170000 143 82 74 0
0.000000 5.280000 9.680000 202 235 221 0
0.220000 5.280000 9.680000 203 234 221 0
0.440000 5.280000 10.890000 202 233 220 0
0.660000 5.280000 11.990000 202 233 220 0
0.880000 5.280000 13.200000 203 234 221 0
1.100000 5.280000 13.200000 203 234 221 0
1.320000 5.280000 13.860000 204 235 222 0
1.540000 5.280000 13.970000 203 234 221 0
1.760000 5.280000 13.970000 203 234 221 0
1.980000 5.280000 13.970000 203 234 221 0
2.200000 5.280000 14.740000 202 233 220 0
2.420000 5.280000 14.740000 201 232 219 0
2.640000 5.280000 14.740000 202 233 220 0
2.860000 5.280000 14.740000 202 233 220 0
3.080000 5.280000 14.850000 202 233 220 0
3.300000 5.280000 14.850000 202 233 220 0
3.520000 5.280000 15.510000 202 233 220 0
3.740000 5.280000 15.620000 201 232 219 0
3.960000 5.280000 15.620000 201 232 219 0
4.180000 5.280000 15.620000 201 232 219 0
4.400000 5.280000 15.620000 200 231 218 0
4.620000 5.280000 15.730000 200 231 218 0
4.840000 5.280000 15.730000 200 231 218 0
5.060000 5.280000 15.730000 200 231 218 0
5.280000 5.280000 16.500000 199 230 217 0
5.500000 5.280000 16.500000 199 230 217 0
5.720000 5.280000 17.930000 197 228 215 0
5.940000 5.280000 14.410000 197 227 214 0
6.160000 5.280000 5.500000 192 222 209 0
6.380000 5.280000 1.100000 190 217 205 0
6.600000 5.280000 1.540000 188 215 203 0
6.820000 5.280000 6.270000 184 207 194 0
7.040000 5.280000 15.950000 177 200 187 0
7.260000 5.280000 20.790000 176 192 176 0
7.480000 5.280000 16.060000 164 180 164 0
7.700000 5.280000 7.040000 166 171 148 0
7.920000 5.280000 2.970000 156 161 138 0
8.140000 5.280000 4.290000 153 150 128 0
8.360000 5.280000 5.060000 148 145 123 0
8.580000 5.280000 5.720000 148 141 118 0
8.800000 5.280000 5.720000 144 137 114 0
9.020000 5.280000 5.720000 142 133 111 0
9.240000 5.280000 5.720000 139 130 108 0
9.460000 5.280000 5.720000 139 128 106 0
9.680000 5.280000 5.830000 136 125 103 0
9.900000 5.280000 5.830000 135 124 102 0
10.120000 5.280000 5.830000 134 123 101 0
10.340000 5.280000 5.830000 133 120 98 0
10.560000 5.280000 5.720000 133 120 98 0
10.780000 5.280000 6.490000 132 116 96 0
11.000000 5.280000 6.490000 132 116 96 0
11.220000 5.280000 6.490000 132 116 96 0
11.440000 5.280000 6.490000 130 114 94 0
11.660000 5.280000 6.490000 129 113 93 0
11.880000 5.280000 6.490000 128 112 92 0
12.100000 5.280000 6.490000 128 110 91 0
12.320000 5.280000 6.490000 127 109 90 0
12.540000 5.280000 5.830000 127 109 90 0
12.760000 5.280000 5.830000 127 109 90 0
12.980000 5.280000 5.830000 126 108 89 0
13.200000 5.280000 5.830000 125 107 88 0
13.420000 5.280000 6.600000 124 108 88 0
13.640000 5.280000 6.600000 123 107 87 0
13.860000 5.280000 6.600000 124 105 86 0
14.080000 5.280000 6.600000 123 104 85 0
14.300000 5.280000 6.600000 123 104 85 0
14.520000 5.280000 7.370000 122 103 84 0
14.740000 5.280000 7.370000 122 100 82 0
14.960000 5.280000 8.030000 122 100 82 0
15.180000 5.280000 8.690000 121 99 80 0
15.400000 5.280000 8.800000 120 98 79 0
15.620000 5.280000 8.800000 123 97 80 0
15.840000 5.280000 8.800000 122 96 79 0
16.060000 5.280000 9.460000 122 96 78 0
16.280000 5.280000 9.350000 121 95 77 0
16.500000 5.280000 10.120000 118 95 76 0
16.720000 5.280000 9.350000 118 95 76 0
16.940000 5.280000 8.690000 120 94 76 0
17.160000 5.280000 8.030000 119 93 75 0
17.380000 5.280000 8.030000 119 91 75 0
17.600000 5.280000 8.030000 119 91 75 0
17.820000 5.280000 8.690000 119 91 74 0
18.040000 5.280000 8.690000 119 91 74 0
18.260000 5.280000 8.690000 120 90 74 0
18.480000 5.280000 8.030000 119 89 73 0
18.700000 5.280000 8.030000 118 89 70 0
18.920000 5.280000 8.030000 119 90 71 0
19.140000 5.280000 8.690000 118 88 72 0
19.360000 5.280000 9.350000 118 88 72 0
19.580000 5.280000 9.460000 119 87 69 0
19.800000 5.280000 9.460000 120 88 70 0
20.020000 5.280000 8.800000 120 86 69 0
20.240000 5.280000 8.030000 120 86 69 0
20.460000 5.280000 8.030000 119 85 68 0
20.680000 5.280000 8.030000 119 85 68 0
20.900000 5.280000 8.690000 120 86 69 0
21.120000 5.280000 8.690000 119 85 68 0
21.340000 5.280000 8.030000 121 85 68 0
21.560000 5.280000 8.030000 120 84 67 0
21.780000 5.280000 8.030000 121 83 65 0
22.000000 5.280000 8.030000 121 83 65 0
22.220000 5.280000 8.030000 121 82 64 0
22.440000 5.280000 8.030000 121 82 64 0
22.660000 5.280000 8.030000 127 81 63 0
22.880000 5.280000 8.800000 124 78 60 0
23.100000 5.280000 8.800000 124 77 62 0
23.320000 5.280000 9.460000 123 76 61 0
23.540000 5.280000 10.230000 124 76 59 0
23.760000 5.280000 10.230000 123 75 58 0
23.980000 5.280000 10.230000 127 73 58 0
24.200000 5.280000 9.570000 127 73 58 0
24.420000 5.280000 9.570000 128 72 55 0
24.640000 5.280000 9.570000 128 72 55 0
24.860000 5.280000 10.230000 130 71 58 0
25.080000 5.280000 10.340000 129 70 57 0
25.300000 5.280000 10.340000 129 70 57 0
25.520000 5.280000 10.340000 130 71 58 0
25.740000 5.280000 10.340000 128 69 56 0
25.960000 5.280000 10.340000 130 71 58 0
26.180000 5.280000 9.680000 131 72 59 0
26.400000 5.280000 9.680000 130 71 58 0
26.620000 5.280000 9.680000 131 71 58 0
26.840000 5.280000 9.680000 131 71 58 0
27.060000 5.280000 8.910000 131 71 58 0
27.280000 5.280000 8.910000 131 71 58 0
27.500000 5.280000 8.910000 132 72 59 0
27.720000 5.280000 8.910000 131 71 58 0
27.940000 5.280000 8.910000 132 72 59 0
28.160000 5.280000 8.910000 132 72 59 0
28.380000 5.280000 9.460000 134 71 59 0
28.600000 5.280000 8.800000 135 72 60 0
28.820000 5.280000 8.910000 135 72 60 0
29.040000 5.280000 8.910000 135 72 60 0
29.260000 5.280000 8.910000 135 72 60 0
29.480000 5.280000 8.250000 135 72 60 0
29.700000 5.280000 8.250000 136 73 61 0
29.920000 5.280000 7.590000 136 73 61 0
30.140000 5.280000 7.590000 136 73 63 0
30.360000 5.280000 7.590000 136 73 63 0
30.580000 5.280000 7.590000 137 74 64 0
30.800000 5.280000 7.590000 137 74 64 0
31.020000 5.280000 7.370000 138 75 65 0
31.240000 5.280000 7.920000 137 74 64 0
31.460000 5.280000 7.810000 137 74 64 0
31.680000 5.280000 7.920000 138 75 65 0
31.900000 5.280000 7.480000 138 75 65 0
32.120000 5.280000 7.590000 138 75 65 0
32.340000 5.280000 7.590000 138 75 65 0
32.560000 5.280000 6.930000 139 76 66 0
32.780000 5.280000 7.480000 140 77 67 0
33.000000 5.280000 7.370000 140 77 67 0
33.220000 5.280000 7.480000 141 78 68 0
33.440000 5.280000 6.820000 142 79 69 0
33.660000 5.280000 6.820000 141 77 70 0
33.880000 5.280000 6.820000 141 77 70 0
34.100000 5.280000 7.480000 142 78 71 0
34.320000 5.280000 7.370000 142 78 71 0
34.540000 5.280000 7.480000 142 78 71 0
34.760000 5.280000 7.590000 143 79 72 0
34.980000 5.280000 8.030000 143 80 70 0
35.200000 5.280000 9.130000 144 81 71 0
35.420000 5.280000 9.020000 142 81 73 0
35.640000 5.280000 9.790000 142 81 73 0
35.860000 5.280000 9.130000 142 81 73 0
36.080000 5.280000 8.690000 142 81 73 0
36.300000 5.280000 6.710000 143 82 74 0
36.520000 5.280000 5.280000 142 81 73 0
36.740000 5.280000 4.620000 143 82 74 0
36.960000 5.280000 4.620000 143 82 74 0
37.180000 5.280000 5.170000 144 83 75 0
0.000000 5.500000 9.680000 204 235 222 0
0.220000 5.500000 9.680000 203 234 221 0
0.440000 5.500000 10.890000 204 235 222 0
0.660000 5.500000 11.990000 203 234 221 0
0.880000 5.500000 13.200000 203 234 221 0
1.100000 5.500000 13.200000 204 235 222 0
1.320000 5.500000 13.200000 204 235 222 0
1.540000 5.500000 13.970000 204 235 222 0
1.760000 5.500000 13.970000 203 234 221 0
1.980000 5.500000 13.970000 204 234 221 0
2.200000 5.500000 14.740000 204 234 221 0
2.420000 5.500000 14.740000 204 234 221 0
2.640000 5.500000 14.740000 203 233 220 0
2.860000 5.500000 14.740000 203 233 218 0
3.080000 5.500000 14.850000 203 233 218 0
3.300000 5.500000 14.850000 203 233 218 0
3.520000 5.500000 14.850000 203 233 218 0
3.740000 5.500000 15.620000 203 233 220 0
3.960000 5.500000 15.620000 202 232 219 0
4.180000 5.500000 15.620000 203 233 220 0
4.400000 5.500000 15.620000 202 232 219 0
4.620000 5.500000 15.730000 201 231 216 0
4.840000 5.500000 15.730000 202 232 217 0
5.060000 5.500000 15.730000 201 231 216 0
5.280000 5.500000 16.500000 201 231 216 0
5.500000 5.500000 17.160000 199 229 216 0
5.720000 5.500000 16.500000 198 228 215 0
5.940000 5.500000 11.660000 198 225 213 0
6.160000 5.500000 4.070000 196 223 211 0
6.380000 5.500000 1.210000 194 217 206 0
6.600000 5.500000 1.540000 191 214 203 0
6.820000 5.500000 6.270000 187 209 194 0
7.040000 5.500000 15.950000 179 201 186 0
7.260000 5.500000 20.790000 176 192 174 0
7.480000 5.500000 16.060000 165 181 163 0
7.700000 5.500000 7.040000 167 172 149 0
7.920000 5.500000 3.630000 157 162 139 0
8.140000 5.500000 4.290000 156 153 129 0
8.360000 5.500000 5.060000 149 146 122 0
8.580000 5.500000 5.720000 148 141 117 0
8.800000 5.500000 5.720000 144 137 113 0
9.020000 5.500000 5.720000 141 134 110 0
9.240000 5.500000 5.720000 139 132 108 0
9.460000 5.500000 5.720000 139 128 106 0
9.680000 5.500000 5.830000 138 127 105 0
9.900000 5.500000 5.830000 137 124 103 0
10.120000 5.500000 5.830000 135 122 101 0
10.340000 5.500000 5.830000 136 120 100 0
10.560000 5.500000 5.720000 134 118 98 0
10.780000 5.500000 6.490000 133 116 95 0
11.000000 5.500000 6.490000 133 116 95 0
11.220000 5.500000 6.490000 132 114 95 0
11.440000 5.500000 6.490000 131 113 94 0
11.660000 5.500000 6.490000 130 114 93 0
11.880000 5.500000 6.490000 129 113 92 0
12.100000 5.500000 6.490000 129 111 92 0
12.320000 5.500000 6.490000 128 110 91 0
12.540000 5.500000 6.490000 128 111 90 0
12.760000 5.500000 5.830000 127 110 89 0
12.980000 5.500000 5.830000 127 108 89 0
13.200000 5.500000 5.830000 127 108 89 0
13.420000 5.500000 6.600000 126 107 87 0
13.640000 5.500000 6.600000 125 106 86 0
13.860000 5.500000 6.600000 125 106 87 0
14.080000 5.500000 6.600000 123 104 85 0
14.300000 5.500000 7.260000 124 102 84 0
14.520000 5.500000 7.370000 124 102 84 0
14.740000 5.500000 7.370000 122 100 82 0
14.960000 5.500000 8.030000 122 100 82 0
15.180000 5.500000 8.030000 122 99 80 0
15.400000 5.500000 8.800000 121 98 79 0
15.620000 5.500000 8.800000 120 97 78 0
15.840000 5.500000 8.800000 120 97 78 0
16.060000 5.500000 9.460000 122 96 79 0
16.280000 5.500000 10.120000 122 96 79 0
16.500000 5.500000 10.010000 121 95 78 0
16.720000 5.500000 9.350000 120 94 77 0
16.940000 5.500000 8.690000 120 94 76 0
17.160000 5.500000 8.030000 120 94 76 0
17.380000 5.500000 8.030000 121 93 76 0
17.600000 5.500000 8.030000 120 92 75 0
17.820000 5.500000 8.690000 119 91 74 0
18.040000 5.500000 8.690000 119 91 74 0
18.260000 5.500000 8.690000 118 90 73 0
18.480000 5.500000 8.030000 118 90 73 0
18.700000 5.500000 8.690000 118 90 73 0
18.920000 5.500000 8.690000 118 90 73 0
19.140000 5.500000 8.690000 120 88 70 0
19.360000 5.500000 9.350000 121 89 71 0
19.580000 5.500000 9.460000 121 89 71 0
19.800000 5.500000 9.460000 120 88 70 0
20.020000 5.500000 9.460000 121 88 68 0
20.240000 5.500000 8.800000 120 87 67 0
20.460000 5.500000 8.800000 120 87 67 0
20.680000 5.500000 8.690000 120 87 67 0
20.900000 5.500000 8.690000 122 86 67 0
21.120000 5.500000 8.690000 121 85 66 0
21.340000 5.500000 8.030000 121 85 68 0
21.560000 5.500000 8.030000 120 84 67 0
21.780000 5.500000 8.030000 121 83 65 0
22.000000 5.500000 8.690000 121 83 65 0
22.220000 5.500000 8.800000 120 82 64 0
22.440000 5.500000 8.800000 120 82 64 0
22.660000 5.500000 8.800000 125 79 61 0
22.880000 5.500000 8.800000 126 80 62 0
23.100000 5.500000 8.800000 127 77 63 0
23.320000 5.500000 9.460000 126 76 62 0
23.540000 5.500000 9.460000 128 74 59 0
23.760000 5.500000 10.230000 128 74 59 0
23.980000 5.500000 10.230000 127 73 56 0
24.200000 5.500000 9.570000 128 74 57 0
24.420000 5.500000 9.570000 129 72 58 0
24.640000 5.500000 10.230000 128 71 57 0
24.860000 5.500000 10.230000 130 70 57 0
25.080000 5.500000 10.340000 130 70 57 0
25.300000 5.500000 10.340000 129 70 57 0
25.520000 5.500000 10.340000 129 70 57 0
25.740000 5.500000 10.340000 129 70 57 0
25.960000 5.500000 10.340000 129 70 57 0
26.180000 5.500000 9.680000 130 70 57 0
26.400000 5.500000 9.680000 130 70 57 0
26.620000 5.500000 9.680000 131 71 58 0
26.840000 5.500000 9.680000 132 72 59 0
27.060000 5.500000 8.910000 131 71 58 0
27.280000 5.500000 8.910000 133 73 60 0
27.500000 5.500000 8.910000 132 72 59 0
27.720000 5.500000 8.910000 132 72 59 0
27.940000 5.500000 8.910000 135 72 60 0
28.160000 5.500000 8.910000 134 71 59 0
28.380000 5.500000 8.910000 135 72 60 0
28.600000 5.500000 8.910000 134 71 59 0
28.820000 5.500000 8.910000 135 72 60 0
29.040000 5.500000 8.910000 135 72 60 0
29.260000 5.500000 8.910000 135 72 60 0
29.480000 5.500000 8.250000 136 73 61 0
29.700000 5.500000 8.250000 137 74 62 0
29.920000 5.500000 7.590000 136 73 61 0
30.140000 5.500000 7.590000 136 73 61 0
30.360000 5.500000 7.590000 136 73 61 0
30.580000 5.500000 7.480000 138 73 62 0
30.800000 5.500000 7.370000 139 74 63 0
31.020000 5.500000 7.810000 138 75 65 0
31.240000 5.500000 8.360000 138 75 65 0
31.460000 5.500000 8.470000 138 75 63 0
31.680000 5.500000 7.370000 137 74 62 0
31.900000 5.500000 7.590000 138 75 63 0
32.120000 5.500000 7.590000 138 75 63 0
32.340000 5.500000 7.590000 139 76 66 0
32.560000 5.500000 7.590000 139 76 66 0
32.780000 5.500000 7.480000 140 77 67 0
33.000000 5.500000 7.370000 140 77 67 0
33.220000 5.500000 7.480000 141 78 68 0
33.440000 5.500000 6.820000 141 78 68 0
33.660000 5.500000 6.820000 142 79 69 0
33.880000 5.500000 6.820000 142 79 69 0
34.100000 5.500000 7.370000 142 79 69 0
34.320000 5.500000 7.920000 142 79 69 0
34.540000 5.500000 8.140000 143 80 70 0
34.760000 5.500000 8.250000 144 81 71 0
34.980000 5.500000 8.030000 143 79 72 0
35.200000 5.500000 9.130000 143 79 72 0
35.420000 5.500000 9.020000 144 81 71 0
35.640000 5.500000 9.130000 143 80 70 0
35.860000 5.500000 9.130000 145 82 72 0
36.080000 5.500000 8.690000 144 81 71 0
36.300000 5.500000 6.710000 142 81 71 0
36.520000 5.500000 5.280000 143 82 72 0
36.740000 5.500000 3.960000 144 83 75 0
36.960000 5.500000 3.850000 143 82 74 0
37.180000 5.500000 4.510000 145 81 74 0
0.000000 5.720000 9.680000 204 235 222 0
0.220000 5.720000 9.570000 203 234 221 0
0.440000 5.720000 10.780000 204 235 222 0
0.660000 5.720000 11.880000 203 234 221 0
0.880000 5.720000 12.540000 204 235 222 0
1.100000 5.720000 13.200000 204 235 222 0
1.320000 5.720000 13.200000 204 235 222 0
1.540000 5.720000 13.970000 204 235 222 0
1.760000 5.720000 13.970000 204 235 222 0
1.980000 5.720000 13.970000 205 235 222 0
2.200000 5.720000 13.970000 204 234 221 0
2.420000 5.720000 14.740000 204 234 221 0
2.640000 5.720000 14.740000 204 234 221 0
2.860000 5.720000 14.740000 204 234 219 0
3.080000 5.720000 14.850000 204 234 219 0
3.300000 5.720000 14.850000 204 234 219 0
3.520000 5.720000 14.850000 203 233 218 0
3.740000 5.720000 15.620000 203 233 220 0
3.960000 5.720000 15.620000 203 233 220 0
4.180000 5.720000 15.620000 203 233 220 0
4.400000 5.720000 15.620000 203 233 220 0
4.620000 5.720000 15.730000 202 232 217 0
4.840000 5.720000 15.730000 202 232 217 0
5.060000 5.720000 16.390000 202 232 217 0
5.280000 5.720000 16.500000 201 231 216 0
5.500000 5.720000 17.160000 200 230 217 0
5.720000 5.720000 14.410000 198 228 215 0
5.940000 5.720000 6.820000 199 226 214 0
6.160000 5.720000 2.090000 197 224 212 0
6.380000 5.720000 1.210000 195 218 207 0
6.600000 5.720000 1.540000 191 214 203 0
6.820000 5.720000 6.270000 187 209 194 0
7.040000 5.720000 15.950000 181 203 188 0
7.260000 5.720000 20.130000 176 192 174 0
7.480000 5.720000 13.970000 164 180 162 0
7.700000 5.720000 5.720000 166 171 148 0
7.920000 5.720000 3.630000 158 163 140 0
8.140000 5.720000 4.290000 155 152 128 0
8.360000 5.720000 5.060000 149 146 122 0
8.580000 5.720000 5.720000 147 140 116 0
8.800000 5.720000 5.720000 144 137 113 0
9.020000 5.720000 5.720000 142 135 111 0
9.240000 5.720000 5.720000 139 132 108 0
9.460000 5.720000 5.720000 140 129 107 0
9.680000 5.720000 5.830000 137 126 104 0
9.900000 5.720000 5.830000 137 124 103 0
10.120000 5.720000 5.830000 135 122 101 0
10.340000 5.720000 5.830000 136 120 100 0
10.560000 5.720000 5.830000 133 117 97 0
10.780000 5.720000 6.490000 134 117 96 0
11.000000 5.720000 6.490000 133 116 95 0
11.220000 5.720000 6.490000 132 114 95 0
11.440000 5.720000 6.490000 132 114 95 0
11.660000 5.720000 6.490000 129 113 92 0
11.880000 5.720000 6.490000 129 113 92 0
12.100000 5.720000 6.490000 129 111 92 0
12.320000 5.720000 6.490000 128 110 91 0
12.540000 5.720000 6.490000 128 111 90 0
12.760000 5.720000 5.830000 127 110 89 0
12.980000 5.720000 5.830000 128 109 90 0
13.200000 5.720000 6.600000 126 107 88 0
13.420000 5.720000 6.600000 125 106 86 0
13.640000 5.720000 6.600000 125 106 86 0
13.860000 5.720000 6.600000 124 105 86 0
14.080000 5.720000 6.600000 123 104 85 0
14.300000 5.720000 7.260000 125 103 85 0
14.520000 5.720000 7.370000 123 101 83 0
14.740000 5.720000 7.370000 122 100 82 0
14.960000 5.720000 8.030000 123 101 83 0
15.180000 5.720000 8.030000 123 100 81 0
15.400000 5.720000 8.800000 121 98 79 0
15.620000 5.720000 8.800000 121 98 79 0
15.840000 5.720000 9.460000 120 97 78 0
16.060000 5.720000 9.460000 122 96 79 0
16.280000 5.720000 10.120000 121 95 78 0
16.500000 5.720000 10.010000 121 95 78 0
16.720000 5.720000 9.350000 120 94 77 0
16.940000 5.720000 8.690000 120 94 76 0
17.160000 5.720000 8.030000 119 93 75 0
17.380000 5.720000 8.030000 121 93 76 0
17.600000 5.720000 8.690000 120 92 75 0
17.820000 5.720000 8.690000 120 92 75 0
18.040000 5.720000 8.690000 119 91 74 0
18.260000 5.720000 8.690000 119 91 74 0
18.480000 5.720000 8.690000 119 91 74 0
18.700000 5.720000 8.690000 118 90 73 0
18.920000 5.720000 8.690000 118 90 73 0
19.140000 5.720000 9.350000 120 88 70 0
19.360000 5.720000 10.120000 121 89 71 0
19.580000 5.720000 10.120000 121 89 71 0
19.800000 5.720000 10.120000 120 88 70 0
20.020000 5.720000 9.460000 120 87 67 0
20.240000 5.720000 8.690000 120 87 67 0
20.460000 5.720000 8.690000 120 87 67 0
20.680000 5.720000 8.690000 120 87 67 0
20.900000 5.720000 8.690000 122 86 67 0
21.120000 5.720000 8.690000 121 85 66 0
21.340000 5.720000 8.030000 121 85 68 0
21.560000 5.720000 8.030000 121 85 68 0
21.780000 5.720000 8.800000 121 83 65 0
22.000000 5.720000 8.800000 121 83 65 0
22.220000 5.720000 8.800000 120 82 64 0
22.440000 5.720000 8.800000 120 82 64 0
22.660000 5.720000 8.800000 125 79 61 0
22.880000 5.720000 8.030000 124 78 60 0
23.100000 5.720000 8.800000 126 76 62 0
23.320000 5.720000 8.800000 125 75 61 0
23.540000 5.720000 9.460000 128 74 59 0
23.760000 5.720000 10.230000 128 74 59 0
23.980000 5.720000 10.230000 127 73 56 0
24.200000 5.720000 10.230000 127 73 56 0
24.420000 5.720000 9.570000 129 72 58 0
24.640000 5.720000 10.230000 129 72 58 0
24.860000 5.720000 10.230000 130 70 57 0
25.080000 5.720000 10.340000 131 71 58 0
25.300000 5.720000 10.340000 129 70 57 0
25.520000 5.720000 10.340000 129 70 57 0
25.740000 5.720000 10.340000 129 70 57 0
25.960000 5.720000 10.340000 129 70 57 0
26.180000 5.720000 9.680000 131 71 58 0
26.400000 5.720000 9.680000 131 71 58 0
26.620000 5.720000 9.680000 131 71 58 0
26.840000 5.720000 9.680000 131 71 58 0
27.060000 5.720000 8.910000 131 71 58 0
27.280000 5.720000 9.020000 132 72 59 0
27.500000 5.720000 8.910000 132 72 59 0
27.720000 5.720000 8.910000 132 72 59 0
27.940000 5.720000 8.910000 135 72 60 0
28.160000 5.720000 9.020000 135 72 60 0
28.380000 5.720000 8.910000 135 72 60 0
28.600000 5.720000 8.910000 135 72 60 0
28.820000 5.720000 8.910000 135 72 60 0
29.040000 5.720000 8.910000 134 71 59 0
29.260000 5.720000 8.910000 136 73 61 0
