ply
format ascii 1.0
element vertex 1198
property float x
property float y
property float z
property uchar red
property uchar green
property uchar blue
property uchar alpha
end_header
32.780000 0.440000 6.710000 141 71 68 0
33.000000 0.440000 7.370000 141 69 67 0
33.220000 0.440000 7.370000 141 69 67 0
33.440000 0.440000 8.030000 140 70 67 0
33.660000 0.440000 8.030000 140 70 67 0
33.880000 0.440000 8.690000 140 70 67 0
34.100000 0.440000 8.690000 141 71 68 0
34.320000 0.440000 8.690000 139 69 66 0
34.540000 0.440000 9.350000 140 70 67 0
34.760000 0.440000 9.350000 141 69 67 0
34.980000 0.440000 9.460000 140 68 66 0
35.200000 0.440000 8.690000 140 70 67 0
35.420000 0.440000 7.370000 138 68 65 0
35.640000 0.440000 6.710000 139 69 66 0
35.860000 0.440000 5.280000 138 68 65 0
36.080000 0.440000 4.620000 139 69 66 0
36.300000 0.440000 4.620000 139 69 66 0
36.520000 0.440000 3.850000 139 69 66 0
36.740000 0.440000 5.280000 140 70 67 0
36.960000 0.440000 6.710000 139 71 67 0
37.180000 0.440000 7.370000 140 72 68 0
0.000000 0.660000 6.710000 137 74 62 0
0.220000 0.660000 5.940000 138 75 63 0
0.440000 0.660000 5.940000 139 76 64 0
0.660000 0.660000 5.280000 138 75 63 0
0.880000 0.660000 5.830000 138 75 63 0
1.100000 0.660000 7.150000 139 76 64 0
1.320000 0.660000 8.030000 138 75 63 0
1.540000 0.660000 8.800000 138 75 63 0
1.760000 0.660000 9.570000 139 76 64 0
1.980000 0.660000 9.570000 139 76 64 0
2.200000 0.660000 8.910000 140 77 65 0
2.420000 0.660000 8.800000 140 77 65 0
2.640000 0.660000 8.800000 140 77 65 0
2.860000 0.660000 8.140000 140 77 65 0
3.080000 0.660000 8.140000 142 79 67 0
3.300000 0.660000 8.140000 141 78 66 0
3.520000 0.660000 8.140000 142 79 69 0
3.740000 0.660000 8.140000 143 80 70 0
3.960000 0.660000 8.140000 143 80 70 0
4.180000 0.660000 8.140000 143 80 70 0
4.400000 0.660000 8.910000 144 81 71 0
4.620000 0.660000 8.910000 143 80 70 0
4.840000 0.660000 8.910000 142 81 71 0
5.060000 0.660000 8.910000 143 82 72 0
5.280000 0.660000 9.570000 144 81 71 0
5.500000 0.660000 9.570000 144 81 71 0
5.720000 0.660000 9.570000 143 82 72 0
5.940000 0.660000 9.570000 143 82 72 0
6.160000 0.660000 9.570000 144 83 73 0
6.380000 0.660000 10.230000 144 83 73 0
6.600000 0.660000 11.000000 144 83 73 0
6.820000 0.660000 11.000000 144 83 73 0
7.040000 0.660000 11.660000 144 83 73 0
7.260000 0.660000 11.660000 145 84 74 0
7.480000 0.660000 11.660000 145 84 74 0
7.700000 0.660000 11.660000 145 84 74 0
7.920000 0.660000 11.550000 147 86 78 0
8.140000 0.660000 11.550000 147 86 78 0
8.360000 0.660000 11.550000 147 86 78 0
8.580000 0.660000 12.210000 147 86 78 0
8.800000 0.660000 13.420000 148 87 79 0
9.020000 0.660000 13.310000 148 87 79 0
9.240000 0.660000 13.970000 149 88 80 0
9.460000 0.660000 13.970000 150 89 81 0
9.680000 0.660000 14.630000 150 89 81 0
9.900000 0.660000 15.290000 150 89 81 0
10.120000 0.660000 15.400000 151 90 82 0
10.340000 0.660000 16.060000 150 89 81 0
10.560000 0.660000 16.170000 149 88 80 0
10.780000 0.660000 11.990000 149 88 80 0
11.000000 0.660000 4.400000 148 87 77 0
11.220000 0.660000 0.990000 148 87 77 0
11.440000 0.660000 1.650000 148 87 79 0
11.660000 0.660000 1.650000 148 87 79 0
11.880000 0.660000 1.650000 146 85 77 0
12.100000 0.660000 1.760000 146 85 77 0
12.320000 0.660000 2.420000 145 84 74 0
12.540000 0.660000 2.420000 144 83 73 0
12.760000 0.660000 3.190000 144 81 71 0
12.980000 0.660000 3.190000 144 81 71 0
13.200000 0.660000 3.190000 146 78 72 0
13.420000 0.660000 3.190000 145 77 71 0
13.640000 0.660000 3.190000 144 76 70 0
13.860000 0.660000 3.190000 142 74 68 0
14.080000 0.660000 3.300000 145 71 67 0
14.300000 0.660000 3.300000 143 69 65 0
14.520000 0.660000 3.960000 144 66 61 0
14.740000 0.660000 3.960000 143 65 60 0
14.960000 0.660000 3.960000 145 65 61 0
15.180000 0.660000 4.730000 143 63 59 0
15.400000 0.660000 4.730000 142 60 57 0
15.620000 0.660000 4.730000 140 58 55 0
15.840000 0.660000 4.730000 141 57 54 0
16.060000 0.660000 4.730000 141 57 54 0
16.280000 0.660000 4.730000 141 57 54 0
16.500000 0.660000 4.730000 141 57 54 0
16.720000 0.660000 4.730000 140 56 53 0
16.940000 0.660000 4.730000 139 55 52 0
17.160000 0.660000 4.620000 139 53 51 0
17.380000 0.660000 4.730000 139 53 51 0
17.600000 0.660000 4.730000 138 52 50 0
17.820000 0.660000 4.730000 137 51 49 0
18.040000 0.660000 4.730000 137 51 49 0
18.260000 0.660000 4.620000 137 51 49 0
18.480000 0.660000 4.730000 136 50 48 0
18.700000 0.660000 4.730000 136 50 48 0
18.920000 0.660000 4.730000 138 49 48 0
19.140000 0.660000 4.730000 136 47 46 0
19.360000 0.660000 4.730000 134 48 46 0
19.580000 0.660000 4.730000 133 47 45 0
19.800000 0.660000 4.730000 134 48 46 0
20.020000 0.660000 4.730000 133 47 45 0
20.240000 0.660000 4.730000 133 46 47 0
20.460000 0.660000 4.730000 134 47 48 0
20.680000 0.660000 4.730000 132 46 44 0
20.900000 0.660000 4.730000 132 46 44 0
21.120000 0.660000 4.730000 132 46 44 0
21.340000 0.660000 4.730000 134 48 46 0
21.560000 0.660000 4.730000 132 46 44 0
21.780000 0.660000 5.390000 132 46 44 0
22.000000 0.660000 5.390000 133 46 47 0
22.220000 0.660000 6.050000 134 47 48 0
22.440000 0.660000 6.820000 133 46 47 0
22.660000 0.660000 7.480000 132 45 46 0
22.880000 0.660000 7.480000 135 49 47 0
23.100000 0.660000 8.140000 134 48 46 0
23.320000 0.660000 8.140000 135 51 48 0
23.540000 0.660000 8.800000 134 50 47 0
23.760000 0.660000 8.800000 134 52 53 0
23.980000 0.660000 8.030000 136 54 55 0
24.200000 0.660000 6.710000 136 57 57 0
24.420000 0.660000 5.280000 136 57 57 0
24.640000 0.660000 3.960000 135 59 58 0
24.860000 0.660000 3.190000 138 62 61 0
25.080000 0.660000 3.190000 138 63 62 0
25.300000 0.660000 2.530000 139 64 63 0
25.520000 0.660000 2.530000 139 67 65 0
25.740000 0.660000 2.530000 140 68 66 0
25.960000 0.660000 3.300000 142 67 67 0
26.180000 0.660000 3.960000 141 66 66 0
26.400000 0.660000 4.620000 140 65 64 0
26.620000 0.660000 4.620000 139 64 63 0
26.840000 0.660000 4.620000 138 63 62 0
27.060000 0.660000 5.390000 138 63 62 0
27.280000 0.660000 6.050000 137 61 60 0
27.500000 0.660000 6.710000 137 61 60 0
27.720000 0.660000 6.710000 136 60 59 0
27.940000 0.660000 7.370000 134 58 57 0
28.160000 0.660000 7.370000 133 58 57 0
28.380000 0.660000 6.710000 133 58 57 0
28.600000 0.660000 6.710000 135 60 59 0
28.820000 0.660000 6.820000 136 61 60 0
29.040000 0.660000 6.050000 137 62 61 0
29.260000 0.660000 6.050000 137 62 61 0
29.480000 0.660000 5.940000 138 63 63 0
29.700000 0.660000 5.940000 138 63 63 0
29.920000 0.660000 5.280000 136 64 62 0
30.140000 0.660000 5.940000 137 65 63 0
30.360000 0.660000 6.710000 138 66 64 0
30.580000 0.660000 7.480000 137 65 63 0
30.800000 0.660000 7.480000 138 66 64 0
31.020000 0.660000 7.480000 138 66 64 0
31.240000 0.660000 8.140000 138 66 64 0
31.460000 0.660000 8.140000 139 67 65 0
31.680000 0.660000 7.480000 139 67 65 0
31.900000 0.660000 6.820000 138 66 64 0
32.120000 0.660000 6.050000 138 66 64 0
32.340000 0.660000 6.050000 139 67 65 0
32.560000 0.660000 6.050000 140 68 66 0
32.780000 0.660000 6.050000 139 67 65 0
33.000000 0.660000 6.050000 141 69 67 0
33.220000 0.660000 6.710000 140 68 66 0
33.440000 0.660000 7.370000 138 68 65 0
33.660000 0.660000 7.370000 140 70 67 0
33.880000 0.660000 8.030000 141 71 68 0
34.100000 0.660000 8.030000 140 70 67 0
34.320000 0.660000 8.030000 140 70 67 0
34.540000 0.660000 8.690000 140 70 67 0
34.760000 0.660000 8.800000 140 68 66 0
34.980000 0.660000 8.800000 141 69 67 0
35.200000 0.660000 7.370000 139 69 66 0
35.420000 0.660000 6.710000 139 69 66 0
35.640000 0.660000 5.390000 139 69 66 0
35.860000 0.660000 4.620000 138 68 65 0
36.080000 0.660000 3.960000 138 68 65 0
36.300000 0.660000 3.960000 138 68 65 0
36.520000 0.660000 3.960000 139 69 66 0
36.740000 0.660000 4.620000 139 69 66 0
36.960000 0.660000 6.050000 139 70 68 0
37.180000 0.660000 6.820000 140 71 69 0
0.000000 0.880000 6.490000 137 74 62 0
0.220000 0.880000 5.830000 138 75 63 0
0.440000 0.880000 5.830000 138 75 63 0
0.660000 0.880000 5.830000 139 76 64 0
0.880000 0.880000 5.720000 139 76 64 0
1.100000 0.880000 7.040000 139 76 64 0
1.320000 0.880000 7.810000 139 76 64 0
1.540000 0.880000 8.580000 138 75 63 0
1.760000 0.880000 8.690000 139 76 64 0
1.980000 0.880000 8.800000 139 76 64 0
2.200000 0.880000 8.800000 139 76 64 0
2.420000 0.880000 8.140000 140 77 65 0
2.640000 0.880000 8.140000 141 78 66 0
2.860000 0.880000 8.140000 141 78 66 0
3.080000 0.880000 8.250000 142 79 67 0
3.300000 0.880000 8.250000 141 78 66 0
3.520000 0.880000 8.250000 143 80 70 0
3.740000 0.880000 8.140000 143 80 70 0
3.960000 0.880000 8.250000 142 79 69 0
4.180000 0.880000 8.910000 143 80 70 0
4.400000 0.880000 8.910000 144 81 71 0
4.620000 0.880000 8.910000 143 80 70 0
4.840000 0.880000 9.460000 142 81 71 0
5.060000 0.880000 9.460000 143 82 72 0
5.280000 0.880000 9.460000 145 82 72 0
5.500000 0.880000 10.230000 145 82 72 0
5.720000 0.880000 10.230000 144 83 73 0
5.940000 0.880000 10.230000 143 82 72 0
6.160000 0.880000 10.230000 144 83 73 0
6.380000 0.880000 10.890000 144 83 73 0
6.600000 0.880000 11.550000 144 83 73 0
6.820000 0.880000 11.550000 144 83 73 0
7.040000 0.880000 12.210000 145 84 74 0
7.260000 0.880000 12.210000 144 83 73 0
7.480000 0.880000 12.210000 145 84 74 0
7.700000 0.880000 12.210000 146 85 75 0
7.920000 0.880000 11.990000 146 85 77 0
8.140000 0.880000 11.990000 147 86 78 0
8.360000 0.880000 12.650000 148 87 79 0
8.580000 0.880000 13.310000 148 87 79 0
8.800000 0.880000 13.970000 148 87 79 0
9.020000 0.880000 13.860000 148 87 79 0
9.240000 0.880000 14.630000 149 88 80 0
9.460000 0.880000 14.630000 150 89 81 0
9.680000 0.880000 14.630000 150 89 81 0
9.900000 0.880000 15.290000 150 89 81 0
10.120000 0.880000 15.400000 150 89 81 0
10.340000 0.880000 16.060000 150 89 81 0
10.560000 0.880000 17.490000 150 89 81 0
10.780000 0.880000 15.400000 149 88 80 0
11.000000 0.880000 7.810000 150 89 79 0
11.220000 0.880000 2.310000 148 87 77 0
11.440000 0.880000 1.650000 148 87 79 0
11.660000 0.880000 1.650000 147 86 78 0
11.880000 0.880000 1.650000 146 85 77 0
12.100000 0.880000 1.650000 145 84 76 0
12.320000 0.880000 2.420000 145 84 74 0
12.540000 0.880000 2.420000 143 82 72 0
12.760000 0.880000 2.420000 145 82 72 0
12.980000 0.880000 2.420000 145 82 72 0
13.200000 0.880000 3.190000 147 79 73 0
13.420000 0.880000 3.190000 145 77 71 0
13.640000 0.880000 3.190000 144 76 70 0
13.860000 0.880000 3.190000 143 75 69 0
14.080000 0.880000 3.300000 145 71 67 0
14.300000 0.880000 3.300000 143 69 65 0
14.520000 0.880000 3.300000 144 66 61 0
14.740000 0.880000 3.960000 144 66 61 0
14.960000 0.880000 3.960000 144 64 60 0
15.180000 0.880000 4.730000 143 63 59 0
15.400000 0.880000 4.730000 142 60 57 0
15.620000 0.880000 4.730000 141 59 56 0
15.840000 0.880000 4.730000 142 58 55 0
16.060000 0.880000 4.730000 140 56 53 0
16.280000 0.880000 4.730000 141 57 54 0
16.500000 0.880000 4.730000 140 56 53 0
16.720000 0.880000 4.620000 140 56 53 0
16.940000 0.880000 4.620000 139 55 52 0
17.160000 0.880000 4.620000 139 53 51 0
17.380000 0.880000 4.620000 138 52 50 0
17.600000 0.880000 4.730000 139 53 51 0
17.820000 0.880000 4.730000 137 51 49 0
18.040000 0.880000 4.620000 138 52 50 0
18.260000 0.880000 4.620000 135 49 47 0
18.480000 0.880000 4.620000 136 50 48 0
18.700000 0.880000 4.730000 135 49 47 0
18.920000 0.880000 4.730000 138 49 48 0
19.140000 0.880000 4.730000 136 47 46 0
19.360000 0.880000 4.620000 133 47 45 0
19.580000 0.880000 4.730000 134 48 46 0
19.800000 0.880000 4.730000 133 47 45 0
20.020000 0.880000 4.730000 133 47 45 0
20.240000 0.880000 4.730000 134 47 48 0
20.460000 0.880000 4.730000 135 48 49 0
20.680000 0.880000 4.730000 133 47 45 0
20.900000 0.880000 4.730000 134 48 46 0
21.120000 0.880000 4.730000 133 47 45 0
21.340000 0.880000 4.730000 135 49 47 0
21.560000 0.880000 4.730000 132 46 44 0
21.780000 0.880000 4.730000 132 46 44 0
22.000000 0.880000 5.390000 132 45 46 0
22.220000 0.880000 5.390000 133 46 47 0
22.440000 0.880000 6.050000 132 45 46 0
22.660000 0.880000 6.820000 133 46 47 0
22.880000 0.880000 7.480000 134 48 46 0
23.100000 0.880000 7.480000 134 48 46 0
23.320000 0.880000 8.140000 134 50 47 0
23.540000 0.880000 8.690000 136 52 49 0
23.760000 0.880000 8.580000 133 51 52 0
23.980000 0.880000 8.470000 136 54 55 0
24.200000 0.880000 7.150000 136 57 57 0
24.420000 0.880000 5.720000 136 57 57 0
24.640000 0.880000 4.400000 137 61 60 0
24.860000 0.880000 3.630000 138 62 61 0
25.080000 0.880000 2.970000 138 63 62 0
25.300000 0.880000 2.310000 139 64 63 0
25.520000 0.880000 2.310000 138 66 64 0
25.740000 0.880000 2.420000 139 67 65 0
25.960000 0.880000 3.190000 142 67 67 0
26.180000 0.880000 3.960000 140 65 65 0
26.400000 0.880000 3.960000 139 64 63 0
26.620000 0.880000 4.620000 138 63 62 0
26.840000 0.880000 4.620000 138 63 62 0
27.060000 0.880000 5.280000 136 61 60 0
27.280000 0.880000 6.050000 138 62 61 0
27.500000 0.880000 6.710000 135 59 58 0
27.720000 0.880000 6.710000 134 58 57 0
27.940000 0.880000 6.710000 135 59 58 0
28.160000 0.880000 6.050000 134 59 58 0
28.380000 0.880000 6.050000 135 60 59 0
28.600000 0.880000 6.050000 135 60 59 0
28.820000 0.880000 6.050000 136 61 60 0
29.040000 0.880000 5.940000 137 62 61 0
29.260000 0.880000 5.830000 138 63 62 0
29.480000 0.880000 5.720000 137 62 62 0
29.700000 0.880000 5.060000 139 64 64 0
29.920000 0.880000 4.400000 138 66 64 0
30.140000 0.880000 5.170000 139 67 65 0
30.360000 0.880000 5.940000 138 66 64 0
30.580000 0.880000 6.710000 138 66 64 0
30.800000 0.880000 6.710000 138 66 64 0
31.020000 0.880000 6.710000 138 66 64 0
31.240000 0.880000 6.710000 139 67 65 0
31.460000 0.880000 6.710000 138 66 64 0
31.680000 0.880000 6.050000 138 66 64 0
31.900000 0.880000 6.050000 139 67 65 0
32.120000 0.880000 5.940000 139 67 65 0
32.340000 0.880000 6.490000 138 66 64 0
32.560000 0.880000 6.490000 139 67 65 0
32.780000 0.880000 6.490000 140 68 66 0
33.000000 0.880000 6.490000 140 68 66 0
33.220000 0.880000 7.260000 140 68 66 0
33.440000 0.880000 7.260000 139 69 66 0
33.660000 0.880000 7.920000 140 70 67 0
33.880000 0.880000 8.030000 141 71 68 0
34.100000 0.880000 8.030000 141 71 68 0
34.320000 0.880000 8.030000 141 71 68 0
34.540000 0.880000 8.690000 140 70 67 0
34.760000 0.880000 8.690000 140 68 66 0
34.980000 0.880000 8.030000 140 68 66 0
35.200000 0.880000 7.370000 139 69 66 0
35.420000 0.880000 6.050000 138 68 65 0
35.640000 0.880000 5.280000 137 67 64 0
35.860000 0.880000 4.620000 138 68 65 0
36.080000 0.880000 4.620000 138 68 65 0
36.300000 0.880000 3.850000 138 68 65 0
36.520000 0.880000 3.960000 139 69 66 0
36.740000 0.880000 4.620000 139 69 66 0
36.960000 0.880000 5.280000 140 71 69 0
37.180000 0.880000 6.050000 140 71 69 0
0.000000 1.100000 6.490000 137 74 62 0
0.220000 1.100000 5.720000 137 74 62 0
0.440000 1.100000 5.830000 138 75 65 0
0.660000 1.100000 5.830000 138 75 65 0
0.880000 1.100000 6.380000 139 76 64 0
1.100000 1.100000 7.040000 138 75 63 0
1.320000 1.100000 7.700000 138 75 63 0
1.540000 1.100000 8.470000 139 76 64 0
1.760000 1.100000 9.130000 139 76 66 0
1.980000 1.100000 9.130000 139 76 66 0
2.200000 1.100000 8.580000 139 76 64 0
2.420000 1.100000 8.030000 141 78 66 0
2.640000 1.100000 8.140000 141 78 68 0
2.860000 1.100000 7.480000 141 78 68 0
3.080000 1.100000 7.480000 142 79 69 0
3.300000 1.100000 8.250000 142 79 69 0
3.520000 1.100000 8.250000 142 79 69 0
3.740000 1.100000 8.250000 141 78 68 0
3.960000 1.100000 8.250000 142 79 69 0
4.180000 1.100000 8.910000 144 81 71 0
4.400000 1.100000 9.680000 142 79 69 0
4.620000 1.100000 9.570000 144 81 71 0
4.840000 1.100000 10.010000 144 81 71 0
5.060000 1.100000 9.900000 145 82 72 0
5.280000 1.100000 10.120000 145 82 72 0
5.500000 1.100000 11.000000 144 81 71 0
5.720000 1.100000 10.890000 143 82 72 0
5.940000 1.100000 10.780000 144 83 73 0
6.160000 1.100000 11.330000 143 82 72 0
6.380000 1.100000 11.990000 144 83 73 0
6.600000 1.100000 12.650000 145 84 76 0
6.820000 1.100000 13.310000 145 84 76 0
7.040000 1.100000 13.310000 145 84 76 0
7.260000 1.100000 13.310000 144 83 75 0
7.480000 1.100000 13.310000 146 85 77 0
7.700000 1.100000 13.310000 145 84 76 0
7.920000 1.100000 13.310000 147 86 76 0
8.140000 1.100000 13.200000 147 86 76 0
8.360000 1.100000 13.200000 147 86 78 0
8.580000 1.100000 13.970000 148 87 79 0
8.800000 1.100000 13.970000 149 88 80 0
9.020000 1.100000 14.630000 149 88 80 0
9.240000 1.100000 14.630000 149 88 80 0
9.460000 1.100000 14.630000 149 88 80 0
9.680000 1.100000 15.290000 149 90 81 0
9.900000 1.100000 15.290000 149 90 81 0
10.120000 1.100000 16.060000 149 90 81 0
10.340000 1.100000 16.060000 149 90 81 0
10.560000 1.100000 17.490000 149 88 80 0
10.780000 1.100000 17.490000 149 88 80 0
11.000000 1.100000 14.080000 150 89 81 0
11.220000 1.100000 7.150000 149 88 80 0
11.440000 1.100000 2.310000 147 86 78 0
11.660000 1.100000 0.990000 147 86 78 0
11.880000 1.100000 0.990000 147 86 78 0
12.100000 1.100000 0.990000 146 85 77 0
12.320000 1.100000 1.760000 145 84 76 0
12.540000 1.100000 1.760000 144 83 75 0
12.760000 1.100000 2.420000 146 81 72 0
12.980000 1.100000 2.420000 145 80 71 0
13.200000 1.100000 2.420000 147 77 72 0
13.420000 1.100000 2.530000 145 75 70 0
13.640000 1.100000 2.530000 145 75 70 0
13.860000 1.100000 3.190000 144 74 69 0
14.080000 1.100000 3.300000 145 71 67 0
14.300000 1.100000 3.300000 143 69 65 0
14.520000 1.100000 3.300000 143 67 62 0
14.740000 1.100000 3.300000 141 65 60 0
14.960000 1.100000 3.960000 144 64 60 0
15.180000 1.100000 3.960000 142 62 58 0
15.400000 1.100000 3.960000 143 59 56 0
15.620000 1.100000 3.960000 143 59 56 0
15.840000 1.100000 4.730000 142 58 55 0
16.060000 1.100000 4.730000 140 56 53 0
16.280000 1.100000 4.730000 139 57 54 0
16.500000 1.100000 4.730000 138 56 53 0
16.720000 1.100000 4.730000 140 56 53 0
16.940000 1.100000 4.620000 140 56 53 0
17.160000 1.100000 4.620000 140 54 52 0
17.380000 1.100000 4.620000 137 51 49 0
17.600000 1.100000 4.730000 139 52 53 0
17.820000 1.100000 4.730000 138 51 52 0
18.040000 1.100000 4.620000 137 51 49 0
18.260000 1.100000 4.620000 137 51 49 0
18.480000 1.100000 4.730000 138 52 50 0
18.700000 1.100000 4.730000 137 51 49 0
18.920000 1.100000 4.730000 136 49 50 0
19.140000 1.100000 4.730000 136 49 50 0
19.360000 1.100000 4.730000 135 48 49 0
19.580000 1.100000 4.730000 135 48 49 0
19.800000 1.100000 4.730000 137 48 47 0
20.020000 1.100000 4.730000 137 48 47 0
20.240000 1.100000 4.730000 133 46 47 0
20.460000 1.100000 4.730000 133 46 47 0
20.680000 1.100000 4.730000 132 45 46 0
20.900000 1.100000 4.730000 133 46 47 0
21.120000 1.100000 4.730000 135 48 49 0
21.340000 1.100000 4.730000 133 46 47 0
21.560000 1.100000 4.730000 134 45 46 0
21.780000 1.100000 4.730000 134 45 46 0
22.000000 1.100000 5.390000 132 45 46 0
22.220000 1.100000 5.390000 134 47 48 0
22.440000 1.100000 6.160000 133 46 47 0
22.660000 1.100000 6.820000 133 46 47 0
22.880000 1.100000 7.480000 134 47 48 0
23.100000 1.100000 7.590000 134 47 48 0
23.320000 1.100000 8.140000 135 48 49 0
23.540000 1.100000 8.580000 136 49 50 0
23.760000 1.100000 9.130000 135 53 52 0
23.980000 1.100000 8.360000 136 54 53 0
24.200000 1.100000 7.700000 133 57 56 0
24.420000 1.100000 6.270000 135 59 58 0
24.640000 1.100000 4.950000 138 59 59 0
24.860000 1.100000 3.520000 140 61 61 0
25.080000 1.100000 2.860000 140 64 63 0
25.300000 1.100000 2.860000 140 64 63 0
25.520000 1.100000 2.970000 142 67 66 0
25.740000 1.100000 2.970000 141 66 65 0
25.960000 1.100000 3.080000 142 67 66 0
26.180000 1.100000 3.850000 140 65 64 0
26.400000 1.100000 3.960000 140 65 64 0
26.620000 1.100000 3.960000 138 63 62 0
26.840000 1.100000 4.620000 138 62 61 0
27.060000 1.100000 5.280000 137 61 60 0
27.280000 1.100000 6.050000 136 60 59 0
27.500000 1.100000 6.710000 135 59 58 0
27.720000 1.100000 6.050000 134 58 57 0
27.940000 1.100000 6.050000 135 59 58 0
28.160000 1.100000 5.390000 135 59 58 0
28.380000 1.100000 5.390000 136 60 59 0
28.600000 1.100000 6.050000 134 59 58 0
28.820000 1.100000 5.940000 135 60 59 0
29.040000 1.100000 5.830000 137 62 61 0
29.260000 1.100000 5.720000 139 64 63 0
29.480000 1.100000 4.950000 139 64 63 0
29.700000 1.100000 4.290000 139 64 63 0
29.920000 1.100000 4.290000 138 66 64 0
30.140000 1.100000 4.400000 139 67 65 0
30.360000 1.100000 5.170000 142 67 67 0
30.580000 1.100000 5.940000 141 66 66 0
30.800000 1.100000 5.940000 139 67 65 0
31.020000 1.100000 5.940000 139 67 65 0
31.240000 1.100000 6.050000 141 66 65 0
31.460000 1.100000 5.390000 140 65 64 0
31.680000 1.100000 5.390000 140 65 64 0
31.900000 1.100000 5.390000 140 65 64 0
32.120000 1.100000 5.830000 140 65 65 0
32.340000 1.100000 6.380000 141 66 66 0
32.560000 1.100000 7.040000 138 66 65 0
32.780000 1.100000 7.040000 139 67 66 0
33.000000 1.100000 7.040000 138 66 64 0
33.220000 1.100000 7.810000 139 67 65 0
33.440000 1.100000 7.810000 140 68 66 0
33.660000 1.100000 7.920000 141 69 67 0
33.880000 1.100000 7.920000 143 71 70 0
34.100000 1.100000 8.030000 142 70 69 0
34.320000 1.100000 8.030000 139 69 67 0
34.540000 1.100000 8.690000 140 70 68 0
34.760000 1.100000 8.690000 141 69 67 0
34.980000 1.100000 8.690000 141 69 67 0
35.200000 1.100000 7.370000 139 67 65 0
35.420000 1.100000 6.050000 138 66 64 0
35.640000 1.100000 5.280000 138 66 65 0
35.860000 1.100000 4.620000 138 66 65 0
36.080000 1.100000 4.620000 138 68 66 0
36.300000 1.100000 3.850000 138 68 66 0
36.520000 1.100000 3.960000 139 67 65 0
36.740000 1.100000 4.620000 141 69 67 0
36.960000 1.100000 6.050000 141 71 69 0
37.180000 1.100000 6.710000 140 70 68 0
0.000000 1.320000 6.490000 138 75 63 0
0.220000 1.320000 5.830000 138 75 63 0
0.440000 1.320000 5.170000 138 75 65 0
0.660000 1.320000 5.830000 138 75 65 0
0.880000 1.320000 6.380000 138 75 63 0
1.100000 1.320000 7.040000 138 75 63 0
1.320000 1.320000 7.700000 138 75 63 0
1.540000 1.320000 8.470000 139 76 64 0
1.760000 1.320000 8.470000 138 75 65 0
1.980000 1.320000 9.130000 140 77 67 0
2.200000 1.320000 8.470000 140 77 65 0
2.420000 1.320000 7.920000 141 78 66 0
2.640000 1.320000 7.480000 142 79 69 0
2.860000 1.320000 7.480000 142 79 69 0
3.080000 1.320000 7.480000 140 77 67 0
3.300000 1.320000 7.480000 141 78 68 0
3.520000 1.320000 7.480000 141 78 68 0
3.740000 1.320000 7.480000 143 80 70 0
3.960000 1.320000 8.250000 143 80 70 0
4.180000 1.320000 8.910000 142 79 69 0
4.400000 1.320000 9.680000 144 81 71 0
4.620000 1.320000 10.230000 143 80 70 0
4.840000 1.320000 10.010000 143 80 70 0
5.060000 1.320000 10.010000 144 81 71 0
5.280000 1.320000 10.890000 144 81 71 0
5.500000 1.320000 11.000000 145 82 72 0
5.720000 1.320000 11.660000 143 82 72 0
5.940000 1.320000 12.100000 143 82 72 0
6.160000 1.320000 12.540000 143 82 72 0
6.380000 1.320000 13.200000 144 83 73 0
6.600000 1.320000 13.310000 145 84 76 0
6.820000 1.320000 13.310000 145 84 76 0
7.040000 1.320000 13.310000 144 83 75 0
7.260000 1.320000 13.310000 145 84 76 0
7.480000 1.320000 13.310000 146 85 77 0
7.700000 1.320000 13.970000 146 85 77 0
7.920000 1.320000 13.860000 146 85 75 0
8.140000 1.320000 13.970000 147 86 76 0
8.360000 1.320000 13.860000 147 86 78 0
8.580000 1.320000 13.860000 147 86 78 0
8.800000 1.320000 14.630000 148 87 79 0
9.020000 1.320000 14.630000 149 88 80 0
9.240000 1.320000 15.290000 149 88 80 0
9.460000 1.320000 15.290000 150 89 81 0
9.680000 1.320000 15.290000 149 90 81 0
9.900000 1.320000 16.060000 150 91 82 0
10.120000 1.320000 16.060000 150 91 82 0
10.340000 1.320000 16.720000 149 90 81 0
10.560000 1.320000 17.490000 149 88 80 0
10.780000 1.320000 18.150000 149 88 80 0
11.000000 1.320000 16.830000 148 87 79 0
11.220000 1.320000 9.900000 148 87 79 0
11.440000 1.320000 3.080000 148 87 79 0
11.660000 1.320000 0.330000 147 86 78 0
11.880000 1.320000 0.330000 146 85 77 0
12.100000 1.320000 0.990000 146 85 77 0
12.320000 1.320000 0.990000 145 84 76 0
12.540000 1.320000 1.760000 144 83 75 0
12.760000 1.320000 1.760000 146 81 72 0
12.980000 1.320000 1.760000 145 80 71 0
13.200000 1.320000 1.760000 147 77 72 0
13.420000 1.320000 1.760000 145 75 70 0
13.640000 1.320000 2.530000 144 74 69 0
13.860000 1.320000 2.530000 143 73 68 0
14.080000 1.320000 2.530000 144 70 66 0
14.300000 1.320000 2.640000 142 68 64 0
14.520000 1.320000 3.300000 142 66 61 0
14.740000 1.320000 3.300000 142 66 61 0
14.960000 1.320000 3.960000 143 63 59 0
15.180000 1.320000 4.070000 142 62 58 0
15.400000 1.320000 4.070000 144 60 57 0
15.620000 1.320000 4.070000 143 59 56 0
15.840000 1.320000 4.070000 142 58 55 0
16.060000 1.320000 4.730000 141 57 54 0
16.280000 1.320000 4.730000 139 57 54 0
16.500000 1.320000 4.730000 139 57 54 0
16.720000 1.320000 4.730000 141 57 54 0
16.940000 1.320000 4.730000 139 55 52 0
17.160000 1.320000 4.730000 139 53 51 0
17.380000 1.320000 4.730000 138 52 50 0
17.600000 1.320000 4.730000 138 51 52 0
17.820000 1.320000 4.730000 137 50 51 0
18.040000 1.320000 4.730000 137 51 49 0
18.260000 1.320000 4.730000 136 50 48 0
18.480000 1.320000 4.730000 137 51 49 0
18.700000 1.320000 4.730000 136 50 48 0
18.920000 1.320000 4.730000 136 49 50 0
19.140000 1.320000 4.730000 135 48 49 0
19.360000 1.320000 4.730000 134 47 48 0
19.580000 1.320000 4.730000 135 48 49 0
19.800000 1.320000 4.730000 137 48 47 0
20.020000 1.320000 4.730000 135 46 45 0
20.240000 1.320000 4.730000 133 46 47 0
20.460000 1.320000 4.730000 133 46 47 0
20.680000 1.320000 4.730000 133 46 47 0
20.900000 1.320000 4.730000 135 48 49 0
21.120000 1.320000 4.730000 133 46 47 0
21.340000 1.320000 4.730000 132 45 46 0
21.560000 1.320000 4.730000 135 46 47 0
21.780000 1.320000 4.730000 134 45 46 0
22.000000 1.320000 5.390000 133 46 47 0
22.220000 1.320000 5.390000 133 46 47 0
22.440000 1.320000 6.160000 134 47 48 0
22.660000 1.320000 6.820000 133 46 47 0
22.880000 1.320000 7.590000 135 48 49 0
23.100000 1.320000 8.250000 136 49 50 0
23.320000 1.320000 8.030000 135 48 49 0
23.540000 1.320000 9.130000 136 49 50 0
23.760000 1.320000 9.020000 135 53 52 0
23.980000 1.320000 8.360000 135 53 52 0
24.200000 1.320000 7.700000 133 57 56 0
24.420000 1.320000 6.270000 135 59 58 0
24.640000 1.320000 4.950000 138 59 59 0
24.860000 1.320000 3.520000 139 60 60 0
25.080000 1.320000 2.860000 140 64 63 0
25.300000 1.320000 2.970000 140 64 63 0
25.520000 1.320000 2.970000 141 66 65 0
25.740000 1.320000 2.970000 140 65 64 0
25.960000 1.320000 3.080000 140 65 64 0
26.180000 1.320000 3.190000 140 65 64 0
26.400000 1.320000 3.960000 140 65 64 0
26.620000 1.320000 3.960000 139 64 63 0
26.840000 1.320000 4.620000 138 62 61 0
27.060000 1.320000 5.390000 136 60 59 0
27.280000 1.320000 6.050000 135 59 58 0
27.500000 1.320000 6.050000 135 59 58 0
27.720000 1.320000 6.050000 134 58 57 0
27.940000 1.320000 5.390000 135 59 58 0
28.160000 1.320000 5.390000 136 60 59 0
28.380000 1.320000 5.390000 136 60 59 0
28.600000 1.320000 5.830000 136 61 60 0
28.820000 1.320000 6.380000 137 62 61 0
29.040000 1.320000 5.610000 137 62 61 0
29.260000 1.320000 4.950000 139 64 63 0
29.480000 1.320000 4.290000 140 65 64 0
29.700000 1.320000 3.630000 139 64 63 0
29.920000 1.320000 3.630000 138 66 64 0
30.140000 1.320000 4.400000 140 68 66 0
30.360000 1.320000 5.170000 141 66 66 0
30.580000 1.320000 5.940000 140 65 65 0
30.800000 1.320000 5.940000 138 66 64 0
31.020000 1.320000 5.280000 139 67 65 0
31.240000 1.320000 5.390000 140 65 64 0
31.460000 1.320000 4.620000 139 64 63 0
31.680000 1.320000 4.730000 139 64 63 0
31.900000 1.320000 4.730000 139 64 63 0
32.120000 1.320000 5.280000 139 64 64 0
32.340000 1.320000 6.380000 139 64 64 0
32.560000 1.320000 7.040000 138 66 65 0
32.780000 1.320000 7.700000 137 65 64 0
33.000000 1.320000 7.810000 138 66 64 0
33.220000 1.320000 7.810000 138 66 64 0
33.440000 1.320000 7.810000 139 67 65 0
33.660000 1.320000 8.580000 141 69 67 0
33.880000 1.320000 8.690000 141 69 68 0
34.100000 1.320000 8.690000 141 69 68 0
34.320000 1.320000 8.690000 139 69 67 0
34.540000 1.320000 9.460000 140 70 68 0
34.760000 1.320000 9.460000 140 68 66 0
34.980000 1.320000 8.800000 140 68 66 0
35.200000 1.320000 7.370000 138 66 64 0
35.420000 1.320000 6.050000 140 68 66 0
35.640000 1.320000 5.390000 138 66 65 0
35.860000 1.320000 4.620000 137 65 64 0
36.080000 1.320000 4.620000 137 67 65 0
36.300000 1.320000 3.960000 138 68 66 0
36.520000 1.320000 3.190000 141 69 67 0
36.740000 1.320000 6.710000 140 68 66 0
36.960000 1.320000 10.120000 141 71 69 0
37.180000 1.320000 10.230000 141 71 69 0
0.000000 1.540000 6.380000 139 74 63 0
0.220000 1.540000 5.720000 139 74 63 0
0.440000 1.540000 5.830000 138 75 63 0
0.660000 1.540000 5.830000 137 74 62 0
0.880000 1.540000 6.380000 138 75 63 0
1.100000 1.540000 7.040000 139 76 64 0
1.320000 1.540000 7.700000 139 76 64 0
1.540000 1.540000 8.470000 138 75 63 0
1.760000 1.540000 8.580000 140 75 64 0
1.980000 1.540000 8.030000 140 75 64 0
2.200000 1.540000 8.030000 139 76 64 0
2.420000 1.540000 7.370000 140 77 65 0
2.640000 1.540000 7.480000 141 78 66 0
2.860000 1.540000 7.480000 140 77 65 0
3.080000 1.540000 7.480000 142 79 67 0
3.300000 1.540000 7.480000 141 78 66 0
3.520000 1.540000 7.480000 141 78 66 0
3.740000 1.540000 7.480000 143 80 68 0
3.960000 1.540000 7.480000 142 79 67 0
4.180000 1.540000 8.910000 143 80 68 0
4.400000 1.540000 9.570000 143 80 70 0
4.620000 1.540000 10.230000 144 81 71 0
4.840000 1.540000 10.120000 144 81 71 0
5.060000 1.540000 10.120000 143 80 70 0
5.280000 1.540000 10.230000 145 82 72 0
5.500000 1.540000 11.000000 144 81 71 0
5.720000 1.540000 11.660000 145 82 72 0
5.940000 1.540000 12.100000 145 82 72 0
6.160000 1.540000 12.540000 145 82 72 0
6.380000 1.540000 12.540000 145 82 72 0
6.600000 1.540000 12.870000 144 83 75 0
6.820000 1.540000 12.980000 144 83 75 0
7.040000 1.540000 12.870000 145 84 76 0
7.260000 1.540000 12.870000 144 83 75 0
7.480000 1.540000 13.420000 146 85 75 0
7.700000 1.540000 13.970000 146 85 75 0
7.920000 1.540000 13.860000 147 86 78 0
8.140000 1.540000 13.860000 147 86 78 0
8.360000 1.540000 13.860000 147 86 78 0
8.580000 1.540000 14.630000 147 86 78 0
8.800000 1.540000 14.630000 148 87 79 0
9.020000 1.540000 14.630000 149 88 80 0
9.240000 1.540000 15.290000 149 88 80 0
9.460000 1.540000 15.290000 150 89 81 0
9.680000 1.540000 15.950000 150 89 81 0
9.900000 1.540000 15.950000 149 88 80 0
10.120000 1.540000 16.060000 149 88 82 0
10.340000 1.540000 16.720000 149 88 82 0
10.560000 1.540000 16.830000 150 89 81 0
10.780000 1.540000 17.490000 149 88 80 0
11.000000 1.540000 15.400000 149 88 80 0
11.220000 1.540000 7.150000 148 87 79 0
11.440000 1.540000 1.650000 147 86 78 0
11.660000 1.540000 0.330000 146 85 77 0
11.880000 1.540000 0.330000 146 85 79 0
12.100000 1.540000 0.330000 146 85 79 0
12.320000 1.540000 0.990000 148 84 77 0
12.540000 1.540000 0.990000 146 82 75 0
12.760000 1.540000 1.100000 146 81 74 0
12.980000 1.540000 1.100000 145 80 73 0
13.200000 1.540000 1.100000 146 78 72 0
13.420000 1.540000 1.760000 144 76 70 0
13.640000 1.540000 1.870000 144 72 68 0
13.860000 1.540000 2.530000 143 71 67 0
14.080000 1.540000 2.530000 145 69 66 0
14.300000 1.540000 2.640000 143 67 64 0
14.520000 1.540000 2.640000 145 67 62 0
14.740000 1.540000 3.300000 143 65 60 0
14.960000 1.540000 3.300000 142 62 56 0
15.180000 1.540000 4.070000 141 61 55 0
15.400000 1.540000 4.070000 141 59 56 0
15.620000 1.540000 4.070000 140 58 55 0
15.840000 1.540000 4.070000 142 58 55 0
16.060000 1.540000 4.070000 140 56 53 0
16.280000 1.540000 4.730000 140 56 53 0
16.500000 1.540000 4.730000 140 56 53 0
16.720000 1.540000 4.730000 139 55 50 0
16.940000 1.540000 4.730000 137 53 48 0
17.160000 1.540000 4.730000 138 52 48 0
17.380000 1.540000 4.730000 138 52 48 0
17.600000 1.540000 4.730000 137 53 50 0
17.820000 1.540000 4.730000 137 53 50 0
18.040000 1.540000 4.730000 138 52 50 0
18.260000 1.540000 4.730000 137 51 49 0
18.480000 1.540000 4.730000 137 51 49 0
18.700000 1.540000 4.730000 136 50 48 0
18.920000 1.540000 4.730000 135 49 47 0
19.140000 1.540000 4.730000 134 48 46 0
19.360000 1.540000 4.730000 136 50 48 0
19.580000 1.540000 4.730000 135 49 47 0
19.800000 1.540000 4.730000 135 49 47 0
20.020000 1.540000 4.730000 134 48 46 0
20.240000 1.540000 4.730000 134 48 46 0
20.460000 1.540000 4.730000 134 48 46 0
20.680000 1.540000 4.730000 135 49 47 0
20.900000 1.540000 4.730000 135 49 47 0
21.120000 1.540000 4.730000 133 47 45 0
21.340000 1.540000 4.730000 133 47 45 0
21.560000 1.540000 4.730000 135 46 47 0
21.780000 1.540000 4.730000 134 45 46 0
22.000000 1.540000 5.500000 133 47 45 0
22.220000 1.540000 5.500000 133 47 45 0
22.440000 1.540000 6.160000 133 47 45 0
22.660000 1.540000 6.820000 134 48 46 0
22.880000 1.540000 7.480000 135 48 49 0
23.100000 1.540000 8.030000 135 48 49 0
23.320000 1.540000 8.470000 134 49 49 0
23.540000 1.540000 9.020000 135 50 50 0
23.760000 1.540000 8.360000 133 51 52 0
23.980000 1.540000 8.360000 135 53 54 0
24.200000 1.540000 7.700000 134 55 55 0
24.420000 1.540000 6.270000 136 57 57 0
24.640000 1.540000 4.950000 136 60 59 0
24.860000 1.540000 4.290000 137 61 60 0
25.080000 1.540000 2.860000 139 63 62 0
25.300000 1.540000 2.970000 140 64 63 0
25.520000 1.540000 2.970000 140 64 63 0
25.740000 1.540000 2.970000 141 65 64 0
25.960000 1.540000 3.080000 141 65 64 0
26.180000 1.540000 3.190000 140 64 63 0
26.400000 1.540000 3.300000 140 64 63 0
26.620000 1.540000 3.960000 138 62 61 0
26.840000 1.540000 4.730000 138 62 61 0
27.060000 1.540000 5.390000 137 61 60 0
27.280000 1.540000 6.050000 137 58 58 0
27.500000 1.540000 6.050000 136 57 57 0
27.720000 1.540000 5.390000 135 59 58 0
27.940000 1.540000 5.390000 135 59 58 0
28.160000 1.540000 5.390000 134 59 58 0
28.380000 1.540000 5.940000 135 60 59 0
28.600000 1.540000 6.380000 135 60 59 0
28.820000 1.540000 6.270000 137 62 61 0
29.040000 1.540000 5.610000 139 64 63 0
29.260000 1.540000 4.950000 139 64 63 0
29.480000 1.540000 3.630000 138 66 64 0
29.700000 1.540000 3.630000 138 66 64 0
29.920000 1.540000 3.630000 138 66 64 0
30.140000 1.540000 3.630000 140 68 66 0
30.360000 1.540000 4.400000 140 68 66 0
30.580000 1.540000 5.280000 139 67 65 0
30.800000 1.540000 5.280000 142 67 66 0
31.020000 1.540000 4.620000 140 65 64 0
31.240000 1.540000 4.620000 140 65 64 0
31.460000 1.540000 4.730000 139 64 63 0
31.680000 1.540000 4.730000 140 65 64 0
31.900000 1.540000 4.730000 138 63 62 0
32.120000 1.540000 5.940000 137 65 63 0
32.340000 1.540000 6.380000 136 64 62 0
32.560000 1.540000 7.700000 137 65 63 0
32.780000 1.540000 7.700000 137 65 63 0
33.000000 1.540000 7.700000 138 66 64 0
33.220000 1.540000 7.810000 139 67 65 0
33.440000 1.540000 8.470000 138 66 64 0
33.660000 1.540000 8.580000 141 69 67 0
33.880000 1.540000 8.690000 141 69 67 0
34.100000 1.540000 8.690000 142 70 68 0
34.320000 1.540000 8.690000 140 68 66 0
34.540000 1.540000 9.460000 139 67 65 0
34.760000 1.540000 9.460000 140 68 66 0
34.980000 1.540000 9.460000 140 68 66 0
35.200000 1.540000 8.140000 139 67 65 0
35.420000 1.540000 6.710000 138 66 64 0
35.640000 1.540000 5.390000 138 66 64 0
35.860000 1.540000 4.620000 138 66 64 0
36.080000 1.540000 4.620000 137 65 63 0
36.300000 1.540000 3.960000 139 67 65 0
36.520000 1.540000 3.300000 139 69 66 0
36.740000 1.540000 7.370000 138 68 65 0
36.960000 1.540000 11.550000 140 68 67 0
37.180000 1.540000 12.320000 141 69 68 0
0.000000 1.760000 6.380000 138 73 62 0
0.220000 1.760000 6.380000 138 73 62 0
0.440000 1.760000 5.720000 138 75 63 0
0.660000 1.760000 5.720000 137 74 62 0
0.880000 1.760000 6.380000 138 75 63 0
1.100000 1.760000 7.040000 138 75 63 0
1.320000 1.760000 7.700000 139 76 64 0
1.540000 1.760000 7.810000 139 76 64 0
1.760000 1.760000 8.470000 139 74 63 0
1.980000 1.760000 8.580000 140 75 64 0
2.200000 1.760000 7.480000 140 77 65 0
2.420000 1.760000 7.480000 139 76 64 0
2.640000 1.760000 7.480000 140 77 65 0
2.860000 1.760000 7.480000 141 78 66 0
3.080000 1.760000 7.480000 142 79 67 0
3.300000 1.760000 6.820000 142 79 67 0
3.520000 1.760000 6.820000 141 78 66 0
3.740000 1.760000 6.820000 142 79 67 0
3.960000 1.760000 7.590000 143 80 68 0
4.180000 1.760000 8.250000 143 80 68 0
4.400000 1.760000 9.570000 143 80 70 0
4.620000 1.760000 10.670000 144 81 71 0
4.840000 1.760000 10.560000 144 81 71 0
5.060000 1.760000 10.670000 145 82 72 0
5.280000 1.760000 10.890000 145 82 72 0
5.500000 1.760000 11.000000 144 81 71 0
5.720000 1.760000 11.550000 145 82 72 0
5.940000 1.760000 11.990000 145 82 72 0
6.160000 1.760000 12.540000 146 83 73 0
6.380000 1.760000 12.650000 146 83 73 0
6.600000 1.760000 12.210000 145 84 76 0
6.820000 1.760000 12.320000 144 83 75 0
7.040000 1.760000 12.870000 143 82 74 0
7.260000 1.760000 13.420000 145 84 76 0
7.480000 1.760000 13.970000 145 84 74 0
7.700000 1.760000 13.860000 145 84 74 0
7.920000 1.760000 13.860000 146 85 77 0
8.140000 1.760000 13.860000 147 86 78 0
8.360000 1.760000 13.860000 148 87 79 0
8.580000 1.760000 13.860000 147 86 78 0
8.800000 1.760000 14.630000 149 88 80 0
9.020000 1.760000 14.630000 148 87 79 0
9.240000 1.760000 15.290000 149 88 80 0
9.460000 1.760000 15.290000 150 89 81 0
9.680000 1.760000 15.290000 150 89 81 0
9.900000 1.760000 15.950000 150 89 81 0
10.120000 1.760000 16.060000 150 89 83 0
10.340000 1.760000 16.060000 149 88 82 0
10.560000 1.760000 16.830000 150 89 81 0
10.780000 1.760000 17.490000 149 88 80 0
11.000000 1.760000 14.080000 149 88 80 0
11.220000 1.760000 5.060000 147 86 78 0
11.440000 1.760000 0.220000 147 86 78 0
11.660000 1.760000 0.990000 146 85 77 0
11.880000 1.760000 0.990000 145 84 78 0
12.100000 1.760000 0.990000 145 84 78 0
12.320000 1.760000 0.990000 147 83 76 0
12.540000 1.760000 0.990000 147 83 76 0
12.760000 1.760000 1.100000 146 81 74 0
12.980000 1.760000 1.100000 145 80 73 0
13.200000 1.760000 1.100000 147 79 73 0
13.420000 1.760000 1.760000 144 76 70 0
13.640000 1.760000 1.870000 145 73 69 0
13.860000 1.760000 2.530000 143 71 67 0
14.080000 1.760000 2.530000 145 69 66 0
14.300000 1.760000 2.640000 144 68 65 0
14.520000 1.760000 2.640000 144 66 61 0
14.740000 1.760000 3.300000 143 65 60 0
14.960000 1.760000 3.300000 143 63 57 0
15.180000 1.760000 4.070000 141 61 55 0
15.400000 1.760000 4.070000 141 59 56 0
15.620000 1.760000 4.070000 141 59 56 0
15.840000 1.760000 4.070000 141 57 54 0
16.060000 1.760000 4.070000 140 56 53 0
16.280000 1.760000 4.730000 139 55 52 0
16.500000 1.760000 4.730000 139 55 52 0
16.720000 1.760000 4.730000 138 54 49 0
16.940000 1.760000 4.730000 138 54 49 0
17.160000 1.760000 4.730000 139 53 49 0
17.380000 1.760000 4.730000 137 51 47 0
17.600000 1.760000 4.730000 137 53 50 0
17.820000 1.760000 4.730000 136 52 49 0
18.040000 1.760000 4.730000 137 51 49 0
18.260000 1.760000 4.730000 137 51 49 0
18.480000 1.760000 4.730000 136 50 48 0
18.700000 1.760000 4.730000 136 50 48 0
18.920000 1.760000 4.730000 136 50 48 0
19.140000 1.760000 4.730000 136 50 48 0
19.360000 1.760000 4.730000 135 49 47 0
19.580000 1.760000 4.730000 135 49 47 0
19.800000 1.760000 4.730000 136 50 48 0
20.020000 1.760000 4.730000 135 49 47 0
20.240000 1.760000 4.730000 134 48 46 0
20.460000 1.760000 4.730000 133 47 45 0
20.680000 1.760000 4.730000 134 48 46 0
20.900000 1.760000 4.730000 133 47 45 0
21.120000 1.760000 4.730000 132 46 44 0
21.340000 1.760000 4.730000 134 48 46 0
21.560000 1.760000 4.730000 135 46 47 0
21.780000 1.760000 4.730000 134 45 46 0
22.000000 1.760000 4.730000 132 46 44 0
22.220000 1.760000 5.500000 134 48 46 0
22.440000 1.760000 6.160000 133 47 45 0
22.660000 1.760000 6.710000 134 48 46 0
22.880000 1.760000 7.810000 134 47 48 0
23.100000 1.760000 8.470000 135 48 49 0
23.320000 1.760000 8.360000 134 49 49 0
23.540000 1.760000 8.360000 135 50 50 0
23.760000 1.760000 8.360000 133 51 52 0
23.980000 1.760000 8.360000 135 53 54 0
24.200000 1.760000 7.700000 134 55 55 0
24.420000 1.760000 7.040000 136 57 57 0
24.640000 1.760000 5.610000 135 59 58 0
24.860000 1.760000 4.290000 137 61 60 0
25.080000 1.760000 3.630000 138 62 61 0
25.300000 1.760000 2.970000 138 62 61 0
25.520000 1.760000 2.970000 140 64 63 0
25.740000 1.760000 3.630000 139 63 62 0
25.960000 1.760000 3.740000 139 63 62 0
26.180000 1.760000 3.190000 138 62 61 0
26.400000 1.760000 3.300000 139 63 62 0
26.620000 1.760000 3.960000 138 62 61 0
26.840000 1.760000 4.730000 137 61 60 0
27.060000 1.760000 5.390000 136 60 59 0
27.280000 1.760000 6.050000 136 57 57 0
27.500000 1.760000 6.160000 137 58 58 0
27.720000 1.760000 5.500000 133 57 56 0
27.940000 1.760000 5.390000 136 60 59 0
28.160000 1.760000 5.830000 134 59 58 0
28.380000 1.760000 5.720000 135 60 59 0
28.600000 1.760000 6.270000 135 60 59 0
28.820000 1.760000 5.610000 137 62 61 0
29.040000 1.760000 4.950000 138 63 62 0
29.260000 1.760000 4.290000 139 64 63 0
29.480000 1.760000 3.630000 139 67 65 0
29.700000 1.760000 2.970000 139 67 65 0
29.920000 1.760000 2.970000 140 68 66 0
30.140000 1.760000 3.630000 140 68 66 0
30.360000 1.760000 4.400000 140 68 66 0
30.580000 1.760000 4.510000 140 68 66 0
30.800000 1.760000 5.280000 140 65 64 0
31.020000 1.760000 4.620000 140 65 64 0
31.240000 1.760000 4.620000 140 65 64 0
31.460000 1.760000 4.730000 140 65 64 0
31.680000 1.760000 4.730000 139 64 63 0
31.900000 1.760000 5.390000 138 63 62 0
32.120000 1.760000 6.490000 135 63 61 0
32.340000 1.760000 7.040000 137 65 63 0
32.560000 1.760000 7.700000 137 65 63 0
32.780000 1.760000 7.700000 138 66 64 0
33.000000 1.760000 7.700000 139 67 65 0
33.220000 1.760000 7.810000 139 67 65 0
33.440000 1.760000 8.470000 140 68 66 0
33.660000 1.760000 8.580000 141 69 67 0
33.880000 1.760000 9.350000 142 70 68 0
34.100000 1.760000 9.350000 141 69 67 0
34.320000 1.760000 9.350000 140 68 66 0
34.540000 1.760000 9.460000 140 68 66 0
34.760000 1.760000 10.120000 139 67 65 0
34.980000 1.760000 9.460000 139 67 65 0
35.200000 1.760000 8.140000 139 67 65 0
35.420000 1.760000 6.710000 138 66 64 0
35.640000 1.760000 5.390000 138 66 64 0
35.860000 1.760000 4.620000 139 67 65 0
36.080000 1.760000 3.960000 137 65 63 0
36.300000 1.760000 3.960000 138 66 64 0
36.520000 1.760000 3.300000 138 68 65 0
36.740000 1.760000 7.370000 139 69 66 0
36.960000 1.760000 11.550000 141 69 68 0
37.180000 1.760000 12.320000 142 70 69 0
0.000000 1.980000 6.380000 138 75 63 0
0.220000 1.980000 6.380000 139 76 64 0
0.440000 1.980000 6.380000 139 76 64 0
0.660000 1.980000 5.720000 138 75 63 0
0.880000 1.980000 6.380000 139 74 63 0
1.100000 1.980000 7.040000 138 73 62 0
1.320000 1.980000 7.700000 140 75 66 0
1.540000 1.980000 7.810000 140 75 66 0
1.760000 1.980000 8.470000 140 77 65 0
1.980000 1.980000 8.580000 140 77 65 0
2.200000 1.980000 7.370000 140 77 65 0
2.420000 1.980000 7.480000 140 77 65 0
2.640000 1.980000 7.480000 140 77 67 0
2.860000 1.980000 7.480000 141 78 68 0
3.080000 1.980000 6.820000 142 79 69 0
3.300000 1.980000 6.820000 141 78 68 0
3.520000 1.980000 6.820000 142 79 69 0
3.740000 1.980000 6.820000 142 79 69 0
3.960000 1.980000 7.590000 143 80 70 0
4.180000 1.980000 8.250000 142 79 69 0
4.400000 1.980000 9.460000 144 81 71 0
4.620000 1.980000 10.560000 143 80 70 0
4.840000 1.980000 11.110000 144 81 71 0
5.060000 1.980000 11.220000 145 82 72 0
5.280000 1.980000 10.780000 145 82 72 0
5.500000 1.980000 11.000000 145 82 72 0
5.720000 1.980000 12.210000 144 83 73 0
5.940000 1.980000 12.650000 143 82 72 0
6.160000 1.980000 13.200000 143 82 72 0
6.380000 1.980000 12.650000 143 82 72 0
6.600000 1.980000 12.320000 144 83 75 0
6.820000 1.980000 12.320000 144 83 75 0
7.040000 1.980000 12.650000 146 82 75 0
7.260000 1.980000 13.860000 146 82 75 0
7.480000 1.980000 13.860000 145 84 74 0
7.700000 1.980000 13.860000 146 85 75 0
7.920000 1.980000 13.860000 146 85 77 0
8.140000 1.980000 13.860000 147 86 78 0
8.360000 1.980000 13.860000 147 86 78 0
8.580000 1.980000 13.860000 147 86 78 0
8.800000 1.980000 14.630000 150 86 79 0
9.020000 1.980000 14.630000 150 86 79 0
9.240000 1.980000 14.630000 148 87 79 0
9.460000 1.980000 15.290000 149 88 80 0
9.680000 1.980000 15.290000 150 89 81 0
9.900000 1.980000 15.950000 150 89 81 0
10.120000 1.980000 16.060000 150 89 81 0
10.340000 1.980000 16.060000 149 88 80 0
10.560000 1.980000 16.060000 149 88 80 0
10.780000 1.980000 16.830000 149 88 80 0
11.000000 1.980000 13.420000 149 88 80 0
11.220000 1.980000 5.060000 147 86 78 0
11.440000 1.980000 0.220000 147 86 78 0
11.660000 1.980000 0.990000 146 85 77 0
11.880000 1.980000 0.990000 146 85 77 0
12.100000 1.980000 0.990000 145 84 76 0
12.320000 1.980000 0.990000 148 83 76 0
12.540000 1.980000 0.990000 146 81 74 0
12.760000 1.980000 0.990000 145 81 74 0
12.980000 1.980000 1.100000 144 80 73 0
13.200000 1.980000 1.100000 145 77 71 0
13.420000 1.980000 1.760000 144 76 70 0
13.640000 1.980000 1.870000 144 73 66 0
13.860000 1.980000 1.870000 143 72 65 0
14.080000 1.980000 2.530000 144 70 66 0
14.300000 1.980000 2.640000 142 68 64 0
14.520000 1.980000 2.640000 144 66 59 0
14.740000 1.980000 3.300000 143 65 58 0
14.960000 1.980000 3.300000 144 63 57 0
15.180000 1.980000 4.070000 142 61 55 0
15.400000 1.980000 4.070000 142 58 55 0
15.620000 1.980000 4.070000 142 58 55 0
15.840000 1.980000 4.070000 141 57 54 0
16.060000 1.980000 4.730000 140 56 53 0
16.280000 1.980000 4.730000 140 54 52 0
16.500000 1.980000 4.070000 140 54 52 0
16.720000 1.980000 4.730000 139 53 49 0
16.940000 1.980000 4.730000 140 54 50 0
17.160000 1.980000 4.730000 138 54 49 0
17.380000 1.980000 4.730000 137 53 48 0
17.600000 1.980000 4.730000 138 52 50 0
17.820000 1.980000 4.730000 137 51 49 0
18.040000 1.980000 4.730000 138 49 48 0
18.260000 1.980000 4.730000 137 48 47 0
18.480000 1.980000 4.730000 136 50 46 0
18.700000 1.980000 4.840000 136 50 46 0
18.920000 1.980000 4.730000 136 50 48 0
19.140000 1.980000 4.730000 136 50 48 0
19.360000 1.980000 4.730000 135 48 49 0
19.580000 1.980000 4.730000 134 47 48 0
19.800000 1.980000 4.730000 135 49 47 0
20.020000 1.980000 4.730000 134 48 46 0
20.240000 1.980000 4.730000 134 48 46 0
20.460000 1.980000 4.730000 134 48 46 0
20.680000 1.980000 4.730000 135 46 47 0
20.900000 1.980000 4.730000 135 46 47 0
21.120000 1.980000 4.730000 133 46 47 0
21.340000 1.980000 4.730000 133 46 47 0
21.560000 1.980000 4.730000 133 47 45 0
21.780000 1.980000 4.840000 132 46 44 0
22.000000 1.980000 4.840000 132 46 44 0
22.220000 1.980000 5.500000 133 47 45 0
22.440000 1.980000 6.050000 134 45 46 0
22.660000 1.980000 7.150000 134 45 46 0
22.880000 1.980000 8.360000 135 48 49 0
23.100000 1.980000 8.360000 136 49 50 0
23.320000 1.980000 8.360000 135 50 50 0
23.540000 1.980000 8.360000 135 50 50 0
23.760000 1.980000 8.360000 135 53 52 0
23.980000 1.980000 8.360000 133 51 50 0
24.200000 1.980000 7.700000 135 54 55 0
24.420000 1.980000 7.040000 136 55 56 0
24.640000 1.980000 6.380000 138 59 59 0
24.860000 1.980000 4.950000 139 60 60 0
25.080000 1.980000 3.630000 137 61 60 0
25.300000 1.980000 3.630000 138 62 61 0
25.520000 1.980000 3.630000 139 63 62 0
25.740000 1.980000 3.630000 138 62 61 0
25.960000 1.980000 3.630000 138 62 61 0
26.180000 1.980000 3.740000 139 63 62 0
26.400000 1.980000 3.960000 139 63 62 0
26.620000 1.980000 3.960000 137 61 60 0
26.840000 1.980000 4.730000 137 61 60 0
27.060000 1.980000 5.390000 135 59 58 0
27.280000 1.980000 6.050000 137 58 58 0
27.500000 1.980000 6.160000 136 57 57 0
27.720000 1.980000 5.500000 135 59 58 0
27.940000 1.980000 5.390000 135 59 58 0
28.160000 1.980000 5.720000 135 59 58 0
28.380000 1.980000 6.270000 137 61 60 0
28.600000 1.980000 6.270000 135 60 59 0
28.820000 1.980000 5.610000 136 61 60 0
29.040000 1.980000 4.950000 138 63 62 0
29.260000 1.980000 3.630000 140 65 64 0
29.480000 1.980000 2.970000 140 68 66 0
29.700000 1.980000 2.310000 140 68 66 0
29.920000 1.980000 2.310000 140 68 66 0
30.140000 1.980000 2.970000 140 68 66 0
30.360000 1.980000 3.740000 140 68 66 0
30.580000 1.980000 4.510000 140 68 66 0
30.800000 1.980000 4.620000 142 67 66 0
31.020000 1.980000 4.620000 141 66 65 0
31.240000 1.980000 3.960000 140 65 64 0
31.460000 1.980000 4.730000 139 64 63 0
31.680000 1.980000 4.730000 139 64 63 0
31.900000 1.980000 5.280000 139 64 63 0
32.120000 1.980000 6.380000 137 62 61 0
32.340000 1.980000 6.930000 139 64 63 0
32.560000 1.980000 7.700000 140 65 64 0
32.780000 1.980000 7.700000 141 66 65 0
33.000000 1.980000 7.810000 139 67 65 0
33.220000 1.980000 7.810000 138 66 64 0
33.440000 1.980000 8.580000 140 68 66 0
33.660000 1.980000 9.240000 142 70 68 0
33.880000 1.980000 9.350000 141 69 67 0
34.100000 1.980000 9.350000 140 68 66 0
34.320000 1.980000 10.120000 140 68 66 0
