ply
format ascii 1.0
element vertex 1100
property float x
property float y
property float z
property uchar red
property uchar green
property uchar blue
property uchar alpha
end_header
10.560000 23.760000 34.320000 199 225 221 0
10.780000 23.760000 35.860000 198 220 215 0
11.000000 23.760000 35.860000 196 218 213 0
11.220000 23.760000 37.180000 194 214 210 0
11.440000 23.760000 37.180000 193 213 209 0
11.660000 23.760000 38.280000 192 212 208 0
11.880000 23.760000 40.480000 192 212 208 0
12.100000 23.760000 42.900000 192 212 208 0
12.320000 23.760000 42.900000 191 211 207 0
12.540000 23.760000 42.900000 191 211 207 0
12.760000 23.760000 31.900000 191 211 207 0
12.980000 23.760000 11.220000 191 211 207 0
13.200000 23.760000 1.760000 191 211 207 0
13.420000 23.760000 1.760000 191 211 207 0
13.640000 23.760000 1.980000 191 211 207 0
13.860000 23.760000 0.660000 191 211 207 0
14.080000 23.760000 0.660000 191 211 207 0
14.300000 23.760000 0.660000 192 212 208 0
14.520000 23.760000 0.880000 192 212 208 0
14.740000 23.760000 0.880000 192 212 208 0
14.960000 23.760000 1.100000 192 212 208 0
16.280000 23.760000 1.320000 194 214 210 0
16.500000 23.760000 1.320000 195 215 211 0
16.720000 23.760000 1.320000 195 215 211 0
16.940000 23.760000 2.640000 194 214 210 0
17.160000 23.760000 3.740000 194 214 210 0
17.380000 23.760000 4.620000 194 214 210 0
17.600000 23.760000 5.500000 195 215 211 0
17.820000 23.760000 5.720000 195 215 211 0
18.040000 23.760000 5.720000 195 215 211 0
18.260000 23.760000 5.720000 194 216 211 0
18.480000 23.760000 5.720000 195 217 212 0
18.700000 23.760000 5.720000 195 217 212 0
18.920000 23.760000 5.720000 194 216 211 0
19.140000 23.760000 5.940000 195 217 212 0
19.360000 23.760000 5.940000 195 217 212 0
19.580000 23.760000 6.160000 195 217 212 0
19.800000 23.760000 6.160000 196 218 213 0
20.020000 23.760000 6.160000 195 217 212 0
20.240000 23.760000 6.160000 196 218 213 0
20.460000 23.760000 6.380000 195 217 212 0
20.680000 23.760000 6.380000 196 218 213 0
20.900000 23.760000 6.600000 195 217 212 0
21.120000 23.760000 6.600000 195 217 212 0
21.340000 23.760000 6.600000 194 216 211 0
21.560000 23.760000 8.140000 195 217 212 0
21.780000 23.760000 8.140000 193 217 212 0
22.000000 23.760000 8.140000 193 217 212 0
22.220000 23.760000 8.140000 194 218 213 0
22.440000 23.760000 8.140000 194 218 213 0
22.660000 23.760000 9.680000 194 218 213 0
22.880000 23.760000 9.680000 194 218 213 0
23.100000 23.760000 10.780000 195 219 214 0
23.320000 23.760000 11.440000 195 219 214 0
23.540000 23.760000 12.540000 195 219 214 0
23.760000 23.760000 12.540000 195 219 214 0
23.980000 23.760000 12.540000 195 219 214 0
24.200000 23.760000 14.080000 194 218 213 0
24.420000 23.760000 14.080000 194 218 213 0
24.640000 23.760000 14.080000 195 219 214 0
24.860000 23.760000 14.080000 196 220 215 0
25.080000 23.760000 14.080000 196 220 215 0
25.300000 23.760000 14.300000 195 221 215 0
25.520000 23.760000 14.300000 195 221 215 0
25.740000 23.760000 14.520000 195 221 215 0
25.960000 23.760000 15.840000 195 221 215 0
26.180000 23.760000 15.840000 196 220 215 0
26.400000 23.760000 16.060000 196 220 215 0
26.620000 23.760000 16.060000 196 222 216 0
26.840000 23.760000 14.960000 196 222 216 0
27.060000 23.760000 14.960000 195 221 215 0
27.280000 23.760000 14.960000 196 222 216 0
27.500000 23.760000 14.960000 196 222 216 0
27.720000 23.760000 14.960000 196 222 216 0
27.940000 23.760000 15.180000 196 220 215 0
28.160000 23.760000 15.180000 196 220 215 0
28.380000 23.760000 16.500000 195 221 215 0
28.600000 23.760000 16.500000 195 221 215 0
28.820000 23.760000 16.500000 194 220 214 0
29.040000 23.760000 17.600000 195 221 215 0
29.260000 23.760000 18.260000 193 219 215 0
29.480000 23.760000 19.360000 194 220 216 0
29.700000 23.760000 19.360000 194 218 213 0
29.920000 23.760000 19.580000 194 218 213 0
30.140000 23.760000 19.580000 192 218 212 0
30.360000 23.760000 18.260000 191 217 211 0
30.580000 23.760000 18.260000 189 215 211 0
30.800000 23.760000 18.260000 184 210 206 0
31.020000 23.760000 18.260000 179 207 205 0
31.240000 23.760000 18.480000 176 204 202 0
31.460000 23.760000 19.800000 175 200 199 0
31.680000 23.760000 21.340000 171 196 195 0
31.900000 23.760000 22.660000 165 185 181 0
32.120000 23.760000 24.200000 160 180 176 0
32.340000 23.760000 25.520000 158 168 162 0
32.560000 23.760000 27.060000 148 158 152 0
32.780000 23.760000 28.380000 148 149 139 0
33.000000 23.760000 28.380000 145 146 136 0
33.220000 23.760000 28.380000 140 139 129 0
33.440000 23.760000 28.600000 137 136 126 0
33.660000 23.760000 28.820000 137 134 122 0
33.880000 23.760000 30.140000 135 132 120 0
34.100000 23.760000 30.140000 134 127 116 0
34.320000 23.760000 31.680000 133 126 115 0
34.540000 23.760000 32.780000 132 125 114 0
34.760000 23.760000 33.660000 130 123 112 0
34.980000 23.760000 36.080000 128 121 110 0
35.200000 23.760000 36.080000 128 121 110 0
35.420000 23.760000 36.080000 127 120 107 0
35.640000 23.760000 34.760000 126 119 106 0
35.860000 23.760000 33.220000 126 117 107 0
36.080000 23.760000 29.260000 125 116 106 0
36.300000 23.760000 23.540000 125 114 103 0
36.520000 23.760000 20.900000 125 114 103 0
36.740000 23.760000 22.440000 124 113 102 0
36.960000 23.760000 21.120000 123 112 101 0
37.180000 23.760000 19.800000 124 113 102 0
0.000000 23.980000 6.600000 119 109 103 0
0.220000 23.980000 6.820000 121 109 104 0
0.440000 23.980000 8.140000 120 108 103 0
0.660000 23.980000 8.140000 120 110 104 0
0.880000 23.980000 9.460000 120 110 104 0
1.100000 23.980000 9.460000 121 109 104 0
1.320000 23.980000 8.140000 121 109 104 0
1.540000 23.980000 6.820000 120 110 104 0
1.760000 23.980000 9.460000 120 110 104 0
1.980000 23.980000 14.740000 121 109 104 0
2.200000 23.980000 19.140000 121 109 104 0
2.420000 23.980000 20.460000 120 110 104 0
2.640000 23.980000 22.660000 119 109 103 0
2.860000 23.980000 23.980000 122 110 105 0
3.080000 23.980000 23.100000 121 109 104 0
3.300000 23.980000 23.540000 121 111 105 0
3.520000 23.980000 23.320000 122 112 106 0
3.740000 23.980000 24.420000 122 112 106 0
3.960000 23.980000 25.520000 122 112 106 0
4.180000 23.980000 27.940000 122 112 106 0
4.400000 23.980000 27.720000 124 114 108 0
4.620000 23.980000 29.040000 124 114 108 0
4.840000 23.980000 29.040000 126 116 110 0
5.060000 23.980000 30.580000 126 116 112 0
5.280000 23.980000 30.580000 127 117 113 0
5.500000 23.980000 30.580000 128 120 113 0
5.720000 23.980000 31.900000 130 122 115 0
5.940000 23.980000 31.900000 129 123 118 0
6.160000 23.980000 31.900000 132 126 121 0
6.380000 23.980000 33.220000 133 129 125 0
6.600000 23.980000 33.220000 136 132 128 0
6.820000 23.980000 33.440000 139 134 133 0
7.040000 23.980000 34.100000 143 138 137 0
7.260000 23.980000 26.180000 145 145 148 0
7.480000 23.980000 19.360000 152 152 155 0
7.700000 23.980000 19.140000 154 162 170 0
7.920000 23.980000 10.780000 163 171 179 0
8.140000 23.980000 13.640000 168 184 192 0
8.360000 23.980000 31.460000 176 192 200 0
8.580000 23.980000 36.960000 188 207 208 0
8.800000 23.980000 35.640000 193 212 213 0
9.020000 23.980000 35.640000 197 222 221 0
9.240000 23.980000 35.640000 203 228 227 0
9.460000 23.980000 34.320000 202 232 227 0
9.680000 23.980000 34.320000 203 233 228 0
9.900000 23.980000 34.320000 204 233 226 0
10.120000 23.980000 34.320000 202 231 224 0
10.340000 23.980000 34.320000 202 228 224 0
10.560000 23.980000 34.320000 198 224 220 0
10.780000 23.980000 35.860000 199 221 216 0
11.000000 23.980000 35.860000 196 218 213 0
11.220000 23.980000 37.180000 195 215 211 0
11.440000 23.980000 37.180000 193 213 209 0
11.660000 23.980000 38.280000 192 212 208 0
11.880000 23.980000 40.480000 192 212 208 0
12.100000 23.980000 42.900000 191 211 207 0
12.320000 23.980000 42.900000 192 212 208 0
12.540000 23.980000 42.900000 191 211 207 0
12.760000 23.980000 31.900000 190 210 206 0
12.980000 23.980000 11.220000 191 211 207 0
13.200000 23.980000 1.760000 191 211 207 0
13.420000 23.980000 1.760000 191 211 207 0
13.640000 23.980000 1.980000 191 211 207 0
13.860000 23.980000 0.660000 191 211 207 0
14.080000 23.980000 0.660000 191 211 207 0
14.300000 23.980000 0.660000 192 212 208 0
14.520000 23.980000 0.880000 192 212 208 0
14.740000 23.980000 0.880000 193 213 209 0
14.960000 23.980000 1.100000 191 211 207 0
16.280000 23.980000 1.320000 195 215 211 0
16.500000 23.980000 1.320000 195 215 211 0
16.720000 23.980000 1.320000 195 215 211 0
16.940000 23.980000 2.640000 195 215 211 0
17.160000 23.980000 3.740000 195 215 211 0
17.380000 23.980000 4.400000 195 215 211 0
17.600000 23.980000 5.500000 195 215 211 0
17.820000 23.980000 5.720000 195 215 211 0
18.040000 23.980000 5.720000 195 215 211 0
18.260000 23.980000 5.720000 194 216 211 0
18.480000 23.980000 5.720000 194 216 211 0
18.700000 23.980000 5.720000 194 216 211 0
18.920000 23.980000 5.720000 195 217 212 0
19.140000 23.980000 5.940000 195 217 212 0
19.360000 23.980000 5.940000 195 217 212 0
19.580000 23.980000 6.160000 195 217 212 0
19.800000 23.980000 6.160000 196 218 213 0
20.020000 23.980000 6.160000 195 217 212 0
20.240000 23.980000 6.160000 196 218 213 0
20.460000 23.980000 6.380000 196 218 213 0
20.680000 23.980000 6.380000 195 217 212 0
20.900000 23.980000 6.600000 195 217 212 0
21.120000 23.980000 6.600000 195 217 212 0
21.340000 23.980000 6.600000 196 218 213 0
21.560000 23.980000 8.140000 196 218 213 0
21.780000 23.980000 8.140000 193 217 212 0
22.000000 23.980000 8.140000 193 217 212 0
22.220000 23.980000 8.140000 193 217 212 0
22.440000 23.980000 8.140000 193 217 212 0
22.660000 23.980000 9.680000 194 218 213 0
22.880000 23.980000 9.680000 195 219 214 0
23.100000 23.980000 10.780000 195 219 214 0
23.320000 23.980000 11.440000 195 219 214 0
23.540000 23.980000 12.540000 195 219 214 0
23.760000 23.980000 12.540000 195 219 214 0
23.980000 23.980000 12.540000 195 219 214 0
24.200000 23.980000 14.080000 196 220 215 0
24.420000 23.980000 14.080000 195 219 214 0
24.640000 23.980000 14.080000 196 220 215 0
24.860000 23.980000 14.080000 196 220 215 0
25.080000 23.980000 14.080000 196 220 215 0
25.300000 23.980000 14.300000 195 221 215 0
25.520000 23.980000 14.300000 195 221 215 0
25.740000 23.980000 14.520000 195 221 215 0
25.960000 23.980000 15.840000 195 221 215 0
26.180000 23.980000 15.840000 197 221 216 0
26.400000 23.980000 16.060000 197 221 216 0
26.620000 23.980000 16.060000 195 221 215 0
26.840000 23.980000 14.960000 195 221 215 0
27.060000 23.980000 14.960000 195 221 215 0
27.280000 23.980000 14.960000 195 221 215 0
27.500000 23.980000 14.960000 195 221 215 0
27.720000 23.980000 14.960000 195 221 215 0
27.940000 23.980000 15.180000 196 220 215 0
28.160000 23.980000 15.180000 196 220 215 0
28.380000 23.980000 16.500000 195 221 215 0
28.600000 23.980000 16.500000 195 221 215 0
28.820000 23.980000 16.500000 195 221 215 0
29.040000 23.980000 17.600000 195 221 215 0
29.260000 23.980000 18.260000 194 220 216 0
29.480000 23.980000 19.360000 194 220 216 0
29.700000 23.980000 19.360000 194 218 213 0
29.920000 23.980000 19.580000 194 218 213 0
30.140000 23.980000 19.580000 193 219 213 0
30.360000 23.980000 19.580000 191 217 211 0
30.580000 23.980000 18.260000 189 215 211 0
30.800000 23.980000 18.260000 185 211 207 0
31.020000 23.980000 18.260000 181 209 207 0
31.240000 23.980000 18.480000 176 204 202 0
31.460000 23.980000 19.800000 175 200 199 0
31.680000 23.980000 21.340000 169 194 193 0
31.900000 23.980000 22.660000 168 188 184 0
32.120000 23.980000 24.200000 159 179 175 0
32.340000 23.980000 25.520000 159 169 163 0
32.560000 23.980000 25.740000 151 161 155 0
32.780000 23.980000 27.060000 150 151 141 0
33.000000 23.980000 28.380000 143 144 134 0
33.220000 23.980000 28.380000 140 139 129 0
33.440000 23.980000 28.600000 137 136 126 0
33.660000 23.980000 28.600000 136 133 121 0
33.880000 23.980000 30.140000 134 131 119 0
34.100000 23.980000 30.360000 135 128 117 0
34.320000 23.980000 30.360000 133 126 115 0
34.540000 23.980000 31.460000 132 125 114 0
34.760000 23.980000 33.440000 130 123 112 0
34.980000 23.980000 36.080000 128 121 110 0
35.200000 23.980000 36.080000 127 120 109 0
35.420000 23.980000 36.080000 127 120 107 0
35.640000 23.980000 34.760000 126 119 106 0
35.860000 23.980000 33.220000 126 117 107 0
36.080000 23.980000 29.260000 125 116 106 0
36.300000 23.980000 23.540000 125 114 103 0
36.520000 23.980000 20.900000 125 114 103 0
36.740000 23.980000 22.440000 123 112 101 0
36.960000 23.980000 21.120000 123 112 101 0
37.180000 23.980000 19.800000 123 112 101 0
0.000000 24.200000 6.600000 121 109 104 0
0.220000 24.200000 7.920000 120 108 103 0
0.440000 24.200000 8.140000 121 109 104 0
0.660000 24.200000 8.140000 121 109 104 0
0.880000 24.200000 8.140000 121 109 104 0
1.100000 24.200000 9.460000 121 109 104 0
1.320000 24.200000 8.140000 121 109 104 0
1.540000 24.200000 6.820000 122 110 105 0
1.760000 24.200000 7.920000 121 109 104 0
1.980000 24.200000 14.520000 121 111 105 0
2.200000 24.200000 18.700000 120 110 104 0
2.420000 24.200000 19.140000 120 110 104 0
2.640000 24.200000 21.560000 120 110 104 0
2.860000 24.200000 22.880000 120 110 104 0
3.080000 24.200000 23.320000 120 110 104 0
3.300000 24.200000 22.000000 122 112 106 0
3.520000 24.200000 22.000000 122 112 106 0
3.740000 24.200000 23.320000 122 112 106 0
3.960000 24.200000 24.420000 122 112 106 0
4.180000 24.200000 26.620000 125 113 108 0
4.400000 24.200000 27.720000 125 113 108 0
4.620000 24.200000 29.040000 125 115 109 0
4.840000 24.200000 29.040000 125 115 109 0
5.060000 24.200000 30.580000 127 117 111 0
5.280000 24.200000 30.580000 128 118 112 0
5.500000 24.200000 30.580000 128 120 113 0
5.720000 24.200000 31.900000 130 122 115 0
5.940000 24.200000 31.900000 133 125 118 0
6.160000 24.200000 31.900000 135 127 120 0
6.380000 24.200000 33.220000 135 129 124 0
6.600000 24.200000 33.220000 138 132 127 0
6.820000 24.200000 34.980000 138 136 136 0
7.040000 24.200000 34.320000 142 140 140 0
7.260000 24.200000 27.720000 145 145 150 0
7.480000 24.200000 19.360000 151 151 156 0
7.700000 24.200000 19.140000 154 162 170 0
7.920000 24.200000 9.460000 163 171 179 0
8.140000 24.200000 9.460000 171 185 191 0
8.360000 24.200000 28.820000 180 194 200 0
8.580000 24.200000 36.960000 186 205 206 0
8.800000 24.200000 35.640000 194 213 214 0
9.020000 24.200000 35.640000 193 221 219 0
9.240000 24.200000 35.640000 200 228 226 0
9.460000 24.200000 34.320000 203 231 227 0
9.680000 24.200000 34.320000 204 232 228 0
9.900000 24.200000 34.320000 204 233 226 0
10.120000 24.200000 34.320000 202 231 224 0
10.340000 24.200000 34.320000 202 228 222 0
10.560000 24.200000 34.320000 199 225 219 0
10.780000 24.200000 35.860000 198 220 215 0
11.000000 24.200000 35.860000 196 218 213 0
11.220000 24.200000 37.180000 195 213 208 0
11.440000 24.200000 37.180000 193 211 206 0
11.660000 24.200000 38.280000 194 212 207 0
11.880000 24.200000 41.800000 193 211 206 0
12.100000 24.200000 42.900000 192 210 207 0
12.320000 24.200000 42.900000 192 210 207 0
12.540000 24.200000 42.900000 190 210 204 0
12.760000 24.200000 31.900000 191 211 205 0
12.980000 24.200000 11.220000 191 209 204 0
13.200000 24.200000 1.760000 193 211 206 0
13.420000 24.200000 1.760000 194 212 209 0
13.640000 24.200000 1.980000 193 211 208 0
13.860000 24.200000 0.660000 193 211 206 0
14.080000 24.200000 0.660000 194 212 207 0
14.300000 24.200000 0.660000 192 212 206 0
14.520000 24.200000 0.880000 192 212 206 0
14.740000 24.200000 0.880000 193 211 206 0
14.960000 24.200000 1.100000 194 212 207 0
16.280000 24.200000 1.320000 195 215 209 0
16.500000 24.200000 1.320000 195 215 209 0
16.720000 24.200000 1.320000 195 215 209 0
16.940000 24.200000 2.640000 196 214 209 0
17.160000 24.200000 3.740000 196 214 209 0
17.380000 24.200000 4.400000 195 215 209 0
17.600000 24.200000 5.500000 195 215 209 0
17.820000 24.200000 5.720000 195 215 209 0
18.040000 24.200000 5.720000 195 215 209 0
18.260000 24.200000 5.720000 195 215 211 0
18.480000 24.200000 5.720000 195 215 211 0
18.700000 24.200000 5.720000 195 215 209 0
18.920000 24.200000 5.720000 196 216 210 0
19.140000 24.200000 5.940000 196 216 212 0
19.360000 24.200000 5.940000 196 216 212 0
19.580000 24.200000 6.160000 196 218 211 0
19.800000 24.200000 6.160000 195 217 210 0
20.020000 24.200000 6.160000 196 218 213 0
20.240000 24.200000 6.160000 196 218 213 0
20.460000 24.200000 6.380000 195 217 212 0
20.680000 24.200000 6.380000 195 217 212 0
20.900000 24.200000 6.600000 195 217 212 0
21.120000 24.200000 6.600000 195 217 212 0
21.340000 24.200000 6.600000 196 218 213 0
21.560000 24.200000 8.140000 195 217 212 0
21.780000 24.200000 8.140000 196 218 213 0
22.000000 24.200000 8.140000 195 217 212 0
22.220000 24.200000 8.140000 195 217 212 0
22.440000 24.200000 8.140000 197 219 214 0
22.660000 24.200000 9.680000 196 218 213 0
22.880000 24.200000 9.680000 197 219 214 0
23.100000 24.200000 10.780000 197 219 214 0
23.320000 24.200000 11.440000 197 219 214 0
23.540000 24.200000 12.540000 195 219 214 0
23.760000 24.200000 12.540000 195 219 214 0
23.980000 24.200000 12.540000 195 219 214 0
24.200000 24.200000 14.080000 196 220 215 0
24.420000 24.200000 14.080000 196 220 215 0
24.640000 24.200000 14.080000 196 220 215 0
24.860000 24.200000 14.080000 196 220 215 0
25.080000 24.200000 14.080000 196 220 215 0
25.300000 24.200000 14.300000 196 220 215 0
25.520000 24.200000 14.300000 196 220 215 0
25.740000 24.200000 14.520000 196 220 215 0
25.960000 24.200000 15.840000 196 220 215 0
26.180000 24.200000 15.840000 196 220 215 0
26.400000 24.200000 16.060000 196 220 215 0
26.620000 24.200000 16.060000 196 220 215 0
26.840000 24.200000 14.960000 196 220 215 0
27.060000 24.200000 14.960000 196 220 215 0
27.280000 24.200000 14.960000 196 220 215 0
27.500000 24.200000 14.960000 196 220 215 0
27.720000 24.200000 14.960000 196 220 215 0
27.940000 24.200000 15.180000 196 220 215 0
28.160000 24.200000 15.180000 196 220 215 0
28.380000 24.200000 16.500000 196 220 215 0
28.600000 24.200000 16.500000 196 220 215 0
28.820000 24.200000 16.500000 197 221 216 0
29.040000 24.200000 17.600000 196 220 215 0
29.260000 24.200000 18.260000 196 220 215 0
29.480000 24.200000 19.360000 195 219 214 0
29.700000 24.200000 19.360000 195 219 214 0
29.920000 24.200000 19.580000 194 218 213 0
30.140000 24.200000 19.580000 192 216 211 0
30.360000 24.200000 19.580000 192 216 211 0
30.580000 24.200000 18.260000 190 214 209 0
30.800000 24.200000 18.260000 189 213 208 0
31.020000 24.200000 18.260000 185 209 206 0
31.240000 24.200000 18.480000 181 205 202 0
31.460000 24.200000 19.800000 176 200 197 0
31.680000 24.200000 21.340000 172 196 193 0
31.900000 24.200000 22.660000 171 186 184 0
32.120000 24.200000 24.200000 163 178 176 0
32.340000 24.200000 24.200000 159 168 160 0
32.560000 24.200000 25.740000 153 162 154 0
32.780000 24.200000 27.060000 152 153 143 0
33.000000 24.200000 28.380000 144 145 135 0
33.220000 24.200000 28.380000 142 139 129 0
33.440000 24.200000 28.600000 139 136 126 0
33.660000 24.200000 28.600000 138 133 122 0
33.880000 24.200000 28.820000 135 130 119 0
34.100000 24.200000 30.360000 136 129 118 0
34.320000 24.200000 30.360000 133 126 115 0
34.540000 24.200000 31.460000 132 125 114 0
34.760000 24.200000 33.440000 131 124 113 0
34.980000 24.200000 36.080000 129 122 111 0
35.200000 24.200000 36.080000 128 121 110 0
35.420000 24.200000 36.080000 127 118 108 0
35.640000 24.200000 34.760000 127 118 108 0
35.860000 24.200000 33.220000 126 117 105 0
36.080000 24.200000 29.260000 125 116 104 0
36.300000 24.200000 23.540000 123 114 102 0
36.520000 24.200000 20.900000 123 114 102 0
36.740000 24.200000 22.440000 123 112 101 0
36.960000 24.200000 21.120000 123 112 101 0
37.180000 24.200000 19.800000 122 111 100 0
0.000000 24.420000 7.700000 121 109 104 0
0.220000 24.420000 7.700000 121 109 104 0
0.440000 24.420000 7.920000 120 108 103 0
0.660000 24.420000 8.140000 121 109 104 0
0.880000 24.420000 8.140000 122 110 105 0
1.100000 24.420000 8.140000 122 110 105 0
1.320000 24.420000 6.820000 121 109 104 0
1.540000 24.420000 5.500000 123 111 106 0
1.760000 24.420000 7.920000 121 109 104 0
1.980000 24.420000 12.980000 120 110 104 0
2.200000 24.420000 18.480000 120 110 104 0
2.420000 24.420000 19.140000 120 110 104 0
2.640000 24.420000 20.680000 120 110 104 0
2.860000 24.420000 22.000000 121 111 105 0
3.080000 24.420000 22.000000 121 111 105 0
3.300000 24.420000 22.000000 122 112 106 0
3.520000 24.420000 22.000000 122 112 106 0
3.740000 24.420000 22.000000 122 112 106 0
3.960000 24.420000 24.420000 123 113 107 0
4.180000 24.420000 26.620000 125 113 108 0
4.400000 24.420000 27.720000 125 113 108 0
4.620000 24.420000 29.040000 125 115 109 0
4.840000 24.420000 29.040000 125 115 109 0
5.060000 24.420000 30.580000 127 117 111 0
5.280000 24.420000 30.580000 127 117 111 0
5.500000 24.420000 30.580000 129 121 114 0
5.720000 24.420000 31.900000 131 123 116 0
5.940000 24.420000 31.900000 134 126 119 0
6.160000 24.420000 31.900000 135 127 120 0
6.380000 24.420000 33.220000 136 130 125 0
6.600000 24.420000 33.220000 138 132 127 0
6.820000 24.420000 34.980000 138 136 136 0
7.040000 24.420000 35.640000 143 141 141 0
7.260000 24.420000 27.720000 145 145 150 0
7.480000 24.420000 19.360000 150 150 155 0
7.700000 24.420000 19.140000 153 161 169 0
7.920000 24.420000 9.460000 164 172 180 0
8.140000 24.420000 9.460000 170 184 190 0
8.360000 24.420000 28.820000 181 195 201 0
8.580000 24.420000 38.500000 185 204 205 0
8.800000 24.420000 35.640000 194 213 214 0
9.020000 24.420000 35.640000 194 222 220 0
9.240000 24.420000 35.640000 200 228 226 0
9.460000 24.420000 34.320000 203 231 227 0
9.680000 24.420000 34.320000 205 233 229 0
9.900000 24.420000 34.320000 204 233 226 0
10.120000 24.420000 34.320000 202 231 224 0
10.340000 24.420000 34.320000 203 229 223 0
10.560000 24.420000 34.320000 201 227 221 0
10.780000 24.420000 34.320000 199 221 216 0
11.000000 24.420000 35.860000 197 219 214 0
11.220000 24.420000 37.180000 196 214 209 0
11.440000 24.420000 37.180000 194 212 207 0
11.660000 24.420000 38.280000 194 212 207 0
11.880000 24.420000 41.800000 193 211 206 0
12.100000 24.420000 42.900000 192 210 207 0
12.320000 24.420000 42.900000 192 210 207 0
12.540000 24.420000 42.900000 191 211 205 0
12.760000 24.420000 31.900000 191 211 205 0
12.980000 24.420000 11.220000 192 210 205 0
13.200000 24.420000 1.760000 193 211 206 0
13.420000 24.420000 1.760000 194 212 209 0
13.640000 24.420000 1.980000 193 211 208 0
13.860000 24.420000 0.660000 193 211 206 0
14.080000 24.420000 0.660000 193 211 206 0
14.300000 24.420000 0.660000 193 213 207 0
14.520000 24.420000 0.880000 192 212 206 0
14.740000 24.420000 0.880000 194 212 207 0
14.960000 24.420000 1.100000 195 213 208 0
16.280000 24.420000 1.320000 194 214 208 0
16.500000 24.420000 1.320000 194 214 208 0
16.720000 24.420000 1.320000 195 215 209 0
16.940000 24.420000 2.640000 197 215 210 0
17.160000 24.420000 3.740000 197 215 210 0
17.380000 24.420000 4.400000 195 215 209 0
17.600000 24.420000 5.500000 195 215 209 0
17.820000 24.420000 5.500000 195 215 209 0
18.040000 24.420000 5.720000 195 215 209 0
18.260000 24.420000 5.720000 194 214 210 0
18.480000 24.420000 5.720000 195 215 211 0
18.700000 24.420000 5.720000 195 215 209 0
18.920000 24.420000 5.720000 196 216 210 0
19.140000 24.420000 5.940000 196 216 212 0
19.360000 24.420000 5.940000 196 216 212 0
19.580000 24.420000 5.940000 196 218 211 0
19.800000 24.420000 6.160000 196 218 211 0
20.020000 24.420000 6.160000 196 218 213 0
20.240000 24.420000 6.160000 195 217 212 0
20.460000 24.420000 6.380000 195 217 212 0
20.680000 24.420000 6.380000 195 217 212 0
20.900000 24.420000 6.600000 195 217 212 0
21.120000 24.420000 6.600000 196 218 213 0
21.340000 24.420000 6.600000 196 218 213 0
21.560000 24.420000 8.140000 195 217 212 0
21.780000 24.420000 8.140000 195 217 212 0
22.000000 24.420000 8.140000 196 218 213 0
22.220000 24.420000 8.140000 196 218 213 0
22.440000 24.420000 8.140000 196 218 213 0
22.660000 24.420000 9.680000 197 219 214 0
22.880000 24.420000 9.680000 196 218 213 0
23.100000 24.420000 10.780000 196 218 213 0
23.320000 24.420000 11.440000 196 218 213 0
23.540000 24.420000 12.540000 195 219 214 0
23.760000 24.420000 12.540000 195 219 214 0
23.980000 24.420000 13.860000 195 219 214 0
24.200000 24.420000 14.080000 195 219 214 0
24.420000 24.420000 14.080000 195 219 214 0
24.640000 24.420000 14.080000 196 220 215 0
24.860000 24.420000 14.080000 196 220 215 0
25.080000 24.420000 14.080000 195 219 214 0
25.300000 24.420000 14.300000 197 221 216 0
25.520000 24.420000 14.300000 195 219 214 0
25.740000 24.420000 14.520000 196 220 215 0
25.960000 24.420000 15.840000 196 220 215 0
26.180000 24.420000 15.840000 196 220 215 0
26.400000 24.420000 16.060000 196 220 215 0
26.620000 24.420000 16.060000 195 219 214 0
26.840000 24.420000 14.960000 196 220 215 0
27.060000 24.420000 14.960000 197 221 216 0
27.280000 24.420000 14.960000 196 220 215 0
27.500000 24.420000 14.960000 196 220 215 0
27.720000 24.420000 14.960000 196 220 215 0
27.940000 24.420000 14.960000 196 220 215 0
28.160000 24.420000 15.180000 196 220 215 0
28.380000 24.420000 16.500000 196 220 215 0
28.600000 24.420000 16.500000 196 220 215 0
28.820000 24.420000 16.500000 196 220 215 0
29.040000 24.420000 17.600000 195 219 214 0
29.260000 24.420000 18.260000 196 220 215 0
29.480000 24.420000 19.360000 196 220 215 0
29.700000 24.420000 19.360000 195 219 214 0
29.920000 24.420000 19.580000 194 218 213 0
30.140000 24.420000 19.580000 194 218 213 0
30.360000 24.420000 19.580000 192 216 211 0
30.580000 24.420000 18.260000 190 214 209 0
30.800000 24.420000 18.260000 188 212 207 0
31.020000 24.420000 18.260000 187 211 208 0
31.240000 24.420000 18.480000 182 206 203 0
31.460000 24.420000 19.800000 178 202 199 0
31.680000 24.420000 20.020000 172 196 193 0
31.900000 24.420000 21.340000 173 188 186 0
32.120000 24.420000 22.880000 165 180 178 0
32.340000 24.420000 24.200000 160 169 161 0
32.560000 24.420000 25.520000 153 162 154 0
32.780000 24.420000 27.060000 151 152 142 0
33.000000 24.420000 28.380000 145 146 136 0
33.220000 24.420000 28.380000 143 140 130 0
33.440000 24.420000 28.600000 139 136 126 0
33.660000 24.420000 28.600000 138 133 122 0
33.880000 24.420000 28.600000 135 130 119 0
34.100000 24.420000 30.140000 136 129 118 0
34.320000 24.420000 30.360000 134 127 116 0
34.540000 24.420000 31.460000 132 125 114 0
34.760000 24.420000 33.440000 131 124 113 0
34.980000 24.420000 36.080000 129 122 111 0
35.200000 24.420000 36.080000 127 120 109 0
35.420000 24.420000 36.080000 127 118 108 0
35.640000 24.420000 34.760000 127 118 108 0
35.860000 24.420000 33.220000 124 115 103 0
36.080000 24.420000 29.260000 124 115 103 0
36.300000 24.420000 23.540000 123 114 102 0
36.520000 24.420000 20.900000 123 114 102 0
36.740000 24.420000 22.440000 124 113 102 0
36.960000 24.420000 21.120000 123 112 101 0
37.180000 24.420000 19.800000 122 111 100 0
0.000000 24.640000 8.800000 121 110 103 0
0.220000 24.640000 8.800000 120 108 103 0
0.440000 24.640000 9.240000 121 109 104 0
0.660000 24.640000 8.140000 121 111 105 0
0.880000 24.640000 9.460000 121 111 105 0
1.100000 24.640000 8.140000 122 110 105 0
1.320000 24.640000 6.820000 122 110 105 0
1.540000 24.640000 5.500000 122 111 104 0
1.760000 24.640000 7.920000 122 111 104 0
1.980000 24.640000 12.760000 120 110 104 0
2.200000 24.640000 16.940000 120 110 104 0
2.420000 24.640000 18.920000 121 111 105 0
2.640000 24.640000 19.360000 120 110 104 0
2.860000 24.640000 20.680000 122 110 105 0
3.080000 24.640000 20.680000 122 110 105 0
3.300000 24.640000 20.680000 123 112 105 0
3.520000 24.640000 20.680000 123 112 105 0
3.740000 24.640000 22.000000 122 112 106 0
3.960000 24.640000 24.420000 124 114 108 0
4.180000 24.640000 26.620000 124 114 108 0
4.400000 24.640000 27.720000 125 115 109 0
4.620000 24.640000 29.040000 126 114 109 0
4.840000 24.640000 29.040000 127 115 110 0
5.060000 24.640000 30.580000 129 117 112 0
5.280000 24.640000 30.580000 130 118 113 0
5.500000 24.640000 30.580000 130 120 114 0
5.720000 24.640000 30.580000 131 121 115 0
5.940000 24.640000 31.900000 132 124 117 0
6.160000 24.640000 31.900000 136 128 121 0
6.380000 24.640000 33.220000 135 131 125 0
6.600000 24.640000 33.220000 136 132 126 0
6.820000 24.640000 34.980000 140 135 134 0
7.040000 24.640000 35.640000 146 141 140 0
7.260000 24.640000 27.720000 148 147 148 0
7.480000 24.640000 19.360000 153 152 153 0
7.700000 24.640000 19.360000 153 163 170 0
7.920000 24.640000 9.460000 162 172 179 0
8.140000 24.640000 9.460000 170 184 190 0
8.360000 24.640000 28.820000 180 194 200 0
8.580000 24.640000 38.500000 187 206 207 0
8.800000 24.640000 36.960000 194 213 214 0
9.020000 24.640000 35.640000 197 222 221 0
9.240000 24.640000 35.640000 202 227 226 0
9.460000 24.640000 34.320000 204 233 226 0
9.680000 24.640000 34.320000 205 234 227 0
9.900000 24.640000 34.320000 204 235 225 0
10.120000 24.640000 34.320000 202 233 223 0
10.340000 24.640000 34.320000 202 228 222 0
10.560000 24.640000 34.320000 198 224 218 0
10.780000 24.640000 34.320000 200 220 216 0
11.000000 24.640000 35.860000 197 217 213 0
11.220000 24.640000 37.180000 195 213 208 0
11.440000 24.640000 37.180000 194 212 207 0
11.660000 24.640000 38.280000 193 211 206 0
11.880000 24.640000 41.800000 192 210 205 0
12.100000 24.640000 42.900000 192 210 207 0
12.320000 24.640000 42.900000 192 210 207 0
12.540000 24.640000 42.900000 192 210 205 0
12.760000 24.640000 31.900000 192 210 205 0
12.980000 24.640000 11.220000 192 212 206 0
13.200000 24.640000 1.760000 192 212 206 0
13.420000 24.640000 1.760000 192 210 205 0
13.640000 24.640000 1.980000 194 212 207 0
13.860000 24.640000 0.660000 193 211 206 0
14.080000 24.640000 0.660000 193 211 206 0
14.300000 24.640000 0.660000 193 213 207 0
14.520000 24.640000 0.880000 192 212 206 0
14.740000 24.640000 0.880000 193 213 207 0
14.960000 24.640000 0.880000 194 214 208 0
15.180000 24.640000 1.100000 193 213 207 0
16.280000 24.640000 1.320000 195 215 209 0
16.500000 24.640000 1.320000 195 215 209 0
16.720000 24.640000 1.320000 196 216 210 0
16.940000 24.640000 2.640000 197 217 211 0
17.160000 24.640000 3.740000 196 216 210 0
17.380000 24.640000 4.400000 196 216 210 0
17.600000 24.640000 5.500000 195 215 209 0
17.820000 24.640000 5.500000 195 215 209 0
18.040000 24.640000 5.720000 194 214 208 0
18.260000 24.640000 5.720000 195 215 209 0
18.480000 24.640000 5.720000 195 215 209 0
18.700000 24.640000 5.720000 195 215 209 0
18.920000 24.640000 5.720000 196 216 210 0
19.140000 24.640000 5.940000 196 216 210 0
19.360000 24.640000 5.940000 196 216 210 0
19.580000 24.640000 5.940000 195 217 210 0
19.800000 24.640000 6.160000 195 217 210 0
20.020000 24.640000 6.160000 195 217 210 0
20.240000 24.640000 6.160000 195 217 210 0
20.460000 24.640000 6.380000 195 217 210 0
20.680000 24.640000 6.380000 195 217 210 0
20.900000 24.640000 6.600000 195 217 210 0
21.120000 24.640000 6.600000 195 217 210 0
21.340000 24.640000 6.600000 195 217 210 0
21.560000 24.640000 8.140000 196 218 211 0
21.780000 24.640000 8.140000 195 217 210 0
22.000000 24.640000 8.140000 196 218 211 0
22.220000 24.640000 8.140000 196 218 211 0
22.440000 24.640000 8.140000 196 218 211 0
22.660000 24.640000 9.680000 196 218 211 0
22.880000 24.640000 9.680000 196 218 211 0
23.100000 24.640000 10.780000 197 219 214 0
23.320000 24.640000 11.440000 197 219 214 0
23.540000 24.640000 12.540000 196 218 211 0
23.760000 24.640000 12.540000 197 219 212 0
23.980000 24.640000 13.860000 195 220 212 0
24.200000 24.640000 14.080000 195 220 212 0
24.420000 24.640000 14.080000 195 220 212 0
24.640000 24.640000 14.080000 195 220 212 0
24.860000 24.640000 14.080000 197 219 214 0
25.080000 24.640000 14.080000 198 220 215 0
25.300000 24.640000 14.300000 196 221 213 0
25.520000 24.640000 14.300000 196 221 213 0
25.740000 24.640000 14.520000 196 220 215 0
25.960000 24.640000 15.840000 195 219 214 0
26.180000 24.640000 15.840000 196 220 215 0
26.400000 24.640000 16.060000 196 220 215 0
26.620000 24.640000 16.060000 196 220 215 0
26.840000 24.640000 14.740000 196 220 215 0
27.060000 24.640000 14.960000 196 221 213 0
27.280000 24.640000 14.960000 196 221 213 0
27.500000 24.640000 14.960000 197 222 214 0
27.720000 24.640000 14.960000 196 221 213 0
27.940000 24.640000 14.960000 196 220 215 0
28.160000 24.640000 16.500000 195 219 214 0
28.380000 24.640000 16.500000 196 220 215 0
28.600000 24.640000 16.500000 196 220 215 0
28.820000 24.640000 16.500000 196 221 213 0
29.040000 24.640000 17.600000 196 221 213 0
29.260000 24.640000 18.260000 196 221 213 0
29.480000 24.640000 19.360000 195 220 212 0
29.700000 24.640000 19.360000 194 220 214 0
29.920000 24.640000 19.580000 193 219 213 0
30.140000 24.640000 19.580000 193 217 212 0
30.360000 24.640000 19.580000 192 216 211 0
30.580000 24.640000 18.260000 191 215 212 0
30.800000 24.640000 18.260000 188 212 209 0
31.020000 24.640000 18.260000 186 210 207 0
31.240000 24.640000 18.480000 184 208 205 0
31.460000 24.640000 19.800000 178 202 201 0
31.680000 24.640000 20.020000 172 196 195 0
31.900000 24.640000 21.340000 169 187 186 0
32.120000 24.640000 22.880000 162 180 179 0
32.340000 24.640000 24.200000 161 171 165 0
32.560000 24.640000 25.520000 151 161 155 0
32.780000 24.640000 27.060000 153 153 146 0
33.000000 24.640000 27.060000 145 145 138 0
33.220000 24.640000 28.380000 142 139 129 0
33.440000 24.640000 27.060000 140 137 127 0
33.660000 24.640000 27.280000 138 133 124 0
33.880000 24.640000 28.600000 136 131 122 0
34.100000 24.640000 28.820000 135 128 117 0
34.320000 24.640000 30.360000 134 127 116 0
34.540000 24.640000 31.460000 132 123 111 0
34.760000 24.640000 33.660000 132 123 111 0
34.980000 24.640000 34.760000 130 121 111 0
35.200000 24.640000 36.080000 128 119 109 0
35.420000 24.640000 36.080000 127 118 108 0
35.640000 24.640000 34.760000 127 118 108 0
35.860000 24.640000 33.220000 127 116 105 0
36.080000 24.640000 29.260000 126 115 104 0
36.300000 24.640000 23.540000 123 114 102 0
36.520000 24.640000 20.900000 123 114 102 0
36.740000 24.640000 22.440000 123 112 101 0
36.960000 24.640000 21.120000 123 112 101 0
37.180000 24.640000 19.800000 122 112 98 0
0.000000 24.860000 8.800000 122 111 104 0
0.220000 24.860000 8.800000 122 110 105 0
0.440000 24.860000 9.240000 123 111 106 0
0.660000 24.860000 9.460000 120 110 104 0
0.880000 24.860000 9.460000 120 110 104 0
1.100000 24.860000 9.460000 122 110 105 0
1.320000 24.860000 6.820000 122 110 105 0
1.540000 24.860000 5.500000 122 111 104 0
1.760000 24.860000 7.920000 122 111 104 0
1.980000 24.860000 12.760000 121 111 105 0
2.200000 24.860000 16.940000 120 110 104 0
2.420000 24.860000 17.600000 120 110 104 0
2.640000 24.860000 19.360000 121 111 105 0
2.860000 24.860000 20.680000 122 110 105 0
3.080000 24.860000 20.680000 122 110 105 0
3.300000 24.860000 20.680000 123 112 105 0
3.520000 24.860000 20.680000 124 113 106 0
3.740000 24.860000 22.000000 122 112 106 0
3.960000 24.860000 24.420000 123 113 107 0
4.180000 24.860000 26.620000 125 115 109 0
4.400000 24.860000 27.720000 126 116 110 0
4.620000 24.860000 29.040000 126 114 109 0
4.840000 24.860000 29.040000 127 115 110 0
5.060000 24.860000 30.580000 128 116 111 0
5.280000 24.860000 30.580000 130 118 113 0
5.500000 24.860000 30.580000 130 120 114 0
5.720000 24.860000 30.580000 132 122 116 0
5.940000 24.860000 31.900000 133 125 118 0
6.160000 24.860000 31.900000 136 128 121 0
6.380000 24.860000 33.220000 134 130 124 0
6.600000 24.860000 33.220000 136 132 126 0
6.820000 24.860000 34.980000 140 135 134 0
7.040000 24.860000 34.100000 145 140 139 0
7.260000 24.860000 23.540000 147 146 147 0
7.480000 24.860000 16.500000 152 151 152 0
7.700000 24.860000 19.360000 153 163 170 0
7.920000 24.860000 9.460000 161 171 178 0
8.140000 24.860000 9.460000 170 184 190 0
8.360000 24.860000 28.820000 180 194 200 0
8.580000 24.860000 36.960000 186 205 206 0
8.800000 24.860000 36.960000 193 212 213 0
9.020000 24.860000 35.640000 197 222 221 0
9.240000 24.860000 35.640000 200 225 224 0
9.460000 24.860000 34.320000 204 233 226 0
9.680000 24.860000 34.320000 206 235 228 0
9.900000 24.860000 34.320000 205 236 226 0
10.120000 24.860000 34.320000 203 234 224 0
10.340000 24.860000 34.320000 203 229 223 0
10.560000 24.860000 34.320000 200 226 220 0
10.780000 24.860000 34.320000 201 221 217 0
11.000000 24.860000 35.860000 198 218 214 0
11.220000 24.860000 37.180000 196 214 209 0
11.440000 24.860000 37.180000 194 212 207 0
11.660000 24.860000 38.280000 193 211 206 0
11.880000 24.860000 41.800000 192 210 205 0
12.100000 24.860000 42.900000 192 210 207 0
12.320000 24.860000 42.900000 193 211 208 0
12.540000 24.860000 42.900000 191 209 204 0
12.760000 24.860000 31.900000 192 210 205 0
12.980000 24.860000 11.220000 191 211 205 0
13.200000 24.860000 1.760000 192 212 206 0
13.420000 24.860000 1.760000 193 211 206 0
13.640000 24.860000 1.980000 192 210 205 0
13.860000 24.860000 0.660000 193 211 206 0
14.080000 24.860000 0.660000 194 212 207 0
14.300000 24.860000 0.660000 194 214 208 0
14.520000 24.860000 0.880000 194 214 208 0
14.740000 24.860000 0.880000 194 214 208 0
14.960000 24.860000 0.880000 194 214 208 0
15.180000 24.860000 1.100000 194 214 208 0
16.280000 24.860000 1.320000 195 215 209 0
16.500000 24.860000 1.320000 196 216 210 0
16.720000 24.860000 1.320000 196 216 210 0
16.940000 24.860000 2.640000 197 217 211 0
17.160000 24.860000 3.740000 197 217 211 0
17.380000 24.860000 4.400000 198 218 212 0
17.600000 24.860000 5.500000 196 216 210 0
17.820000 24.860000 5.500000 195 215 209 0
18.040000 24.860000 5.720000 195 215 209 0
18.260000 24.860000 5.720000 195 215 209 0
18.480000 24.860000 5.720000 194 214 208 0
18.700000 24.860000 5.720000 196 216 210 0
18.920000 24.860000 5.720000 196 216 210 0
19.140000 24.860000 5.940000 195 215 209 0
19.360000 24.860000 5.940000 196 216 210 0
19.580000 24.860000 5.940000 195 217 210 0
19.800000 24.860000 6.160000 196 218 211 0
20.020000 24.860000 6.160000 195 217 210 0
20.240000 24.860000 6.160000 195 217 210 0
20.460000 24.860000 6.380000 196 218 211 0
20.680000 24.860000 6.380000 195 217 210 0
20.900000 24.860000 6.600000 196 218 211 0
21.120000 24.860000 6.600000 196 218 211 0
21.340000 24.860000 6.600000 195 217 210 0
21.560000 24.860000 8.140000 196 218 211 0
21.780000 24.860000 8.140000 196 218 211 0
22.000000 24.860000 8.140000 197 219 212 0
22.220000 24.860000 8.140000 197 219 212 0
22.440000 24.860000 8.140000 196 218 211 0
22.660000 24.860000 9.680000 196 218 211 0
22.880000 24.860000 9.680000 196 218 211 0
23.100000 24.860000 10.780000 198 220 215 0
23.320000 24.860000 11.440000 197 219 214 0
23.540000 24.860000 12.540000 197 219 212 0
23.760000 24.860000 12.540000 197 219 212 0
23.980000 24.860000 12.540000 195 220 212 0
24.200000 24.860000 14.080000 196 221 213 0
24.420000 24.860000 14.080000 195 220 212 0
24.640000 24.860000 14.080000 195 220 212 0
24.860000 24.860000 14.080000 198 220 215 0
25.080000 24.860000 14.080000 198 220 215 0
25.300000 24.860000 14.300000 196 221 213 0
25.520000 24.860000 14.300000 196 221 213 0
25.740000 24.860000 14.520000 196 220 215 0
25.960000 24.860000 15.840000 196 220 215 0
26.180000 24.860000 15.840000 196 220 215 0
26.400000 24.860000 16.060000 195 219 214 0
26.620000 24.860000 16.060000 196 220 215 0
26.840000 24.860000 14.740000 197 221 216 0
27.060000 24.860000 14.960000 196 221 213 0
27.280000 24.860000 14.960000 197 222 214 0
27.500000 24.860000 14.960000 196 221 213 0
27.720000 24.860000 14.960000 196 221 213 0
27.940000 24.860000 14.960000 196 220 215 0
28.160000 24.860000 16.500000 196 220 215 0
28.380000 24.860000 16.500000 196 220 215 0
28.600000 24.860000 16.500000 197 221 216 0
28.820000 24.860000 16.500000 196 221 213 0
29.040000 24.860000 17.600000 196 221 213 0
29.260000 24.860000 18.260000 196 221 213 0
29.480000 24.860000 19.360000 196 221 213 0
29.700000 24.860000 19.360000 194 220 214 0
29.920000 24.860000 19.580000 193 219 213 0
30.140000 24.860000 19.580000 194 218 213 0
30.360000 24.860000 19.580000 193 217 212 0
30.580000 24.860000 18.260000 192 216 213 0
30.800000 24.860000 18.260000 188 212 209 0
31.020000 24.860000 18.260000 186 210 207 0
31.240000 24.860000 18.480000 184 208 205 0
31.460000 24.860000 18.480000 179 203 202 0
31.680000 24.860000 20.020000 174 198 197 0
31.900000 24.860000 21.340000 171 189 188 0
32.120000 24.860000 22.880000 163 181 180 0
32.340000 24.860000 24.200000 162 172 166 0
32.560000 24.860000 25.520000 153 163 157 0
32.780000 24.860000 27.060000 153 153 146 0
33.000000 24.860000 27.060000 147 147 140 0
33.220000 24.860000 27.060000 145 142 132 0
33.440000 24.860000 27.060000 141 138 128 0
33.660000 24.860000 27.280000 138 133 124 0
33.880000 24.860000 27.280000 136 131 122 0
34.100000 24.860000 28.820000 134 127 116 0
34.320000 24.860000 29.040000 133 126 115 0
34.540000 24.860000 31.460000 132 123 111 0
34.760000 24.860000 32.340000 131 122 110 0
34.980000 24.860000 33.660000 130 121 111 0
35.200000 24.860000 34.760000 127 118 108 0
35.420000 24.860000 36.080000 127 118 108 0
35.640000 24.860000 34.540000 126 117 107 0
35.860000 24.860000 34.760000 127 116 105 0
36.080000 24.860000 30.580000 125 114 103 0
36.300000 24.860000 23.540000 124 115 103 0
36.520000 24.860000 20.900000 122 113 101 0
36.740000 24.860000 22.440000 123 112 101 0
36.960000 24.860000 21.120000 122 111 100 0
37.180000 24.860000 19.800000 122 112 98 0
0.000000 25.080000 7.700000 122 110 105 0
0.220000 25.080000 9.020000 121 111 105 0
0.440000 25.080000 9.240000 121 111 105 0
0.660000 25.080000 9.460000 122 111 104 0
0.880000 25.080000 9.460000 122 111 104 0
1.100000 25.080000 9.460000 122 110 105 0
1.320000 25.080000 8.140000 123 111 106 0
1.540000 25.080000 6.820000 122 112 106 0
1.760000 25.080000 7.920000 122 112 106 0
1.980000 25.080000 14.300000 122 110 105 0
2.200000 25.080000 18.260000 121 109 104 0
2.420000 25.080000 17.600000 122 110 105 0
2.640000 25.080000 17.820000 122 110 105 0
2.860000 25.080000 20.680000 122 110 105 0
3.080000 25.080000 20.680000 123 111 106 0
3.300000 25.080000 20.680000 122 112 106 0
3.520000 25.080000 20.680000 123 113 107 0
3.740000 25.080000 22.000000 125 113 108 0
3.960000 25.080000 23.320000 124 112 107 0
4.180000 25.080000 26.840000 126 114 109 0
4.400000 25.080000 27.720000 127 115 110 0
4.620000 25.080000 29.040000 127 116 109 0
4.840000 25.080000 29.040000 127 116 109 0
5.060000 25.080000 30.580000 129 117 112 0
5.280000 25.080000 30.580000 131 119 114 0
5.500000 25.080000 30.580000 132 120 115 0
5.720000 25.080000 30.580000 133 121 116 0
5.940000 25.080000 31.900000 133 125 118 0
6.160000 25.080000 31.900000 135 127 120 0
6.380000 25.080000 33.220000 135 131 125 0
6.600000 25.080000 33.220000 137 133 127 0
6.820000 25.080000 36.300000 141 136 135 0
7.040000 25.080000 29.920000 145 140 139 0
7.260000 25.080000 13.640000 147 146 147 0
7.480000 25.080000 12.320000 153 152 153 0
7.700000 25.080000 19.360000 154 162 170 0
7.920000 25.080000 9.460000 161 169 177 0
8.140000 25.080000 9.460000 169 183 189 0
8.360000 25.080000 28.820000 180 194 200 0
8.580000 25.080000 38.280000 186 203 205 0
8.800000 25.080000 36.960000 195 212 214 0
9.020000 25.080000 35.640000 198 222 219 0
9.240000 25.080000 35.640000 203 227 224 0
9.460000 25.080000 34.320000 203 233 228 0
9.680000 25.080000 34.320000 205 235 230 0
9.900000 25.080000 34.320000 205 235 228 0
10.120000 25.080000 34.320000 204 234 227 0
10.340000 25.080000 34.320000 204 228 223 0
10.560000 25.080000 34.320000 201 225 220 0
10.780000 25.080000 34.320000 201 223 218 0
11.000000 25.080000 35.860000 196 218 213 0
11.220000 25.080000 37.180000 196 214 209 0
11.440000 25.080000 37.180000 194 212 207 0
11.660000 25.080000 38.280000 193 211 208 0
11.880000 25.080000 41.800000 193 211 208 0
12.100000 25.080000 42.900000 192 210 207 0
12.320000 25.080000 42.900000 193 211 208 0
12.540000 25.080000 40.260000 191 211 205 0
12.760000 25.080000 26.400000 191 211 205 0
12.980000 25.080000 8.580000 193 211 206 0
13.200000 25.080000 1.760000 193 211 206 0
13.420000 25.080000 1.760000 194 212 207 0
13.640000 25.080000 1.980000 193 211 206 0
13.860000 25.080000 0.660000 193 213 207 0
14.080000 25.080000 0.660000 194 214 208 0
14.300000 25.080000 0.660000 194 214 208 0
14.520000 25.080000 0.880000 194 214 208 0
14.740000 25.080000 0.880000 195 215 209 0
14.960000 25.080000 0.880000 194 214 208 0
15.180000 25.080000 1.100000 195 215 209 0
16.280000 25.080000 1.320000 196 216 210 0
16.500000 25.080000 1.320000 197 217 211 0
16.720000 25.080000 1.320000 197 217 211 0
16.940000 25.080000 2.640000 197 217 211 0
17.160000 25.080000 3.740000 199 219 213 0
17.380000 25.080000 4.400000 199 219 213 0
17.600000 25.080000 5.500000 197 217 211 0
17.820000 25.080000 5.500000 196 216 210 0
18.040000 25.080000 5.720000 196 216 210 0
18.260000 25.080000 5.720000 194 216 209 0
18.480000 25.080000 5.720000 195 217 210 0
18.700000 25.080000 5.720000 195 217 210 0
18.920000 25.080000 5.720000 195 217 210 0
19.140000 25.080000 5.940000 196 218 211 0
19.360000 25.080000 5.940000 195 217 210 0
19.580000 25.080000 5.940000 195 217 210 0
19.800000 25.080000 6.160000 195 217 210 0
20.020000 25.080000 6.160000 195 217 210 0
20.240000 25.080000 6.160000 196 218 211 0
20.460000 25.080000 6.380000 197 219 212 0
20.680000 25.080000 6.380000 196 218 211 0
20.900000 25.080000 6.600000 196 218 211 0
21.120000 25.080000 6.600000 195 217 210 0
21.340000 25.080000 6.600000 196 218 211 0
21.560000 25.080000 8.140000 196 218 211 0
21.780000 25.080000 8.140000 194 219 211 0
22.000000 25.080000 8.140000 195 220 212 0
22.220000 25.080000 8.140000 194 219 211 0
22.440000 25.080000 8.140000 194 219 211 0
22.660000 25.080000 9.680000 195 220 212 0
22.880000 25.080000 9.680000 196 221 213 0
23.100000 25.080000 10.780000 198 220 213 0
23.320000 25.080000 11.440000 197 219 212 0
23.540000 25.080000 12.540000 196 221 213 0
23.760000 25.080000 12.540000 195 220 212 0
23.980000 25.080000 12.540000 196 221 213 0
24.200000 25.080000 14.080000 195 220 212 0
24.420000 25.080000 14.080000 196 221 213 0
24.640000 25.080000 14.080000 195 220 212 0
24.860000 25.080000 14.080000 196 221 213 0
25.080000 25.080000 14.080000 195 220 212 0
25.300000 25.080000 14.300000 196 221 213 0
25.520000 25.080000 14.300000 197 222 214 0
25.740000 25.080000 14.520000 196 221 213 0
25.960000 25.080000 15.840000 196 221 213 0
26.180000 25.080000 15.840000 195 220 212 0
26.400000 25.080000 16.060000 195 220 212 0
26.620000 25.080000 16.060000 197 222 214 0
26.840000 25.080000 14.740000 196 221 213 0
27.060000 25.080000 14.960000 197 222 214 0
27.280000 25.080000 14.960000 196 221 213 0
27.500000 25.080000 14.960000 197 222 214 0
27.720000 25.080000 14.960000 197 222 214 0
27.940000 25.080000 14.960000 197 222 214 0
28.160000 25.080000 15.180000 197 222 214 0
28.380000 25.080000 16.500000 197 222 214 0
28.600000 25.080000 16.500000 196 221 213 0
28.820000 25.080000 16.500000 197 222 214 0
29.040000 25.080000 17.600000 196 221 213 0
29.260000 25.080000 18.260000 196 220 215 0
29.480000 25.080000 19.360000 196 220 215 0
29.700000 25.080000 19.360000 195 220 212 0
29.920000 25.080000 19.580000 195 220 212 0
30.140000 25.080000 19.580000 195 219 214 0
30.360000 25.080000 19.580000 193 217 212 0
30.580000 25.080000 18.260000 191 217 211 0
30.800000 25.080000 18.260000 190 216 210 0
31.020000 25.080000 18.260000 184 212 208 0
31.240000 25.080000 18.480000 182 210 206 0
31.460000 25.080000 18.480000 178 206 204 0
31.680000 25.080000 20.020000 172 200 198 0
31.900000 25.080000 21.340000 171 191 185 0
32.120000 25.080000 21.340000 164 184 178 0
32.340000 25.080000 22.880000 163 175 168 0
32.560000 25.080000 24.200000 154 166 159 0
32.780000 25.080000 25.740000 153 155 147 0
33.000000 25.080000 27.060000 147 149 141 0
33.220000 25.080000 27.060000 144 143 133 0
33.440000 25.080000 27.280000 139 138 128 0
33.660000 25.080000 25.960000 139 135 121 0
33.880000 25.080000 27.280000 136 132 118 0
34.100000 25.080000 27.500000 135 128 115 0
34.320000 25.080000 28.820000 133 126 113 0
34.540000 25.080000 29.920000 132 125 112 0
34.760000 25.080000 32.560000 130 123 110 0
34.980000 25.080000 33.880000 130 121 111 0
