ply
format ascii 1.0
element vertex 1106
property float x
property float y
property float z
property uchar red
property uchar green
property uchar blue
property uchar alpha
end_header
8.360000 19.140000 19.140000 179 197 204 0
8.580000 19.140000 18.480000 186 207 208 0
8.800000 19.140000 17.820000 193 214 215 0
9.020000 19.140000 17.820000 196 221 221 0
9.240000 19.140000 17.820000 201 226 226 0
9.460000 19.140000 17.160000 201 231 228 0
9.680000 19.140000 17.160000 201 231 228 0
9.900000 19.140000 17.160000 201 231 226 0
10.120000 19.140000 17.160000 200 230 225 0
10.340000 19.140000 17.160000 200 224 223 0
10.560000 19.140000 17.160000 198 222 221 0
10.780000 19.140000 17.930000 197 218 216 0
11.000000 19.140000 17.930000 194 215 213 0
11.220000 19.140000 18.590000 192 211 210 0
11.440000 19.140000 18.590000 192 211 210 0
11.660000 19.140000 19.910000 190 209 208 0
11.880000 19.140000 20.900000 191 210 209 0
12.100000 19.140000 21.450000 190 209 208 0
12.320000 19.140000 21.450000 190 209 208 0
12.540000 19.140000 15.950000 191 210 209 0
12.760000 19.140000 5.610000 191 210 209 0
12.980000 19.140000 0.110000 191 210 209 0
13.200000 19.140000 0.880000 191 210 209 0
13.420000 19.140000 0.990000 191 210 209 0
13.640000 19.140000 0.330000 192 211 210 0
13.860000 19.140000 0.330000 192 211 210 0
14.080000 19.140000 0.330000 192 211 210 0
14.300000 19.140000 0.330000 193 212 211 0
14.520000 19.140000 0.440000 192 211 210 0
14.740000 19.140000 0.440000 192 211 210 0
14.960000 19.140000 0.550000 193 212 211 0
16.280000 19.140000 0.660000 194 213 212 0
16.500000 19.140000 0.660000 195 214 213 0
16.720000 19.140000 0.660000 195 214 213 0
16.940000 19.140000 1.210000 196 215 214 0
17.160000 19.140000 2.200000 196 215 214 0
17.380000 19.140000 2.750000 196 217 215 0
17.600000 19.140000 2.750000 195 216 214 0
17.820000 19.140000 2.860000 195 216 216 0
18.040000 19.140000 2.860000 194 215 215 0
18.260000 19.140000 2.860000 194 215 213 0
18.480000 19.140000 2.860000 195 216 214 0
18.700000 19.140000 2.860000 195 216 214 0
18.920000 19.140000 2.860000 195 216 214 0
19.140000 19.140000 2.970000 196 217 215 0
19.360000 19.140000 2.970000 196 217 215 0
19.580000 19.140000 3.080000 196 217 217 0
19.800000 19.140000 3.080000 196 217 217 0
20.020000 19.140000 3.080000 197 218 218 0
20.240000 19.140000 3.080000 196 217 217 0
20.460000 19.140000 3.190000 197 218 218 0
20.680000 19.140000 3.300000 196 217 217 0
20.900000 19.140000 3.300000 196 217 217 0
21.120000 19.140000 3.300000 197 218 218 0
21.340000 19.140000 3.300000 195 219 218 0
21.560000 19.140000 4.070000 194 218 217 0
21.780000 19.140000 4.070000 196 217 217 0
22.000000 19.140000 4.070000 197 218 218 0
22.220000 19.140000 4.070000 195 219 218 0
22.440000 19.140000 4.180000 195 219 218 0
22.660000 19.140000 4.840000 195 219 218 0
22.880000 19.140000 5.390000 196 220 219 0
23.100000 19.140000 5.720000 196 220 219 0
23.320000 19.140000 6.270000 196 220 219 0
23.540000 19.140000 6.270000 196 220 219 0
23.760000 19.140000 6.270000 197 221 220 0
23.980000 19.140000 6.930000 197 221 220 0
24.200000 19.140000 7.040000 197 221 220 0
24.420000 19.140000 7.040000 197 221 218 0
24.640000 19.140000 7.040000 198 222 219 0
24.860000 19.140000 7.040000 197 221 220 0
25.080000 19.140000 7.150000 197 221 220 0
25.300000 19.140000 7.150000 198 222 221 0
25.520000 19.140000 7.150000 198 222 221 0
25.740000 19.140000 7.920000 198 222 221 0
25.960000 19.140000 7.920000 197 221 220 0
26.180000 19.140000 8.030000 198 222 221 0
26.400000 19.140000 8.030000 199 223 222 0
26.620000 19.140000 7.480000 197 222 221 0
26.840000 19.140000 7.480000 198 223 222 0
27.060000 19.140000 7.480000 198 222 221 0
27.280000 19.140000 7.480000 198 222 221 0
27.500000 19.140000 8.250000 198 223 222 0
27.720000 19.140000 8.250000 199 224 223 0
27.940000 19.140000 8.250000 198 223 222 0
28.160000 19.140000 8.250000 198 223 222 0
28.380000 19.140000 8.250000 199 224 223 0
28.600000 19.140000 8.250000 199 224 223 0
28.820000 19.140000 8.800000 199 224 223 0
29.040000 19.140000 9.130000 199 224 223 0
29.260000 19.140000 9.680000 199 224 223 0
29.480000 19.140000 9.680000 199 224 223 0
29.700000 19.140000 10.450000 198 223 222 0
29.920000 19.140000 10.450000 198 223 222 0
30.140000 19.140000 10.450000 197 225 223 0
30.360000 19.140000 10.450000 195 223 221 0
30.580000 19.140000 10.450000 197 222 222 0
30.800000 19.140000 10.560000 196 221 221 0
31.020000 19.140000 10.560000 195 220 219 0
31.240000 19.140000 10.010000 193 218 217 0
31.460000 19.140000 10.010000 192 217 216 0
31.680000 19.140000 10.010000 190 215 214 0
31.900000 19.140000 10.120000 185 212 214 0
32.120000 19.140000 10.780000 182 209 211 0
32.340000 19.140000 10.890000 179 206 208 0
32.560000 19.140000 11.550000 177 204 206 0
32.780000 19.140000 11.660000 173 198 200 0
33.000000 19.140000 11.660000 167 192 194 0
33.220000 19.140000 11.660000 164 183 184 0
33.440000 19.140000 12.320000 156 175 176 0
33.660000 19.140000 12.870000 158 168 165 0
33.880000 19.140000 13.970000 151 161 158 0
34.100000 19.140000 14.520000 149 155 150 0
34.320000 19.140000 14.520000 143 149 144 0
34.540000 19.140000 14.630000 145 143 139 0
34.760000 19.140000 14.630000 142 140 136 0
34.980000 19.140000 15.290000 140 139 132 0
35.200000 19.140000 15.290000 137 136 129 0
35.420000 19.140000 15.290000 139 135 127 0
35.640000 19.140000 14.630000 137 133 125 0
35.860000 19.140000 14.630000 137 132 124 0
36.080000 19.140000 13.970000 135 130 122 0
36.300000 19.140000 13.970000 134 129 121 0
36.520000 19.140000 13.310000 132 127 119 0
36.740000 19.140000 12.650000 131 126 118 0
36.960000 19.140000 11.220000 130 125 117 0
37.180000 19.140000 11.220000 131 123 115 0
0.000000 19.360000 3.410000 119 109 105 0
0.220000 19.360000 3.410000 120 108 105 0
0.440000 19.360000 4.840000 118 106 103 0
0.660000 19.360000 5.390000 117 107 101 0
0.880000 19.360000 6.160000 117 107 101 0
1.100000 19.360000 6.160000 116 106 102 0
1.320000 19.360000 4.840000 117 107 103 0
1.540000 19.360000 5.500000 117 107 103 0
1.760000 19.360000 8.140000 117 107 103 0
1.980000 19.360000 10.560000 117 107 103 0
2.200000 19.360000 11.880000 117 107 103 0
2.420000 19.360000 11.440000 118 108 102 0
2.640000 19.360000 10.890000 119 109 103 0
2.860000 19.360000 11.000000 119 109 105 0
3.080000 19.360000 11.660000 119 109 105 0
3.300000 19.360000 12.430000 118 108 104 0
3.520000 19.360000 12.430000 119 109 105 0
3.740000 19.360000 12.430000 120 110 106 0
3.960000 19.360000 12.980000 121 111 107 0
4.180000 19.360000 13.970000 121 111 107 0
4.400000 19.360000 14.520000 122 112 108 0
4.620000 19.360000 15.290000 122 112 108 0
4.840000 19.360000 15.290000 124 114 110 0
5.060000 19.360000 15.290000 124 115 113 0
5.280000 19.360000 15.950000 126 117 115 0
5.500000 19.360000 15.950000 127 118 116 0
5.720000 19.360000 15.950000 130 121 119 0
5.940000 19.360000 15.950000 129 123 120 0
6.160000 19.360000 15.950000 132 126 123 0
6.380000 19.360000 16.610000 133 128 127 0
6.600000 19.360000 17.270000 136 131 130 0
6.820000 19.360000 17.490000 139 136 138 0
7.040000 19.360000 17.050000 143 140 142 0
7.260000 19.360000 17.930000 144 147 151 0
7.480000 19.360000 18.590000 153 156 160 0
7.700000 19.360000 18.590000 155 164 174 0
7.920000 19.360000 19.250000 163 172 182 0
8.140000 19.360000 19.250000 169 187 194 0
8.360000 19.360000 19.140000 178 196 203 0
8.580000 19.360000 18.480000 186 207 208 0
8.800000 19.360000 17.820000 193 214 215 0
9.020000 19.360000 17.820000 194 222 221 0
9.240000 19.360000 17.820000 198 226 225 0
9.460000 19.360000 17.160000 201 231 228 0
9.680000 19.360000 17.160000 201 231 228 0
9.900000 19.360000 17.160000 200 230 227 0
10.120000 19.360000 17.160000 199 229 226 0
10.340000 19.360000 17.160000 199 223 222 0
10.560000 19.360000 17.160000 197 221 220 0
10.780000 19.360000 17.930000 198 217 216 0
11.000000 19.360000 17.930000 196 215 214 0
11.220000 19.360000 18.590000 193 212 211 0
11.440000 19.360000 18.590000 191 210 209 0
11.660000 19.360000 19.140000 188 209 207 0
11.880000 19.360000 20.900000 188 209 207 0
12.100000 19.360000 21.450000 190 209 210 0
12.320000 19.360000 21.450000 190 209 210 0
12.540000 19.360000 15.950000 190 209 208 0
12.760000 19.360000 5.610000 191 210 209 0
12.980000 19.360000 0.110000 190 209 208 0
13.200000 19.360000 0.880000 191 210 209 0
13.420000 19.360000 0.990000 191 210 209 0
13.640000 19.360000 0.330000 191 210 209 0
13.860000 19.360000 0.330000 192 211 210 0
14.080000 19.360000 0.330000 191 210 209 0
14.300000 19.360000 0.330000 191 210 209 0
14.520000 19.360000 0.440000 191 210 209 0
14.740000 19.360000 0.440000 191 210 209 0
14.960000 19.360000 0.550000 193 212 211 0
16.280000 19.360000 0.660000 195 214 213 0
16.500000 19.360000 0.660000 194 213 212 0
16.720000 19.360000 0.660000 195 214 213 0
16.940000 19.360000 1.210000 195 214 213 0
17.160000 19.360000 2.200000 195 214 213 0
17.380000 19.360000 2.750000 195 216 214 0
17.600000 19.360000 2.750000 194 215 213 0
17.820000 19.360000 2.860000 195 216 214 0
18.040000 19.360000 2.860000 194 215 213 0
18.260000 19.360000 2.860000 195 216 214 0
18.480000 19.360000 2.860000 195 216 214 0
18.700000 19.360000 2.860000 195 216 214 0
18.920000 19.360000 2.860000 195 216 214 0
19.140000 19.360000 2.970000 195 216 214 0
19.360000 19.360000 2.970000 196 217 215 0
19.580000 19.360000 3.080000 196 217 215 0
19.800000 19.360000 3.080000 196 217 215 0
20.020000 19.360000 3.080000 197 218 216 0
20.240000 19.360000 3.080000 197 218 216 0
20.460000 19.360000 3.190000 196 217 215 0
20.680000 19.360000 3.300000 196 217 215 0
20.900000 19.360000 3.300000 196 217 215 0
21.120000 19.360000 3.300000 197 218 216 0
21.340000 19.360000 3.300000 196 217 217 0
21.560000 19.360000 4.070000 197 218 218 0
21.780000 19.360000 4.070000 196 217 215 0
22.000000 19.360000 4.070000 197 218 216 0
22.220000 19.360000 4.070000 195 219 216 0
22.440000 19.360000 4.180000 195 219 216 0
22.660000 19.360000 4.840000 195 219 216 0
22.880000 19.360000 5.390000 195 219 216 0
23.100000 19.360000 5.720000 197 221 220 0
23.320000 19.360000 6.270000 196 220 219 0
23.540000 19.360000 6.270000 196 220 217 0
23.760000 19.360000 6.270000 197 221 218 0
23.980000 19.360000 6.930000 197 221 220 0
24.200000 19.360000 7.040000 197 221 220 0
24.420000 19.360000 7.040000 197 221 220 0
24.640000 19.360000 7.040000 197 221 220 0
24.860000 19.360000 7.040000 197 221 220 0
25.080000 19.360000 7.150000 197 221 220 0
25.300000 19.360000 7.150000 197 221 220 0
25.520000 19.360000 7.150000 197 221 220 0
25.740000 19.360000 7.920000 197 221 220 0
25.960000 19.360000 7.920000 198 222 221 0
26.180000 19.360000 8.030000 198 222 221 0
26.400000 19.360000 8.030000 198 222 221 0
26.620000 19.360000 7.480000 197 222 221 0
26.840000 19.360000 7.480000 197 222 221 0
27.060000 19.360000 7.480000 198 223 222 0
27.280000 19.360000 7.480000 198 223 222 0
27.500000 19.360000 8.250000 199 223 222 0
27.720000 19.360000 8.250000 199 223 222 0
27.940000 19.360000 8.250000 198 223 222 0
28.160000 19.360000 8.250000 198 223 222 0
28.380000 19.360000 8.250000 198 223 222 0
28.600000 19.360000 8.250000 198 223 222 0
28.820000 19.360000 8.800000 198 223 222 0
29.040000 19.360000 9.130000 199 224 223 0
29.260000 19.360000 9.680000 199 224 223 0
29.480000 19.360000 9.680000 198 223 222 0
29.700000 19.360000 9.790000 198 223 222 0
29.920000 19.360000 10.450000 199 224 223 0
30.140000 19.360000 10.450000 198 223 222 0
30.360000 19.360000 10.450000 197 222 221 0
30.580000 19.360000 10.450000 197 222 222 0
30.800000 19.360000 10.560000 196 221 221 0
31.020000 19.360000 10.560000 195 220 219 0
31.240000 19.360000 10.010000 193 218 217 0
31.460000 19.360000 10.010000 190 215 215 0
31.680000 19.360000 10.010000 189 214 214 0
31.900000 19.360000 10.120000 184 212 211 0
32.120000 19.360000 10.780000 181 209 208 0
32.340000 19.360000 10.890000 178 203 203 0
32.560000 19.360000 11.550000 176 201 201 0
32.780000 19.360000 11.660000 171 195 194 0
33.000000 19.360000 11.660000 164 188 187 0
33.220000 19.360000 12.430000 165 180 178 0
33.440000 19.360000 12.430000 156 171 169 0
33.660000 19.360000 12.980000 158 163 162 0
33.880000 19.360000 13.970000 151 156 155 0
34.100000 19.360000 14.520000 148 150 144 0
34.320000 19.360000 14.520000 144 146 140 0
34.540000 19.360000 14.630000 143 142 135 0
34.760000 19.360000 14.630000 140 139 132 0
34.980000 19.360000 15.290000 140 136 128 0
35.200000 19.360000 15.950000 138 134 126 0
35.420000 19.360000 15.290000 136 133 123 0
35.640000 19.360000 15.290000 134 131 121 0
35.860000 19.360000 15.400000 134 129 120 0
36.080000 19.360000 14.630000 133 128 119 0
36.300000 19.360000 13.970000 132 127 119 0
36.520000 19.360000 13.310000 131 126 118 0
36.740000 19.360000 12.650000 131 123 116 0
36.960000 19.360000 11.220000 131 123 116 0
37.180000 19.360000 11.220000 130 122 114 0
0.000000 19.580000 3.300000 117 107 103 0
0.220000 19.580000 3.410000 119 107 104 0
0.440000 19.580000 4.840000 119 107 104 0
0.660000 19.580000 5.390000 118 108 102 0
0.880000 19.580000 5.390000 117 107 101 0
1.100000 19.580000 6.160000 117 107 103 0
1.320000 19.580000 4.840000 117 107 103 0
1.540000 19.580000 5.500000 116 106 102 0
1.760000 19.580000 8.140000 117 107 103 0
1.980000 19.580000 10.560000 116 106 102 0
2.200000 19.580000 11.880000 118 108 104 0
2.420000 19.580000 11.440000 117 107 101 0
2.640000 19.580000 11.000000 119 109 103 0
2.860000 19.580000 11.000000 119 109 105 0
3.080000 19.580000 11.660000 119 109 105 0
3.300000 19.580000 12.430000 119 109 105 0
3.520000 19.580000 12.430000 120 110 106 0
3.740000 19.580000 12.430000 120 110 106 0
3.960000 19.580000 12.980000 120 110 106 0
4.180000 19.580000 13.970000 121 111 107 0
4.400000 19.580000 14.520000 121 111 107 0
4.620000 19.580000 15.290000 123 113 109 0
4.840000 19.580000 15.290000 124 114 110 0
5.060000 19.580000 15.290000 125 116 114 0
5.280000 19.580000 15.950000 126 117 115 0
5.500000 19.580000 15.950000 127 118 116 0
5.720000 19.580000 15.950000 129 120 118 0
5.940000 19.580000 15.950000 131 125 122 0
6.160000 19.580000 15.950000 132 126 123 0
6.380000 19.580000 16.610000 133 128 127 0
6.600000 19.580000 17.270000 137 132 131 0
6.820000 19.580000 17.490000 139 136 138 0
7.040000 19.580000 17.050000 142 139 141 0
7.260000 19.580000 17.930000 144 147 151 0
7.480000 19.580000 18.590000 152 155 159 0
7.700000 19.580000 18.590000 155 164 174 0
7.920000 19.580000 19.250000 162 171 181 0
8.140000 19.580000 19.910000 168 186 193 0
8.360000 19.580000 19.140000 178 196 203 0
8.580000 19.580000 18.480000 185 206 207 0
8.800000 19.580000 17.820000 193 214 215 0
9.020000 19.580000 17.820000 194 222 221 0
9.240000 19.580000 17.820000 200 228 227 0
9.460000 19.580000 17.160000 200 230 227 0
9.680000 19.580000 17.160000 201 231 228 0
9.900000 19.580000 17.160000 200 230 227 0
10.120000 19.580000 17.160000 199 229 226 0
10.340000 19.580000 17.160000 201 225 224 0
10.560000 19.580000 17.160000 198 222 221 0
10.780000 19.580000 17.930000 197 216 215 0
11.000000 19.580000 17.930000 195 214 213 0
11.220000 19.580000 18.590000 194 213 212 0
11.440000 19.580000 18.590000 191 210 209 0
11.660000 19.580000 19.140000 190 211 209 0
11.880000 19.580000 20.900000 187 208 206 0
12.100000 19.580000 21.450000 189 208 209 0
12.320000 19.580000 21.450000 190 209 210 0
12.540000 19.580000 15.950000 190 209 208 0
12.760000 19.580000 5.610000 191 210 209 0
12.980000 19.580000 0.110000 191 210 209 0
13.200000 19.580000 0.880000 191 210 209 0
13.420000 19.580000 0.990000 191 210 209 0
13.640000 19.580000 0.330000 191 210 209 0
13.860000 19.580000 0.330000 191 210 209 0
14.080000 19.580000 0.330000 191 210 209 0
14.300000 19.580000 0.330000 191 210 209 0
14.520000 19.580000 0.440000 191 210 209 0
14.740000 19.580000 0.440000 191 210 209 0
14.960000 19.580000 0.550000 193 212 211 0
16.280000 19.580000 0.660000 194 213 212 0
16.500000 19.580000 0.660000 194 213 212 0
16.720000 19.580000 0.660000 194 213 212 0
16.940000 19.580000 1.210000 195 214 213 0
17.160000 19.580000 2.200000 195 214 213 0
17.380000 19.580000 2.750000 195 216 214 0
17.600000 19.580000 2.750000 195 216 214 0
17.820000 19.580000 2.860000 195 216 214 0
18.040000 19.580000 2.860000 194 215 213 0
18.260000 19.580000 2.860000 194 215 213 0
18.480000 19.580000 2.860000 194 215 213 0
18.700000 19.580000 2.860000 194 215 213 0
18.920000 19.580000 2.860000 196 217 215 0
19.140000 19.580000 2.970000 195 216 214 0
19.360000 19.580000 2.970000 195 216 214 0
19.580000 19.580000 3.080000 194 215 213 0
19.800000 19.580000 3.080000 195 216 214 0
20.020000 19.580000 3.080000 196 217 215 0
20.240000 19.580000 3.080000 196 217 215 0
20.460000 19.580000 3.190000 196 217 215 0
20.680000 19.580000 3.300000 196 217 215 0
20.900000 19.580000 3.300000 195 216 214 0
21.120000 19.580000 3.300000 196 217 215 0
21.340000 19.580000 3.300000 196 217 217 0
21.560000 19.580000 4.070000 196 217 217 0
21.780000 19.580000 4.070000 197 218 216 0
22.000000 19.580000 4.070000 197 218 216 0
22.220000 19.580000 4.070000 196 220 217 0
22.440000 19.580000 4.180000 195 219 216 0
22.660000 19.580000 4.840000 195 219 216 0
22.880000 19.580000 5.390000 196 220 217 0
23.100000 19.580000 5.720000 196 220 219 0
23.320000 19.580000 6.270000 196 220 219 0
23.540000 19.580000 6.270000 197 221 218 0
23.760000 19.580000 6.270000 196 220 217 0
23.980000 19.580000 6.930000 197 221 220 0
24.200000 19.580000 7.040000 197 221 220 0
24.420000 19.580000 7.040000 197 221 220 0
24.640000 19.580000 7.040000 196 220 219 0
24.860000 19.580000 7.040000 197 221 220 0
25.080000 19.580000 7.040000 197 221 220 0
25.300000 19.580000 7.150000 197 221 220 0
25.520000 19.580000 7.150000 197 221 220 0
25.740000 19.580000 7.920000 197 221 220 0
25.960000 19.580000 7.920000 196 220 219 0
26.180000 19.580000 8.030000 197 221 220 0
26.400000 19.580000 8.030000 197 221 220 0
26.620000 19.580000 7.480000 197 222 221 0
26.840000 19.580000 7.480000 197 222 221 0
27.060000 19.580000 7.480000 197 222 221 0
27.280000 19.580000 7.480000 197 222 221 0
27.500000 19.580000 7.480000 198 222 221 0
27.720000 19.580000 8.250000 199 223 222 0
27.940000 19.580000 8.250000 198 223 222 0
28.160000 19.580000 8.250000 198 223 222 0
28.380000 19.580000 8.250000 198 223 222 0
28.600000 19.580000 8.250000 198 223 222 0
28.820000 19.580000 8.800000 199 224 223 0
29.040000 19.580000 9.130000 199 224 223 0
29.260000 19.580000 9.680000 199 224 223 0
29.480000 19.580000 9.680000 199 224 223 0
29.700000 19.580000 9.680000 199 224 223 0
29.920000 19.580000 9.790000 198 223 222 0
30.140000 19.580000 9.790000 199 224 223 0
30.360000 19.580000 10.450000 199 224 223 0
30.580000 19.580000 10.450000 198 223 223 0
30.800000 19.580000 10.560000 196 221 221 0
31.020000 19.580000 9.900000 195 220 219 0
31.240000 19.580000 10.010000 193 218 217 0
31.460000 19.580000 10.010000 191 216 216 0
31.680000 19.580000 10.010000 187 212 212 0
31.900000 19.580000 10.120000 183 211 210 0
32.120000 19.580000 10.780000 180 208 207 0
32.340000 19.580000 10.890000 177 202 202 0
32.560000 19.580000 11.550000 175 200 200 0
32.780000 19.580000 11.660000 168 192 191 0
33.000000 19.580000 11.660000 160 184 183 0
33.220000 19.580000 12.430000 159 174 172 0
33.440000 19.580000 12.320000 153 168 166 0
33.660000 19.580000 13.530000 153 158 157 0
33.880000 19.580000 13.970000 149 154 153 0
34.100000 19.580000 14.520000 145 147 141 0
34.320000 19.580000 14.520000 142 144 138 0
34.540000 19.580000 14.630000 141 140 133 0
34.760000 19.580000 14.630000 138 137 130 0
34.980000 19.580000 15.290000 139 135 127 0
35.200000 19.580000 15.950000 137 133 125 0
35.420000 19.580000 16.060000 135 132 122 0
35.640000 19.580000 15.290000 134 131 121 0
35.860000 19.580000 15.290000 133 128 119 0
36.080000 19.580000 14.630000 132 127 118 0
36.300000 19.580000 13.970000 130 125 117 0
36.520000 19.580000 13.310000 130 125 117 0
36.740000 19.580000 12.650000 131 123 116 0
36.960000 19.580000 11.220000 130 122 115 0
37.180000 19.580000 11.220000 129 121 113 0
0.000000 19.800000 3.300000 116 106 102 0
0.220000 19.800000 3.410000 118 108 104 0
0.440000 19.800000 4.840000 117 107 103 0
0.660000 19.800000 5.390000 117 107 103 0
0.880000 19.800000 5.390000 116 106 102 0
1.100000 19.800000 5.500000 117 107 103 0
1.320000 19.800000 4.840000 117 107 103 0
1.540000 19.800000 5.500000 116 108 103 0
1.760000 19.800000 8.800000 116 108 103 0
1.980000 19.800000 10.560000 117 107 103 0
2.200000 19.800000 11.880000 117 107 103 0
2.420000 19.800000 10.890000 118 108 104 0
2.640000 19.800000 10.340000 118 108 104 0
2.860000 19.800000 11.000000 119 109 105 0
3.080000 19.800000 11.660000 119 109 105 0
3.300000 19.800000 12.430000 119 111 106 0
3.520000 19.800000 12.430000 119 111 106 0
3.740000 19.800000 12.430000 120 111 109 0
3.960000 19.800000 12.980000 120 111 109 0
4.180000 19.800000 13.970000 120 112 107 0
4.400000 19.800000 14.520000 120 112 107 0
4.620000 19.800000 15.290000 121 113 108 0
4.840000 19.800000 15.290000 123 115 110 0
5.060000 19.800000 15.290000 125 117 112 0
5.280000 19.800000 15.950000 125 117 112 0
5.500000 19.800000 15.950000 126 120 119 0
5.720000 19.800000 15.950000 127 121 120 0
5.940000 19.800000 15.950000 130 124 121 0
6.160000 19.800000 15.950000 132 126 123 0
6.380000 19.800000 16.610000 132 130 126 0
6.600000 19.800000 17.270000 134 132 128 0
6.820000 19.800000 17.490000 139 137 137 0
7.040000 19.800000 17.050000 143 141 141 0
7.260000 19.800000 17.270000 145 148 152 0
7.480000 19.800000 16.500000 152 155 159 0
7.700000 19.800000 17.930000 155 164 174 0
7.920000 19.800000 19.250000 162 171 181 0
8.140000 19.800000 19.910000 166 184 193 0
8.360000 19.800000 19.910000 178 196 205 0
8.580000 19.800000 18.480000 187 206 208 0
8.800000 19.800000 17.820000 194 213 215 0
9.020000 19.800000 17.820000 196 221 221 0
9.240000 19.800000 17.820000 201 226 226 0
9.460000 19.800000 17.160000 200 230 227 0
9.680000 19.800000 17.160000 201 231 228 0
9.900000 19.800000 17.160000 201 229 227 0
10.120000 19.800000 17.160000 199 227 225 0
10.340000 19.800000 17.160000 200 224 221 0
10.560000 19.800000 17.160000 197 221 218 0
10.780000 19.800000 17.930000 197 218 216 0
11.000000 19.800000 17.930000 194 215 213 0
11.220000 19.800000 18.590000 193 212 211 0
11.440000 19.800000 18.590000 192 211 210 0
11.660000 19.800000 19.140000 189 208 207 0
11.880000 19.800000 20.240000 191 210 209 0
12.100000 19.800000 21.450000 189 208 207 0
12.320000 19.800000 21.450000 190 209 208 0
12.540000 19.800000 17.380000 189 210 208 0
12.760000 19.800000 7.700000 189 210 208 0
12.980000 19.800000 1.540000 191 210 209 0
13.200000 19.800000 0.880000 191 210 209 0
13.420000 19.800000 0.990000 191 210 209 0
13.640000 19.800000 0.330000 190 209 208 0
13.860000 19.800000 0.330000 190 209 208 0
14.080000 19.800000 0.330000 191 210 209 0
14.300000 19.800000 0.330000 191 210 209 0
14.520000 19.800000 0.440000 192 211 210 0
14.740000 19.800000 0.440000 193 212 211 0
14.960000 19.800000 0.550000 194 213 212 0
16.060000 19.800000 0.660000 193 212 211 0
16.280000 19.800000 0.660000 194 213 212 0
16.500000 19.800000 0.660000 194 215 213 0
16.720000 19.800000 0.660000 193 214 212 0
16.940000 19.800000 1.210000 194 213 212 0
17.160000 19.800000 2.310000 195 214 213 0
17.380000 19.800000 2.860000 194 215 213 0
17.600000 19.800000 2.750000 194 215 213 0
17.820000 19.800000 2.860000 194 215 213 0
18.040000 19.800000 2.860000 194 215 213 0
18.260000 19.800000 2.860000 194 215 213 0
18.480000 19.800000 2.860000 195 216 214 0
18.700000 19.800000 2.860000 195 216 214 0
18.920000 19.800000 2.860000 195 216 214 0
19.140000 19.800000 2.970000 195 216 214 0
19.360000 19.800000 2.970000 195 216 214 0
19.580000 19.800000 3.080000 196 217 215 0
19.800000 19.800000 3.080000 196 217 215 0
20.020000 19.800000 3.080000 194 218 215 0
20.240000 19.800000 3.080000 193 217 214 0
20.460000 19.800000 3.190000 196 217 215 0
20.680000 19.800000 3.190000 195 216 214 0
20.900000 19.800000 3.300000 194 218 215 0
21.120000 19.800000 3.300000 194 218 215 0
21.340000 19.800000 3.300000 194 218 215 0
21.560000 19.800000 3.410000 194 218 215 0
21.780000 19.800000 4.070000 195 219 216 0
22.000000 19.800000 4.070000 195 219 216 0
22.220000 19.800000 4.070000 195 219 216 0
22.440000 19.800000 4.070000 196 220 217 0
22.660000 19.800000 4.840000 195 219 216 0
22.880000 19.800000 5.390000 195 219 216 0
23.100000 19.800000 5.720000 196 220 217 0
23.320000 19.800000 6.270000 196 220 217 0
23.540000 19.800000 6.270000 196 220 219 0
23.760000 19.800000 6.270000 196 220 219 0
23.980000 19.800000 6.930000 196 220 217 0
24.200000 19.800000 7.040000 196 220 217 0
24.420000 19.800000 7.040000 196 220 217 0
24.640000 19.800000 7.040000 196 220 217 0
24.860000 19.800000 7.040000 196 220 217 0
25.080000 19.800000 7.040000 197 221 218 0
25.300000 19.800000 7.150000 197 221 220 0
25.520000 19.800000 7.150000 197 221 220 0
25.740000 19.800000 7.920000 197 221 220 0
25.960000 19.800000 7.920000 197 221 220 0
26.180000 19.800000 8.030000 196 221 220 0
26.400000 19.800000 8.030000 196 221 220 0
26.620000 19.800000 7.480000 197 222 221 0
26.840000 19.800000 7.480000 197 222 221 0
27.060000 19.800000 7.480000 198 222 221 0
27.280000 19.800000 7.480000 199 223 222 0
27.500000 19.800000 7.480000 197 222 221 0
27.720000 19.800000 8.250000 198 223 222 0
27.940000 19.800000 8.250000 198 223 222 0
28.160000 19.800000 8.250000 198 223 222 0
28.380000 19.800000 8.250000 198 223 222 0
28.600000 19.800000 8.250000 198 223 222 0
28.820000 19.800000 8.800000 199 223 222 0
29.040000 19.800000 9.130000 200 224 223 0
29.260000 19.800000 9.680000 199 224 223 0
29.480000 19.800000 9.680000 198 223 222 0
29.700000 19.800000 9.680000 198 223 222 0
29.920000 19.800000 9.790000 199 224 223 0
30.140000 19.800000 9.790000 200 225 224 0
30.360000 19.800000 9.790000 198 223 222 0
30.580000 19.800000 10.450000 196 221 220 0
30.800000 19.800000 9.790000 195 220 219 0
31.020000 19.800000 9.900000 194 219 219 0
31.240000 19.800000 9.900000 192 217 217 0
31.460000 19.800000 10.010000 190 215 214 0
31.680000 19.800000 10.010000 187 212 211 0
31.900000 19.800000 10.120000 179 210 210 0
32.120000 19.800000 10.780000 175 206 206 0
32.340000 19.800000 11.550000 176 199 202 0
32.560000 19.800000 11.550000 172 195 198 0
32.780000 19.800000 11.660000 170 185 185 0
33.000000 19.800000 11.660000 163 178 178 0
33.220000 19.800000 12.430000 161 171 168 0
33.440000 19.800000 12.980000 154 164 161 0
33.660000 19.800000 14.080000 153 154 151 0
33.880000 19.800000 14.630000 148 149 146 0
34.100000 19.800000 14.520000 145 146 136 0
34.320000 19.800000 15.290000 142 143 133 0
34.540000 19.800000 14.630000 140 139 132 0
34.760000 19.800000 15.290000 137 136 129 0
34.980000 19.800000 15.290000 138 133 125 0
35.200000 19.800000 15.950000 137 132 124 0
35.420000 19.800000 16.060000 135 130 121 0
35.640000 19.800000 16.060000 133 128 119 0
35.860000 19.800000 16.060000 134 126 118 0
36.080000 19.800000 15.400000 133 125 117 0
36.300000 19.800000 14.630000 131 123 116 0
36.520000 19.800000 13.310000 130 122 115 0
36.740000 19.800000 12.650000 131 123 115 0
36.960000 19.800000 11.220000 130 122 114 0
37.180000 19.800000 11.220000 129 120 112 0
0.000000 20.020000 3.300000 118 108 104 0
0.220000 20.020000 3.410000 118 108 104 0
0.440000 20.020000 4.730000 118 108 104 0
0.660000 20.020000 5.390000 117 107 103 0
0.880000 20.020000 5.390000 116 106 102 0
1.100000 20.020000 5.500000 116 106 102 0
1.320000 20.020000 4.840000 118 108 104 0
1.540000 20.020000 5.500000 117 109 104 0
1.760000 20.020000 8.800000 116 108 103 0
1.980000 20.020000 11.220000 117 107 103 0
2.200000 20.020000 11.880000 118 108 104 0
2.420000 20.020000 10.780000 118 108 104 0
2.640000 20.020000 10.340000 119 109 105 0
2.860000 20.020000 11.000000 118 108 104 0
3.080000 20.020000 11.660000 118 108 104 0
3.300000 20.020000 12.430000 118 110 105 0
3.520000 20.020000 12.430000 118 110 105 0
3.740000 20.020000 12.430000 119 110 108 0
3.960000 20.020000 12.980000 119 110 108 0
4.180000 20.020000 13.970000 120 112 107 0
4.400000 20.020000 14.520000 121 113 108 0
4.620000 20.020000 15.290000 123 115 110 0
4.840000 20.020000 15.290000 124 116 111 0
5.060000 20.020000 15.290000 125 117 112 0
5.280000 20.020000 15.950000 126 118 113 0
5.500000 20.020000 15.950000 125 119 118 0
5.720000 20.020000 15.950000 127 121 120 0
5.940000 20.020000 15.950000 130 124 121 0
6.160000 20.020000 15.950000 132 126 123 0
6.380000 20.020000 16.610000 132 130 126 0
6.600000 20.020000 17.270000 134 132 128 0
6.820000 20.020000 17.490000 138 136 136 0
7.040000 20.020000 17.820000 142 140 140 0
7.260000 20.020000 14.520000 144 147 151 0
7.480000 20.020000 11.660000 150 153 157 0
7.700000 20.020000 15.180000 154 163 173 0
7.920000 20.020000 19.250000 163 172 182 0
8.140000 20.020000 19.910000 168 186 195 0
8.360000 20.020000 19.910000 178 196 205 0
8.580000 20.020000 18.480000 184 203 205 0
8.800000 20.020000 17.820000 194 213 215 0
9.020000 20.020000 17.820000 195 220 220 0
9.240000 20.020000 17.820000 201 226 226 0
9.460000 20.020000 17.160000 199 229 226 0
9.680000 20.020000 17.160000 201 231 228 0
9.900000 20.020000 17.160000 202 230 228 0
10.120000 20.020000 17.160000 200 228 226 0
10.340000 20.020000 17.160000 200 224 221 0
10.560000 20.020000 17.160000 197 221 218 0
10.780000 20.020000 17.930000 197 218 216 0
11.000000 20.020000 17.930000 195 216 214 0
11.220000 20.020000 18.590000 194 213 212 0
11.440000 20.020000 18.590000 191 210 209 0
11.660000 20.020000 19.140000 190 209 208 0
11.880000 20.020000 20.240000 190 209 208 0
12.100000 20.020000 21.450000 189 208 207 0
12.320000 20.020000 21.450000 190 209 208 0
12.540000 20.020000 18.700000 189 210 208 0
12.760000 20.020000 10.450000 189 210 208 0
12.980000 20.020000 2.970000 190 209 208 0
13.200000 20.020000 0.220000 191 210 209 0
13.420000 20.020000 0.990000 191 210 209 0
13.640000 20.020000 0.330000 191 210 209 0
13.860000 20.020000 0.330000 191 210 209 0
14.080000 20.020000 0.330000 191 210 209 0
14.300000 20.020000 0.330000 192 211 210 0
14.520000 20.020000 0.440000 192 211 210 0
14.740000 20.020000 0.440000 193 212 211 0
14.960000 20.020000 0.550000 193 212 211 0
16.060000 20.020000 0.660000 194 213 212 0
16.280000 20.020000 0.660000 194 213 212 0
16.500000 20.020000 0.660000 193 214 212 0
16.720000 20.020000 0.660000 192 213 211 0
16.940000 20.020000 1.320000 194 213 212 0
17.160000 20.020000 1.870000 195 214 213 0
17.380000 20.020000 2.860000 194 215 213 0
17.600000 20.020000 2.750000 193 214 212 0
17.820000 20.020000 2.860000 193 214 212 0
18.040000 20.020000 2.860000 194 215 213 0
18.260000 20.020000 2.860000 193 214 212 0
18.480000 20.020000 2.860000 194 215 213 0
18.700000 20.020000 2.860000 194 215 213 0
18.920000 20.020000 2.860000 195 216 214 0
19.140000 20.020000 2.970000 195 216 214 0
19.360000 20.020000 2.970000 195 216 214 0
19.580000 20.020000 3.080000 196 217 215 0
19.800000 20.020000 3.080000 196 217 215 0
20.020000 20.020000 3.080000 193 217 214 0
20.240000 20.020000 3.080000 193 217 214 0
20.460000 20.020000 3.190000 195 216 214 0
20.680000 20.020000 3.190000 195 216 214 0
20.900000 20.020000 3.300000 192 216 213 0
21.120000 20.020000 3.300000 194 218 215 0
21.340000 20.020000 3.300000 194 218 215 0
21.560000 20.020000 3.410000 194 218 215 0
21.780000 20.020000 4.070000 195 219 216 0
22.000000 20.020000 4.070000 195 219 216 0
22.220000 20.020000 4.070000 195 219 216 0
22.440000 20.020000 4.070000 195 219 216 0
22.660000 20.020000 4.840000 195 219 216 0
22.880000 20.020000 5.390000 195 219 216 0
23.100000 20.020000 5.720000 196 220 217 0
23.320000 20.020000 6.270000 195 219 216 0
23.540000 20.020000 6.270000 196 220 219 0
23.760000 20.020000 6.270000 196 220 219 0
23.980000 20.020000 6.930000 196 220 217 0
24.200000 20.020000 7.040000 196 220 217 0
24.420000 20.020000 7.040000 196 220 217 0
24.640000 20.020000 7.040000 196 220 217 0
24.860000 20.020000 7.040000 196 220 217 0
25.080000 20.020000 7.040000 197 221 218 0
25.300000 20.020000 7.150000 197 221 220 0
25.520000 20.020000 7.150000 197 221 220 0
25.740000 20.020000 7.920000 197 221 220 0
25.960000 20.020000 7.920000 196 220 219 0
26.180000 20.020000 8.030000 196 221 220 0
26.400000 20.020000 8.030000 196 221 220 0
26.620000 20.020000 7.480000 198 223 222 0
26.840000 20.020000 7.480000 196 221 220 0
27.060000 20.020000 7.480000 198 222 221 0
27.280000 20.020000 7.480000 199 223 222 0
27.500000 20.020000 7.480000 197 222 221 0
27.720000 20.020000 7.590000 197 222 221 0
27.940000 20.020000 8.250000 198 223 222 0
28.160000 20.020000 8.250000 198 223 222 0
28.380000 20.020000 8.250000 198 223 222 0
28.600000 20.020000 8.250000 198 223 222 0
28.820000 20.020000 8.800000 199 223 222 0
29.040000 20.020000 9.130000 200 224 223 0
29.260000 20.020000 9.680000 199 224 223 0
29.480000 20.020000 9.680000 199 224 223 0
29.700000 20.020000 9.680000 199 224 223 0
29.920000 20.020000 9.790000 199 224 223 0
30.140000 20.020000 9.790000 199 224 223 0
30.360000 20.020000 9.790000 197 222 221 0
30.580000 20.020000 9.790000 196 221 220 0
30.800000 20.020000 9.790000 195 220 219 0
31.020000 20.020000 9.900000 193 218 218 0
31.240000 20.020000 9.900000 192 217 217 0
31.460000 20.020000 10.010000 190 215 214 0
31.680000 20.020000 10.010000 187 212 211 0
31.900000 20.020000 10.780000 178 209 209 0
32.120000 20.020000 10.780000 173 204 204 0
32.340000 20.020000 11.550000 174 197 200 0
32.560000 20.020000 11.550000 169 192 195 0
32.780000 20.020000 11.660000 168 183 183 0
33.000000 20.020000 12.320000 160 175 175 0
33.220000 20.020000 12.430000 157 167 164 0
33.440000 20.020000 12.980000 152 162 159 0
33.660000 20.020000 13.970000 151 152 149 0
33.880000 20.020000 14.520000 147 148 145 0
34.100000 20.020000 15.290000 143 144 134 0
34.320000 20.020000 15.290000 140 141 131 0
34.540000 20.020000 15.290000 137 136 129 0
34.760000 20.020000 15.290000 136 135 128 0
34.980000 20.020000 15.950000 137 132 124 0
35.200000 20.020000 15.950000 136 131 123 0
35.420000 20.020000 15.950000 134 129 120 0
35.640000 20.020000 16.720000 133 128 119 0
35.860000 20.020000 16.720000 134 126 118 0
36.080000 20.020000 16.060000 131 123 115 0
36.300000 20.020000 14.630000 130 122 115 0
36.520000 20.020000 13.310000 129 121 114 0
36.740000 20.020000 11.880000 129 121 113 0
36.960000 20.020000 11.220000 128 120 112 0
37.180000 20.020000 11.220000 128 119 111 0
0.000000 20.240000 3.300000 118 108 102 0
0.220000 20.240000 3.410000 118 108 102 0
0.440000 20.240000 4.070000 118 108 102 0
0.660000 20.240000 4.730000 117 107 101 0
0.880000 20.240000 5.390000 117 107 101 0
1.100000 20.240000 5.500000 116 106 100 0
1.320000 20.240000 4.840000 116 106 100 0
1.540000 20.240000 5.500000 115 107 100 0
1.760000 20.240000 8.800000 117 109 102 0
1.980000 20.240000 11.220000 117 107 103 0
2.200000 20.240000 11.880000 117 107 103 0
2.420000 20.240000 10.780000 116 108 103 0
2.640000 20.240000 10.340000 117 109 104 0
2.860000 20.240000 11.000000 118 108 104 0
3.080000 20.240000 11.660000 118 108 104 0
3.300000 20.240000 12.430000 118 110 105 0
3.520000 20.240000 12.430000 119 111 106 0
3.740000 20.240000 12.430000 119 111 106 0
3.960000 20.240000 12.870000 119 111 106 0
4.180000 20.240000 13.970000 120 112 107 0
4.400000 20.240000 14.520000 120 112 107 0
4.620000 20.240000 15.290000 122 114 109 0
4.840000 20.240000 15.290000 125 117 112 0
5.060000 20.240000 15.290000 125 117 112 0
5.280000 20.240000 15.950000 126 118 113 0
5.500000 20.240000 15.950000 127 121 118 0
5.720000 20.240000 15.950000 127 121 118 0
5.940000 20.240000 15.950000 129 123 120 0
6.160000 20.240000 15.950000 131 125 122 0
6.380000 20.240000 16.610000 132 130 128 0
6.600000 20.240000 17.270000 134 132 130 0
6.820000 20.240000 17.490000 138 135 137 0
7.040000 20.240000 17.820000 142 139 141 0
7.260000 20.240000 13.750000 145 148 152 0
7.480000 20.240000 8.910000 149 152 156 0
7.700000 20.240000 13.750000 152 160 170 0
7.920000 20.240000 19.910000 164 172 182 0
8.140000 20.240000 19.910000 166 184 191 0
8.360000 20.240000 19.910000 179 197 204 0
8.580000 20.240000 18.480000 184 203 205 0
8.800000 20.240000 17.820000 193 212 214 0
9.020000 20.240000 17.820000 195 220 219 0
9.240000 20.240000 17.820000 201 226 225 0
9.460000 20.240000 17.160000 200 230 227 0
9.680000 20.240000 17.160000 202 232 229 0
9.900000 20.240000 17.160000 203 231 227 0
10.120000 20.240000 17.160000 201 229 225 0
10.340000 20.240000 17.160000 201 225 224 0
10.560000 20.240000 17.160000 197 221 220 0
10.780000 20.240000 17.930000 196 217 215 0
11.000000 20.240000 17.930000 195 216 214 0
11.220000 20.240000 17.930000 192 213 211 0
11.440000 20.240000 18.590000 189 210 208 0
11.660000 20.240000 19.140000 189 210 208 0
11.880000 20.240000 20.240000 188 209 207 0
12.100000 20.240000 21.450000 190 209 208 0
12.320000 20.240000 21.450000 189 208 207 0
12.540000 20.240000 18.700000 190 209 208 0
12.760000 20.240000 10.450000 190 209 208 0
12.980000 20.240000 2.970000 190 209 208 0
13.200000 20.240000 0.220000 190 209 208 0
13.420000 20.240000 0.990000 190 211 209 0
13.640000 20.240000 0.330000 189 210 208 0
13.860000 20.240000 0.330000 189 210 208 0
14.080000 20.240000 0.330000 190 211 209 0
14.300000 20.240000 0.330000 192 211 210 0
14.520000 20.240000 0.440000 192 211 210 0
14.740000 20.240000 0.440000 191 212 210 0
14.960000 20.240000 0.550000 191 212 210 0
16.060000 20.240000 0.660000 194 213 212 0
16.280000 20.240000 0.660000 193 212 211 0
16.500000 20.240000 0.660000 193 214 212 0
16.720000 20.240000 0.660000 193 214 212 0
16.940000 20.240000 1.430000 193 214 212 0
17.160000 20.240000 1.870000 194 215 213 0
17.380000 20.240000 2.310000 194 215 213 0
17.600000 20.240000 2.750000 194 215 213 0
17.820000 20.240000 2.860000 193 214 212 0
18.040000 20.240000 2.860000 193 214 212 0
18.260000 20.240000 2.860000 193 214 212 0
18.480000 20.240000 2.860000 194 215 213 0
18.700000 20.240000 2.860000 194 215 213 0
18.920000 20.240000 2.860000 196 217 215 0
19.140000 20.240000 2.970000 195 216 214 0
19.360000 20.240000 2.970000 195 216 214 0
19.580000 20.240000 3.080000 195 216 214 0
19.800000 20.240000 3.080000 195 216 214 0
20.020000 20.240000 3.080000 195 216 214 0
20.240000 20.240000 3.080000 195 216 214 0
20.460000 20.240000 3.190000 195 216 214 0
20.680000 20.240000 3.190000 195 216 214 0
20.900000 20.240000 3.300000 193 217 214 0
21.120000 20.240000 3.300000 193 217 214 0
21.340000 20.240000 3.300000 193 217 214 0
21.560000 20.240000 3.410000 193 217 214 0
21.780000 20.240000 4.070000 194 218 215 0
22.000000 20.240000 4.070000 194 218 215 0
22.220000 20.240000 4.070000 195 219 216 0
22.440000 20.240000 4.070000 195 219 216 0
22.660000 20.240000 4.840000 195 219 216 0
22.880000 20.240000 5.390000 195 219 216 0
23.100000 20.240000 5.720000 195 219 216 0
23.320000 20.240000 6.270000 196 220 217 0
23.540000 20.240000 6.270000 194 218 215 0
23.760000 20.240000 6.270000 196 220 217 0
23.980000 20.240000 6.930000 196 220 217 0
24.200000 20.240000 7.040000 196 220 217 0
24.420000 20.240000 7.040000 195 219 216 0
24.640000 20.240000 7.040000 195 219 216 0
24.860000 20.240000 7.040000 196 220 217 0
25.080000 20.240000 7.040000 196 220 217 0
25.300000 20.240000 7.150000 196 222 218 0
25.520000 20.240000 7.150000 195 221 217 0
25.740000 20.240000 7.920000 195 221 217 0
25.960000 20.240000 7.920000 195 221 217 0
26.180000 20.240000 8.030000 196 221 220 0
26.400000 20.240000 8.030000 197 222 221 0
26.620000 20.240000 7.480000 196 221 220 0
26.840000 20.240000 7.480000 196 221 220 0
27.060000 20.240000 7.480000 197 223 219 0
27.280000 20.240000 7.480000 198 224 220 0
27.500000 20.240000 7.480000 197 223 219 0
27.720000 20.240000 7.590000 197 223 219 0
27.940000 20.240000 8.250000 198 223 222 0
28.160000 20.240000 8.250000 198 223 222 0
28.380000 20.240000 8.250000 197 222 221 0
28.600000 20.240000 8.250000 197 222 221 0
28.820000 20.240000 8.800000 197 222 221 0
29.040000 20.240000 9.130000 197 222 221 0
29.260000 20.240000 9.680000 199 224 223 0
29.480000 20.240000 9.680000 198 223 222 0
29.700000 20.240000 9.680000 198 223 222 0
29.920000 20.240000 9.790000 199 224 223 0
30.140000 20.240000 9.790000 199 224 223 0
30.360000 20.240000 9.790000 197 222 221 0
30.580000 20.240000 9.790000 193 221 219 0
30.800000 20.240000 9.790000 191 219 217 0
31.020000 20.240000 9.900000 190 215 214 0
31.240000 20.240000 9.900000 190 215 214 0
31.460000 20.240000 10.010000 188 213 212 0
31.680000 20.240000 10.010000 185 210 209 0
31.900000 20.240000 10.780000 175 206 206 0
32.120000 20.240000 11.440000 170 201 201 0
32.340000 20.240000 11.550000 174 195 196 0
32.560000 20.240000 11.550000 168 189 190 0
32.780000 20.240000 12.320000 166 180 175 0
33.000000 20.240000 12.320000 159 173 168 0
33.220000 20.240000 12.430000 158 164 157 0
33.440000 20.240000 12.980000 151 157 150 0
33.660000 20.240000 14.080000 146 151 142 0
33.880000 20.240000 14.520000 141 146 137 0
34.100000 20.240000 15.180000 143 142 133 0
34.320000 20.240000 15.290000 138 137 128 0
34.540000 20.240000 15.290000 139 135 127 0
34.760000 20.240000 15.290000 137 133 125 0
34.980000 20.240000 15.950000 135 131 123 0
35.200000 20.240000 16.720000 133 129 121 0
35.420000 20.240000 16.720000 133 128 119 0
35.640000 20.240000 16.720000 131 126 117 0
35.860000 20.240000 16.720000 133 125 118 0
36.080000 20.240000 16.060000 132 124 117 0
36.300000 20.240000 14.630000 130 122 114 0
36.520000 20.240000 13.310000 129 121 113 0
36.740000 20.240000 11.880000 129 120 112 0
36.960000 20.240000 11.220000 128 119 111 0
37.180000 20.240000 10.560000 128 119 109 0
0.000000 20.460000 3.300000 117 107 101 0
0.220000 20.460000 3.410000 117 107 101 0
0.440000 20.460000 4.070000 117 107 101 0
0.660000 20.460000 4.730000 117 107 101 0
0.880000 20.460000 4.730000 117 107 101 0
1.100000 20.460000 5.500000 116 106 100 0
1.320000 20.460000 4.730000 117 107 101 0
1.540000 20.460000 6.160000 115 107 100 0
1.760000 20.460000 8.800000 115 107 100 0
1.980000 20.460000 10.560000 117 107 103 0
2.200000 20.460000 11.880000 118 108 104 0
2.420000 20.460000 10.890000 117 109 104 0
2.640000 20.460000 10.340000 116 108 103 0
2.860000 20.460000 11.000000 118 108 104 0
3.080000 20.460000 11.660000 118 108 104 0
3.300000 20.460000 11.770000 118 110 105 0
3.520000 20.460000 12.430000 118 110 105 0
3.740000 20.460000 12.870000 119 111 106 0
3.960000 20.460000 13.310000 120 112 107 0
4.180000 20.460000 13.860000 120 112 107 0
4.400000 20.460000 14.520000 121 113 108 0
4.620000 20.460000 15.290000 121 113 108 0
4.840000 20.460000 15.290000 124 116 111 0
5.060000 20.460000 15.290000 125 117 112 0
5.280000 20.460000 15.950000 126 118 113 0
5.500000 20.460000 15.950000 125 119 116 0
5.720000 20.460000 15.950000 127 121 118 0
5.940000 20.460000 15.950000 129 123 120 0
6.160000 20.460000 15.950000 131 125 122 0
6.380000 20.460000 16.610000 132 130 128 0
6.600000 20.460000 17.270000 135 133 131 0
6.820000 20.460000 17.490000 138 135 137 0
7.040000 20.460000 17.820000 143 140 142 0
7.260000 20.460000 15.180000 145 148 152 0
7.480000 20.460000 11.660000 152 155 159 0
7.700000 20.460000 15.180000 155 163 173 0
7.920000 20.460000 19.910000 163 171 181 0
8.140000 20.460000 19.910000 167 185 192 0
8.360000 20.460000 19.910000 177 195 202 0
8.580000 20.460000 18.480000 186 205 207 0
8.800000 20.460000 17.820000 194 213 215 0
9.020000 20.460000 17.820000 195 220 219 0
9.240000 20.460000 17.820000 200 225 224 0
9.460000 20.460000 17.160000 201 231 228 0
9.680000 20.460000 17.160000 201 231 228 0
9.900000 20.460000 17.160000 202 230 226 0
10.120000 20.460000 17.160000 200 228 224 0
10.340000 20.460000 17.160000 200 224 223 0
10.560000 20.460000 17.160000 196 220 219 0
10.780000 20.460000 17.930000 195 216 214 0
11.000000 20.460000 17.930000 194 215 213 0
11.220000 20.460000 17.930000 194 215 213 0
11.440000 20.460000 17.930000 190 211 209 0
11.660000 20.460000 19.140000 188 209 207 0
11.880000 20.460000 20.240000 188 209 207 0
12.100000 20.460000 20.790000 190 209 208 0
12.320000 20.460000 21.450000 190 209 208 0
12.540000 20.460000 20.130000 190 209 208 0
12.760000 20.460000 13.200000 190 209 208 0
12.980000 20.460000 4.290000 190 209 208 0
13.200000 20.460000 0.220000 190 209 208 0
13.420000 20.460000 0.990000 189 210 208 0
13.640000 20.460000 0.330000 189 210 208 0
13.860000 20.460000 0.330000 190 211 209 0
14.080000 20.460000 0.330000 191 212 210 0
14.300000 20.460000 0.330000 191 210 209 0
14.520000 20.460000 0.440000 192 211 210 0
14.740000 20.460000 0.440000 192 213 211 0
14.960000 20.460000 0.550000 191 212 210 0
16.060000 20.460000 0.660000 193 212 211 0
16.280000 20.460000 0.660000 194 213 212 0
16.500000 20.460000 0.660000 193 214 212 0
16.720000 20.460000 0.660000 193 214 212 0
16.940000 20.460000 1.430000 193 214 212 0
17.160000 20.460000 1.870000 194 215 213 0
17.380000 20.460000 2.310000 194 215 213 0
17.600000 20.460000 2.750000 194 215 213 0
17.820000 20.460000 2.860000 193 214 212 0
18.040000 20.460000 2.860000 194 215 213 0
18.260000 20.460000 2.860000 193 214 212 0
18.480000 20.460000 2.860000 194 215 213 0
18.700000 20.460000 2.860000 195 216 214 0
18.920000 20.460000 2.860000 194 215 213 0
19.140000 20.460000 2.970000 195 216 214 0
19.360000 20.460000 2.970000 195 216 214 0
19.580000 20.460000 3.080000 195 216 214 0
19.800000 20.460000 3.080000 195 216 214 0
20.020000 20.460000 3.080000 195 216 214 0
20.240000 20.460000 3.080000 195 216 214 0
20.460000 20.460000 3.190000 195 216 214 0
20.680000 20.460000 3.190000 195 216 214 0
20.900000 20.460000 3.300000 193 217 214 0
21.120000 20.460000 3.300000 193 217 214 0
21.340000 20.460000 3.300000 194 218 215 0
21.560000 20.460000 3.410000 194 218 215 0
21.780000 20.460000 4.070000 194 218 215 0
22.000000 20.460000 4.070000 194 218 215 0
22.220000 20.460000 4.070000 194 218 215 0
22.440000 20.460000 4.070000 195 219 216 0
22.660000 20.460000 4.840000 193 217 214 0
22.880000 20.460000 5.390000 195 219 216 0
23.100000 20.460000 5.720000 195 219 216 0
23.320000 20.460000 6.270000 196 220 217 0
23.540000 20.460000 6.270000 196 220 217 0
23.760000 20.460000 6.270000 196 220 217 0
23.980000 20.460000 6.930000 197 221 218 0
24.200000 20.460000 7.040000 196 220 217 0
24.420000 20.460000 7.040000 195 219 216 0
24.640000 20.460000 7.040000 195 219 216 0
24.860000 20.460000 7.040000 196 220 217 0
25.080000 20.460000 7.040000 196 220 217 0
25.300000 20.460000 7.150000 196 222 218 0
25.520000 20.460000 7.150000 195 221 217 0
25.740000 20.460000 7.920000 195 221 217 0
25.960000 20.460000 7.920000 196 222 218 0
26.180000 20.460000 8.030000 196 221 220 0
26.400000 20.460000 8.030000 196 221 220 0
26.620000 20.460000 7.480000 197 222 221 0
26.840000 20.460000 7.480000 197 222 221 0
27.060000 20.460000 7.480000 197 223 219 0
27.280000 20.460000 7.480000 197 223 219 0
27.500000 20.460000 7.480000 197 223 219 0
27.720000 20.460000 7.590000 197 223 219 0
27.940000 20.460000 8.250000 197 222 221 0
28.160000 20.460000 8.250000 198 223 222 0
28.380000 20.460000 8.250000 198 223 222 0
28.600000 20.460000 8.250000 198 223 222 0
28.820000 20.460000 8.800000 198 223 222 0
29.040000 20.460000 9.900000 198 223 222 0
29.260000 20.460000 9.680000 198 223 222 0
29.480000 20.460000 9.680000 198 223 222 0
29.700000 20.460000 9.680000 198 223 222 0
29.920000 20.460000 9.790000 197 222 221 0
30.140000 20.460000 9.790000 199 224 223 0
30.360000 20.460000 9.790000 196 221 220 0
30.580000 20.460000 9.790000 192 220 218 0
30.800000 20.460000 9.790000 190 218 216 0
31.020000 20.460000 9.900000 191 216 215 0
31.240000 20.460000 9.900000 189 214 213 0
31.460000 20.460000 10.010000 188 213 212 0
31.680000 20.460000 10.010000 183 208 207 0
31.900000 20.460000 10.780000 174 205 205 0
32.120000 20.460000 11.440000 168 199 199 0
32.340000 20.460000 11.440000 170 191 192 0
32.560000 20.460000 12.210000 163 184 185 0
32.780000 20.460000 12.320000 160 174 169 0
33.000000 20.460000 12.320000 155 169 164 0
33.220000 20.460000 12.430000 155 161 154 0
33.440000 20.460000 13.090000 150 156 149 0
33.660000 20.460000 14.300000 143 148 139 0
33.880000 20.460000 14.630000 140 145 136 0
