ply
format ascii 1.0
element vertex 1104
property float x
property float y
property float z
property uchar red
property uchar green
property uchar blue
property uchar alpha
end_header
32.560000 12.540000 16.060000 139 118 92 0
32.780000 12.540000 13.640000 139 118 92 0
33.000000 12.540000 13.640000 139 118 92 0
33.220000 12.540000 13.420000 138 117 91 0
33.440000 12.540000 14.520000 137 116 90 0
33.660000 12.540000 14.520000 135 114 88 0
33.880000 12.540000 14.520000 137 116 90 0
34.100000 12.540000 14.520000 137 116 90 0
34.320000 12.540000 14.300000 138 117 91 0
34.540000 12.540000 14.300000 139 119 90 0
34.760000 12.540000 14.520000 139 119 90 0
34.980000 12.540000 14.520000 138 118 89 0
35.200000 12.540000 14.520000 138 118 89 0
35.420000 12.540000 14.520000 138 117 91 0
35.640000 12.540000 17.380000 139 118 92 0
35.860000 12.540000 17.380000 139 119 90 0
36.080000 12.540000 18.700000 139 119 90 0
36.300000 12.540000 17.380000 140 118 90 0
36.520000 12.540000 16.060000 139 117 89 0
36.740000 12.540000 14.740000 139 117 89 0
36.960000 12.540000 16.060000 140 118 90 0
37.180000 12.540000 16.060000 140 118 90 0
0.000000 12.760000 9.460000 202 215 203 0
0.220000 12.760000 9.460000 202 215 203 0
0.440000 12.760000 9.460000 201 214 202 0
0.660000 12.760000 11.000000 201 214 202 0
0.880000 12.760000 10.780000 202 215 203 0
1.100000 12.760000 12.760000 200 213 201 0
1.320000 12.760000 13.860000 199 212 200 0
1.540000 12.760000 15.400000 196 211 199 0
1.760000 12.760000 14.080000 195 210 198 0
1.980000 12.760000 14.080000 197 209 200 0
2.200000 12.760000 14.080000 194 206 197 0
2.420000 12.760000 14.080000 187 200 186 0
2.640000 12.760000 15.620000 174 187 173 0
2.860000 12.760000 15.620000 163 171 151 0
3.080000 12.760000 15.620000 153 161 141 0
3.300000 12.760000 16.940000 148 157 133 0
3.520000 12.760000 15.620000 144 153 129 0
3.740000 12.760000 17.160000 139 148 126 0
3.960000 12.760000 17.160000 138 147 125 0
4.180000 12.760000 18.480000 134 143 121 0
4.400000 12.760000 19.800000 133 142 120 0
4.620000 12.760000 19.800000 132 141 119 0
4.840000 12.760000 21.340000 131 140 118 0
5.060000 12.760000 21.340000 130 139 117 0
5.280000 12.760000 21.340000 130 139 117 0
5.500000 12.760000 17.160000 131 140 118 0
5.720000 12.760000 11.660000 129 138 116 0
5.940000 12.760000 7.480000 129 138 116 0
6.160000 12.760000 8.800000 129 138 116 0
6.380000 12.760000 10.120000 128 137 115 0
6.600000 12.760000 11.660000 128 137 115 0
6.820000 12.760000 11.660000 127 136 114 0
7.040000 12.760000 11.660000 127 136 114 0
7.260000 12.760000 11.660000 128 137 115 0
7.480000 12.760000 12.980000 128 137 115 0
7.700000 12.760000 12.760000 127 136 114 0
7.920000 12.760000 14.300000 128 137 115 0
8.140000 12.760000 14.080000 127 136 114 0
8.360000 12.760000 12.980000 128 137 115 0
8.580000 12.760000 11.880000 127 136 114 0
8.800000 12.760000 14.080000 127 136 114 0
9.020000 12.760000 15.180000 127 136 112 0
9.240000 12.760000 15.400000 128 137 113 0
9.460000 12.760000 14.300000 127 136 112 0
9.680000 12.760000 13.200000 126 135 111 0
9.900000 12.760000 13.200000 127 136 114 0
10.120000 12.760000 14.520000 127 136 114 0
10.340000 12.760000 15.840000 127 136 114 0
10.560000 12.760000 16.060000 127 136 114 0
10.780000 12.760000 13.200000 127 136 112 0
11.000000 12.760000 11.880000 127 136 112 0
11.220000 12.760000 10.560000 127 136 112 0
11.440000 12.760000 10.780000 127 136 112 0
11.660000 12.760000 10.560000 127 136 114 0
11.880000 12.760000 12.760000 126 135 113 0
12.100000 12.760000 12.540000 124 136 111 0
12.320000 12.760000 12.540000 124 136 111 0
12.540000 12.760000 11.220000 128 137 113 0
12.760000 12.760000 10.120000 139 148 124 0
12.980000 12.760000 8.800000 152 166 146 0
13.200000 12.760000 8.800000 159 173 153 0
13.420000 12.760000 8.800000 158 172 150 0
13.640000 12.760000 7.260000 159 173 151 0
13.860000 12.760000 5.940000 158 172 150 0
14.080000 12.760000 3.300000 156 170 148 0
14.300000 12.760000 1.980000 156 170 148 0
14.520000 12.760000 4.620000 155 169 147 0
14.740000 12.760000 8.580000 155 169 147 0
14.960000 12.760000 14.080000 154 168 146 0
15.180000 12.760000 17.160000 154 168 146 0
15.400000 12.760000 17.160000 153 167 145 0
15.620000 12.760000 15.840000 153 167 145 0
15.840000 12.760000 15.840000 153 167 145 0
16.060000 12.760000 14.520000 153 167 145 0
16.280000 12.760000 14.740000 154 168 146 0
16.500000 12.760000 13.420000 153 167 145 0
16.720000 12.760000 12.100000 153 167 145 0
16.940000 12.760000 12.320000 153 167 145 0
17.160000 12.760000 10.780000 153 167 145 0
17.380000 12.760000 10.780000 153 167 145 0
17.600000 12.760000 10.780000 153 167 145 0
17.820000 12.760000 10.780000 152 166 144 0
18.040000 12.760000 10.780000 153 167 145 0
18.260000 12.760000 12.100000 154 167 145 0
18.480000 12.760000 13.640000 153 166 144 0
18.700000 12.760000 13.640000 150 164 142 0
18.920000 12.760000 13.640000 149 163 141 0
19.140000 12.760000 13.640000 149 163 141 0
19.360000 12.760000 13.640000 148 162 140 0
19.580000 12.760000 13.640000 148 162 140 0
19.800000 12.760000 12.100000 149 163 141 0
20.020000 12.760000 10.340000 150 163 141 0
20.240000 12.760000 7.700000 150 163 141 0
20.460000 12.760000 3.740000 149 163 141 0
20.680000 12.760000 2.420000 149 163 141 0
23.320000 12.760000 7.920000 145 159 139 0
23.540000 12.760000 30.140000 147 159 140 0
23.760000 12.760000 39.820000 146 158 139 0
23.980000 12.760000 41.140000 145 158 136 0
24.200000 12.760000 30.140000 146 159 137 0
24.420000 12.760000 9.240000 146 158 139 0
25.960000 12.760000 1.100000 143 156 134 0
26.180000 12.760000 2.420000 143 155 136 0
26.400000 12.760000 3.960000 142 154 135 0
26.620000 12.760000 5.060000 143 156 134 0
26.840000 12.760000 7.260000 142 155 133 0
27.060000 12.760000 9.900000 142 154 135 0
27.280000 12.760000 11.440000 140 152 133 0
27.500000 12.760000 11.660000 140 153 131 0
27.720000 12.760000 13.200000 140 153 131 0
27.940000 12.760000 14.740000 140 152 133 0
28.160000 12.760000 14.740000 140 152 133 0
28.380000 12.760000 13.420000 140 151 130 0
28.600000 12.760000 13.420000 137 148 127 0
28.820000 12.760000 13.420000 144 141 117 0
29.040000 12.760000 14.740000 139 136 112 0
29.260000 12.760000 16.060000 144 128 100 0
29.480000 12.760000 15.840000 140 124 96 0
29.700000 12.760000 15.840000 138 120 93 0
29.920000 12.760000 14.520000 136 118 91 0
30.140000 12.760000 14.520000 139 118 92 0
30.360000 12.760000 14.520000 137 116 90 0
30.580000 12.760000 13.420000 136 118 91 0
30.800000 12.760000 14.740000 137 119 92 0
31.020000 12.760000 14.960000 138 120 93 0
31.240000 12.760000 13.640000 137 119 92 0
31.460000 12.760000 13.420000 139 118 92 0
31.680000 12.760000 14.740000 138 117 91 0
31.900000 12.760000 14.520000 137 116 90 0
32.120000 12.760000 16.940000 137 116 90 0
32.340000 12.760000 18.260000 139 118 92 0
32.560000 12.760000 16.060000 138 117 91 0
32.780000 12.760000 14.960000 139 118 92 0
33.000000 12.760000 13.640000 139 118 92 0
33.220000 12.760000 13.420000 138 117 91 0
33.440000 12.760000 14.740000 136 115 89 0
33.660000 12.760000 14.740000 136 115 89 0
33.880000 12.760000 14.740000 137 116 90 0
34.100000 12.760000 14.520000 137 116 90 0
34.320000 12.760000 14.300000 138 117 91 0
34.540000 12.760000 15.620000 139 119 90 0
34.760000 12.760000 15.840000 139 119 90 0
34.980000 12.760000 14.520000 138 118 89 0
35.200000 12.760000 14.520000 138 118 89 0
35.420000 12.760000 14.520000 138 117 91 0
35.640000 12.760000 17.380000 138 117 91 0
35.860000 12.760000 17.380000 139 119 90 0
36.080000 12.760000 18.700000 139 119 90 0
36.300000 12.760000 17.380000 140 118 90 0
36.520000 12.760000 16.060000 139 117 89 0
36.740000 12.760000 14.740000 140 118 90 0
36.960000 12.760000 16.060000 140 118 90 0
37.180000 12.760000 16.060000 139 117 89 0
0.000000 12.980000 9.460000 200 213 199 0
0.220000 12.980000 9.460000 202 213 200 0
0.440000 12.980000 9.460000 202 213 200 0
0.660000 12.980000 11.000000 201 212 199 0
0.880000 12.980000 10.780000 202 213 200 0
1.100000 12.980000 12.980000 200 213 199 0
1.320000 12.980000 13.860000 198 211 197 0
1.540000 12.980000 15.400000 198 211 197 0
1.760000 12.980000 14.080000 197 210 196 0
1.980000 12.980000 14.080000 195 208 193 0
2.200000 12.980000 14.080000 194 207 192 0
2.420000 12.980000 14.080000 187 204 180 0
2.640000 12.980000 15.620000 172 189 165 0
2.860000 12.980000 15.620000 163 172 148 0
3.080000 12.980000 15.620000 154 163 139 0
3.300000 12.980000 15.620000 148 156 130 0
3.520000 12.980000 15.620000 145 153 127 0
3.740000 12.980000 17.160000 139 148 124 0
3.960000 12.980000 17.160000 138 147 123 0
4.180000 12.980000 18.480000 136 143 120 0
4.400000 12.980000 18.480000 134 141 118 0
4.620000 12.980000 19.800000 132 141 117 0
4.840000 12.980000 21.340000 131 140 116 0
5.060000 12.980000 21.340000 131 140 116 0
5.280000 12.980000 21.340000 130 139 115 0
5.500000 12.980000 18.480000 129 138 114 0
5.720000 12.980000 12.980000 129 138 114 0
5.940000 12.980000 8.800000 129 138 114 0
6.160000 12.980000 8.800000 128 137 113 0
6.380000 12.980000 10.120000 128 137 113 0
6.600000 12.980000 11.660000 128 137 113 0
6.820000 12.980000 11.660000 128 137 113 0
7.040000 12.980000 11.660000 128 137 113 0
7.260000 12.980000 11.660000 128 137 113 0
7.480000 12.980000 12.980000 127 136 112 0
7.700000 12.980000 14.080000 127 136 112 0
7.920000 12.980000 14.080000 127 136 112 0
8.140000 12.980000 14.080000 127 136 112 0
8.360000 12.980000 14.080000 127 136 112 0
8.580000 12.980000 12.980000 127 136 112 0
8.800000 12.980000 14.080000 127 136 112 0
9.020000 12.980000 15.180000 126 135 111 0
9.240000 12.980000 15.180000 127 136 112 0
9.460000 12.980000 14.300000 126 135 111 0
9.680000 12.980000 13.200000 126 135 111 0
9.900000 12.980000 13.200000 127 136 112 0
10.120000 12.980000 14.520000 127 136 112 0
10.340000 12.980000 15.840000 127 136 112 0
10.560000 12.980000 16.060000 126 135 111 0
10.780000 12.980000 14.740000 127 136 112 0
11.000000 12.980000 11.880000 126 135 111 0
11.220000 12.980000 10.560000 126 135 111 0
11.440000 12.980000 10.780000 126 135 111 0
11.660000 12.980000 10.560000 126 135 111 0
11.880000 12.980000 12.760000 125 134 110 0
12.100000 12.980000 12.540000 126 135 111 0
12.320000 12.980000 12.540000 126 135 111 0
12.540000 12.980000 11.220000 127 136 110 0
12.760000 12.980000 9.900000 138 147 121 0
12.980000 12.980000 8.800000 150 165 141 0
13.200000 12.980000 8.800000 159 174 150 0
13.420000 12.980000 8.800000 159 174 150 0
13.640000 12.980000 7.260000 159 174 150 0
13.860000 12.980000 5.940000 158 171 148 0
14.080000 12.980000 3.300000 157 170 147 0
14.300000 12.980000 1.980000 155 170 146 0
14.520000 12.980000 3.300000 155 170 146 0
14.740000 12.980000 8.580000 154 169 145 0
14.960000 12.980000 12.760000 155 170 146 0
15.180000 12.980000 17.160000 153 168 144 0
15.400000 12.980000 17.160000 153 168 144 0
15.620000 12.980000 15.840000 153 166 143 0
15.840000 12.980000 15.840000 154 167 144 0
16.060000 12.980000 16.060000 153 168 144 0
16.280000 12.980000 14.740000 153 168 144 0
16.500000 12.980000 13.420000 154 169 145 0
16.720000 12.980000 12.100000 153 168 144 0
16.940000 12.980000 12.320000 153 168 144 0
17.160000 12.980000 10.780000 152 167 143 0
17.380000 12.980000 10.780000 155 168 145 0
17.600000 12.980000 10.780000 154 167 144 0
17.820000 12.980000 9.460000 152 167 143 0
18.040000 12.980000 9.460000 153 168 144 0
18.260000 12.980000 9.460000 152 167 143 0
18.480000 12.980000 10.780000 151 166 142 0
18.700000 12.980000 12.100000 151 166 142 0
18.920000 12.980000 13.640000 150 165 141 0
19.140000 12.980000 13.640000 150 163 140 0
19.360000 12.980000 13.640000 150 163 140 0
19.580000 12.980000 13.640000 149 164 140 0
19.800000 12.980000 12.320000 149 164 140 0
20.020000 12.980000 9.460000 148 162 140 0
20.240000 12.980000 6.380000 149 163 141 0
20.460000 12.980000 3.740000 149 164 140 0
20.680000 12.980000 2.420000 149 164 140 0
20.900000 12.980000 1.100000 150 163 141 0
23.320000 12.980000 8.140000 147 160 138 0
23.540000 12.980000 30.140000 146 159 137 0
23.760000 12.980000 39.820000 144 157 135 0
23.980000 12.980000 39.820000 145 158 136 0
24.200000 12.980000 30.140000 145 158 136 0
24.420000 12.980000 9.460000 144 157 135 0
25.520000 12.980000 0.880000 144 157 135 0
25.740000 12.980000 0.880000 142 155 133 0
25.960000 12.980000 2.420000 143 156 134 0
26.180000 12.980000 3.740000 143 156 134 0
26.400000 12.980000 5.280000 142 155 133 0
26.620000 12.980000 6.600000 143 154 133 0
26.840000 12.980000 8.800000 143 154 133 0
27.060000 12.980000 11.440000 141 154 132 0
27.280000 12.980000 11.440000 141 154 132 0
27.500000 12.980000 11.660000 140 153 131 0
27.720000 12.980000 13.200000 139 152 130 0
27.940000 12.980000 13.200000 140 151 130 0
28.160000 12.980000 14.740000 140 151 130 0
28.380000 12.980000 13.420000 140 151 130 0
28.600000 12.980000 13.420000 138 149 128 0
28.820000 12.980000 13.420000 146 141 117 0
29.040000 12.980000 14.740000 141 136 112 0
29.260000 12.980000 14.520000 144 128 100 0
29.480000 12.980000 14.520000 140 124 96 0
29.700000 12.980000 14.520000 138 120 93 0
29.920000 12.980000 14.520000 136 118 91 0
30.140000 12.980000 14.520000 138 117 91 0
30.360000 12.980000 13.200000 136 115 89 0
30.580000 12.980000 13.200000 136 118 89 0
30.800000 12.980000 13.420000 137 119 90 0
31.020000 12.980000 14.740000 137 119 92 0
31.240000 12.980000 13.640000 137 119 92 0
31.460000 12.980000 13.640000 137 119 90 0
31.680000 12.980000 13.640000 136 118 89 0
31.900000 12.980000 14.740000 138 117 91 0
32.120000 12.980000 17.160000 138 117 91 0
32.340000 12.980000 16.940000 138 118 89 0
32.560000 12.980000 16.060000 139 119 90 0
32.780000 12.980000 13.420000 139 119 90 0
33.000000 12.980000 14.740000 139 119 90 0
33.220000 12.980000 14.520000 138 118 89 0
33.440000 12.980000 16.060000 138 118 89 0
33.660000 12.980000 14.740000 136 116 87 0
33.880000 12.980000 14.740000 136 116 87 0
34.100000 12.980000 14.740000 137 117 88 0
34.320000 12.980000 15.840000 138 118 89 0
34.540000 12.980000 15.620000 139 119 90 0
34.760000 12.980000 15.840000 140 120 91 0
34.980000 12.980000 14.520000 139 119 90 0
35.200000 12.980000 14.520000 139 119 90 0
35.420000 12.980000 16.060000 138 116 88 0
35.640000 12.980000 17.380000 139 117 89 0
35.860000 12.980000 17.380000 139 117 89 0
36.080000 12.980000 18.700000 139 117 89 0
36.300000 12.980000 17.380000 138 118 89 0
36.520000 12.980000 16.060000 138 118 89 0
36.740000 12.980000 14.740000 138 118 89 0
36.960000 12.980000 16.060000 138 118 89 0
37.180000 12.980000 16.060000 140 118 90 0
0.000000 13.200000 9.460000 200 213 199 0
0.220000 13.200000 9.460000 202 213 200 0
0.440000 13.200000 9.460000 202 213 200 0
0.660000 13.200000 9.680000 202 213 200 0
0.880000 13.200000 11.000000 200 211 198 0
1.100000 13.200000 11.880000 198 211 197 0
1.320000 13.200000 14.080000 199 212 198 0
1.540000 13.200000 15.400000 197 210 196 0
1.760000 13.200000 14.080000 197 210 196 0
1.980000 13.200000 14.080000 195 208 193 0
2.200000 13.200000 14.080000 193 206 191 0
2.420000 13.200000 14.080000 186 203 179 0
2.640000 13.200000 15.620000 175 192 168 0
2.860000 13.200000 15.620000 164 173 149 0
3.080000 13.200000 15.620000 155 164 140 0
3.300000 13.200000 15.620000 148 156 130 0
3.520000 13.200000 15.620000 143 151 125 0
3.740000 13.200000 17.160000 139 148 124 0
3.960000 13.200000 17.160000 138 147 123 0
4.180000 13.200000 18.480000 136 143 120 0
4.400000 13.200000 18.480000 134 141 118 0
4.620000 13.200000 19.800000 131 140 116 0
4.840000 13.200000 21.340000 132 141 117 0
5.060000 13.200000 21.340000 131 140 116 0
5.280000 13.200000 20.020000 129 138 114 0
5.500000 13.200000 18.480000 129 138 114 0
5.720000 13.200000 14.520000 129 138 114 0
5.940000 13.200000 10.340000 128 137 113 0
6.160000 13.200000 8.800000 128 137 113 0
6.380000 13.200000 10.120000 128 137 113 0
6.600000 13.200000 11.440000 127 136 112 0
6.820000 13.200000 11.660000 128 137 113 0
7.040000 13.200000 11.660000 128 137 113 0
7.260000 13.200000 11.660000 128 137 113 0
7.480000 13.200000 12.760000 127 136 112 0
7.700000 13.200000 14.080000 127 136 112 0
7.920000 13.200000 14.080000 127 136 112 0
8.140000 13.200000 13.860000 127 136 112 0
8.360000 13.200000 13.860000 126 135 111 0
8.580000 13.200000 14.080000 127 136 112 0
8.800000 13.200000 14.080000 126 135 111 0
9.020000 13.200000 15.400000 127 136 112 0
9.240000 13.200000 15.180000 126 135 111 0
9.460000 13.200000 14.080000 126 135 111 0
9.680000 13.200000 14.300000 127 136 112 0
9.900000 13.200000 14.520000 127 136 112 0
10.120000 13.200000 14.520000 126 135 111 0
10.340000 13.200000 15.840000 126 135 111 0
10.560000 13.200000 16.060000 126 135 111 0
10.780000 13.200000 14.520000 126 135 111 0
11.000000 13.200000 11.880000 127 136 112 0
11.220000 13.200000 10.560000 125 134 110 0
11.440000 13.200000 10.780000 126 135 111 0
11.660000 13.200000 10.560000 125 134 110 0
11.880000 13.200000 12.760000 126 135 111 0
12.100000 13.200000 12.540000 127 136 112 0
12.320000 13.200000 12.540000 126 135 111 0
12.540000 13.200000 11.220000 127 136 110 0
12.760000 13.200000 9.900000 136 145 119 0
12.980000 13.200000 8.800000 148 163 139 0
13.200000 13.200000 8.800000 158 173 149 0
13.420000 13.200000 8.800000 159 174 150 0
13.640000 13.200000 7.260000 158 173 149 0
13.860000 13.200000 5.940000 158 171 148 0
14.080000 13.200000 3.300000 156 169 146 0
14.300000 13.200000 1.980000 155 170 146 0
14.520000 13.200000 3.300000 154 169 145 0
14.740000 13.200000 8.580000 154 169 145 0
14.960000 13.200000 12.760000 153 168 144 0
15.180000 13.200000 15.620000 153 168 144 0
15.400000 13.200000 17.160000 153 168 144 0
15.620000 13.200000 15.840000 154 167 144 0
15.840000 13.200000 15.840000 153 166 143 0
16.060000 13.200000 15.840000 153 168 144 0
16.280000 13.200000 14.520000 153 168 144 0
16.500000 13.200000 13.420000 154 169 145 0
16.720000 13.200000 12.100000 153 168 144 0
16.940000 13.200000 12.100000 152 167 143 0
17.160000 13.200000 10.780000 151 166 142 0
17.380000 13.200000 10.780000 154 167 144 0
17.600000 13.200000 9.460000 153 166 143 0
17.820000 13.200000 7.920000 151 166 142 0
18.040000 13.200000 6.600000 152 167 143 0
18.260000 13.200000 6.820000 151 166 142 0
18.480000 13.200000 9.460000 151 166 142 0
18.700000 13.200000 12.100000 150 165 141 0
18.920000 13.200000 13.640000 150 165 141 0
19.140000 13.200000 13.640000 150 163 140 0
19.360000 13.200000 13.640000 151 164 141 0
19.580000 13.200000 13.640000 149 164 140 0
19.800000 13.200000 11.000000 149 164 140 0
20.020000 13.200000 9.460000 148 162 140 0
20.240000 13.200000 6.600000 148 162 140 0
20.460000 13.200000 3.740000 149 164 140 0
20.680000 13.200000 2.420000 149 164 140 0
20.900000 13.200000 1.100000 149 162 140 0
23.320000 13.200000 8.140000 147 160 138 0
23.540000 13.200000 27.500000 147 160 138 0
23.760000 13.200000 34.540000 145 158 136 0
23.980000 13.200000 38.500000 145 158 136 0
24.200000 13.200000 33.000000 146 159 137 0
24.420000 13.200000 13.640000 146 159 137 0
24.640000 13.200000 1.100000 145 158 136 0
25.300000 13.200000 1.100000 144 157 135 0
25.520000 13.200000 2.420000 144 157 135 0
25.740000 13.200000 3.740000 143 156 134 0
25.960000 13.200000 5.060000 143 156 134 0
26.180000 13.200000 6.600000 142 155 133 0
26.400000 13.200000 8.140000 142 155 133 0
26.620000 13.200000 8.140000 143 154 133 0
26.840000 13.200000 10.560000 141 152 131 0
27.060000 13.200000 12.760000 140 153 131 0
27.280000 13.200000 12.760000 140 153 131 0
27.500000 13.200000 12.980000 139 152 130 0
27.720000 13.200000 13.200000 139 152 130 0
27.940000 13.200000 13.200000 141 152 131 0
28.160000 13.200000 14.740000 140 151 130 0
28.380000 13.200000 13.420000 140 151 130 0
28.600000 13.200000 13.420000 139 150 129 0
28.820000 13.200000 13.420000 145 140 116 0
29.040000 13.200000 14.740000 140 135 111 0
29.260000 13.200000 14.740000 145 129 101 0
29.480000 13.200000 14.520000 141 125 97 0
29.700000 13.200000 14.520000 139 121 94 0
29.920000 13.200000 14.520000 138 120 93 0
30.140000 13.200000 14.520000 139 118 92 0
30.360000 13.200000 12.980000 139 118 92 0
30.580000 13.200000 13.200000 137 119 90 0
30.800000 13.200000 13.420000 137 119 90 0
31.020000 13.200000 14.740000 137 119 92 0
31.240000 13.200000 13.420000 138 120 93 0
31.460000 13.200000 13.640000 137 119 90 0
31.680000 13.200000 13.640000 137 119 90 0
31.900000 13.200000 13.640000 139 118 92 0
32.120000 13.200000 14.740000 138 117 91 0
32.340000 13.200000 15.840000 139 119 90 0
32.560000 13.200000 14.740000 139 119 90 0
32.780000 13.200000 13.420000 138 118 89 0
33.000000 13.200000 14.520000 138 118 89 0
33.220000 13.200000 15.620000 139 119 90 0
33.440000 13.200000 15.840000 138 118 89 0
33.660000 13.200000 14.740000 137 117 88 0
33.880000 13.200000 14.740000 136 116 87 0
34.100000 13.200000 14.740000 138 118 89 0
34.320000 13.200000 15.840000 138 118 89 0
34.540000 13.200000 15.620000 139 119 90 0
34.760000 13.200000 15.840000 140 120 91 0
34.980000 13.200000 15.840000 139 119 90 0
35.200000 13.200000 14.520000 140 120 91 0
35.420000 13.200000 16.060000 140 118 90 0
35.640000 13.200000 15.840000 139 117 89 0
35.860000 13.200000 17.380000 139 117 89 0
36.080000 13.200000 18.700000 138 116 88 0
36.300000 13.200000 17.380000 138 118 89 0
36.520000 13.200000 16.060000 138 118 89 0
36.740000 13.200000 14.740000 138 118 89 0
36.960000 13.200000 16.060000 138 118 89 0
37.180000 13.200000 16.060000 139 117 89 0
0.000000 13.420000 9.460000 200 213 198 0
0.220000 13.420000 9.460000 200 213 198 0
0.440000 13.420000 9.460000 200 213 198 0
0.660000 13.420000 9.680000 200 213 199 0
0.880000 13.420000 11.000000 199 212 198 0
1.100000 13.420000 12.100000 198 211 197 0
1.320000 13.420000 14.300000 199 212 198 0
1.540000 13.420000 15.400000 198 211 196 0
1.760000 13.420000 14.080000 196 209 194 0
1.980000 13.420000 14.080000 196 209 194 0
2.200000 13.420000 14.080000 194 207 192 0
2.420000 13.420000 14.080000 186 204 177 0
2.640000 13.420000 15.620000 177 195 168 0
2.860000 13.420000 15.620000 164 175 153 0
3.080000 13.420000 15.620000 153 164 142 0
3.300000 13.420000 15.620000 146 158 133 0
3.520000 13.420000 15.620000 142 154 129 0
3.740000 13.420000 15.620000 139 148 122 0
3.960000 13.420000 17.160000 136 145 119 0
4.180000 13.420000 18.480000 137 144 121 0
4.400000 13.420000 18.480000 135 142 119 0
4.620000 13.420000 19.800000 132 141 117 0
4.840000 13.420000 21.340000 132 141 117 0
5.060000 13.420000 21.340000 131 140 116 0
5.280000 13.420000 20.020000 131 140 116 0
5.500000 13.420000 18.700000 129 138 114 0
5.720000 13.420000 15.840000 129 138 114 0
5.940000 13.420000 10.340000 127 136 112 0
6.160000 13.420000 10.340000 128 137 113 0
6.380000 13.420000 10.120000 128 137 113 0
6.600000 13.420000 11.440000 128 137 113 0
6.820000 13.420000 11.440000 128 137 113 0
7.040000 13.420000 11.660000 128 137 113 0
7.260000 13.420000 11.660000 128 137 113 0
7.480000 13.420000 12.760000 127 136 112 0
7.700000 13.420000 14.080000 126 135 109 0
7.920000 13.420000 14.080000 126 135 109 0
8.140000 13.420000 13.860000 126 135 111 0
8.360000 13.420000 13.860000 127 136 112 0
8.580000 13.420000 13.860000 127 136 112 0
8.800000 13.420000 13.860000 126 135 111 0
9.020000 13.420000 15.400000 126 135 111 0
9.240000 13.420000 15.400000 126 135 111 0
9.460000 13.420000 15.400000 126 135 109 0
9.680000 13.420000 14.080000 126 135 109 0
9.900000 13.420000 14.300000 126 135 111 0
10.120000 13.420000 14.300000 126 135 111 0
10.340000 13.420000 15.840000 125 134 110 0
10.560000 13.420000 16.060000 127 136 112 0
10.780000 13.420000 14.520000 126 135 111 0
11.000000 13.420000 11.880000 127 136 112 0
11.220000 13.420000 10.560000 126 135 109 0
11.440000 13.420000 10.780000 126 135 109 0
11.660000 13.420000 10.560000 126 135 111 0
11.880000 13.420000 12.760000 127 136 112 0
12.100000 13.420000 12.540000 127 136 112 0
12.320000 13.420000 12.760000 127 136 112 0
12.540000 13.420000 11.440000 128 137 111 0
12.760000 13.420000 9.900000 135 144 118 0
12.980000 13.420000 10.120000 147 162 138 0
13.200000 13.420000 8.800000 159 174 150 0
13.420000 13.420000 8.800000 158 173 149 0
13.640000 13.420000 8.800000 158 173 149 0
13.860000 13.420000 5.940000 157 172 146 0
14.080000 13.420000 3.300000 155 170 144 0
14.300000 13.420000 1.980000 154 169 145 0
14.520000 13.420000 3.300000 154 169 145 0
14.740000 13.420000 8.580000 153 168 144 0
14.960000 13.420000 12.760000 153 168 144 0
15.180000 13.420000 15.620000 153 168 144 0
15.400000 13.420000 17.160000 153 168 144 0
15.620000 13.420000 15.840000 153 168 142 0
15.840000 13.420000 15.840000 153 168 142 0
16.060000 13.420000 15.840000 154 169 145 0
16.280000 13.420000 14.520000 153 168 144 0
16.500000 13.420000 13.200000 153 168 144 0
16.720000 13.420000 12.100000 154 169 145 0
16.940000 13.420000 12.100000 152 167 143 0
17.160000 13.420000 10.780000 153 168 144 0
17.380000 13.420000 9.460000 153 168 144 0
17.600000 13.420000 9.460000 152 167 143 0
17.820000 13.420000 7.920000 151 166 142 0
18.040000 13.420000 6.600000 151 166 142 0
18.260000 13.420000 6.820000 151 166 142 0
18.480000 13.420000 9.460000 151 166 142 0
18.700000 13.420000 12.100000 150 165 141 0
18.920000 13.420000 13.640000 150 165 141 0
19.140000 13.420000 13.640000 149 164 140 0
19.360000 13.420000 13.640000 149 164 140 0
19.580000 13.420000 12.320000 150 165 141 0
19.800000 13.420000 11.000000 149 164 140 0
20.020000 13.420000 9.460000 148 163 139 0
20.240000 13.420000 6.600000 149 164 140 0
20.460000 13.420000 5.060000 150 163 140 0
20.680000 13.420000 3.740000 150 163 140 0
20.900000 13.420000 2.640000 149 164 140 0
23.320000 13.420000 5.280000 146 160 138 0
23.540000 13.420000 16.500000 146 159 136 0
23.760000 13.420000 19.360000 145 158 135 0
23.980000 13.420000 24.640000 145 158 136 0
24.200000 13.420000 27.280000 145 158 136 0
24.420000 13.420000 16.280000 145 158 136 0
24.640000 13.420000 3.960000 145 158 136 0
25.300000 13.420000 1.100000 144 157 135 0
25.520000 13.420000 2.420000 144 157 135 0
25.740000 13.420000 5.060000 143 156 134 0
25.960000 13.420000 7.920000 143 156 134 0
26.180000 13.420000 9.240000 143 154 133 0
26.400000 13.420000 9.460000 142 153 132 0
26.620000 13.420000 9.460000 141 152 131 0
26.840000 13.420000 10.560000 140 151 130 0
27.060000 13.420000 12.980000 138 149 128 0
27.280000 13.420000 14.080000 140 151 130 0
27.500000 13.420000 12.980000 140 153 131 0
27.720000 13.420000 13.200000 140 153 131 0
27.940000 13.420000 13.200000 141 152 131 0
28.160000 13.420000 14.740000 141 152 131 0
28.380000 13.420000 13.420000 139 150 128 0
28.600000 13.420000 13.420000 138 149 127 0
28.820000 13.420000 13.420000 145 142 120 0
29.040000 13.420000 14.740000 140 137 115 0
29.260000 13.420000 14.740000 144 127 102 0
29.480000 13.420000 14.740000 141 124 99 0
29.700000 13.420000 14.520000 139 121 92 0
29.920000 13.420000 14.520000 137 119 90 0
30.140000 13.420000 14.300000 137 119 90 0
30.360000 13.420000 12.980000 138 120 91 0
30.580000 13.420000 13.200000 139 118 92 0
30.800000 13.420000 13.200000 140 119 93 0
31.020000 13.420000 14.740000 138 120 93 0
31.240000 13.420000 14.740000 138 120 93 0
31.460000 13.420000 13.640000 136 118 89 0
31.680000 13.420000 13.640000 137 119 90 0
31.900000 13.420000 13.640000 138 118 89 0
32.120000 13.420000 14.740000 138 118 89 0
32.340000 13.420000 15.840000 138 118 89 0
32.560000 13.420000 14.520000 138 118 89 0
32.780000 13.420000 14.520000 139 119 90 0
33.000000 13.420000 15.620000 138 118 89 0
33.220000 13.420000 15.620000 138 118 89 0
33.440000 13.420000 15.840000 138 118 89 0
33.660000 13.420000 14.740000 138 118 89 0
33.880000 13.420000 14.740000 139 119 90 0
34.100000 13.420000 14.740000 139 119 90 0
34.320000 13.420000 15.840000 138 118 89 0
34.540000 13.420000 15.620000 139 119 90 0
34.760000 13.420000 15.840000 140 120 91 0
34.980000 13.420000 15.840000 139 119 90 0
35.200000 13.420000 14.520000 139 119 90 0
35.420000 13.420000 14.520000 139 119 90 0
35.640000 13.420000 15.840000 139 119 90 0
35.860000 13.420000 17.380000 139 117 89 0
36.080000 13.420000 18.700000 139 117 89 0
36.300000 13.420000 17.380000 139 119 90 0
36.520000 13.420000 16.060000 138 118 89 0
36.740000 13.420000 16.060000 139 119 90 0
36.960000 13.420000 16.060000 138 118 89 0
37.180000 13.420000 16.060000 138 118 89 0
0.000000 13.640000 9.460000 201 214 199 0
0.220000 13.640000 9.460000 201 214 199 0
0.440000 13.640000 9.460000 201 214 199 0
0.660000 13.640000 11.000000 200 213 199 0
0.880000 13.640000 11.000000 200 213 199 0
1.100000 13.640000 12.100000 199 212 198 0
1.320000 13.640000 14.300000 199 212 198 0
1.540000 13.640000 15.400000 199 212 197 0
1.760000 13.640000 14.080000 197 210 195 0
1.980000 13.640000 14.080000 195 208 193 0
2.200000 13.640000 14.080000 194 207 192 0
2.420000 13.640000 14.080000 187 205 178 0
2.640000 13.640000 15.620000 177 195 168 0
2.860000 13.640000 15.620000 164 175 153 0
3.080000 13.640000 15.620000 154 165 143 0
3.300000 13.640000 15.620000 146 158 133 0
3.520000 13.640000 15.620000 141 153 128 0
3.740000 13.640000 15.620000 140 149 123 0
3.960000 13.640000 17.160000 137 146 120 0
4.180000 13.640000 17.160000 136 143 120 0
4.400000 13.640000 18.480000 134 141 118 0
4.620000 13.640000 19.800000 132 141 117 0
4.840000 13.640000 20.020000 131 140 116 0
5.060000 13.640000 21.340000 130 139 115 0
5.280000 13.640000 20.020000 129 138 114 0
5.500000 13.640000 20.020000 129 138 114 0
5.720000 13.640000 15.840000 129 138 114 0
5.940000 13.640000 11.660000 129 138 114 0
6.160000 13.640000 10.340000 128 137 113 0
6.380000 13.640000 10.120000 128 137 113 0
6.600000 13.640000 11.440000 127 136 112 0
6.820000 13.640000 11.440000 128 137 113 0
7.040000 13.640000 11.660000 127 136 112 0
7.260000 13.640000 11.660000 127 136 112 0
7.480000 13.640000 12.760000 127 136 112 0
7.700000 13.640000 14.080000 126 135 109 0
7.920000 13.640000 14.080000 127 136 110 0
8.140000 13.640000 14.080000 127 136 112 0
8.360000 13.640000 13.860000 128 137 113 0
8.580000 13.640000 13.860000 127 136 112 0
8.800000 13.640000 13.860000 126 135 111 0
9.020000 13.640000 15.400000 127 136 112 0
9.240000 13.640000 15.180000 126 135 111 0
9.460000 13.640000 15.400000 126 135 109 0
9.680000 13.640000 15.400000 127 136 110 0
9.900000 13.640000 15.400000 126 135 111 0
10.120000 13.640000 15.400000 126 135 111 0
10.340000 13.640000 17.160000 126 135 111 0
10.560000 13.640000 16.060000 126 135 111 0
10.780000 13.640000 14.520000 127 136 112 0
11.000000 13.640000 13.200000 126 135 111 0
11.220000 13.640000 10.560000 126 135 109 0
11.440000 13.640000 10.780000 127 136 110 0
11.660000 13.640000 10.560000 127 136 112 0
11.880000 13.640000 12.760000 127 136 112 0
12.100000 13.640000 12.540000 126 135 111 0
12.320000 13.640000 11.440000 126 135 111 0
12.540000 13.640000 11.440000 128 137 111 0
12.760000 13.640000 9.900000 134 143 117 0
12.980000 13.640000 10.120000 146 161 137 0
13.200000 13.640000 10.120000 159 174 150 0
13.420000 13.640000 8.800000 158 173 149 0
13.640000 13.640000 8.800000 158 173 149 0
13.860000 13.640000 5.940000 157 172 146 0
14.080000 13.640000 3.300000 156 171 145 0
14.300000 13.640000 1.980000 155 170 146 0
14.520000 13.640000 3.300000 154 169 145 0
14.740000 13.640000 8.580000 153 168 144 0
14.960000 13.640000 12.760000 154 169 145 0
15.180000 13.640000 15.620000 153 168 144 0
15.400000 13.640000 17.160000 153 168 144 0
15.620000 13.640000 15.840000 153 168 142 0
15.840000 13.640000 15.840000 154 169 143 0
16.060000 13.640000 15.840000 154 169 145 0
16.280000 13.640000 14.520000 153 168 144 0
16.500000 13.640000 13.200000 154 169 145 0
16.720000 13.640000 12.100000 154 169 145 0
16.940000 13.640000 12.100000 153 168 144 0
17.160000 13.640000 11.000000 153 168 144 0
17.380000 13.640000 9.460000 151 166 142 0
17.600000 13.640000 9.460000 152 167 143 0
17.820000 13.640000 9.460000 151 166 142 0
18.040000 13.640000 9.460000 151 166 142 0
18.260000 13.640000 10.780000 151 166 142 0
18.480000 13.640000 10.780000 151 166 142 0
18.700000 13.640000 12.100000 150 165 141 0
18.920000 13.640000 13.640000 149 164 140 0
19.140000 13.640000 13.420000 150 165 141 0
19.360000 13.640000 13.640000 149 164 140 0
19.580000 13.640000 13.640000 149 164 140 0
19.800000 13.640000 12.320000 149 164 140 0
20.020000 13.640000 9.680000 147 162 138 0
20.240000 13.640000 8.140000 149 164 140 0
20.460000 13.640000 5.280000 150 163 140 0
20.680000 13.640000 3.960000 150 163 140 0
20.900000 13.640000 2.640000 149 164 140 0
21.120000 13.640000 1.320000 149 164 140 0
22.220000 13.640000 1.100000 147 161 139 0
22.440000 13.640000 6.600000 147 161 139 0
22.660000 13.640000 6.600000 147 160 138 0
22.880000 13.640000 1.100000 147 160 138 0
23.540000 13.640000 2.640000 146 159 136 0
23.760000 13.640000 2.640000 146 159 136 0
23.980000 13.640000 6.600000 146 159 137 0
24.200000 13.640000 9.460000 146 159 137 0
24.420000 13.640000 6.600000 145 158 136 0
24.640000 13.640000 1.100000 145 158 136 0
25.300000 13.640000 1.100000 145 158 136 0
25.520000 13.640000 3.740000 144 157 135 0
25.740000 13.640000 6.380000 143 156 134 0
25.960000 13.640000 10.560000 142 155 133 0
26.180000 13.640000 10.780000 143 154 133 0
26.400000 13.640000 10.780000 142 153 132 0
26.620000 13.640000 10.780000 140 151 130 0
26.840000 13.640000 12.100000 138 149 128 0
27.060000 13.640000 14.300000 137 148 127 0
27.280000 13.640000 14.080000 137 148 127 0
27.500000 13.640000 12.980000 138 151 129 0
27.720000 13.640000 12.980000 140 153 131 0
27.940000 13.640000 14.520000 141 152 131 0
28.160000 13.640000 14.740000 141 152 131 0
28.380000 13.640000 13.420000 140 151 129 0
28.600000 13.640000 13.420000 140 151 129 0
28.820000 13.640000 13.420000 143 140 118 0
29.040000 13.640000 14.740000 140 137 115 0
29.260000 13.640000 14.740000 145 128 103 0
29.480000 13.640000 14.740000 142 125 100 0
29.700000 13.640000 14.520000 139 121 92 0
29.920000 13.640000 14.520000 139 121 92 0
30.140000 13.640000 14.300000 139 121 92 0
30.360000 13.640000 14.300000 138 120 91 0
30.580000 13.640000 13.200000 140 119 93 0
30.800000 13.640000 13.200000 140 119 93 0
31.020000 13.640000 14.740000 139 121 94 0
31.240000 13.640000 14.740000 137 119 92 0
31.460000 13.640000 13.420000 138 120 91 0
31.680000 13.640000 13.640000 137 119 90 0
31.900000 13.640000 12.320000 138 118 89 0
32.120000 13.640000 13.420000 137 117 88 0
32.340000 13.640000 14.300000 137 117 88 0
32.560000 13.640000 15.400000 137 117 88 0
32.780000 13.640000 15.400000 138 118 89 0
33.000000 13.640000 15.400000 138 118 89 0
33.220000 13.640000 15.620000 138 118 89 0
33.440000 13.640000 16.060000 137 117 88 0
33.660000 13.640000 14.740000 138 118 89 0
33.880000 13.640000 14.740000 137 117 88 0
34.100000 13.640000 14.520000 137 117 88 0
34.320000 13.640000 15.840000 138 118 89 0
34.540000 13.640000 15.620000 138 118 89 0
34.760000 13.640000 15.840000 139 119 90 0
34.980000 13.640000 15.840000 139 119 90 0
35.200000 13.640000 14.520000 139 119 90 0
35.420000 13.640000 14.520000 139 119 90 0
35.640000 13.640000 15.840000 138 118 89 0
35.860000 13.640000 17.380000 139 117 89 0
36.080000 13.640000 18.700000 140 118 90 0
36.300000 13.640000 17.380000 139 119 90 0
36.520000 13.640000 16.060000 139 119 90 0
36.740000 13.640000 16.060000 139 119 90 0
36.960000 13.640000 16.060000 138 118 89 0
37.180000 13.640000 17.380000 139 119 90 0
0.000000 13.860000 9.460000 202 215 201 0
0.220000 13.860000 9.460000 201 214 200 0
0.440000 13.860000 9.460000 201 214 200 0
0.660000 13.860000 11.000000 202 213 200 0
0.880000 13.860000 11.000000 201 212 199 0
1.100000 13.860000 12.100000 199 212 200 0
1.320000 13.860000 14.300000 198 211 199 0
1.540000 13.860000 15.400000 198 211 197 0
1.760000 13.860000 14.080000 197 210 196 0
1.980000 13.860000 14.080000 196 209 195 0
2.200000 13.860000 14.080000 194 207 193 0
2.420000 13.860000 14.080000 188 205 184 0
2.640000 13.860000 15.620000 176 193 172 0
2.860000 13.860000 15.620000 163 176 151 0
3.080000 13.860000 15.620000 153 166 141 0
3.300000 13.860000 15.620000 149 158 132 0
3.520000 13.860000 15.620000 144 153 127 0
3.740000 13.860000 15.620000 139 148 124 0
3.960000 13.860000 17.160000 137 146 122 0
4.180000 13.860000 17.160000 136 145 121 0
4.400000 13.860000 18.480000 134 143 119 0
4.620000 13.860000 19.800000 133 142 118 0
4.840000 13.860000 20.020000 131 140 116 0
5.060000 13.860000 21.340000 130 139 115 0
5.280000 13.860000 20.020000 130 139 115 0
5.500000 13.860000 20.020000 130 139 115 0
5.720000 13.860000 17.160000 130 139 115 0
5.940000 13.860000 11.660000 129 138 114 0
6.160000 13.860000 10.120000 129 138 114 0
6.380000 13.860000 10.120000 128 137 113 0
6.600000 13.860000 11.440000 128 137 113 0
6.820000 13.860000 11.440000 128 137 113 0
7.040000 13.860000 11.660000 128 137 113 0
7.260000 13.860000 11.660000 127 136 112 0
7.480000 13.860000 12.760000 127 136 112 0
7.700000 13.860000 14.080000 126 135 111 0
7.920000 13.860000 14.080000 127 136 112 0
8.140000 13.860000 14.080000 126 135 111 0
8.360000 13.860000 14.080000 128 137 113 0
8.580000 13.860000 14.080000 127 136 112 0
8.800000 13.860000 14.080000 128 137 113 0
9.020000 13.860000 15.400000 127 136 112 0
9.240000 13.860000 15.180000 126 135 111 0
9.460000 13.860000 15.400000 126 135 111 0
9.680000 13.860000 15.400000 127 136 112 0
9.900000 13.860000 15.400000 126 135 111 0
10.120000 13.860000 15.180000 127 136 112 0
10.340000 13.860000 16.940000 127 136 112 0
10.560000 13.860000 16.060000 127 136 112 0
10.780000 13.860000 14.520000 127 136 112 0
11.000000 13.860000 13.200000 127 136 112 0
11.220000 13.860000 10.560000 127 136 112 0
11.440000 13.860000 10.780000 127 136 112 0
11.660000 13.860000 11.880000 127 136 112 0
11.880000 13.860000 12.760000 127 136 112 0
12.100000 13.860000 12.540000 127 136 112 0
12.320000 13.860000 12.760000 127 136 112 0
12.540000 13.860000 11.220000 128 137 113 0
12.760000 13.860000 9.900000 133 142 118 0
12.980000 13.860000 10.120000 146 161 137 0
13.200000 13.860000 10.120000 159 174 150 0
13.420000 13.860000 8.800000 159 174 150 0
13.640000 13.860000 8.800000 159 174 150 0
13.860000 13.860000 7.260000 157 172 148 0
14.080000 13.860000 3.300000 156 171 147 0
14.300000 13.860000 1.980000 155 170 146 0
14.520000 13.860000 3.300000 154 169 145 0
14.740000 13.860000 8.580000 154 169 145 0
14.960000 13.860000 12.760000 153 168 144 0
15.180000 13.860000 15.620000 154 169 145 0
15.400000 13.860000 15.840000 153 168 144 0
15.620000 13.860000 15.840000 153 168 144 0
15.840000 13.860000 15.840000 153 168 144 0
16.060000 13.860000 14.520000 153 168 144 0
16.280000 13.860000 14.520000 154 169 145 0
16.500000 13.860000 13.420000 153 168 144 0
16.720000 13.860000 12.100000 154 169 145 0
16.940000 13.860000 12.320000 154 169 145 0
17.160000 13.860000 11.000000 153 168 144 0
17.380000 13.860000 11.000000 152 166 144 0
17.600000 13.860000 10.780000 153 167 145 0
17.820000 13.860000 10.780000 152 167 143 0
18.040000 13.860000 12.100000 151 166 142 0
18.260000 13.860000 13.640000 151 166 142 0
18.480000 13.860000 13.640000 152 167 143 0
18.700000 13.860000 12.100000 151 165 143 0
18.920000 13.860000 13.420000 150 164 142 0
19.140000 13.860000 14.960000 150 163 141 0
19.360000 13.860000 13.640000 149 162 140 0
19.580000 13.860000 13.640000 149 163 141 0
19.800000 13.860000 12.320000 149 163 141 0
20.020000 13.860000 11.000000 148 162 140 0
20.240000 13.860000 8.140000 149 163 141 0
20.460000 13.860000 6.600000 150 164 142 0
20.680000 13.860000 5.280000 150 164 142 0
20.900000 13.860000 2.640000 150 163 141 0
21.120000 13.860000 1.320000 150 163 141 0
22.220000 13.860000 6.820000 147 161 139 0
22.440000 13.860000 22.000000 147 161 139 0
22.660000 13.860000 24.640000 148 161 139 0
22.880000 13.860000 10.780000 147 160 138 0
23.100000 13.860000 3.960000 148 161 139 0
23.320000 13.860000 2.640000 147 160 138 0
25.300000 13.860000 1.100000 144 157 135 0
25.520000 13.860000 2.420000 144 157 135 0
25.740000 13.860000 6.380000 144 157 135 0
25.960000 13.860000 10.560000 143 156 134 0
26.180000 13.860000 12.100000 142 155 133 0
26.400000 13.860000 12.100000 142 155 133 0
26.620000 13.860000 12.320000 139 150 129 0
26.840000 13.860000 13.420000 133 144 123 0
27.060000 13.860000 14.300000 134 145 124 0
27.280000 13.860000 14.080000 136 147 126 0
27.500000 13.860000 12.760000 139 152 130 0
27.720000 13.860000 12.980000 139 152 130 0
27.940000 13.860000 14.520000 140 153 131 0
28.160000 13.860000 14.740000 141 154 132 0
28.380000 13.860000 14.740000 141 152 131 0
28.600000 13.860000 13.420000 139 150 129 0
28.820000 13.860000 13.420000 143 144 121 0
29.040000 13.860000 14.740000 138 139 116 0
29.260000 13.860000 14.740000 143 127 99 0
29.480000 13.860000 14.740000 140 124 96 0
29.700000 13.860000 14.740000 140 122 95 0
29.920000 13.860000 14.520000 139 121 94 0
30.140000 13.860000 14.300000 138 120 91 0
30.360000 13.860000 14.300000 137 119 90 0
30.580000 13.860000 13.200000 138 120 91 0
30.800000 13.860000 14.740000 138 120 91 0
31.020000 13.860000 14.740000 138 120 93 0
31.240000 13.860000 14.740000 138 120 93 0
31.460000 13.860000 13.420000 136 118 91 0
31.680000 13.860000 13.640000 135 117 90 0
31.900000 13.860000 13.640000 136 118 89 0
32.120000 13.860000 13.200000 135 117 88 0
32.340000 13.860000 14.080000 136 118 89 0
32.560000 13.860000 15.180000 137 119 90 0
32.780000 13.860000 15.400000 138 117 91 0
33.000000 13.860000 15.400000 138 117 91 0
33.220000 13.860000 15.620000 138 117 91 0
33.440000 13.860000 14.740000 138 117 91 0
33.660000 13.860000 16.060000 138 118 89 0
33.880000 13.860000 15.840000 138 118 89 0
34.100000 13.860000 15.840000 138 118 89 0
34.320000 13.860000 15.840000 138 118 89 0
34.540000 13.860000 15.840000 138 117 91 0
34.760000 13.860000 15.840000 138 117 91 0
34.980000 13.860000 14.520000 138 118 89 0
35.200000 13.860000 14.520000 138 118 89 0
35.420000 13.860000 15.840000 137 117 88 0
35.640000 13.860000 15.840000 138 118 89 0
35.860000 13.860000 17.380000 138 118 89 0
36.080000 13.860000 18.700000 139 119 90 0
36.300000 13.860000 18.700000 139 118 92 0
36.520000 13.860000 16.060000 138 117 91 0
36.740000 13.860000 16.060000 137 117 88 0
36.960000 13.860000 16.060000 138 118 89 0
37.180000 13.860000 17.380000 139 119 90 0
0.000000 14.080000 9.460000 201 214 200 0
0.220000 14.080000 9.460000 201 214 200 0
0.440000 14.080000 9.460000 201 214 200 0
0.660000 14.080000 11.000000 203 214 201 0
0.880000 14.080000 11.000000 201 212 199 0
1.100000 14.080000 12.100000 199 212 200 0
1.320000 14.080000 14.300000 199 212 200 0
1.540000 14.080000 15.400000 198 211 197 0
1.760000 14.080000 14.080000 197 210 196 0
1.980000 14.080000 14.080000 196 209 195 0
2.200000 14.080000 14.080000 193 206 192 0
2.420000 14.080000 14.080000 187 204 183 0
2.640000 14.080000 15.620000 177 194 173 0
2.860000 14.080000 15.620000 166 179 154 0
3.080000 14.080000 15.620000 153 166 141 0
3.300000 14.080000 15.620000 150 159 133 0
3.520000 14.080000 15.620000 145 154 128 0
3.740000 14.080000 15.620000 140 149 125 0
3.960000 14.080000 17.160000 138 147 123 0
4.180000 14.080000 17.160000 135 144 120 0
4.400000 14.080000 18.480000 134 143 119 0
4.620000 14.080000 19.800000 132 141 117 0
4.840000 14.080000 20.020000 131 140 116 0
5.060000 14.080000 20.020000 130 139 115 0
5.280000 14.080000 21.340000 131 140 116 0
5.500000 14.080000 21.340000 129 138 114 0
5.720000 14.080000 18.700000 129 138 114 0
5.940000 14.080000 11.660000 128 137 113 0
6.160000 14.080000 8.800000 128 137 113 0
6.380000 14.080000 10.120000 128 137 113 0
6.600000 14.080000 11.440000 128 137 113 0
6.820000 14.080000 11.440000 127 136 112 0
7.040000 14.080000 11.660000 127 136 112 0
7.260000 14.080000 11.440000 127 136 112 0
7.480000 14.080000 12.760000 127 136 112 0
7.700000 14.080000 14.080000 127 136 112 0
7.920000 14.080000 14.080000 126 135 111 0
8.140000 14.080000 14.080000 127 136 112 0
8.360000 14.080000 14.080000 128 137 113 0
8.580000 14.080000 12.760000 127 136 112 0
8.800000 14.080000 14.300000 126 135 111 0
9.020000 14.080000 14.080000 125 134 110 0
9.240000 14.080000 15.400000 125 134 110 0
9.460000 14.080000 15.400000 126 135 111 0
9.680000 14.080000 15.400000 126 135 111 0
9.900000 14.080000 15.400000 127 136 112 0
10.120000 14.080000 15.400000 127 136 112 0
10.340000 14.080000 16.940000 127 136 112 0
10.560000 14.080000 16.060000 127 136 112 0
10.780000 14.080000 16.060000 127 136 112 0
11.000000 14.080000 13.200000 126 135 111 0
11.220000 14.080000 10.560000 126 135 111 0
11.440000 14.080000 10.780000 127 136 112 0
11.660000 14.080000 11.880000 127 136 112 0
11.880000 14.080000 12.760000 127 136 112 0
12.100000 14.080000 12.540000 126 135 111 0
12.320000 14.080000 12.540000 126 135 111 0
12.540000 14.080000 11.220000 128 137 113 0
12.760000 14.080000 9.900000 133 142 118 0
12.980000 14.080000 10.120000 144 159 135 0
13.200000 14.080000 10.120000 158 173 149 0
13.420000 14.080000 8.800000 159 174 150 0
13.640000 14.080000 8.800000 158 173 149 0
13.860000 14.080000 7.260000 156 171 147 0
14.080000 14.080000 4.620000 155 170 146 0
14.300000 14.080000 1.980000 155 170 146 0
14.520000 14.080000 3.300000 154 169 145 0
14.740000 14.080000 7.260000 153 168 144 0
14.960000 14.080000 12.760000 154 169 145 0
15.180000 14.080000 14.300000 153 168 144 0
15.400000 14.080000 15.840000 154 169 145 0
15.620000 14.080000 15.840000 154 169 145 0
15.840000 14.080000 15.840000 154 169 145 0
16.060000 14.080000 14.520000 154 169 145 0
16.280000 14.080000 14.740000 154 169 145 0
16.500000 14.080000 13.200000 154 169 145 0
16.720000 14.080000 13.420000 154 169 145 0
16.940000 14.080000 12.100000 153 168 144 0
17.160000 14.080000 11.000000 153 168 144 0
17.380000 14.080000 11.000000 153 167 145 0
17.600000 14.080000 10.780000 152 166 144 0
17.820000 14.080000 10.780000 152 167 143 0
18.040000 14.080000 13.420000 152 167 143 0
18.260000 14.080000 13.640000 153 168 144 0
18.480000 14.080000 13.640000 152 167 143 0
18.700000 14.080000 13.640000 150 164 142 0
18.920000 14.080000 13.420000 149 163 141 0
19.140000 14.080000 14.960000 149 162 140 0
19.360000 14.080000 13.640000 149 162 140 0
19.580000 14.080000 13.640000 149 163 141 0
19.800000 14.080000 12.320000 149 163 141 0
20.020000 14.080000 11.000000 151 165 143 0
20.240000 14.080000 8.140000 149 163 141 0
20.460000 14.080000 6.600000 150 164 142 0
20.680000 14.080000 5.280000 149 163 141 0
20.900000 14.080000 3.960000 149 162 140 0
21.120000 14.080000 1.320000 149 162 140 0
22.220000 14.080000 9.460000 147 161 139 0
22.440000 14.080000 30.140000 147 161 139 0
22.660000 14.080000 36.960000 147 160 138 0
22.880000 14.080000 27.280000 148 161 139 0
23.100000 14.080000 19.140000 147 160 138 0
23.320000 14.080000 19.140000 146 159 137 0
23.540000 14.080000 11.000000 147 160 138 0
23.760000 14.080000 1.100000 146 159 137 0
25.300000 14.080000 1.100000 144 157 135 0
25.520000 14.080000 0.880000 145 158 136 0
25.740000 14.080000 3.740000 144 157 135 0
25.960000 14.080000 9.240000 143 156 134 0
26.180000 14.080000 12.100000 142 155 133 0
26.400000 14.080000 12.100000 141 154 132 0
26.620000 14.080000 12.320000 139 150 129 0
26.840000 14.080000 13.420000 136 147 126 0
27.060000 14.080000 14.300000 134 145 124 0
27.280000 14.080000 14.080000 135 146 125 0
27.500000 14.080000 12.760000 137 150 128 0
27.720000 14.080000 12.980000 139 152 130 0
27.940000 14.080000 14.520000 140 153 131 0
28.160000 14.080000 14.740000 140 153 131 0
28.380000 14.080000 14.740000 140 151 130 0
28.600000 14.080000 13.420000 139 150 129 0
28.820000 14.080000 13.420000 143 144 121 0
29.040000 14.080000 14.740000 137 138 115 0
29.260000 14.080000 14.740000 144 128 100 0
29.480000 14.080000 14.740000 141 125 97 0
29.700000 14.080000 14.740000 140 122 95 0
29.920000 14.080000 14.520000 139 121 94 0
30.140000 14.080000 14.300000 138 120 91 0
30.360000 14.080000 14.300000 138 120 91 0
30.580000 14.080000 14.520000 138 120 91 0
30.800000 14.080000 14.740000 138 120 91 0
31.020000 14.080000 14.740000 138 120 93 0
31.240000 14.080000 14.740000 137 119 92 0
31.460000 14.080000 14.960000 136 118 91 0
31.680000 14.080000 13.640000 136 118 91 0
31.900000 14.080000 13.420000 135 117 88 0
32.120000 14.080000 14.300000 136 118 89 0
