ply
format ascii 1.0
element vertex 1184
property float x
property float y
property float z
property uchar red
property uchar green
property uchar blue
property uchar alpha
end_header
31.680000 3.080000 4.730000 125 72 59 0
31.900000 3.080000 5.390000 126 68 59 0
32.120000 3.080000 6.820000 124 66 57 0
32.340000 3.080000 7.480000 123 65 56 0
32.560000 3.080000 7.480000 122 64 55 0
32.780000 3.080000 7.480000 123 65 56 0
33.000000 3.080000 7.480000 122 64 55 0
33.220000 3.080000 7.480000 124 65 56 0
33.440000 3.080000 7.480000 123 64 55 0
33.660000 3.080000 6.820000 124 65 54 0
33.880000 3.080000 6.160000 124 65 54 0
34.100000 3.080000 5.500000 126 67 56 0
34.320000 3.080000 5.500000 126 67 56 0
34.540000 3.080000 4.730000 125 67 58 0
34.760000 3.080000 4.730000 125 67 58 0
34.980000 3.080000 4.840000 127 68 57 0
35.200000 3.080000 4.620000 128 69 58 0
35.420000 3.080000 5.060000 130 69 59 0
35.640000 3.080000 4.840000 130 69 59 0
35.860000 3.080000 4.290000 131 70 60 0
36.080000 3.080000 3.300000 131 70 60 0
36.300000 3.080000 2.750000 132 71 63 0
36.520000 3.080000 3.190000 131 70 62 0
36.740000 3.080000 3.630000 131 70 60 0
36.960000 3.080000 4.290000 131 70 60 0
37.180000 3.080000 4.290000 132 69 59 0
0.000000 3.300000 5.940000 140 134 115 0
0.220000 3.300000 5.720000 139 132 108 0
0.440000 3.300000 6.930000 135 128 104 0
0.660000 3.300000 6.270000 138 125 103 0
0.880000 3.300000 4.840000 136 123 101 0
1.100000 3.300000 4.180000 134 121 99 0
1.320000 3.300000 4.180000 133 120 98 0
1.540000 3.300000 4.290000 132 119 97 0
1.760000 3.300000 4.950000 131 118 96 0
1.980000 3.300000 4.950000 131 115 95 0
2.200000 3.300000 4.950000 132 116 96 0
2.420000 3.300000 5.720000 128 115 94 0
2.640000 3.300000 6.270000 128 115 94 0
2.860000 3.300000 5.610000 128 115 93 0
3.080000 3.300000 4.840000 128 115 93 0
3.300000 3.300000 4.180000 127 114 92 0
3.520000 3.300000 4.180000 127 114 92 0
3.740000 3.300000 4.180000 129 113 92 0
3.960000 3.300000 4.180000 130 114 93 0
4.180000 3.300000 4.180000 127 114 93 0
4.400000 3.300000 4.180000 128 115 94 0
4.620000 3.300000 4.950000 126 113 91 0
4.840000 3.300000 4.950000 126 113 91 0
5.060000 3.300000 4.950000 127 114 92 0
5.280000 3.300000 4.840000 127 114 92 0
5.500000 3.300000 4.180000 129 113 93 0
5.720000 3.300000 4.180000 129 113 93 0
5.940000 3.300000 4.180000 128 112 92 0
6.160000 3.300000 4.840000 128 112 92 0
6.380000 3.300000 4.840000 126 113 91 0
6.600000 3.300000 4.840000 126 113 91 0
6.820000 3.300000 4.840000 126 113 91 0
7.040000 3.300000 4.840000 126 113 91 0
7.260000 3.300000 4.840000 128 112 91 0
7.480000 3.300000 4.840000 127 111 90 0
7.700000 3.300000 4.840000 128 112 92 0
7.920000 3.300000 4.840000 127 111 91 0
8.140000 3.300000 4.840000 125 112 90 0
8.360000 3.300000 4.840000 125 112 90 0
8.580000 3.300000 4.840000 128 112 91 0
8.800000 3.300000 4.840000 127 111 90 0
9.020000 3.300000 5.610000 127 111 90 0
9.240000 3.300000 5.610000 127 111 90 0
9.460000 3.300000 5.610000 126 110 90 0
9.680000 3.300000 5.610000 126 110 90 0
9.900000 3.300000 5.610000 124 111 89 0
10.120000 3.300000 4.840000 124 111 89 0
10.340000 3.300000 4.840000 126 110 89 0
10.560000 3.300000 4.840000 126 110 89 0
10.780000 3.300000 4.840000 126 110 89 0
11.000000 3.300000 4.180000 126 110 89 0
11.220000 3.300000 4.180000 125 109 89 0
11.440000 3.300000 4.840000 124 108 88 0
11.660000 3.300000 4.840000 124 108 87 0
11.880000 3.300000 5.610000 124 108 87 0
12.100000 3.300000 5.610000 124 108 87 0
12.320000 3.300000 5.610000 123 107 86 0
12.540000 3.300000 5.610000 123 107 87 0
12.760000 3.300000 4.840000 124 108 88 0
12.980000 3.300000 4.840000 124 106 87 0
13.200000 3.300000 4.840000 123 105 86 0
13.420000 3.300000 4.840000 122 106 86 0
13.640000 3.300000 4.840000 121 105 85 0
13.860000 3.300000 4.840000 121 104 83 0
14.080000 3.300000 4.840000 121 104 83 0
14.300000 3.300000 5.610000 122 104 85 0
14.520000 3.300000 5.610000 121 103 84 0
14.740000 3.300000 5.720000 122 103 84 0
14.960000 3.300000 5.280000 121 102 83 0
15.180000 3.300000 5.280000 121 103 84 0
15.400000 3.300000 6.380000 119 101 82 0
15.620000 3.300000 6.930000 120 102 83 0
15.840000 3.300000 6.930000 119 101 82 0
16.060000 3.300000 6.930000 120 102 83 0
16.280000 3.300000 6.270000 120 102 83 0
16.500000 3.300000 6.270000 121 102 83 0
16.720000 3.300000 6.270000 121 102 83 0
16.940000 3.300000 5.500000 121 102 83 0
17.160000 3.300000 6.270000 121 102 83 0
17.380000 3.300000 6.270000 120 101 82 0
17.600000 3.300000 6.270000 121 102 83 0
17.820000 3.300000 6.270000 121 102 83 0
18.040000 3.300000 6.270000 120 101 82 0
18.260000 3.300000 6.270000 122 100 82 0
18.480000 3.300000 6.270000 122 100 82 0
18.700000 3.300000 6.270000 121 102 82 0
18.920000 3.300000 6.270000 121 102 82 0
19.140000 3.300000 5.500000 123 101 83 0
19.360000 3.300000 5.500000 122 100 82 0
19.580000 3.300000 5.500000 122 100 82 0
19.800000 3.300000 5.500000 122 100 82 0
20.020000 3.300000 5.500000 123 99 82 0
20.240000 3.300000 5.500000 123 99 82 0
20.460000 3.300000 4.840000 121 99 80 0
20.680000 3.300000 4.840000 121 99 80 0
20.900000 3.300000 4.290000 124 98 81 0
21.120000 3.300000 4.290000 124 98 81 0
21.340000 3.300000 4.290000 125 99 82 0
21.560000 3.300000 4.840000 124 98 81 0
21.780000 3.300000 4.840000 125 99 82 0
22.000000 3.300000 4.290000 124 98 81 0
22.220000 3.300000 3.190000 120 97 78 0
22.440000 3.300000 3.190000 122 99 80 0
22.660000 3.300000 3.740000 123 97 79 0
22.880000 3.300000 3.190000 123 97 79 0
23.100000 3.300000 2.640000 124 96 80 0
23.320000 3.300000 2.090000 124 96 80 0
23.540000 3.300000 2.090000 124 96 80 0
23.760000 3.300000 2.090000 123 95 79 0
23.980000 3.300000 2.090000 122 94 77 0
24.200000 3.300000 1.320000 121 93 76 0
24.420000 3.300000 0.660000 122 92 76 0
24.640000 3.300000 0.660000 121 91 75 0
24.860000 3.300000 0.660000 121 91 75 0
25.080000 3.300000 0.660000 121 91 75 0
25.300000 3.300000 0.660000 122 90 74 0
25.520000 3.300000 0.660000 122 90 74 0
25.740000 3.300000 0.660000 119 90 71 0
25.960000 3.300000 0.660000 118 89 70 0
26.180000 3.300000 0.660000 120 88 70 0
26.400000 3.300000 0.660000 120 88 70 0
26.620000 3.300000 0.660000 121 87 70 0
26.840000 3.300000 1.320000 121 87 70 0
27.060000 3.300000 1.980000 121 87 70 0
27.280000 3.300000 2.750000 120 86 69 0
27.500000 3.300000 2.750000 120 86 69 0
27.720000 3.300000 3.410000 120 86 69 0
27.940000 3.300000 3.410000 121 85 68 0
28.160000 3.300000 4.070000 121 85 68 0
28.380000 3.300000 3.410000 122 86 69 0
28.600000 3.300000 2.750000 121 85 68 0
28.820000 3.300000 2.090000 121 85 68 0
29.040000 3.300000 2.090000 121 85 68 0
29.260000 3.300000 2.750000 119 85 68 0
29.480000 3.300000 2.090000 120 86 69 0
29.700000 3.300000 2.090000 121 85 68 0
29.920000 3.300000 1.320000 121 85 68 0
30.140000 3.300000 0.660000 121 83 65 0
30.360000 3.300000 0.660000 122 84 66 0
30.580000 3.300000 0.660000 123 84 66 0
30.800000 3.300000 1.320000 121 82 64 0
31.020000 3.300000 1.980000 125 78 65 0
31.240000 3.300000 3.410000 123 76 63 0
31.460000 3.300000 4.070000 129 72 60 0
31.680000 3.300000 4.730000 128 71 59 0
31.900000 3.300000 6.160000 124 67 55 0
32.120000 3.300000 6.820000 123 66 54 0
32.340000 3.300000 7.480000 123 66 54 0
32.560000 3.300000 7.480000 122 65 53 0
32.780000 3.300000 7.480000 124 65 54 0
33.000000 3.300000 7.480000 124 65 54 0
33.220000 3.300000 7.480000 124 65 54 0
33.440000 3.300000 7.480000 125 66 55 0
33.660000 3.300000 6.820000 124 65 54 0
33.880000 3.300000 6.160000 124 65 54 0
34.100000 3.300000 5.500000 124 67 55 0
34.320000 3.300000 4.730000 125 68 56 0
34.540000 3.300000 4.730000 125 66 55 0
34.760000 3.300000 4.730000 127 68 57 0
34.980000 3.300000 4.070000 127 68 57 0
35.200000 3.300000 4.620000 128 69 58 0
35.420000 3.300000 5.060000 130 69 59 0
35.640000 3.300000 4.840000 132 71 61 0
35.860000 3.300000 4.290000 131 71 58 0
36.080000 3.300000 3.300000 131 71 58 0
36.300000 3.300000 2.640000 131 71 58 0
36.520000 3.300000 3.080000 130 70 57 0
36.740000 3.300000 3.520000 131 70 60 0
36.960000 3.300000 4.290000 131 70 60 0
37.180000 3.300000 4.290000 132 69 59 0
0.000000 3.520000 5.170000 142 136 117 0
0.220000 3.520000 5.720000 141 134 110 0
0.440000 3.520000 6.270000 139 132 108 0
0.660000 3.520000 6.270000 139 126 104 0
0.880000 3.520000 4.840000 138 125 103 0
1.100000 3.520000 4.180000 136 123 101 0
1.320000 3.520000 4.180000 134 121 99 0
1.540000 3.520000 4.180000 133 120 98 0
1.760000 3.520000 4.180000 133 120 98 0
1.980000 3.520000 4.950000 133 117 97 0
2.200000 3.520000 4.950000 132 116 96 0
2.420000 3.520000 5.720000 130 117 96 0
2.640000 3.520000 6.270000 129 116 95 0
2.860000 3.520000 6.270000 128 115 93 0
3.080000 3.520000 5.610000 129 116 94 0
3.300000 3.520000 4.840000 128 115 93 0
3.520000 3.520000 4.180000 128 115 93 0
3.740000 3.520000 4.180000 130 114 93 0
3.960000 3.520000 4.180000 130 114 93 0
4.180000 3.520000 4.180000 128 115 94 0
4.400000 3.520000 4.180000 128 115 94 0
4.620000 3.520000 4.180000 127 114 92 0
4.840000 3.520000 4.950000 127 114 92 0
5.060000 3.520000 4.950000 127 114 92 0
5.280000 3.520000 4.840000 128 115 93 0
5.500000 3.520000 4.180000 129 113 93 0
5.720000 3.520000 4.180000 129 113 93 0
5.940000 3.520000 4.180000 129 113 93 0
6.160000 3.520000 4.840000 129 113 93 0
6.380000 3.520000 4.840000 127 114 92 0
6.600000 3.520000 4.840000 126 113 91 0
6.820000 3.520000 4.840000 125 112 90 0
7.040000 3.520000 4.840000 126 113 91 0
7.260000 3.520000 4.840000 128 112 91 0
7.480000 3.520000 4.840000 128 112 91 0
7.700000 3.520000 4.840000 128 112 92 0
7.920000 3.520000 4.840000 128 112 92 0
8.140000 3.520000 4.840000 126 113 91 0
8.360000 3.520000 4.840000 125 112 90 0
8.580000 3.520000 4.840000 128 112 91 0
8.800000 3.520000 5.610000 128 112 91 0
9.020000 3.520000 5.610000 127 111 90 0
9.240000 3.520000 5.610000 127 111 90 0
9.460000 3.520000 5.610000 127 111 91 0
9.680000 3.520000 5.610000 128 112 92 0
9.900000 3.520000 5.610000 125 112 90 0
10.120000 3.520000 4.840000 124 111 89 0
10.340000 3.520000 4.840000 126 110 89 0
10.560000 3.520000 4.840000 127 111 90 0
10.780000 3.520000 4.840000 127 111 90 0
11.000000 3.520000 4.840000 126 110 89 0
11.220000 3.520000 4.180000 126 110 90 0
11.440000 3.520000 4.840000 126 110 90 0
11.660000 3.520000 4.840000 126 110 89 0
11.880000 3.520000 5.610000 125 109 88 0
12.100000 3.520000 5.610000 124 108 87 0
12.320000 3.520000 5.610000 125 109 88 0
12.540000 3.520000 5.610000 125 109 89 0
12.760000 3.520000 4.840000 124 108 88 0
12.980000 3.520000 4.840000 125 107 88 0
13.200000 3.520000 4.840000 124 106 87 0
13.420000 3.520000 4.840000 123 107 87 0
13.640000 3.520000 4.840000 122 106 86 0
13.860000 3.520000 4.840000 123 106 85 0
14.080000 3.520000 4.840000 122 105 84 0
14.300000 3.520000 5.610000 122 104 85 0
14.520000 3.520000 5.610000 122 104 85 0
14.740000 3.520000 6.270000 123 104 85 0
14.960000 3.520000 5.610000 121 102 83 0
15.180000 3.520000 6.380000 121 103 84 0
15.400000 3.520000 6.270000 122 104 85 0
15.620000 3.520000 6.930000 121 103 84 0
15.840000 3.520000 6.930000 120 102 83 0
16.060000 3.520000 6.930000 121 103 84 0
16.280000 3.520000 6.930000 121 103 84 0
16.500000 3.520000 6.270000 122 103 84 0
16.720000 3.520000 6.270000 122 103 84 0
16.940000 3.520000 6.270000 121 102 83 0
17.160000 3.520000 6.270000 121 102 83 0
17.380000 3.520000 6.270000 122 103 84 0
17.600000 3.520000 6.270000 121 102 83 0
17.820000 3.520000 6.270000 121 102 83 0
18.040000 3.520000 6.930000 121 102 83 0
18.260000 3.520000 6.930000 123 101 83 0
18.480000 3.520000 6.930000 123 101 83 0
18.700000 3.520000 6.930000 121 102 82 0
18.920000 3.520000 6.270000 121 102 82 0
19.140000 3.520000 5.610000 123 101 83 0
19.360000 3.520000 5.500000 123 101 83 0
19.580000 3.520000 5.500000 123 101 83 0
19.800000 3.520000 5.500000 123 101 83 0
20.020000 3.520000 5.500000 123 99 82 0
20.240000 3.520000 5.500000 123 99 82 0
20.460000 3.520000 5.500000 122 100 81 0
20.680000 3.520000 4.840000 121 99 80 0
20.900000 3.520000 4.840000 125 99 82 0
21.120000 3.520000 4.950000 125 99 82 0
21.340000 3.520000 4.840000 125 99 82 0
21.560000 3.520000 4.840000 125 99 82 0
21.780000 3.520000 4.840000 125 99 82 0
22.000000 3.520000 4.290000 124 98 81 0
22.220000 3.520000 3.850000 122 99 80 0
22.440000 3.520000 3.740000 122 99 80 0
22.660000 3.520000 4.290000 124 98 80 0
22.880000 3.520000 3.850000 123 97 79 0
23.100000 3.520000 2.640000 124 96 80 0
23.320000 3.520000 2.090000 124 96 80 0
23.540000 3.520000 2.090000 123 95 79 0
23.760000 3.520000 2.090000 123 95 79 0
23.980000 3.520000 2.090000 123 95 78 0
24.200000 3.520000 1.320000 122 94 77 0
24.420000 3.520000 1.320000 123 93 77 0
24.640000 3.520000 1.320000 122 92 76 0
24.860000 3.520000 1.320000 121 91 75 0
25.080000 3.520000 1.320000 121 91 75 0
25.300000 3.520000 0.660000 123 91 75 0
25.520000 3.520000 0.660000 122 90 74 0
25.740000 3.520000 0.660000 120 91 72 0
25.960000 3.520000 0.660000 119 90 71 0
26.180000 3.520000 0.660000 120 88 70 0
26.400000 3.520000 0.660000 120 88 70 0
26.620000 3.520000 0.660000 122 88 71 0
26.840000 3.520000 1.320000 122 88 71 0
27.060000 3.520000 1.980000 122 88 71 0
27.280000 3.520000 2.750000 121 87 70 0
27.500000 3.520000 2.750000 120 86 69 0
27.720000 3.520000 2.750000 120 86 69 0
27.940000 3.520000 3.410000 123 87 70 0
28.160000 3.520000 3.410000 122 86 69 0
28.380000 3.520000 3.410000 121 85 68 0
28.600000 3.520000 2.090000 121 85 68 0
28.820000 3.520000 1.320000 122 86 69 0
29.040000 3.520000 2.090000 121 85 68 0
29.260000 3.520000 2.090000 119 85 68 0
29.480000 3.520000 2.090000 120 86 69 0
29.700000 3.520000 1.320000 122 86 69 0
29.920000 3.520000 0.660000 121 85 68 0
30.140000 3.520000 0.660000 122 84 66 0
30.360000 3.520000 0.660000 122 84 66 0
30.580000 3.520000 0.660000 122 83 65 0
30.800000 3.520000 1.320000 121 82 64 0
31.020000 3.520000 2.640000 125 78 65 0
31.240000 3.520000 3.410000 123 76 63 0
31.460000 3.520000 4.070000 128 71 59 0
31.680000 3.520000 5.390000 126 69 57 0
31.900000 3.520000 6.160000 124 67 55 0
32.120000 3.520000 7.480000 123 66 54 0
32.340000 3.520000 7.480000 123 66 54 0
32.560000 3.520000 7.480000 122 65 53 0
32.780000 3.520000 7.480000 124 65 54 0
33.000000 3.520000 7.480000 123 64 53 0
33.220000 3.520000 7.480000 125 66 55 0
33.440000 3.520000 7.480000 124 65 54 0
33.660000 3.520000 6.820000 125 66 55 0
33.880000 3.520000 6.160000 125 66 55 0
34.100000 3.520000 5.500000 124 67 55 0
34.320000 3.520000 4.730000 125 68 56 0
34.540000 3.520000 4.730000 126 67 56 0
34.760000 3.520000 4.730000 126 67 56 0
34.980000 3.520000 4.070000 128 69 58 0
35.200000 3.520000 4.620000 128 69 58 0
35.420000 3.520000 5.060000 131 70 60 0
35.640000 3.520000 4.840000 132 71 61 0
35.860000 3.520000 4.290000 130 70 57 0
36.080000 3.520000 3.190000 130 70 57 0
36.300000 3.520000 2.530000 131 71 58 0
36.520000 3.520000 3.630000 132 72 59 0
36.740000 3.520000 3.520000 131 70 60 0
36.960000 3.520000 4.290000 131 70 60 0
37.180000 3.520000 4.290000 131 68 58 0
0.000000 3.740000 5.170000 145 139 120 0
0.220000 3.740000 5.720000 144 136 112 0
0.440000 3.740000 6.270000 140 132 108 0
0.660000 3.740000 6.270000 141 130 108 0
0.880000 3.740000 4.840000 139 128 106 0
1.100000 3.740000 4.180000 138 125 103 0
1.320000 3.740000 4.180000 136 123 101 0
1.540000 3.740000 4.180000 137 121 100 0
1.760000 3.740000 4.180000 135 119 98 0
1.980000 3.740000 4.180000 132 119 97 0
2.200000 3.740000 4.290000 131 118 96 0
2.420000 3.740000 5.610000 132 116 95 0
2.640000 3.740000 7.040000 131 115 94 0
2.860000 3.740000 6.270000 131 115 94 0
3.080000 3.740000 5.610000 131 115 94 0
3.300000 3.740000 4.950000 130 114 93 0
3.520000 3.740000 4.180000 131 115 94 0
3.740000 3.740000 3.520000 128 115 93 0
3.960000 3.740000 3.520000 128 115 93 0
4.180000 3.740000 3.520000 128 115 93 0
4.400000 3.740000 3.520000 128 115 93 0
4.620000 3.740000 4.180000 130 114 93 0
4.840000 3.740000 4.180000 129 113 92 0
5.060000 3.740000 4.950000 130 114 93 0
5.280000 3.740000 4.840000 129 113 92 0
5.500000 3.740000 4.180000 128 115 93 0
5.720000 3.740000 4.180000 127 114 92 0
5.940000 3.740000 4.180000 128 115 93 0
6.160000 3.740000 4.840000 127 114 92 0
6.380000 3.740000 4.840000 129 113 92 0
6.600000 3.740000 4.840000 129 113 92 0
6.820000 3.740000 4.840000 129 113 92 0
7.040000 3.740000 4.840000 130 114 93 0
7.260000 3.740000 4.840000 127 114 92 0
7.480000 3.740000 4.840000 126 113 91 0
7.700000 3.740000 4.840000 127 114 92 0
7.920000 3.740000 4.840000 127 114 92 0
8.140000 3.740000 4.840000 128 112 91 0
8.360000 3.740000 4.840000 128 112 91 0
8.580000 3.740000 4.840000 128 112 91 0
8.800000 3.740000 4.840000 129 113 92 0
9.020000 3.740000 5.610000 126 113 91 0
9.240000 3.740000 5.610000 126 113 91 0
9.460000 3.740000 5.610000 126 113 91 0
9.680000 3.740000 5.610000 126 113 91 0
9.900000 3.740000 5.610000 128 112 91 0
10.120000 3.740000 4.840000 127 111 90 0
10.340000 3.740000 4.840000 129 112 91 0
10.560000 3.740000 4.840000 128 111 90 0
10.780000 3.740000 4.840000 127 111 90 0
11.000000 3.740000 4.840000 128 112 91 0
11.220000 3.740000 4.840000 127 111 90 0
11.440000 3.740000 4.840000 127 111 90 0
11.660000 3.740000 4.840000 127 111 90 0
11.880000 3.740000 5.610000 126 110 89 0
12.100000 3.740000 5.610000 126 109 88 0
12.320000 3.740000 5.610000 126 109 88 0
12.540000 3.740000 5.610000 126 110 89 0
12.760000 3.740000 5.610000 125 109 88 0
12.980000 3.740000 4.840000 126 109 88 0
13.200000 3.740000 4.840000 126 109 88 0
13.420000 3.740000 4.840000 125 108 87 0
13.640000 3.740000 4.840000 124 107 86 0
13.860000 3.740000 4.840000 124 107 86 0
14.080000 3.740000 4.840000 123 106 85 0
14.300000 3.740000 5.610000 124 107 86 0
14.520000 3.740000 5.500000 123 106 85 0
14.740000 3.740000 6.270000 122 105 84 0
14.960000 3.740000 6.270000 122 105 84 0
15.180000 3.740000 6.270000 122 104 85 0
15.400000 3.740000 6.270000 121 103 84 0
15.620000 3.740000 6.930000 123 104 84 0
15.840000 3.740000 6.930000 122 103 83 0
16.060000 3.740000 6.930000 122 104 85 0
16.280000 3.740000 6.930000 122 104 85 0
16.500000 3.740000 6.270000 122 105 84 0
16.720000 3.740000 6.270000 122 105 84 0
16.940000 3.740000 6.270000 122 103 83 0
17.160000 3.740000 6.270000 122 103 83 0
17.380000 3.740000 6.270000 123 101 83 0
17.600000 3.740000 6.270000 124 102 84 0
17.820000 3.740000 6.930000 122 103 83 0
18.040000 3.740000 6.930000 123 104 84 0
18.260000 3.740000 7.590000 122 103 83 0
18.480000 3.740000 6.930000 122 103 83 0
18.700000 3.740000 6.930000 122 103 83 0
18.920000 3.740000 6.270000 121 102 82 0
19.140000 3.740000 6.270000 124 102 83 0
19.360000 3.740000 5.610000 123 101 82 0
19.580000 3.740000 5.500000 123 101 82 0
19.800000 3.740000 5.500000 124 102 83 0
20.020000 3.740000 5.500000 120 101 82 0
20.240000 3.740000 5.500000 120 101 82 0
20.460000 3.740000 5.500000 123 101 82 0
20.680000 3.740000 5.500000 123 101 82 0
20.900000 3.740000 4.840000 123 100 81 0
21.120000 3.740000 4.840000 124 101 82 0
21.340000 3.740000 4.840000 123 101 82 0
21.560000 3.740000 4.840000 122 100 81 0
21.780000 3.740000 4.840000 122 100 81 0
22.000000 3.740000 4.840000 121 99 80 0
22.220000 3.740000 4.290000 123 100 81 0
22.440000 3.740000 4.400000 122 99 80 0
22.660000 3.740000 4.290000 122 99 78 0
22.880000 3.740000 3.850000 122 99 78 0
23.100000 3.740000 2.640000 121 98 79 0
23.320000 3.740000 2.750000 121 98 79 0
23.540000 3.740000 2.640000 120 96 79 0
23.760000 3.740000 2.640000 120 96 79 0
23.980000 3.740000 1.980000 122 96 78 0
24.200000 3.740000 2.090000 121 95 77 0
24.420000 3.740000 1.320000 122 94 75 0
24.640000 3.740000 1.320000 121 93 74 0
24.860000 3.740000 1.210000 120 92 75 0
25.080000 3.740000 1.210000 120 92 75 0
25.300000 3.740000 1.210000 121 92 73 0
25.520000 3.740000 0.660000 121 92 73 0
25.740000 3.740000 0.660000 122 90 74 0
25.960000 3.740000 0.660000 122 90 74 0
26.180000 3.740000 0.660000 122 90 72 0
26.400000 3.740000 0.660000 121 89 71 0
26.620000 3.740000 0.660000 120 88 70 0
26.840000 3.740000 1.320000 120 88 70 0
27.060000 3.740000 1.980000 120 88 70 0
27.280000 3.740000 2.090000 119 87 69 0
27.500000 3.740000 2.090000 120 86 69 0
27.720000 3.740000 2.750000 120 86 69 0
27.940000 3.740000 2.750000 120 87 67 0
28.160000 3.740000 3.410000 120 87 67 0
28.380000 3.740000 2.750000 120 86 69 0
28.600000 3.740000 1.980000 119 85 68 0
28.820000 3.740000 1.320000 122 86 69 0
29.040000 3.740000 1.320000 122 86 69 0
29.260000 3.740000 1.320000 121 85 68 0
29.480000 3.740000 1.320000 121 85 68 0
29.700000 3.740000 1.320000 122 86 67 0
29.920000 3.740000 0.660000 121 85 66 0
30.140000 3.740000 0.660000 122 82 67 0
30.360000 3.740000 0.660000 122 82 67 0
30.580000 3.740000 0.660000 127 80 65 0
30.800000 3.740000 1.980000 125 78 63 0
31.020000 3.740000 2.640000 128 75 62 0
31.240000 3.740000 3.410000 126 73 60 0
31.460000 3.740000 4.730000 125 71 58 0
31.680000 3.740000 5.390000 124 70 57 0
31.900000 3.740000 6.820000 124 67 55 0
32.120000 3.740000 7.480000 123 66 54 0
32.340000 3.740000 7.480000 123 66 54 0
32.560000 3.740000 8.140000 121 64 52 0
32.780000 3.740000 7.480000 122 65 53 0
33.000000 3.740000 7.480000 123 66 54 0
33.220000 3.740000 7.480000 123 66 54 0
33.440000 3.740000 7.480000 123 66 54 0
33.660000 3.740000 6.820000 124 65 56 0
33.880000 3.740000 6.160000 125 66 57 0
34.100000 3.740000 5.500000 124 67 55 0
34.320000 3.740000 4.730000 124 67 55 0
34.540000 3.740000 4.730000 125 68 56 0
34.760000 3.740000 4.070000 126 69 57 0
34.980000 3.740000 4.070000 128 69 58 0
35.200000 3.740000 3.960000 129 70 59 0
35.420000 3.740000 4.290000 130 71 60 0
35.640000 3.740000 4.840000 131 72 61 0
35.860000 3.740000 4.180000 130 69 59 0
36.080000 3.740000 3.080000 130 69 59 0
36.300000 3.740000 3.190000 131 72 61 0
36.520000 3.740000 3.630000 131 72 61 0
36.740000 3.740000 3.520000 132 71 61 0
36.960000 3.740000 4.290000 131 70 60 0
37.180000 3.740000 4.290000 130 69 61 0
0.000000 3.960000 5.170000 149 143 124 0
0.220000 3.960000 5.720000 148 140 116 0
0.440000 3.960000 6.270000 144 136 112 0
0.660000 3.960000 6.270000 143 132 110 0
0.880000 3.960000 4.840000 141 130 108 0
1.100000 3.960000 4.840000 142 129 107 0
1.320000 3.960000 4.180000 139 126 104 0
1.540000 3.960000 4.180000 139 123 102 0
1.760000 3.960000 4.180000 137 121 100 0
1.980000 3.960000 4.180000 134 121 99 0
2.200000 3.960000 4.180000 133 120 98 0
2.420000 3.960000 5.610000 133 117 96 0
2.640000 3.960000 7.040000 133 117 96 0
2.860000 3.960000 6.270000 132 116 95 0
3.080000 3.960000 5.610000 132 116 95 0
3.300000 3.960000 4.180000 132 116 95 0
3.520000 3.960000 3.520000 132 116 95 0
3.740000 3.960000 3.520000 129 116 94 0
3.960000 3.960000 3.520000 130 117 95 0
4.180000 3.960000 3.520000 129 116 94 0
4.400000 3.960000 3.520000 129 116 94 0
4.620000 3.960000 3.520000 131 115 94 0
4.840000 3.960000 3.520000 130 114 93 0
5.060000 3.960000 4.180000 130 114 93 0
5.280000 3.960000 4.180000 130 114 93 0
5.500000 3.960000 4.180000 128 115 93 0
5.720000 3.960000 4.180000 128 115 93 0
5.940000 3.960000 4.180000 128 115 93 0
6.160000 3.960000 4.840000 127 114 92 0
6.380000 3.960000 4.840000 129 113 92 0
6.600000 3.960000 4.840000 129 113 92 0
6.820000 3.960000 4.840000 130 114 93 0
7.040000 3.960000 4.840000 130 114 93 0
7.260000 3.960000 4.840000 128 115 93 0
7.480000 3.960000 4.840000 128 115 93 0
7.700000 3.960000 4.840000 127 114 92 0
7.920000 3.960000 4.840000 126 113 91 0
8.140000 3.960000 4.840000 129 113 92 0
8.360000 3.960000 4.840000 128 112 91 0
8.580000 3.960000 4.840000 129 113 92 0
8.800000 3.960000 4.840000 130 114 93 0
9.020000 3.960000 5.610000 128 115 93 0
9.240000 3.960000 5.610000 127 114 92 0
9.460000 3.960000 5.610000 127 114 92 0
9.680000 3.960000 5.610000 126 113 91 0
9.900000 3.960000 5.610000 129 113 92 0
10.120000 3.960000 4.840000 128 112 91 0
10.340000 3.960000 4.840000 130 113 92 0
10.560000 3.960000 4.840000 130 113 92 0
10.780000 3.960000 4.840000 129 113 92 0
11.000000 3.960000 4.840000 128 112 91 0
11.220000 3.960000 4.840000 128 112 91 0
11.440000 3.960000 4.840000 127 111 90 0
11.660000 3.960000 4.840000 127 111 90 0
11.880000 3.960000 5.610000 127 111 90 0
12.100000 3.960000 5.610000 127 110 89 0
12.320000 3.960000 5.610000 127 110 89 0
12.540000 3.960000 5.610000 126 110 89 0
12.760000 3.960000 5.610000 127 111 90 0
12.980000 3.960000 4.840000 127 110 89 0
13.200000 3.960000 4.840000 127 110 89 0
13.420000 3.960000 4.840000 126 109 88 0
13.640000 3.960000 4.840000 126 109 88 0
13.860000 3.960000 4.840000 125 108 87 0
14.080000 3.960000 4.840000 125 108 87 0
14.300000 3.960000 5.610000 124 107 86 0
14.520000 3.960000 5.610000 124 107 86 0
14.740000 3.960000 6.270000 123 106 85 0
14.960000 3.960000 6.270000 124 107 86 0
15.180000 3.960000 6.270000 124 106 87 0
15.400000 3.960000 6.270000 123 105 86 0
15.620000 3.960000 6.270000 124 105 85 0
15.840000 3.960000 6.930000 124 105 85 0
16.060000 3.960000 6.930000 123 105 86 0
16.280000 3.960000 6.930000 124 106 87 0
16.500000 3.960000 6.270000 122 105 84 0
16.720000 3.960000 6.270000 123 106 85 0
16.940000 3.960000 6.270000 123 104 84 0
17.160000 3.960000 6.270000 123 104 84 0
17.380000 3.960000 6.270000 125 103 85 0
17.600000 3.960000 6.270000 124 102 84 0
17.820000 3.960000 6.930000 122 103 83 0
18.040000 3.960000 6.930000 123 104 84 0
18.260000 3.960000 7.590000 122 103 83 0
18.480000 3.960000 7.590000 123 104 84 0
18.700000 3.960000 6.930000 123 104 84 0
18.920000 3.960000 6.930000 122 103 83 0
19.140000 3.960000 6.270000 124 102 83 0
19.360000 3.960000 5.610000 124 102 83 0
19.580000 3.960000 5.500000 123 101 82 0
19.800000 3.960000 5.500000 123 101 82 0
20.020000 3.960000 5.500000 121 102 83 0
20.240000 3.960000 5.500000 121 102 83 0
20.460000 3.960000 5.500000 123 101 82 0
20.680000 3.960000 5.500000 124 102 83 0
20.900000 3.960000 5.500000 124 101 82 0
21.120000 3.960000 4.840000 124 101 82 0
21.340000 3.960000 4.840000 124 102 83 0
21.560000 3.960000 4.840000 123 101 82 0
21.780000 3.960000 4.840000 123 101 82 0
22.000000 3.960000 4.840000 123 101 82 0
22.220000 3.960000 4.290000 123 100 81 0
22.440000 3.960000 4.400000 123 100 81 0
22.660000 3.960000 4.400000 123 100 79 0
22.880000 3.960000 3.740000 123 100 79 0
23.100000 3.960000 3.190000 122 99 80 0
23.320000 3.960000 3.190000 122 99 80 0
23.540000 3.960000 3.740000 121 97 80 0
23.760000 3.960000 3.080000 121 97 80 0
23.980000 3.960000 2.640000 122 96 78 0
24.200000 3.960000 2.090000 122 96 78 0
24.420000 3.960000 2.090000 122 94 75 0
24.640000 3.960000 1.980000 121 93 74 0
24.860000 3.960000 2.420000 120 92 75 0
25.080000 3.960000 2.420000 120 92 75 0
25.300000 3.960000 1.100000 122 93 74 0
25.520000 3.960000 0.550000 122 93 74 0
25.740000 3.960000 0.660000 123 91 75 0
25.960000 3.960000 1.320000 122 90 74 0
26.180000 3.960000 1.320000 122 90 72 0
26.400000 3.960000 0.660000 122 90 72 0
26.620000 3.960000 0.660000 121 89 71 0
26.840000 3.960000 1.320000 120 88 70 0
27.060000 3.960000 1.980000 121 89 71 0
27.280000 3.960000 2.090000 121 89 71 0
27.500000 3.960000 2.090000 121 87 70 0
27.720000 3.960000 2.090000 120 86 69 0
27.940000 3.960000 2.750000 121 88 68 0
28.160000 3.960000 2.750000 120 87 67 0
28.380000 3.960000 2.750000 120 86 69 0
28.600000 3.960000 1.320000 121 87 70 0
28.820000 3.960000 0.660000 121 85 68 0
29.040000 3.960000 0.660000 122 86 69 0
29.260000 3.960000 0.660000 121 85 68 0
29.480000 3.960000 1.320000 122 86 69 0
29.700000 3.960000 0.660000 122 86 67 0
29.920000 3.960000 0.660000 122 86 67 0
30.360000 3.960000 0.660000 122 82 67 0
30.580000 3.960000 1.320000 126 79 64 0
30.800000 3.960000 1.980000 124 77 62 0
31.020000 3.960000 2.640000 127 74 61 0
31.240000 3.960000 4.070000 125 72 59 0
31.460000 3.960000 4.730000 124 70 57 0
31.680000 3.960000 6.160000 123 69 56 0
31.900000 3.960000 6.820000 123 66 54 0
32.120000 3.960000 7.480000 122 65 53 0
32.340000 3.960000 8.140000 122 65 53 0
32.560000 3.960000 8.140000 122 65 53 0
32.780000 3.960000 8.140000 122 65 53 0
33.000000 3.960000 7.480000 122 65 53 0
33.220000 3.960000 6.820000 122 65 53 0
33.440000 3.960000 6.820000 123 66 54 0
33.660000 3.960000 6.820000 125 66 57 0
33.880000 3.960000 5.500000 125 66 57 0
34.100000 3.960000 4.730000 124 67 55 0
34.320000 3.960000 4.730000 125 68 56 0
34.540000 3.960000 4.730000 125 68 56 0
34.760000 3.960000 4.070000 126 69 57 0
34.980000 3.960000 4.070000 129 70 59 0
35.200000 3.960000 3.960000 131 72 61 0
35.420000 3.960000 4.290000 130 71 60 0
35.640000 3.960000 4.840000 130 71 60 0
35.860000 3.960000 4.180000 131 70 60 0
36.080000 3.960000 3.080000 133 72 62 0
36.300000 3.960000 3.190000 131 72 61 0
36.520000 3.960000 3.630000 130 71 60 0
36.740000 3.960000 3.520000 132 71 61 0
36.960000 3.960000 4.290000 131 70 60 0
37.180000 3.960000 4.290000 130 69 61 0
0.000000 4.180000 5.170000 150 147 123 0
0.220000 4.180000 5.720000 149 144 120 0
0.440000 4.180000 6.270000 145 140 116 0
0.660000 4.180000 6.270000 144 137 113 0
0.880000 4.180000 4.840000 142 135 111 0
1.100000 4.180000 4.840000 142 131 108 0
1.320000 4.180000 4.180000 140 129 106 0
1.540000 4.180000 4.180000 140 127 105 0
1.760000 4.180000 4.180000 138 125 103 0
1.980000 4.180000 4.840000 136 123 101 0
2.200000 4.180000 5.610000 133 120 98 0
2.420000 4.180000 6.380000 133 120 98 0
2.640000 4.180000 7.040000 131 118 96 0
2.860000 4.180000 6.270000 133 117 97 0
3.080000 4.180000 5.610000 133 117 97 0
3.300000 4.180000 4.180000 131 118 96 0
3.520000 4.180000 2.860000 131 118 96 0
3.740000 4.180000 2.750000 133 117 96 0
3.960000 4.180000 2.750000 132 116 95 0
4.180000 4.180000 2.750000 129 116 94 0
4.400000 4.180000 2.750000 129 116 94 0
4.620000 4.180000 2.860000 132 116 95 0
4.840000 4.180000 3.520000 131 115 94 0
5.060000 4.180000 3.520000 129 116 94 0
5.280000 4.180000 4.180000 128 115 93 0
5.500000 4.180000 4.180000 130 114 93 0
5.720000 4.180000 4.180000 131 115 94 0
5.940000 4.180000 4.180000 128 115 93 0
6.160000 4.180000 4.180000 129 116 94 0
6.380000 4.180000 4.840000 130 114 94 0
6.600000 4.180000 4.840000 131 115 95 0
6.820000 4.180000 4.840000 128 115 93 0
7.040000 4.180000 4.840000 128 115 93 0
7.260000 4.180000 4.840000 130 114 93 0
7.480000 4.180000 4.840000 130 114 93 0
7.700000 4.180000 4.840000 128 115 93 0
7.920000 4.180000 5.610000 128 115 93 0
8.140000 4.180000 5.610000 128 115 93 0
8.360000 4.180000 5.610000 127 114 92 0
8.580000 4.180000 4.840000 128 115 93 0
8.800000 4.180000 4.840000 128 115 93 0
9.020000 4.180000 4.840000 131 115 94 0
9.240000 4.180000 5.610000 130 114 93 0
9.460000 4.180000 5.610000 130 114 93 0
9.680000 4.180000 5.610000 130 114 93 0
9.900000 4.180000 5.610000 128 115 93 0
10.120000 4.180000 4.840000 127 114 92 0
10.340000 4.180000 4.840000 130 114 93 0
10.560000 4.180000 5.610000 130 114 93 0
10.780000 4.180000 5.610000 130 114 93 0
11.000000 4.180000 5.610000 129 113 92 0
11.220000 4.180000 5.610000 128 112 91 0
11.440000 4.180000 4.840000 129 113 92 0
11.660000 4.180000 4.840000 126 113 89 0
11.880000 4.180000 5.610000 126 113 89 0
12.100000 4.180000 5.610000 128 112 91 0
12.320000 4.180000 5.610000 127 111 90 0
12.540000 4.180000 5.610000 128 111 90 0
12.760000 4.180000 5.610000 129 112 91 0
12.980000 4.180000 4.840000 128 111 90 0
13.200000 4.180000 4.840000 128 111 90 0
13.420000 4.180000 5.500000 127 111 90 0
13.640000 4.180000 5.610000 124 108 87 0
13.860000 4.180000 5.610000 126 109 88 0
14.080000 4.180000 4.840000 126 109 88 0
14.300000 4.180000 4.840000 128 109 89 0
14.520000 4.180000 5.610000 126 107 87 0
14.740000 4.180000 5.500000 125 108 87 0
14.960000 4.180000 6.270000 125 108 87 0
15.180000 4.180000 6.270000 125 108 87 0
15.400000 4.180000 6.270000 124 107 86 0
15.620000 4.180000 6.270000 125 108 87 0
15.840000 4.180000 6.270000 124 107 86 0
16.060000 4.180000 6.270000 125 106 86 0
16.280000 4.180000 6.270000 125 106 86 0
16.500000 4.180000 6.270000 125 106 87 0
16.720000 4.180000 6.270000 124 105 86 0
16.940000 4.180000 6.270000 124 105 85 0
17.160000 4.180000 6.270000 124 105 85 0
17.380000 4.180000 6.270000 124 105 86 0
17.600000 4.180000 6.270000 125 106 87 0
17.820000 4.180000 6.270000 124 105 86 0
18.040000 4.180000 6.930000 123 104 85 0
18.260000 4.180000 7.590000 124 105 86 0
18.480000 4.180000 6.930000 124 105 86 0
18.700000 4.180000 6.930000 125 103 85 0
18.920000 4.180000 6.930000 124 102 84 0
19.140000 4.180000 6.270000 123 104 85 0
19.360000 4.180000 5.610000 123 104 85 0
19.580000 4.180000 5.500000 125 103 84 0
19.800000 4.180000 5.500000 126 104 85 0
20.020000 4.180000 5.500000 125 103 85 0
20.240000 4.180000 5.500000 124 102 84 0
20.460000 4.180000 5.500000 125 101 84 0
20.680000 4.180000 5.500000 126 102 85 0
20.900000 4.180000 5.500000 124 102 84 0
21.120000 4.180000 4.840000 124 102 84 0
21.340000 4.180000 4.840000 125 103 85 0
21.560000 4.180000 5.610000 124 102 84 0
21.780000 4.180000 5.500000 125 101 84 0
22.000000 4.180000 4.950000 124 100 83 0
22.220000 4.180000 4.400000 126 100 82 0
22.440000 4.180000 4.510000 125 99 81 0
22.660000 4.180000 4.400000 124 100 83 0
22.880000 4.180000 4.290000 123 99 82 0
23.100000 4.180000 4.290000 122 98 81 0
23.320000 4.180000 4.290000 122 98 81 0
23.540000 4.180000 4.180000 124 98 80 0
23.760000 4.180000 4.290000 123 97 79 0
23.980000 4.180000 3.190000 124 98 81 0
24.200000 4.180000 2.750000 123 97 80 0
24.420000 4.180000 2.090000 123 95 78 0
24.640000 4.180000 1.980000 123 95 78 0
24.860000 4.180000 2.420000 122 94 77 0
25.080000 4.180000 1.760000 122 94 77 0
25.300000 4.180000 1.210000 122 92 76 0
25.520000 4.180000 0.660000 122 92 76 0
25.740000 4.180000 1.320000 120 92 75 0
25.960000 4.180000 1.320000 120 92 75 0
26.180000 4.180000 1.320000 123 91 75 0
26.400000 4.180000 1.320000 121 89 73 0
26.620000 4.180000 1.320000 121 89 73 0
26.840000 4.180000 1.980000 121 89 73 0
27.060000 4.180000 1.980000 121 89 73 0
27.280000 4.180000 2.090000 120 88 72 0
27.500000 4.180000 1.980000 124 88 71 0
27.720000 4.180000 2.090000 123 87 70 0
27.940000 4.180000 2.090000 121 87 70 0
28.160000 4.180000 2.090000 120 86 69 0
28.380000 4.180000 2.090000 120 86 71 0
28.600000 4.180000 1.320000 120 86 71 0
28.820000 4.180000 0.660000 121 87 72 0
29.260000 4.180000 0.660000 122 84 68 0
29.480000 4.180000 0.660000 123 85 69 0
29.700000 4.180000 0.660000 122 84 68 0
30.360000 4.180000 0.660000 121 83 67 0
30.580000 4.180000 1.320000 125 78 65 0
30.800000 4.180000 2.750000 124 77 64 0
31.020000 4.180000 3.410000 126 73 60 0
31.240000 4.180000 4.070000 126 73 60 0
31.460000 4.180000 5.390000 125 71 58 0
31.680000 4.180000 6.050000 123 69 56 0
31.900000 4.180000 6.820000 124 67 55 0
32.120000 4.180000 7.480000 123 66 54 0
32.340000 4.180000 8.140000 123 66 54 0
32.560000 4.180000 8.140000 123 66 54 0
32.780000 4.180000 8.140000 123 66 54 0
33.000000 4.180000 7.480000 123 66 54 0
33.220000 4.180000 6.820000 122 65 53 0
33.440000 4.180000 6.820000 123 66 54 0
33.660000 4.180000 6.160000 123 66 54 0
33.880000 4.180000 5.500000 124 67 55 0
34.100000 4.180000 5.500000 126 67 56 0
34.320000 4.180000 4.730000 127 68 57 0
34.540000 4.180000 4.730000 127 68 57 0
34.760000 4.180000 4.070000 128 69 58 0
34.980000 4.180000 3.410000 130 71 60 0
35.200000 4.180000 3.960000 130 71 60 0
35.420000 4.180000 4.290000 132 72 59 0
35.640000 4.180000 4.180000 132 72 59 0
35.860000 4.180000 3.630000 132 72 59 0
36.080000 4.180000 2.530000 132 72 59 0
36.300000 4.180000 2.530000 131 70 60 0
36.520000 4.180000 2.970000 131 70 60 0
36.740000 4.180000 3.520000 131 70 60 0
36.960000 4.180000 4.290000 130 69 59 0
37.180000 4.180000 4.290000 132 69 57 0
0.000000 4.400000 5.170000 150 147 123 0
0.220000 4.400000 5.720000 151 146 122 0
0.440000 4.400000 6.270000 148 143 119 0
0.660000 4.400000 5.610000 146 139 115 0
0.880000 4.400000 4.840000 145 138 114 0
1.100000 4.400000 4.950000 145 134 111 0
1.320000 4.400000 4.290000 142 131 108 0
1.540000 4.400000 3.630000 141 128 106 0
1.760000 4.400000 3.520000 139 126 104 0
1.980000 4.400000 6.930000 138 125 103 0
2.200000 4.400000 10.450000 136 123 101 0
2.420000 4.400000 9.130000 135 122 100 0
2.640000 4.400000 7.040000 133 120 98 0
2.860000 4.400000 6.270000 134 118 98 0
3.080000 4.400000 5.610000 133 117 97 0
3.300000 4.400000 4.180000 132 119 97 0
3.520000 4.400000 3.520000 131 118 96 0
3.740000 4.400000 2.750000 133 117 96 0
3.960000 4.400000 2.750000 132 116 95 0
4.180000 4.400000 2.750000 130 117 95 0
4.400000 4.400000 2.750000 130 117 95 0
4.620000 4.400000 2.860000 131 115 94 0
4.840000 4.400000 2.860000 132 116 95 0
5.060000 4.400000 3.520000 130 117 95 0
5.280000 4.400000 4.180000 130 117 95 0
5.500000 4.400000 4.180000 131 115 94 0
5.720000 4.400000 4.180000 132 116 95 0
5.940000 4.400000 4.180000 129 116 94 0
6.160000 4.400000 4.180000 130 117 95 0
6.380000 4.400000 4.840000 131 115 95 0
6.600000 4.400000 4.840000 131 115 95 0
6.820000 4.400000 4.840000 129 116 94 0
7.040000 4.400000 4.840000 129 116 94 0
7.260000 4.400000 4.840000 131 115 94 0
7.480000 4.400000 5.610000 131 115 94 0
7.700000 4.400000 5.610000 129 116 94 0
7.920000 4.400000 5.610000 129 116 94 0
8.140000 4.400000 5.610000 128 115 93 0
8.360000 4.400000 5.610000 129 116 94 0
8.580000 4.400000 5.610000 129 116 94 0
8.800000 4.400000 4.840000 128 115 93 0
9.020000 4.400000 4.840000 131 115 94 0
9.240000 4.400000 5.610000 131 115 94 0
9.460000 4.400000 5.610000 131 115 94 0
9.680000 4.400000 5.610000 131 115 94 0
9.900000 4.400000 5.610000 129 116 94 0
10.120000 4.400000 5.610000 130 117 95 0
10.340000 4.400000 5.610000 132 116 95 0
10.560000 4.400000 5.610000 132 116 95 0
10.780000 4.400000 5.610000 131 115 94 0
11.000000 4.400000 5.610000 130 114 93 0
11.220000 4.400000 5.610000 130 114 93 0
11.440000 4.400000 5.610000 130 114 93 0
11.660000 4.400000 5.610000 128 115 91 0
11.880000 4.400000 5.500000 128 115 91 0
12.100000 4.400000 5.500000 129 113 92 0
12.320000 4.400000 5.610000 129 113 92 0
12.540000 4.400000 5.610000 130 113 92 0
12.760000 4.400000 5.610000 130 113 92 0
12.980000 4.400000 4.840000 130 113 92 0
13.200000 4.400000 5.500000 129 112 91 0
13.420000 4.400000 5.500000 128 112 91 0
13.640000 4.400000 5.610000 127 111 90 0
13.860000 4.400000 5.610000 127 110 89 0
14.080000 4.400000 4.840000 128 111 90 0
14.300000 4.400000 4.840000 129 110 90 0
14.520000 4.400000 4.840000 128 109 89 0
14.740000 4.400000 5.500000 126 109 88 0
14.960000 4.400000 5.500000 127 110 89 0
15.180000 4.400000 5.610000 126 109 88 0
15.400000 4.400000 5.610000 126 109 88 0
15.620000 4.400000 5.610000 126 109 88 0
15.840000 4.400000 6.270000 126 109 88 0
16.060000 4.400000 6.270000 127 108 88 0
16.280000 4.400000 6.270000 127 108 88 0
16.500000 4.400000 6.270000 127 108 89 0
16.720000 4.400000 6.270000 126 107 88 0
16.940000 4.400000 5.500000 125 106 86 0
17.160000 4.400000 5.610000 126 107 87 0
17.380000 4.400000 5.610000 127 108 89 0
17.600000 4.400000 6.270000 126 107 88 0
17.820000 4.400000 6.270000 125 106 87 0
18.040000 4.400000 6.930000 124 105 86 0
18.260000 4.400000 6.930000 124 105 86 0
18.480000 4.400000 6.930000 124 105 86 0
18.700000 4.400000 6.930000 126 104 86 0
18.920000 4.400000 6.270000 126 104 86 0
19.140000 4.400000 6.270000 124 105 86 0
19.360000 4.400000 5.610000 125 106 87 0
19.580000 4.400000 5.610000 127 105 86 0
19.800000 4.400000 5.500000 127 105 86 0
20.020000 4.400000 5.500000 126 104 86 0
20.240000 4.400000 5.500000 125 103 85 0
20.460000 4.400000 5.610000 127 103 86 0
20.680000 4.400000 5.610000 126 102 85 0
20.900000 4.400000 5.500000 125 103 85 0
21.120000 4.400000 5.500000 125 103 85 0
21.340000 4.400000 5.610000 125 103 85 0
21.560000 4.400000 5.610000 124 102 84 0
21.780000 4.400000 5.500000 126 102 85 0
22.000000 4.400000 5.610000 125 101 84 0
22.220000 4.400000 4.950000 126 100 82 0
22.440000 4.400000 5.060000 126 100 82 0
22.660000 4.400000 4.950000 123 99 82 0
22.880000 4.400000 4.840000 123 99 82 0
23.100000 4.400000 4.840000 124 100 83 0
23.320000 4.400000 4.840000 123 99 82 0
23.540000 4.400000 4.840000 124 98 80 0
23.760000 4.400000 4.290000 124 98 80 0
23.980000 4.400000 3.850000 124 98 81 0
24.200000 4.400000 3.410000 124 98 81 0
24.420000 4.400000 2.750000 124 96 79 0
24.640000 4.400000 1.980000 123 95 78 0
24.860000 4.400000 1.980000 122 94 77 0
25.080000 4.400000 1.980000 122 94 77 0
25.300000 4.400000 1.320000 122 92 76 0
25.520000 4.400000 0.660000 122 92 76 0
25.740000 4.400000 1.320000 121 93 76 0
25.960000 4.400000 2.090000 121 93 76 0
26.180000 4.400000 2.090000 124 92 76 0
26.400000 4.400000 1.320000 123 91 75 0
26.620000 4.400000 1.320000 122 90 74 0
26.840000 4.400000 2.090000 121 89 73 0
27.060000 4.400000 2.090000 122 90 74 0
27.280000 4.400000 1.980000 121 89 73 0
27.500000 4.400000 1.980000 124 88 71 0
27.720000 4.400000 1.320000 123 87 70 0
27.940000 4.400000 1.320000 122 88 71 0
28.160000 4.400000 1.320000 121 87 70 0
28.380000 4.400000 1.320000 121 87 72 0
28.600000 4.400000 1.320000 120 86 71 0
28.820000 4.400000 0.660000 121 87 72 0
29.260000 4.400000 0.660000 124 86 70 0
29.480000 4.400000 0.660000 124 86 70 0
29.700000 4.400000 0.660000 123 85 69 0
30.360000 4.400000 0.660000 121 83 67 0
30.580000 4.400000 1.320000 125 78 65 0
30.800000 4.400000 2.750000 123 76 63 0
31.020000 4.400000 3.410000 126 73 60 0
31.240000 4.400000 4.730000 125 72 59 0
31.460000 4.400000 5.390000 124 70 57 0
31.680000 4.400000 6.820000 123 69 56 0
31.900000 4.400000 7.480000 124 67 55 0
32.120000 4.400000 7.480000 123 66 54 0
32.340000 4.400000 8.140000 122 65 53 0
32.560000 4.400000 8.140000 123 66 54 0
32.780000 4.400000 8.140000 124 67 55 0
33.000000 4.400000 7.480000 123 66 54 0
33.220000 4.400000 6.820000 123 66 54 0
33.440000 4.400000 6.160000 124 67 55 0
33.660000 4.400000 6.160000 124 67 55 0
33.880000 4.400000 5.500000 124 67 55 0
34.100000 4.400000 5.500000 126 67 56 0
34.320000 4.400000 4.730000 127 68 57 0
34.540000 4.400000 4.730000 129 70 59 0
34.760000 4.400000 4.070000 130 71 60 0
34.980000 4.400000 3.410000 130 71 60 0
35.200000 4.400000 3.960000 130 71 60 0
35.420000 4.400000 4.290000 132 72 59 0
35.640000 4.400000 4.180000 131 71 58 0
35.860000 4.400000 3.630000 132 72 59 0
36.080000 4.400000 2.530000 132 72 59 0
36.300000 4.400000 2.530000 131 70 60 0
36.520000 4.400000 2.970000 130 69 59 0
36.740000 4.400000 3.520000 131 70 60 0
36.960000 4.400000 4.290000 128 67 57 0
37.180000 4.400000 4.290000 133 70 58 0
0.000000 4.620000 5.170000 152 151 128 0
0.220000 4.620000 5.830000 151 146 122 0
0.440000 4.620000 5.830000 151 146 122 0
0.660000 4.620000 5.720000 148 143 119 0
0.880000 4.620000 4.950000 146 141 117 0
1.100000 4.620000 4.400000 144 137 114 0
1.320000 4.620000 3.850000 142 135 112 0
1.540000 4.620000 3.190000 140 131 109 0
1.760000 4.620000 3.630000 138 129 107 0
1.980000 4.620000 8.360000 139 126 104 0
2.200000 4.620000 13.200000 138 125 103 0
2.420000 4.620000 10.450000 136 123 101 0
2.640000 4.620000 7.040000 135 122 100 0
2.860000 4.620000 6.270000 135 119 98 0
3.080000 4.620000 5.610000 134 118 97 0
3.300000 4.620000 4.950000 135 119 98 0
3.520000 4.620000 4.180000 134 118 97 0
3.740000 4.620000 3.520000 134 119 95 0
3.960000 4.620000 3.520000 133 118 94 0
4.180000 4.620000 2.750000 131 118 96 0
4.400000 4.620000 2.750000 130 117 95 0
4.620000 4.620000 2.750000 133 117 96 0
4.840000 4.620000 2.860000 132 116 95 0
5.060000 4.620000 3.520000 132 116 95 0
5.280000 4.620000 3.520000 133 117 96 0
5.500000 4.620000 4.180000 132 116 95 0
5.720000 4.620000 4.180000 132 116 95 0
5.940000 4.620000 4.180000 130 117 95 0
6.160000 4.620000 4.180000 131 118 96 0
6.380000 4.620000 4.840000 132 116 95 0
6.600000 4.620000 4.840000 132 116 95 0
6.820000 4.620000 4.840000 131 115 94 0
7.040000 4.620000 4.840000 132 116 95 0
7.260000 4.620000 5.610000 130 117 93 0
7.480000 4.620000 5.610000 130 117 93 0
7.700000 4.620000 5.610000 129 116 94 0
7.920000 4.620000 5.610000 130 117 95 0
8.140000 4.620000 5.610000 130 117 95 0
8.360000 4.620000 5.610000 130 117 95 0
8.580000 4.620000 5.610000 130 117 95 0
8.800000 4.620000 5.610000 130 117 95 0
9.020000 4.620000 5.610000 130 117 93 0
9.240000 4.620000 5.610000 130 117 93 0
9.460000 4.620000 5.610000 130 117 93 0
9.680000 4.620000 5.610000 130 117 93 0
9.900000 4.620000 5.610000 131 118 96 0
10.120000 4.620000 5.610000 131 118 96 0
10.340000 4.620000 5.610000 131 118 94 0
10.560000 4.620000 5.610000 130 117 93 0
10.780000 4.620000 5.610000 129 116 92 0
11.000000 4.620000 5.610000 130 117 93 0
11.220000 4.620000 5.610000 132 117 93 0
11.440000 4.620000 5.610000 131 116 92 0
11.660000 4.620000 5.500000 130 117 93 0
11.880000 4.620000 5.500000 129 116 92 0
12.100000 4.620000 5.500000 130 115 91 0
12.320000 4.620000 5.500000 130 115 91 0
12.540000 4.620000 5.500000 130 115 89 0
12.760000 4.620000 5.500000 130 115 89 0
12.980000 4.620000 5.500000 131 116 92 0
13.200000 4.620000 5.500000 130 115 91 0
13.420000 4.620000 5.500000 130 113 92 0
13.640000 4.620000 5.610000 130 113 92 0
13.860000 4.620000 5.610000 130 113 90 0
14.080000 4.620000 5.610000 129 112 89 0
14.300000 4.620000 4.840000 130 111 89 0
14.520000 4.620000 4.840000 129 110 88 0
14.740000 4.620000 5.610000 129 111 86 0
14.960000 4.620000 5.610000 129 111 86 0
15.180000 4.620000 5.610000 127 110 89 0
15.400000 4.620000 5.610000 127 110 89 0
15.620000 4.620000 5.610000 128 109 87 0
15.840000 4.620000 5.610000 128 109 87 0
16.060000 4.620000 5.610000 128 109 87 0
16.280000 4.620000 6.270000 128 109 87 0
16.500000 4.620000 6.270000 128 110 85 0
16.720000 4.620000 5.500000 128 110 85 0
16.940000 4.620000 5.500000 127 108 86 0
17.160000 4.620000 5.610000 127 108 86 0
17.380000 4.620000 5.610000 130 109 87 0
17.600000 4.620000 5.610000 129 108 86 0
17.820000 4.620000 6.270000 129 108 86 0
18.040000 4.620000 6.270000 128 107 85 0
18.260000 4.620000 6.270000 128 106 87 0
18.480000 4.620000 6.270000 128 106 87 0
18.700000 4.620000 6.270000 125 106 86 0
18.920000 4.620000 6.270000 125 106 86 0
19.140000 4.620000 5.500000 127 106 84 0
19.360000 4.620000 5.610000 127 106 84 0
19.580000 4.620000 5.610000 129 106 85 0
19.800000 4.620000 5.610000 129 106 85 0
20.020000 4.620000 5.500000 128 107 85 0
20.240000 4.620000 5.610000 127 106 84 0
20.460000 4.620000 5.610000 128 104 87 0
20.680000 4.620000 5.610000 127 103 86 0
20.900000 4.620000 5.610000 127 104 85 0
21.120000 4.620000 5.610000 127 104 85 0
21.340000 4.620000 5.610000 127 104 85 0
21.560000 4.620000 5.610000 127 104 85 0
21.780000 4.620000 5.500000 127 104 85 0
22.000000 4.620000 5.500000 125 102 83 0
22.220000 4.620000 5.500000 125 101 84 0
22.440000 4.620000 5.500000 125 101 84 0
22.660000 4.620000 5.500000 125 102 83 0
22.880000 4.620000 4.840000 124 101 82 0
23.100000 4.620000 4.840000 127 101 83 0
23.320000 4.620000 4.840000 127 101 83 0
23.540000 4.620000 4.840000 126 98 81 0
23.760000 4.620000 4.950000 126 98 81 0
23.980000 4.620000 4.510000 126 98 81 0
24.200000 4.620000 3.410000 125 97 80 0
24.420000 4.620000 2.750000 124 96 79 0
24.640000 4.620000 2.750000 124 96 79 0
24.860000 4.620000 2.750000 124 96 79 0
25.080000 4.620000 2.090000 123 95 78 0
25.300000 4.620000 1.320000 123 93 77 0
25.520000 4.620000 1.320000 123 93 77 0
25.740000 4.620000 1.320000 123 93 77 0
25.960000 4.620000 2.090000 122 92 76 0
26.180000 4.620000 2.090000 121 91 75 0
26.400000 4.620000 2.090000 121 91 75 0
26.620000 4.620000 2.090000 123 91 75 0
26.840000 4.620000 2.090000 122 90 74 0
27.060000 4.620000 2.090000 123 91 75 0
27.280000 4.620000 1.980000 121 89 73 0
27.500000 4.620000 2.090000 123 89 74 0
27.720000 4.620000 1.320000 122 88 73 0
27.940000 4.620000 1.210000 122 88 73 0
28.160000 4.620000 1.100000 122 88 73 0
28.380000 4.620000 1.210000 122 88 73 0
28.600000 4.620000 0.660000 121 87 72 0
28.820000 4.620000 0.660000 121 87 70 0
29.040000 4.620000 0.660000 120 86 69 0
30.360000 4.620000 0.660000 121 81 66 0
30.580000 4.620000 1.980000 125 76 64 0
30.800000 4.620000 2.640000 125 76 64 0
31.020000 4.620000 4.070000 126 71 61 0
31.240000 4.620000 4.730000 125 70 60 0
31.460000 4.620000 6.050000 125 68 56 0
31.680000 4.620000 6.820000 124 67 55 0
31.900000 4.620000 7.480000 124 65 54 0
32.120000 4.620000 8.140000 124 65 54 0
32.340000 4.620000 8.140000 123 64 53 0
32.560000 4.620000 8.140000 124 65 54 0
32.780000 4.620000 8.140000 124 65 56 0
