ply
format ascii 1.0
element vertex 1136
property float x
property float y
property float z
property uchar red
property uchar green
property uchar blue
property uchar alpha
end_header
36.080000 25.300000 27.280000 227 225 223 0
36.300000 25.300000 29.480000 226 224 222 0
36.520000 25.300000 31.900000 226 224 224 0
36.740000 25.300000 31.900000 225 223 223 0
36.960000 25.300000 33.220000 226 221 222 0
37.180000 25.300000 33.220000 225 220 221 0
0.000000 25.520000 9.460000 127 63 49 0
0.220000 25.520000 8.140000 127 63 49 0
0.440000 25.520000 5.500000 128 61 48 0
0.660000 25.520000 5.060000 128 61 48 0
0.880000 25.520000 5.940000 127 60 47 0
1.100000 25.520000 7.260000 127 60 47 0
1.320000 25.520000 6.600000 126 59 48 0
1.540000 25.520000 6.820000 125 58 47 0
1.760000 25.520000 7.920000 127 58 48 0
1.980000 25.520000 10.120000 127 58 48 0
2.200000 25.520000 11.000000 126 57 47 0
2.420000 25.520000 12.540000 127 58 48 0
2.640000 25.520000 12.540000 128 59 49 0
2.860000 25.520000 12.540000 128 59 49 0
3.080000 25.520000 11.000000 126 57 47 0
3.300000 25.520000 11.220000 127 58 48 0
3.520000 25.520000 11.220000 129 60 50 0
3.740000 25.520000 11.220000 129 60 50 0
3.960000 25.520000 11.220000 130 59 50 0
4.180000 25.520000 11.220000 129 58 49 0
4.400000 25.520000 9.680000 129 58 49 0
4.620000 25.520000 9.900000 130 59 50 0
4.840000 25.520000 9.900000 130 59 50 0
5.060000 25.520000 8.360000 130 59 50 0
5.280000 25.520000 8.360000 132 58 50 0
5.500000 25.520000 9.680000 130 56 48 0
5.720000 25.520000 9.680000 131 57 49 0
5.940000 25.520000 9.680000 131 57 49 0
6.160000 25.520000 9.900000 129 55 47 0
6.380000 25.520000 10.560000 128 54 46 0
6.600000 25.520000 9.240000 128 54 48 0
6.820000 25.520000 10.560000 129 55 49 0
7.040000 25.520000 13.420000 128 54 48 0
7.260000 25.520000 16.060000 127 53 47 0
7.480000 25.520000 20.240000 128 52 47 0
7.700000 25.520000 21.560000 126 50 45 0
7.920000 25.520000 20.240000 125 49 44 0
8.140000 25.520000 16.280000 126 50 45 0
8.360000 25.520000 10.780000 127 51 46 0
8.580000 25.520000 7.920000 126 50 45 0
8.800000 25.520000 6.600000 127 53 47 0
9.020000 25.520000 5.280000 129 55 49 0
9.240000 25.520000 3.960000 130 54 51 0
9.460000 25.520000 3.960000 130 54 51 0
9.680000 25.520000 2.640000 132 58 54 0
9.900000 25.520000 2.640000 132 58 54 0
10.120000 25.520000 3.960000 131 60 53 0
10.340000 25.520000 4.180000 131 60 53 0
10.560000 25.520000 5.280000 133 59 55 0
10.780000 25.520000 7.480000 133 59 55 0
11.000000 25.520000 9.680000 133 59 53 0
11.220000 25.520000 9.680000 132 58 52 0
11.440000 25.520000 11.220000 129 57 53 0
11.660000 25.520000 11.220000 129 57 53 0
11.880000 25.520000 12.540000 128 58 53 0
12.100000 25.520000 12.540000 128 58 53 0
12.320000 25.520000 12.540000 128 56 52 0
12.540000 25.520000 12.540000 128 56 52 0
12.760000 25.520000 14.080000 128 54 50 0
12.980000 25.520000 14.080000 127 53 49 0
13.200000 25.520000 12.760000 126 52 48 0
13.420000 25.520000 12.760000 127 53 49 0
13.640000 25.520000 12.980000 127 53 49 0
13.860000 25.520000 14.300000 126 52 48 0
14.080000 25.520000 14.300000 124 49 48 0
14.300000 25.520000 15.840000 124 49 48 0
14.520000 25.520000 18.700000 124 50 46 0
14.740000 25.520000 22.880000 124 50 46 0
14.960000 25.520000 25.740000 124 54 49 0
15.180000 25.520000 27.060000 124 54 49 0
15.400000 25.520000 27.280000 125 55 50 0
15.620000 25.520000 23.100000 125 55 50 0
15.840000 25.520000 16.280000 123 58 51 0
16.060000 25.520000 9.460000 125 60 53 0
16.280000 25.520000 8.140000 124 60 53 0
16.500000 25.520000 16.280000 126 62 55 0
16.720000 25.520000 22.000000 125 64 56 0
16.940000 25.520000 11.000000 126 65 57 0
17.160000 25.520000 3.960000 127 68 59 0
17.380000 25.520000 2.640000 127 68 59 0
17.600000 25.520000 2.420000 128 69 60 0
17.820000 25.520000 4.620000 127 68 59 0
18.040000 25.520000 7.040000 128 68 62 0
18.260000 25.520000 8.580000 127 67 61 0
18.480000 25.520000 8.800000 128 70 61 0
18.700000 25.520000 15.840000 129 71 62 0
18.920000 25.520000 24.200000 130 72 63 0
19.140000 25.520000 27.940000 131 73 64 0
19.360000 25.520000 27.720000 132 73 64 0
19.580000 25.520000 25.080000 132 73 64 0
19.800000 25.520000 20.900000 132 72 66 0
20.020000 25.520000 18.040000 133 73 67 0
20.240000 25.520000 15.400000 132 74 65 0
20.460000 25.520000 15.400000 134 76 67 0
20.680000 25.520000 13.860000 131 80 71 0
20.900000 25.520000 12.540000 134 83 74 0
21.120000 25.520000 11.440000 128 89 79 0
21.340000 25.520000 9.240000 131 92 82 0
21.560000 25.520000 8.140000 126 95 85 0
21.780000 25.520000 8.140000 128 97 87 0
22.000000 25.520000 11.000000 126 103 92 0
22.220000 25.520000 15.180000 129 106 95 0
22.440000 25.520000 16.500000 127 110 98 0
22.660000 25.520000 17.820000 128 111 99 0
22.880000 25.520000 17.820000 130 112 103 0
23.100000 25.520000 16.500000 131 113 104 0
23.320000 25.520000 13.640000 132 115 103 0
23.540000 25.520000 9.680000 132 115 103 0
23.760000 25.520000 8.140000 134 115 104 0
23.980000 25.520000 8.140000 135 116 105 0
24.200000 25.520000 8.140000 136 119 107 0
24.420000 25.520000 8.140000 136 119 107 0
24.640000 25.520000 8.140000 137 120 108 0
24.860000 25.520000 6.820000 138 121 109 0
25.080000 25.520000 6.600000 138 121 109 0
25.300000 25.520000 6.600000 138 121 109 0
25.520000 25.520000 6.600000 139 120 108 0
25.740000 25.520000 7.920000 139 120 108 0
25.960000 25.520000 7.920000 140 121 110 0
26.180000 25.520000 7.920000 141 122 111 0
26.400000 25.520000 9.240000 141 122 111 0
26.620000 25.520000 9.240000 141 122 111 0
26.840000 25.520000 9.460000 142 123 111 0
27.060000 25.520000 9.460000 144 125 113 0
27.280000 25.520000 10.780000 146 127 115 0
27.500000 25.520000 10.780000 147 128 116 0
27.720000 25.520000 12.100000 151 131 115 0
27.940000 25.520000 12.100000 155 135 119 0
28.160000 25.520000 12.320000 156 139 126 0
28.380000 25.520000 12.320000 159 142 129 0
28.600000 25.520000 12.320000 160 148 131 0
28.820000 25.520000 12.320000 168 156 139 0
29.040000 25.520000 12.320000 169 159 145 0
29.260000 25.520000 12.320000 175 165 151 0
29.480000 25.520000 12.320000 177 172 161 0
29.700000 25.520000 13.420000 184 179 168 0
29.920000 25.520000 15.620000 193 188 180 0
30.140000 25.520000 18.040000 196 191 183 0
30.360000 25.520000 18.040000 198 198 193 0
30.580000 25.520000 19.580000 202 202 197 0
30.800000 25.520000 19.580000 202 206 202 0
31.020000 25.520000 19.580000 206 210 206 0
31.240000 25.520000 20.900000 210 211 210 0
31.460000 25.520000 20.900000 214 215 214 0
31.680000 25.520000 22.440000 216 217 216 0
31.900000 25.520000 22.440000 219 220 219 0
32.120000 25.520000 23.760000 222 221 221 0
32.340000 25.520000 23.760000 223 222 222 0
32.560000 25.520000 23.980000 224 224 221 0
32.780000 25.520000 23.980000 227 227 224 0
33.000000 25.520000 23.980000 227 227 224 0
33.220000 25.520000 25.300000 228 228 225 0
33.440000 25.520000 25.520000 229 228 228 0
33.660000 25.520000 24.420000 230 229 229 0
33.880000 25.520000 24.640000 231 229 229 0
34.100000 25.520000 25.960000 231 229 229 0
34.320000 25.520000 25.960000 229 229 226 0
34.540000 25.520000 25.960000 229 229 226 0
34.760000 25.520000 25.960000 229 227 225 0
34.980000 25.520000 25.960000 228 226 224 0
35.200000 25.520000 25.960000 226 224 224 0
35.420000 25.520000 26.180000 227 225 225 0
35.640000 25.520000 26.180000 227 225 225 0
35.860000 25.520000 26.180000 226 224 224 0
36.080000 25.520000 27.280000 226 224 222 0
36.300000 25.520000 29.480000 227 225 223 0
36.520000 25.520000 31.900000 226 224 224 0
36.740000 25.520000 31.900000 226 224 224 0
36.960000 25.520000 33.220000 225 220 221 0
37.180000 25.520000 33.220000 225 220 221 0
0.000000 25.740000 7.920000 127 63 49 0
0.220000 25.740000 6.600000 127 63 49 0
0.440000 25.740000 5.500000 128 61 50 0
0.660000 25.740000 5.060000 128 61 50 0
0.880000 25.740000 5.940000 128 61 48 0
1.100000 25.740000 7.260000 127 60 47 0
1.320000 25.740000 7.920000 126 59 48 0
1.540000 25.740000 6.820000 126 59 48 0
1.760000 25.740000 7.920000 127 58 48 0
1.980000 25.740000 10.120000 127 58 48 0
2.200000 25.740000 11.000000 127 58 48 0
2.420000 25.740000 12.540000 127 58 48 0
2.640000 25.740000 12.540000 128 59 49 0
2.860000 25.740000 11.000000 128 59 49 0
3.080000 25.740000 11.000000 127 58 48 0
3.300000 25.740000 11.220000 127 58 48 0
3.520000 25.740000 11.220000 129 58 49 0
3.740000 25.740000 11.220000 129 58 49 0
3.960000 25.740000 11.220000 129 60 50 0
4.180000 25.740000 9.680000 129 60 50 0
4.400000 25.740000 9.680000 129 58 49 0
4.620000 25.740000 9.680000 129 58 49 0
4.840000 25.740000 8.360000 130 59 50 0
5.060000 25.740000 8.360000 131 60 51 0
5.280000 25.740000 8.360000 129 58 49 0
5.500000 25.740000 9.680000 129 58 49 0
5.720000 25.740000 9.680000 130 56 48 0
5.940000 25.740000 11.220000 130 56 48 0
6.160000 25.740000 10.120000 129 53 48 0
6.380000 25.740000 10.560000 129 53 48 0
6.600000 25.740000 10.780000 130 54 49 0
6.820000 25.740000 11.880000 128 52 47 0
7.040000 25.740000 14.740000 129 53 48 0
7.260000 25.740000 18.920000 126 50 45 0
7.480000 25.740000 20.240000 127 51 46 0
7.700000 25.740000 21.780000 126 50 45 0
7.920000 25.740000 18.920000 127 49 44 0
8.140000 25.740000 14.740000 128 50 45 0
8.360000 25.740000 10.780000 126 52 46 0
8.580000 25.740000 7.920000 127 53 47 0
8.800000 25.740000 6.600000 128 54 48 0
9.020000 25.740000 5.280000 128 54 48 0
9.240000 25.740000 3.960000 130 56 50 0
9.460000 25.740000 3.960000 131 57 51 0
9.680000 25.740000 3.960000 130 58 54 0
9.900000 25.740000 3.960000 131 59 55 0
10.120000 25.740000 3.960000 132 60 56 0
10.340000 25.740000 4.180000 133 61 57 0
10.560000 25.740000 6.600000 130 59 52 0
10.780000 25.740000 8.580000 132 61 54 0
11.000000 25.740000 9.680000 131 60 53 0
11.220000 25.740000 9.680000 132 61 54 0
11.440000 25.740000 11.220000 131 62 54 0
11.660000 25.740000 11.220000 130 61 53 0
11.880000 25.740000 12.540000 129 59 54 0
12.100000 25.740000 12.540000 130 60 55 0
12.320000 25.740000 12.540000 128 58 53 0
12.540000 25.740000 12.540000 127 57 52 0
12.760000 25.740000 14.080000 127 55 51 0
12.980000 25.740000 14.080000 126 54 50 0
13.200000 25.740000 12.760000 124 53 46 0
13.420000 25.740000 12.760000 125 54 47 0
13.640000 25.740000 12.980000 124 52 48 0
13.860000 25.740000 14.300000 124 52 48 0
14.080000 25.740000 14.300000 125 48 49 0
14.300000 25.740000 15.840000 125 48 49 0
14.520000 25.740000 17.380000 122 50 46 0
14.740000 25.740000 21.560000 125 53 49 0
14.960000 25.740000 24.420000 122 54 46 0
15.180000 25.740000 27.060000 123 55 47 0
15.400000 25.740000 27.280000 125 55 50 0
15.620000 25.740000 24.420000 126 56 51 0
15.840000 25.740000 16.280000 123 59 52 0
16.060000 25.740000 9.460000 123 59 52 0
16.280000 25.740000 12.100000 125 61 54 0
16.500000 25.740000 26.180000 126 62 55 0
16.720000 25.740000 27.500000 124 65 56 0
16.940000 25.740000 13.640000 124 65 56 0
17.160000 25.740000 5.500000 125 66 57 0
17.380000 25.740000 4.180000 127 68 59 0
17.600000 25.740000 2.640000 127 68 59 0
17.820000 25.740000 3.520000 128 69 60 0
18.040000 25.740000 5.720000 128 69 60 0
18.260000 25.740000 8.360000 128 69 60 0
18.480000 25.740000 8.800000 128 70 63 0
18.700000 25.740000 13.420000 129 71 64 0
18.920000 25.740000 21.780000 130 72 63 0
19.140000 25.740000 27.940000 130 72 63 0
19.360000 25.740000 27.720000 131 73 64 0
19.580000 25.740000 25.080000 131 73 64 0
19.800000 25.740000 22.220000 132 73 64 0
20.020000 25.740000 18.040000 132 73 64 0
20.240000 25.740000 16.720000 132 74 67 0
20.460000 25.740000 15.400000 134 76 69 0
20.680000 25.740000 13.860000 134 81 70 0
20.900000 25.740000 12.540000 136 83 72 0
21.120000 25.740000 12.540000 130 89 80 0
21.340000 25.740000 10.120000 131 90 81 0
21.560000 25.740000 7.920000 128 95 85 0
21.780000 25.740000 9.680000 131 98 88 0
22.000000 25.740000 12.320000 125 102 91 0
22.220000 25.740000 15.180000 129 106 95 0
22.440000 25.740000 17.820000 128 109 98 0
22.660000 25.740000 17.820000 128 109 98 0
22.880000 25.740000 17.820000 129 112 100 0
23.100000 25.740000 16.500000 130 113 101 0
23.320000 25.740000 13.640000 131 114 102 0
23.540000 25.740000 9.680000 131 114 102 0
23.760000 25.740000 8.140000 133 114 103 0
23.980000 25.740000 8.140000 135 116 105 0
24.200000 25.740000 8.140000 136 117 106 0
24.420000 25.740000 8.140000 138 119 108 0
24.640000 25.740000 6.820000 138 121 109 0
24.860000 25.740000 6.820000 138 121 109 0
25.080000 25.740000 6.600000 139 122 110 0
25.300000 25.740000 6.600000 138 121 109 0
25.520000 25.740000 6.600000 139 122 110 0
25.740000 25.740000 7.920000 139 122 110 0
25.960000 25.740000 7.920000 140 121 110 0
26.180000 25.740000 7.920000 141 122 111 0
26.400000 25.740000 9.240000 141 122 111 0
26.620000 25.740000 9.460000 141 122 111 0
26.840000 25.740000 9.460000 142 123 111 0
27.060000 25.740000 9.460000 142 123 111 0
27.280000 25.740000 10.780000 145 126 114 0
27.500000 25.740000 10.780000 148 129 117 0
27.720000 25.740000 12.100000 149 129 115 0
27.940000 25.740000 12.100000 153 133 119 0
28.160000 25.740000 12.320000 156 139 126 0
28.380000 25.740000 12.320000 160 143 130 0
28.600000 25.740000 12.320000 161 148 134 0
28.820000 25.740000 12.320000 167 154 140 0
29.040000 25.740000 12.320000 168 159 147 0
29.260000 25.740000 12.320000 177 168 156 0
29.480000 25.740000 12.320000 181 174 163 0
29.700000 25.740000 13.420000 186 179 168 0
29.920000 25.740000 15.620000 191 190 181 0
30.140000 25.740000 18.040000 195 194 185 0
30.360000 25.740000 18.040000 197 199 193 0
30.580000 25.740000 19.580000 201 203 197 0
30.800000 25.740000 19.580000 203 207 203 0
31.020000 25.740000 19.580000 207 211 207 0
31.240000 25.740000 20.900000 208 212 208 0
31.460000 25.740000 20.900000 213 217 213 0
31.680000 25.740000 22.440000 215 216 215 0
31.900000 25.740000 22.440000 219 220 219 0
32.120000 25.740000 23.760000 223 221 219 0
32.340000 25.740000 23.760000 224 222 220 0
32.560000 25.740000 23.980000 226 224 222 0
32.780000 25.740000 23.980000 227 225 223 0
33.000000 25.740000 25.300000 229 227 225 0
33.220000 25.740000 25.520000 230 228 226 0
33.440000 25.740000 24.420000 230 228 226 0
33.660000 25.740000 24.640000 230 228 226 0
33.880000 25.740000 24.640000 231 229 227 0
34.100000 25.740000 25.960000 231 229 227 0
34.320000 25.740000 25.960000 230 228 226 0
34.540000 25.740000 25.960000 230 228 226 0
34.760000 25.740000 27.280000 230 228 226 0
34.980000 25.740000 25.960000 228 226 224 0
35.200000 25.740000 25.960000 227 225 223 0
35.420000 25.740000 26.180000 227 225 223 0
35.640000 25.740000 26.180000 227 225 223 0
35.860000 25.740000 26.180000 227 225 223 0
36.080000 25.740000 27.280000 229 224 223 0
36.300000 25.740000 29.480000 229 224 223 0
36.520000 25.740000 31.900000 229 224 223 0
36.740000 25.740000 33.220000 228 223 222 0
36.960000 25.740000 33.220000 225 220 221 0
37.180000 25.740000 33.220000 225 220 221 0
0.000000 25.960000 7.920000 127 63 49 0
0.220000 25.960000 6.600000 127 63 49 0
0.440000 25.960000 5.500000 128 61 50 0
0.660000 25.960000 5.060000 127 60 49 0
0.880000 25.960000 5.940000 127 60 47 0
1.100000 25.960000 7.260000 127 60 47 0
1.320000 25.960000 7.920000 126 59 48 0
1.540000 25.960000 6.820000 127 60 49 0
1.760000 25.960000 7.920000 127 58 48 0
1.980000 25.960000 10.120000 128 59 49 0
2.200000 25.960000 12.540000 127 58 48 0
2.420000 25.960000 12.540000 127 58 48 0
2.640000 25.960000 12.540000 128 59 49 0
2.860000 25.960000 11.220000 127 58 48 0
3.080000 25.960000 11.220000 127 58 48 0
3.300000 25.960000 11.220000 127 58 48 0
3.520000 25.960000 11.220000 129 58 49 0
3.740000 25.960000 11.220000 129 58 49 0
3.960000 25.960000 9.900000 128 59 49 0
4.180000 25.960000 9.680000 129 60 50 0
4.400000 25.960000 9.680000 130 59 50 0
4.620000 25.960000 8.360000 130 59 50 0
4.840000 25.960000 8.360000 130 59 50 0
5.060000 25.960000 8.360000 131 60 51 0
5.280000 25.960000 8.360000 131 60 51 0
5.500000 25.960000 9.680000 129 58 49 0
5.720000 25.960000 9.900000 131 57 49 0
5.940000 25.960000 11.220000 129 55 47 0
6.160000 25.960000 11.440000 129 53 48 0
6.380000 25.960000 10.560000 128 52 47 0
6.600000 25.960000 11.880000 127 51 46 0
6.820000 25.960000 13.420000 127 51 46 0
7.040000 25.960000 17.380000 126 50 45 0
7.260000 25.960000 20.240000 125 49 44 0
7.480000 25.960000 21.560000 126 50 45 0
7.700000 25.960000 20.240000 125 49 44 0
7.920000 25.960000 16.280000 127 49 44 0
8.140000 25.960000 12.100000 128 50 45 0
8.360000 25.960000 9.240000 127 53 47 0
8.580000 25.960000 7.920000 127 53 47 0
8.800000 25.960000 6.600000 129 55 49 0
9.020000 25.960000 5.280000 129 55 49 0
9.240000 25.960000 3.960000 131 57 51 0
9.460000 25.960000 3.960000 131 57 51 0
9.680000 25.960000 3.960000 131 59 55 0
9.900000 25.960000 3.960000 131 59 55 0
10.120000 25.960000 3.960000 132 60 56 0
10.340000 25.960000 5.500000 132 60 56 0
10.560000 25.960000 6.600000 133 62 55 0
10.780000 25.960000 8.580000 132 61 54 0
11.000000 25.960000 9.680000 132 61 54 0
11.220000 25.960000 9.680000 131 60 53 0
11.440000 25.960000 11.220000 131 62 54 0
11.660000 25.960000 11.220000 131 62 54 0
11.880000 25.960000 12.540000 131 61 56 0
12.100000 25.960000 12.540000 130 60 55 0
12.320000 25.960000 12.540000 129 59 54 0
12.540000 25.960000 12.540000 128 58 53 0
12.760000 25.960000 14.080000 128 56 52 0
12.980000 25.960000 14.080000 126 54 50 0
13.200000 25.960000 12.760000 126 55 48 0
13.420000 25.960000 12.760000 125 54 47 0
13.640000 25.960000 14.300000 125 53 49 0
13.860000 25.960000 14.300000 124 52 48 0
14.080000 25.960000 14.300000 125 48 49 0
14.300000 25.960000 15.840000 125 48 49 0
14.520000 25.960000 17.380000 123 51 47 0
14.740000 25.960000 20.020000 124 52 48 0
14.960000 25.960000 22.880000 122 54 46 0
15.180000 25.960000 25.740000 124 56 48 0
15.400000 25.960000 25.740000 126 56 51 0
15.620000 25.960000 24.420000 125 55 50 0
15.840000 25.960000 17.600000 123 59 52 0
16.060000 25.960000 9.460000 124 60 53 0
16.280000 25.960000 10.780000 126 62 55 0
16.500000 25.960000 24.640000 126 62 55 0
16.720000 25.960000 28.820000 124 65 56 0
16.940000 25.960000 15.180000 125 66 57 0
17.160000 25.960000 6.820000 126 67 58 0
17.380000 25.960000 5.500000 127 68 59 0
17.600000 25.960000 2.640000 127 68 59 0
17.820000 25.960000 3.740000 128 69 60 0
18.040000 25.960000 5.940000 128 69 60 0
18.260000 25.960000 8.360000 129 70 61 0
18.480000 25.960000 7.260000 128 70 63 0
18.700000 25.960000 10.780000 129 71 64 0
18.920000 25.960000 18.920000 129 71 62 0
19.140000 25.960000 26.620000 130 72 63 0
19.360000 25.960000 27.720000 130 72 63 0
19.580000 25.960000 25.080000 131 73 64 0
19.800000 25.960000 22.220000 131 72 63 0
20.020000 25.960000 18.040000 133 74 65 0
20.240000 25.960000 16.720000 132 74 67 0
20.460000 25.960000 15.400000 134 76 69 0
20.680000 25.960000 13.860000 133 80 69 0
20.900000 25.960000 13.860000 135 82 71 0
21.120000 25.960000 12.540000 129 88 79 0
21.340000 25.960000 10.120000 131 90 81 0
21.560000 25.960000 9.240000 127 94 84 0
21.780000 25.960000 9.680000 129 96 86 0
22.000000 25.960000 12.320000 125 102 91 0
22.220000 25.960000 15.180000 128 105 94 0
22.440000 25.960000 17.820000 126 107 96 0
22.660000 25.960000 17.820000 128 109 98 0
22.880000 25.960000 17.820000 128 111 99 0
23.100000 25.960000 16.500000 129 112 100 0
23.320000 25.960000 13.640000 130 113 101 0
23.540000 25.960000 9.680000 131 114 102 0
23.760000 25.960000 8.140000 133 114 103 0
23.980000 25.960000 8.140000 135 116 105 0
24.200000 25.960000 8.140000 136 117 106 0
24.420000 25.960000 8.140000 137 118 107 0
24.640000 25.960000 6.820000 137 120 108 0
24.860000 25.960000 6.820000 137 120 108 0
25.080000 25.960000 6.600000 138 121 109 0
25.300000 25.960000 6.600000 137 120 108 0
25.520000 25.960000 6.600000 138 121 109 0
25.740000 25.960000 7.920000 137 120 108 0
25.960000 25.960000 7.920000 140 121 110 0
26.180000 25.960000 7.920000 141 122 111 0
26.400000 25.960000 9.240000 141 122 111 0
26.620000 25.960000 9.460000 142 123 112 0
26.840000 25.960000 9.460000 142 123 111 0
27.060000 25.960000 9.460000 143 124 112 0
27.280000 25.960000 10.780000 145 126 114 0
27.500000 25.960000 10.780000 147 128 116 0
27.720000 25.960000 12.100000 151 131 117 0
27.940000 25.960000 12.100000 153 133 119 0
28.160000 25.960000 12.100000 157 140 127 0
28.380000 25.960000 12.320000 161 144 131 0
28.600000 25.960000 12.320000 162 149 135 0
28.820000 25.960000 12.320000 166 153 139 0
29.040000 25.960000 12.320000 168 159 147 0
29.260000 25.960000 12.320000 175 166 154 0
29.480000 25.960000 13.860000 179 172 161 0
29.700000 25.960000 13.420000 189 182 171 0
29.920000 25.960000 15.620000 191 190 181 0
30.140000 25.960000 18.040000 195 194 185 0
30.360000 25.960000 18.040000 199 201 195 0
30.580000 25.960000 18.040000 202 204 198 0
30.800000 25.960000 19.580000 203 207 203 0
31.020000 25.960000 19.580000 206 210 206 0
31.240000 25.960000 20.900000 209 213 209 0
31.460000 25.960000 20.900000 212 216 212 0
31.680000 25.960000 22.440000 217 218 217 0
31.900000 25.960000 22.440000 219 220 219 0
32.120000 25.960000 23.760000 224 222 220 0
32.340000 25.960000 23.760000 225 223 221 0
32.560000 25.960000 23.980000 226 224 222 0
32.780000 25.960000 23.980000 228 226 224 0
33.000000 25.960000 25.300000 229 227 225 0
33.220000 25.960000 25.520000 230 228 226 0
33.440000 25.960000 24.640000 230 228 226 0
33.660000 25.960000 24.640000 230 228 226 0
33.880000 25.960000 24.640000 231 229 227 0
34.100000 25.960000 25.960000 231 229 227 0
34.320000 25.960000 25.960000 230 228 226 0
34.540000 25.960000 25.960000 231 229 227 0
34.760000 25.960000 27.280000 229 227 225 0
34.980000 25.960000 27.280000 228 226 224 0
35.200000 25.960000 25.960000 228 226 224 0
35.420000 25.960000 26.180000 227 225 223 0
35.640000 25.960000 26.180000 228 226 224 0
35.860000 25.960000 26.180000 227 225 223 0
36.080000 25.960000 27.280000 230 225 224 0
36.300000 25.960000 29.480000 230 225 224 0
36.520000 25.960000 31.900000 229 224 223 0
36.740000 25.960000 33.220000 228 223 222 0
36.960000 25.960000 33.220000 225 220 221 0
37.180000 25.960000 33.220000 223 218 219 0
0.000000 26.180000 7.920000 127 63 49 0
0.220000 26.180000 6.600000 127 63 49 0
0.440000 26.180000 5.500000 129 62 49 0
0.660000 26.180000 5.060000 128 61 48 0
0.880000 26.180000 5.940000 127 60 49 0
1.100000 26.180000 7.260000 126 59 48 0
1.320000 26.180000 7.920000 127 60 49 0
1.540000 26.180000 6.820000 126 59 48 0
1.760000 26.180000 7.920000 128 59 49 0
1.980000 26.180000 10.120000 126 57 47 0
2.200000 26.180000 12.540000 127 58 48 0
2.420000 26.180000 12.540000 127 58 48 0
2.640000 26.180000 12.540000 128 57 48 0
2.860000 26.180000 11.220000 129 58 49 0
3.080000 26.180000 11.220000 127 58 48 0
3.300000 26.180000 11.220000 129 60 50 0
3.520000 26.180000 11.220000 128 59 49 0
3.740000 26.180000 9.680000 129 60 50 0
3.960000 26.180000 9.680000 130 59 50 0
4.180000 26.180000 9.680000 130 59 50 0
4.400000 26.180000 8.360000 130 59 52 0
4.620000 26.180000 8.360000 130 59 52 0
4.840000 26.180000 8.360000 131 60 53 0
5.060000 26.180000 8.360000 130 59 52 0
5.280000 26.180000 8.360000 129 58 49 0
5.500000 26.180000 9.680000 129 58 49 0
5.720000 26.180000 11.220000 130 56 50 0
5.940000 26.180000 11.440000 130 56 50 0
6.160000 26.180000 11.660000 129 55 49 0
6.380000 26.180000 11.880000 128 54 48 0
6.600000 26.180000 11.880000 128 52 47 0
6.820000 26.180000 14.740000 126 50 45 0
7.040000 26.180000 18.920000 126 50 45 0
7.260000 26.180000 21.560000 126 50 45 0
7.480000 26.180000 21.560000 127 49 44 0
7.700000 26.180000 17.600000 128 50 45 0
7.920000 26.180000 13.420000 126 50 45 0
8.140000 26.180000 10.780000 126 50 45 0
8.360000 26.180000 7.920000 126 52 48 0
8.580000 26.180000 7.920000 127 53 49 0
8.800000 26.180000 5.280000 129 55 49 0
9.020000 26.180000 5.280000 130 56 50 0
9.240000 26.180000 3.960000 132 58 52 0
9.460000 26.180000 3.960000 132 58 52 0
9.680000 26.180000 3.960000 130 58 54 0
9.900000 26.180000 3.960000 130 58 54 0
10.120000 26.180000 3.960000 132 60 56 0
10.340000 26.180000 5.500000 132 60 56 0
10.560000 26.180000 6.600000 133 62 55 0
10.780000 26.180000 8.580000 134 63 56 0
11.000000 26.180000 9.680000 133 64 56 0
11.220000 26.180000 9.680000 132 63 55 0
11.440000 26.180000 11.220000 131 61 56 0
11.660000 26.180000 11.220000 132 62 57 0
11.880000 26.180000 12.540000 132 62 57 0
12.100000 26.180000 12.540000 131 61 56 0
12.320000 26.180000 12.540000 130 61 53 0
12.540000 26.180000 12.540000 128 59 51 0
12.760000 26.180000 12.760000 129 58 51 0
12.980000 26.180000 12.760000 128 57 50 0
13.200000 26.180000 12.760000 127 55 51 0
13.420000 26.180000 12.760000 125 53 49 0
13.640000 26.180000 14.300000 127 53 49 0
13.860000 26.180000 14.300000 127 53 49 0
14.080000 26.180000 14.520000 122 50 46 0
14.300000 26.180000 14.520000 124 52 48 0
14.520000 26.180000 15.840000 124 53 46 0
14.740000 26.180000 18.700000 124 53 46 0
14.960000 26.180000 21.560000 123 55 49 0
15.180000 26.180000 24.420000 125 57 51 0
15.400000 26.180000 25.740000 126 56 51 0
15.620000 26.180000 24.420000 126 56 51 0
15.840000 26.180000 17.600000 125 60 53 0
16.060000 26.180000 7.920000 125 60 53 0
16.280000 26.180000 5.280000 126 61 54 0
16.500000 26.180000 14.960000 127 62 55 0
16.720000 26.180000 23.320000 124 63 55 0
16.940000 26.180000 15.180000 126 65 57 0
17.160000 26.180000 6.820000 128 67 61 0
17.380000 26.180000 5.500000 128 67 61 0
17.600000 26.180000 4.180000 128 69 60 0
17.820000 26.180000 3.740000 128 69 60 0
18.040000 26.180000 5.940000 129 68 60 0
18.260000 26.180000 8.360000 129 68 60 0
18.480000 26.180000 7.260000 130 71 62 0
18.700000 26.180000 7.920000 129 70 61 0
18.920000 26.180000 13.420000 131 72 63 0
19.140000 26.180000 23.760000 130 71 62 0
19.360000 26.180000 27.720000 132 71 63 0
19.580000 26.180000 26.400000 133 72 64 0
19.800000 26.180000 23.540000 133 72 64 0
20.020000 26.180000 19.580000 133 72 64 0
20.240000 26.180000 16.720000 132 74 65 0
20.460000 26.180000 15.400000 133 75 66 0
20.680000 26.180000 15.400000 133 80 71 0
20.900000 26.180000 13.860000 134 81 72 0
21.120000 26.180000 12.540000 129 85 77 0
21.340000 26.180000 11.440000 132 88 80 0
21.560000 26.180000 9.240000 126 93 83 0
21.780000 26.180000 9.460000 129 96 86 0
22.000000 26.180000 12.320000 129 100 89 0
22.220000 26.180000 15.180000 131 102 91 0
22.440000 26.180000 17.820000 125 106 95 0
22.660000 26.180000 19.360000 127 108 97 0
22.880000 26.180000 17.820000 128 111 99 0
23.100000 26.180000 16.500000 128 111 99 0
23.320000 26.180000 13.640000 130 113 101 0
23.540000 26.180000 9.680000 131 114 102 0
23.760000 26.180000 8.140000 133 114 103 0
23.980000 26.180000 8.140000 134 115 104 0
24.200000 26.180000 8.140000 135 118 106 0
24.420000 26.180000 8.140000 136 119 107 0
24.640000 26.180000 6.820000 136 119 106 0
24.860000 26.180000 6.820000 136 119 106 0
25.080000 26.180000 6.600000 139 120 109 0
25.300000 26.180000 6.600000 140 121 110 0
25.520000 26.180000 6.600000 140 121 110 0
25.740000 26.180000 7.920000 139 120 109 0
25.960000 26.180000 7.920000 140 121 109 0
26.180000 26.180000 7.920000 141 122 110 0
26.400000 26.180000 9.240000 140 121 109 0
26.620000 26.180000 9.460000 142 123 111 0
26.840000 26.180000 9.460000 142 123 111 0
27.060000 26.180000 10.780000 143 124 112 0
27.280000 26.180000 10.780000 146 126 112 0
27.500000 26.180000 10.780000 149 129 115 0
27.720000 26.180000 12.100000 150 131 119 0
27.940000 26.180000 12.100000 153 134 122 0
28.160000 26.180000 12.100000 158 141 126 0
28.380000 26.180000 12.320000 159 142 127 0
28.600000 26.180000 12.320000 161 148 134 0
28.820000 26.180000 12.320000 167 154 140 0
29.040000 26.180000 12.320000 169 159 145 0
29.260000 26.180000 12.320000 178 168 154 0
29.480000 26.180000 13.860000 181 174 159 0
29.700000 26.180000 14.740000 188 181 166 0
29.920000 26.180000 15.620000 188 188 173 0
30.140000 26.180000 16.720000 197 197 182 0
30.360000 26.180000 18.040000 199 199 192 0
30.580000 26.180000 18.040000 203 203 196 0
30.800000 26.180000 19.580000 205 207 201 0
31.020000 26.180000 19.580000 209 211 205 0
31.240000 26.180000 20.900000 213 215 209 0
31.460000 26.180000 20.900000 215 217 211 0
31.680000 26.180000 22.440000 220 218 214 0
31.900000 26.180000 22.440000 221 219 215 0
32.120000 26.180000 23.760000 224 222 218 0
32.340000 26.180000 23.760000 225 223 219 0
32.560000 26.180000 23.980000 226 224 220 0
32.780000 26.180000 25.300000 227 225 221 0
33.000000 26.180000 25.300000 228 226 222 0
33.220000 26.180000 25.520000 230 228 224 0
33.440000 26.180000 24.420000 233 229 225 0
33.660000 26.180000 24.640000 233 229 225 0
33.880000 26.180000 24.640000 233 229 223 0
34.100000 26.180000 25.960000 232 228 222 0
34.320000 26.180000 25.960000 232 228 224 0
34.540000 26.180000 25.960000 232 228 224 0
34.760000 26.180000 27.280000 230 226 222 0
34.980000 26.180000 25.960000 231 227 223 0
35.200000 26.180000 25.960000 230 226 222 0
35.420000 26.180000 26.180000 231 227 223 0
35.640000 26.180000 26.180000 230 226 220 0
35.860000 26.180000 26.180000 230 226 220 0
36.080000 26.180000 27.280000 231 227 223 0
36.300000 26.180000 29.480000 229 225 221 0
36.520000 26.180000 31.900000 229 225 221 0
36.740000 26.180000 33.220000 227 223 219 0
36.960000 26.180000 33.220000 229 220 218 0
37.180000 26.180000 33.220000 226 217 215 0
0.000000 26.400000 6.600000 127 63 49 0
0.220000 26.400000 5.280000 126 62 48 0
0.440000 26.400000 5.500000 128 61 48 0
0.660000 26.400000 5.060000 127 60 47 0
0.880000 26.400000 7.260000 127 60 49 0
1.100000 26.400000 8.580000 127 60 49 0
1.320000 26.400000 7.700000 126 59 48 0
1.540000 26.400000 6.820000 127 60 49 0
1.760000 26.400000 7.920000 127 58 48 0
1.980000 26.400000 10.120000 127 58 48 0
2.200000 26.400000 12.540000 127 58 48 0
2.420000 26.400000 12.540000 126 57 47 0
2.640000 26.400000 12.540000 128 57 48 0
2.860000 26.400000 11.220000 127 56 47 0
3.080000 26.400000 11.220000 128 59 49 0
3.300000 26.400000 11.220000 128 59 49 0
3.520000 26.400000 9.680000 129 60 50 0
3.740000 26.400000 9.680000 129 60 50 0
3.960000 26.400000 9.680000 130 59 50 0
4.180000 26.400000 8.360000 130 59 50 0
4.400000 26.400000 8.360000 131 60 53 0
4.620000 26.400000 8.360000 130 59 52 0
4.840000 26.400000 8.360000 130 59 52 0
5.060000 26.400000 8.360000 130 59 52 0
5.280000 26.400000 9.680000 128 57 48 0
5.500000 26.400000 9.900000 129 58 49 0
5.720000 26.400000 11.220000 129 55 49 0
5.940000 26.400000 11.440000 130 56 50 0
6.160000 26.400000 11.660000 129 55 49 0
6.380000 26.400000 11.880000 128 54 48 0
6.600000 26.400000 13.420000 128 52 47 0
6.820000 26.400000 16.060000 126 50 45 0
7.040000 26.400000 20.240000 127 51 46 0
7.260000 26.400000 23.100000 126 50 45 0
7.480000 26.400000 20.240000 127 49 44 0
7.700000 26.400000 16.280000 126 48 43 0
7.920000 26.400000 12.100000 126 50 45 0
8.140000 26.400000 9.240000 126 50 45 0
8.360000 26.400000 7.920000 127 53 49 0
8.580000 26.400000 6.600000 128 54 50 0
8.800000 26.400000 5.280000 129 55 49 0
9.020000 26.400000 3.960000 130 56 50 0
9.240000 26.400000 3.960000 131 57 51 0
9.460000 26.400000 3.960000 131 57 51 0
9.680000 26.400000 3.960000 130 58 54 0
9.900000 26.400000 3.960000 130 58 54 0
10.120000 26.400000 5.500000 133 61 57 0
10.340000 26.400000 5.500000 133 61 57 0
10.560000 26.400000 6.600000 134 63 56 0
10.780000 26.400000 8.580000 134 63 56 0
11.000000 26.400000 9.680000 133 64 56 0
11.220000 26.400000 9.680000 132 63 55 0
11.440000 26.400000 11.220000 133 63 58 0
11.660000 26.400000 11.220000 132 62 57 0
11.880000 26.400000 12.540000 132 62 57 0
12.100000 26.400000 12.540000 130 60 55 0
12.320000 26.400000 12.540000 129 60 52 0
12.540000 26.400000 12.540000 129 60 52 0
12.760000 26.400000 12.760000 128 57 50 0
12.980000 26.400000 12.760000 127 56 49 0
13.200000 26.400000 12.760000 128 56 52 0
13.420000 26.400000 12.980000 126 54 50 0
13.640000 26.400000 14.300000 127 53 49 0
13.860000 26.400000 14.300000 126 52 48 0
14.080000 26.400000 14.520000 123 51 47 0
14.300000 26.400000 14.520000 124 52 48 0
14.520000 26.400000 15.840000 124 53 46 0
14.740000 26.400000 17.380000 126 55 48 0
14.960000 26.400000 21.560000 124 56 50 0
15.180000 26.400000 22.880000 125 57 51 0
15.400000 26.400000 24.420000 126 56 51 0
15.620000 26.400000 23.100000 126 56 51 0
15.840000 26.400000 16.280000 125 60 53 0
16.060000 26.400000 7.920000 126 61 54 0
16.280000 26.400000 2.640000 126 61 54 0
16.500000 26.400000 10.780000 126 61 54 0
16.720000 26.400000 22.000000 124 63 55 0
16.940000 26.400000 15.180000 127 66 58 0
17.160000 26.400000 6.820000 127 66 60 0
17.380000 26.400000 6.820000 128 67 61 0
17.600000 26.400000 4.180000 128 69 60 0
17.820000 26.400000 5.060000 128 69 60 0
18.040000 26.400000 7.260000 130 69 61 0
18.260000 26.400000 8.360000 129 68 60 0
18.480000 26.400000 7.260000 129 70 61 0
18.700000 26.400000 6.600000 129 70 61 0
18.920000 26.400000 10.780000 130 71 62 0
19.140000 26.400000 21.120000 130 71 62 0
19.360000 26.400000 26.400000 132 71 63 0
19.580000 26.400000 26.400000 132 71 63 0
19.800000 26.400000 23.540000 133 72 64 0
20.020000 26.400000 20.900000 132 71 63 0
20.240000 26.400000 18.260000 132 74 65 0
20.460000 26.400000 16.720000 135 77 68 0
20.680000 26.400000 15.400000 132 79 70 0
20.900000 26.400000 13.860000 135 82 73 0
21.120000 26.400000 12.540000 130 86 78 0
21.340000 26.400000 11.220000 131 87 79 0
21.560000 26.400000 10.120000 126 93 83 0
21.780000 26.400000 10.560000 128 95 85 0
22.000000 26.400000 12.320000 127 98 87 0
22.220000 26.400000 15.180000 130 101 90 0
22.440000 26.400000 17.820000 124 105 94 0
22.660000 26.400000 19.360000 126 107 96 0
22.880000 26.400000 19.360000 127 110 98 0
23.100000 26.400000 17.820000 128 111 99 0
23.320000 26.400000 13.640000 129 112 100 0
23.540000 26.400000 9.680000 131 114 102 0
23.760000 26.400000 8.140000 133 114 103 0
23.980000 26.400000 8.140000 134 115 104 0
24.200000 26.400000 8.140000 134 117 105 0
24.420000 26.400000 8.140000 136 119 107 0
24.640000 26.400000 6.820000 136 119 106 0
24.860000 26.400000 6.820000 136 119 106 0
25.080000 26.400000 6.820000 138 119 108 0
25.300000 26.400000 6.600000 139 120 109 0
25.520000 26.400000 6.600000 140 121 110 0
25.740000 26.400000 7.920000 140 121 110 0
25.960000 26.400000 7.920000 140 121 109 0
26.180000 26.400000 7.920000 140 121 109 0
26.400000 26.400000 9.460000 140 121 109 0
26.620000 26.400000 9.460000 140 121 109 0
26.840000 26.400000 9.460000 142 123 111 0
27.060000 26.400000 10.780000 143 124 112 0
27.280000 26.400000 10.780000 146 126 112 0
27.500000 26.400000 12.100000 149 129 115 0
27.720000 26.400000 12.100000 150 131 119 0
27.940000 26.400000 12.100000 153 134 122 0
28.160000 26.400000 12.100000 157 140 125 0
28.380000 26.400000 12.320000 161 144 129 0
28.600000 26.400000 12.320000 162 149 135 0
28.820000 26.400000 12.320000 169 156 142 0
29.040000 26.400000 12.320000 170 160 146 0
29.260000 26.400000 13.640000 177 167 153 0
29.480000 26.400000 13.860000 180 173 158 0
29.700000 26.400000 14.740000 188 181 166 0
29.920000 26.400000 15.620000 189 189 174 0
30.140000 26.400000 18.040000 196 196 181 0
30.360000 26.400000 18.040000 199 199 192 0
30.580000 26.400000 18.040000 205 205 198 0
30.800000 26.400000 18.260000 206 208 202 0
31.020000 26.400000 19.580000 210 212 206 0
31.240000 26.400000 19.580000 213 215 209 0
31.460000 26.400000 20.900000 216 218 212 0
31.680000 26.400000 22.440000 221 219 215 0
31.900000 26.400000 22.440000 222 220 216 0
32.120000 26.400000 23.760000 224 222 218 0
32.340000 26.400000 23.760000 226 224 220 0
32.560000 26.400000 25.300000 227 225 221 0
32.780000 26.400000 25.300000 228 226 222 0
33.000000 26.400000 25.300000 229 227 223 0
33.220000 26.400000 25.520000 230 228 224 0
33.440000 26.400000 24.420000 232 228 224 0
33.660000 26.400000 24.640000 233 229 225 0
33.880000 26.400000 24.640000 233 229 223 0
34.100000 26.400000 25.960000 232 228 222 0
34.320000 26.400000 25.960000 232 228 224 0
34.540000 26.400000 25.960000 231 227 223 0
34.760000 26.400000 25.960000 231 227 223 0
34.980000 26.400000 25.960000 231 227 223 0
35.200000 26.400000 25.960000 231 227 223 0
35.420000 26.400000 26.180000 231 227 223 0
35.640000 26.400000 26.180000 231 227 221 0
35.860000 26.400000 26.180000 231 227 221 0
36.080000 26.400000 27.280000 230 226 222 0
36.300000 26.400000 29.480000 230 226 222 0
36.520000 26.400000 31.900000 228 224 220 0
36.740000 26.400000 33.220000 226 222 218 0
36.960000 26.400000 34.760000 228 219 217 0
37.180000 26.400000 34.760000 226 217 215 0
0.000000 26.620000 6.600000 127 63 49 0
0.220000 26.620000 5.280000 126 62 48 0
0.440000 26.620000 3.960000 127 60 47 0
0.660000 26.620000 5.060000 127 60 47 0
0.880000 26.620000 7.260000 127 60 49 0
1.100000 26.620000 8.360000 126 59 48 0
1.320000 26.620000 8.800000 127 58 46 0
1.540000 26.620000 7.920000 127 58 46 0
1.760000 26.620000 9.240000 128 59 47 0
1.980000 26.620000 11.440000 128 59 47 0
2.200000 26.620000 12.540000 127 58 48 0
2.420000 26.620000 12.540000 127 58 48 0
2.640000 26.620000 12.540000 126 57 47 0
2.860000 26.620000 11.220000 127 58 48 0
3.080000 26.620000 11.220000 128 59 49 0
3.300000 26.620000 9.680000 127 58 48 0
3.520000 26.620000 9.680000 129 58 49 0
3.740000 26.620000 9.680000 129 58 49 0
3.960000 26.620000 8.360000 129 60 50 0
4.180000 26.620000 8.360000 130 61 51 0
4.400000 26.620000 8.360000 130 61 51 0
4.620000 26.620000 8.360000 129 60 50 0
4.840000 26.620000 8.360000 130 59 50 0
5.060000 26.620000 8.360000 130 59 50 0
5.280000 26.620000 9.900000 128 57 48 0
5.500000 26.620000 11.220000 128 57 48 0
5.720000 26.620000 11.220000 128 54 46 0
5.940000 26.620000 11.440000 129 55 47 0
6.160000 26.620000 11.660000 130 55 47 0
6.380000 26.620000 11.880000 128 53 45 0
6.600000 26.620000 13.200000 126 52 44 0
6.820000 26.620000 16.060000 125 51 43 0
7.040000 26.620000 20.240000 125 51 45 0
7.260000 26.620000 23.100000 125 51 45 0
7.480000 26.620000 20.240000 125 49 44 0
7.700000 26.620000 14.740000 124 48 43 0
7.920000 26.620000 10.780000 128 50 43 0
8.140000 26.620000 7.920000 128 50 43 0
8.360000 26.620000 6.600000 126 52 46 0
8.580000 26.620000 6.600000 127 53 47 0
8.800000 26.620000 5.280000 128 54 48 0
9.020000 26.620000 3.960000 130 56 50 0
9.240000 26.620000 3.960000 129 58 51 0
9.460000 26.620000 3.960000 131 60 53 0
9.680000 26.620000 3.960000 131 60 53 0
9.900000 26.620000 3.960000 132 61 54 0
10.120000 26.620000 5.500000 132 63 55 0
10.340000 26.620000 5.500000 134 65 57 0
10.560000 26.620000 6.600000 133 61 57 0
10.780000 26.620000 8.580000 135 63 59 0
11.000000 26.620000 9.680000 132 62 57 0
11.220000 26.620000 9.680000 134 64 59 0
11.440000 26.620000 9.680000 133 64 56 0
11.660000 26.620000 11.220000 132 63 55 0
11.880000 26.620000 11.220000 132 63 55 0
12.100000 26.620000 11.220000 130 61 53 0
12.320000 26.620000 12.540000 130 60 55 0
12.540000 26.620000 12.760000 128 58 53 0
12.760000 26.620000 12.760000 127 57 52 0
12.980000 26.620000 12.760000 127 57 52 0
13.200000 26.620000 12.760000 127 56 49 0
13.420000 26.620000 12.980000 127 56 49 0
13.640000 26.620000 14.300000 124 52 48 0
13.860000 26.620000 14.300000 125 53 49 0
14.080000 26.620000 14.520000 124 52 48 0
14.300000 26.620000 14.520000 122 50 46 0
14.520000 26.620000 14.520000 124 54 49 0
14.740000 26.620000 17.380000 124 54 49 0
14.960000 26.620000 20.240000 126 57 49 0
15.180000 26.620000 21.560000 125 56 48 0
15.400000 26.620000 21.560000 125 57 51 0
15.620000 26.620000 20.240000 125 57 51 0
15.840000 26.620000 14.960000 125 60 53 0
16.060000 26.620000 8.140000 125 60 53 0
16.280000 26.620000 2.640000 126 61 54 0
16.500000 26.620000 10.780000 126 61 54 0
16.720000 26.620000 22.000000 126 63 53 0
16.940000 26.620000 15.180000 128 65 55 0
17.160000 26.620000 6.820000 127 66 58 0
17.380000 26.620000 6.820000 128 67 59 0
17.600000 26.620000 5.500000 129 68 60 0
17.820000 26.620000 5.060000 130 69 61 0
18.040000 26.620000 7.260000 129 68 60 0
18.260000 26.620000 8.360000 131 70 62 0
18.480000 26.620000 8.580000 129 70 61 0
18.700000 26.620000 7.700000 129 70 61 0
18.920000 26.620000 9.240000 131 70 62 0
19.140000 26.620000 16.940000 131 70 62 0
19.360000 26.620000 23.540000 132 71 63 0
19.580000 26.620000 26.400000 131 70 62 0
19.800000 26.620000 25.080000 132 73 64 0
20.020000 26.620000 22.220000 133 74 65 0
20.240000 26.620000 19.580000 134 75 66 0
20.460000 26.620000 16.720000 135 76 67 0
20.680000 26.620000 15.400000 135 80 70 0
20.900000 26.620000 13.860000 136 81 71 0
21.120000 26.620000 12.540000 131 86 76 0
21.340000 26.620000 12.760000 132 87 77 0
21.560000 26.620000 11.220000 129 92 81 0
21.780000 26.620000 11.660000 132 95 84 0
22.000000 26.620000 11.880000 128 97 89 0
22.220000 26.620000 14.960000 130 99 91 0
22.440000 26.620000 17.820000 123 104 92 0
22.660000 26.620000 19.360000 126 107 95 0
22.880000 26.620000 19.360000 127 108 96 0
23.100000 26.620000 17.820000 128 109 97 0
23.320000 26.620000 13.640000 128 111 99 0
23.540000 26.620000 9.680000 130 113 101 0
23.760000 26.620000 8.140000 133 114 103 0
23.980000 26.620000 8.140000 134 115 104 0
24.200000 26.620000 8.140000 135 116 105 0
24.420000 26.620000 8.140000 136 117 106 0
24.640000 26.620000 6.820000 137 118 107 0
24.860000 26.620000 6.820000 137 118 107 0
25.080000 26.620000 6.820000 136 119 106 0
25.300000 26.620000 6.600000 139 122 109 0
25.520000 26.620000 6.600000 140 121 109 0
25.740000 26.620000 7.920000 140 121 109 0
25.960000 26.620000 7.920000 141 122 110 0
26.180000 26.620000 7.920000 141 122 110 0
26.400000 26.620000 9.460000 141 122 110 0
26.620000 26.620000 9.460000 142 123 111 0
26.840000 26.620000 9.460000 142 123 111 0
27.060000 26.620000 10.780000 144 125 113 0
27.280000 26.620000 10.780000 147 127 113 0
27.500000 26.620000 12.100000 149 129 115 0
27.720000 26.620000 12.100000 151 131 117 0
27.940000 26.620000 12.100000 154 134 120 0
28.160000 26.620000 12.100000 157 140 125 0
28.380000 26.620000 12.320000 160 143 128 0
28.600000 26.620000 12.320000 162 149 135 0
28.820000 26.620000 12.320000 166 153 139 0
29.040000 26.620000 12.320000 170 162 147 0
29.260000 26.620000 13.640000 178 170 155 0
29.480000 26.620000 13.860000 182 175 164 0
29.700000 26.620000 14.740000 188 181 170 0
29.920000 26.620000 16.940000 192 189 177 0
30.140000 26.620000 18.040000 199 196 184 0
30.360000 26.620000 18.040000 199 200 190 0
30.580000 26.620000 18.040000 204 205 195 0
30.800000 26.620000 18.260000 206 208 202 0
31.020000 26.620000 19.580000 211 213 207 0
31.240000 26.620000 19.580000 214 214 209 0
31.460000 26.620000 20.900000 217 217 212 0
31.680000 26.620000 22.440000 220 220 215 0
31.900000 26.620000 22.440000 222 222 217 0
32.120000 26.620000 23.760000 225 223 221 0
32.340000 26.620000 23.760000 227 225 223 0
32.560000 26.620000 25.300000 227 225 221 0
32.780000 26.620000 25.300000 229 227 223 0
33.000000 26.620000 26.620000 231 227 223 0
33.220000 26.620000 26.840000 233 229 225 0
33.440000 26.620000 25.960000 232 228 224 0
33.660000 26.620000 24.860000 233 229 225 0
33.880000 26.620000 24.640000 230 228 224 0
34.100000 26.620000 26.180000 231 229 225 0
34.320000 26.620000 25.960000 232 228 224 0
34.540000 26.620000 25.960000 232 228 224 0
34.760000 26.620000 25.960000 233 229 225 0
34.980000 26.620000 25.960000 233 229 225 0
35.200000 26.620000 25.960000 232 228 222 0
35.420000 26.620000 26.180000 232 228 222 0
35.640000 26.620000 26.180000 230 228 224 0
35.860000 26.620000 26.180000 230 228 224 0
36.080000 26.620000 27.280000 230 226 222 0
36.300000 26.620000 29.480000 230 226 222 0
36.520000 26.620000 31.900000 229 225 221 0
36.740000 26.620000 33.220000 227 223 219 0
36.960000 26.620000 34.760000 225 219 216 0
37.180000 26.620000 34.760000 224 218 215 0
0.000000 26.840000 6.600000 127 63 49 0
0.220000 26.840000 5.280000 126 62 48 0
0.440000 26.840000 5.500000 128 61 48 0
0.660000 26.840000 5.060000 128 61 48 0
0.880000 26.840000 7.260000 128 61 50 0
1.100000 26.840000 9.680000 126 59 48 0
1.320000 26.840000 8.580000 127 58 46 0
1.540000 26.840000 7.920000 127 58 46 0
1.760000 26.840000 7.920000 129 60 48 0
1.980000 26.840000 10.340000 127 58 46 0
2.200000 26.840000 11.440000 127 58 48 0
2.420000 26.840000 11.220000 126 57 47 0
2.640000 26.840000 12.540000 127 58 48 0
2.860000 26.840000 11.220000 128 59 49 0
3.080000 26.840000 11.220000 128 59 49 0
3.300000 26.840000 9.680000 128 59 49 0
3.520000 26.840000 9.680000 130 59 50 0
3.740000 26.840000 9.680000 129 58 49 0
3.960000 26.840000 8.360000 130 61 51 0
4.180000 26.840000 8.360000 131 62 52 0
4.400000 26.840000 7.040000 131 62 52 0
4.620000 26.840000 8.360000 130 61 51 0
4.840000 26.840000 8.360000 131 60 51 0
5.060000 26.840000 9.900000 130 59 50 0
5.280000 26.840000 9.900000 129 58 49 0
5.500000 26.840000 11.220000 128 57 48 0
5.720000 26.840000 11.440000 128 54 46 0
5.940000 26.840000 12.980000 129 55 47 0
6.160000 26.840000 13.200000 129 54 46 0
6.380000 26.840000 13.200000 127 52 44 0
6.600000 26.840000 13.200000 126 52 44 0
6.820000 26.840000 16.060000 125 51 43 0
7.040000 26.840000 20.240000 125 51 45 0
7.260000 26.840000 21.560000 125 51 45 0
7.480000 26.840000 18.920000 125 49 44 0
7.700000 26.840000 13.420000 124 48 43 0
7.920000 26.840000 9.240000 126 48 41 0
8.140000 26.840000 7.920000 128 50 43 0
8.360000 26.840000 6.600000 126 52 46 0
8.580000 26.840000 5.280000 128 54 48 0
8.800000 26.840000 5.280000 130 56 50 0
9.020000 26.840000 5.280000 130 56 50 0
9.240000 26.840000 3.960000 129 58 51 0
9.460000 26.840000 3.960000 131 60 53 0
9.680000 26.840000 3.960000 131 60 53 0
9.900000 26.840000 3.960000 132 61 54 0
10.120000 26.840000 5.500000 132 63 55 0
10.340000 26.840000 5.500000 133 64 56 0
10.560000 26.840000 6.600000 134 62 58 0
10.780000 26.840000 8.580000 135 63 59 0
11.000000 26.840000 9.680000 134 64 59 0
11.220000 26.840000 9.680000 134 64 59 0
11.440000 26.840000 9.680000 134 65 57 0
11.660000 26.840000 11.220000 134 65 57 0
11.880000 26.840000 11.220000 133 64 56 0
12.100000 26.840000 11.220000 131 62 54 0
12.320000 26.840000 11.220000 130 60 55 0
12.540000 26.840000 11.220000 129 59 54 0
12.760000 26.840000 12.760000 127 57 52 0
12.980000 26.840000 12.760000 126 56 51 0
13.200000 26.840000 12.760000 126 55 48 0
13.420000 26.840000 12.980000 126 55 48 0
13.640000 26.840000 12.980000 125 53 49 0
13.860000 26.840000 14.300000 125 53 49 0
14.080000 26.840000 14.520000 123 51 47 0
14.300000 26.840000 14.520000 125 53 49 0
14.520000 26.840000 14.520000 123 53 48 0
14.740000 26.840000 16.060000 125 55 50 0
14.960000 26.840000 18.920000 126 57 49 0
15.180000 26.840000 20.240000 125 56 48 0
15.400000 26.840000 18.920000 125 57 51 0
15.620000 26.840000 17.600000 126 58 52 0
15.840000 26.840000 14.960000 125 60 53 0
16.060000 26.840000 8.140000 126 61 54 0
16.280000 26.840000 3.960000 125 60 53 0
16.500000 26.840000 12.320000 127 62 55 0
16.720000 26.840000 22.000000 127 64 54 0
16.940000 26.840000 15.180000 128 65 55 0
17.160000 26.840000 6.820000 127 66 58 0
17.380000 26.840000 6.820000 127 66 58 0
17.600000 26.840000 5.500000 129 68 60 0
17.820000 26.840000 5.060000 130 69 61 0
18.040000 26.840000 7.260000 129 68 60 0
18.260000 26.840000 8.360000 131 70 62 0
18.480000 26.840000 8.360000 129 70 61 0
18.700000 26.840000 8.800000 130 71 62 0
18.920000 26.840000 10.340000 131 70 62 0
19.140000 26.840000 14.080000 131 70 62 0
19.360000 26.840000 20.680000 132 71 63 0
19.580000 26.840000 24.860000 132 71 63 0
19.800000 26.840000 26.400000 133 74 65 0
20.020000 26.840000 25.080000 134 75 66 0
20.240000 26.840000 20.900000 135 76 67 0
20.460000 26.840000 16.720000 135 76 67 0
20.680000 26.840000 15.400000 134 79 69 0
20.900000 26.840000 13.860000 136 81 71 0
21.120000 26.840000 12.540000 131 86 76 0
21.340000 26.840000 12.760000 133 88 78 0
21.560000 26.840000 11.220000 130 93 82 0
21.780000 26.840000 11.220000 130 93 82 0
22.000000 26.840000 12.760000 128 97 89 0
22.220000 26.840000 15.840000 128 97 89 0
22.440000 26.840000 17.600000 122 103 91 0
22.660000 26.840000 19.140000 124 105 93 0
22.880000 26.840000 19.360000 126 107 95 0
23.100000 26.840000 17.820000 128 109 97 0
23.320000 26.840000 15.180000 128 111 99 0
23.540000 26.840000 9.680000 130 113 101 0
23.760000 26.840000 8.140000 132 113 102 0
23.980000 26.840000 8.140000 133 114 103 0
