ply
format ascii 1.0
element vertex 1099
property float x
property float y
property float z
property uchar red
property uchar green
property uchar blue
property uchar alpha
end_header
30.360000 25.080000 28.820000 147 172 148 0
30.580000 25.080000 28.820000 148 171 148 0
30.800000 25.080000 29.040000 148 171 148 0
31.020000 25.080000 28.600000 148 171 150 0
31.240000 25.080000 30.800000 148 171 150 0
31.460000 25.080000 31.900000 147 170 149 0
31.680000 25.080000 31.900000 146 169 148 0
31.900000 25.080000 31.900000 147 168 150 0
32.120000 25.080000 32.120000 146 167 149 0
32.340000 25.080000 32.120000 147 168 150 0
32.560000 25.080000 32.120000 147 168 150 0
32.780000 25.080000 32.120000 147 168 148 0
33.000000 25.080000 33.660000 147 168 148 0
33.220000 25.080000 33.660000 147 168 148 0
33.440000 25.080000 33.880000 147 168 148 0
33.660000 25.080000 33.880000 147 168 150 0
33.880000 25.080000 33.880000 149 170 152 0
34.100000 25.080000 34.100000 147 168 148 0
34.320000 25.080000 34.100000 147 168 148 0
34.540000 25.080000 34.100000 150 168 149 0
34.760000 25.080000 34.320000 149 167 148 0
34.980000 25.080000 34.320000 150 168 151 0
35.200000 25.080000 34.320000 150 168 151 0
35.420000 25.080000 34.540000 150 168 151 0
35.640000 25.080000 35.640000 149 167 150 0
35.860000 25.080000 36.300000 150 168 151 0
36.080000 25.080000 38.720000 151 169 152 0
36.300000 25.080000 40.260000 152 170 151 0
36.520000 25.080000 30.580000 153 171 152 0
36.740000 25.080000 9.900000 151 172 154 0
36.960000 25.080000 0.220000 151 172 154 0
37.180000 25.080000 0.220000 153 171 154 0
0.000000 25.300000 33.000000 133 162 135 0
0.220000 25.300000 33.000000 132 161 134 0
0.440000 25.300000 34.320000 131 160 133 0
0.660000 25.300000 34.320000 132 161 134 0
0.880000 25.300000 34.320000 132 161 134 0
1.100000 25.300000 34.320000 132 161 134 0
1.320000 25.300000 34.320000 131 160 133 0
1.540000 25.300000 34.320000 130 162 134 0
1.760000 25.300000 34.320000 132 164 136 0
1.980000 25.300000 34.320000 134 163 136 0
2.200000 25.300000 34.320000 133 162 135 0
2.420000 25.300000 34.320000 132 164 135 0
2.640000 25.300000 34.320000 132 164 135 0
2.860000 25.300000 34.540000 132 164 136 0
3.080000 25.300000 34.540000 133 165 137 0
3.300000 25.300000 35.640000 132 164 136 0
3.520000 25.300000 36.300000 132 164 136 0
3.740000 25.300000 37.400000 132 164 135 0
3.960000 25.300000 37.400000 133 165 136 0
4.180000 25.300000 37.400000 134 163 136 0
4.400000 25.300000 38.940000 134 163 136 0
4.620000 25.300000 38.940000 134 163 136 0
4.840000 25.300000 38.940000 135 164 137 0
5.060000 25.300000 39.160000 133 167 137 0
5.280000 25.300000 39.160000 134 168 138 0
5.500000 25.300000 39.160000 134 166 137 0
5.720000 25.300000 39.160000 135 167 138 0
5.940000 25.300000 40.700000 138 167 140 0
6.160000 25.300000 40.700000 137 166 139 0
6.380000 25.300000 40.920000 136 165 138 0
6.600000 25.300000 32.560000 134 163 136 0
6.820000 25.300000 14.740000 133 165 137 0
7.040000 25.300000 1.100000 134 166 138 0
8.580000 25.300000 9.240000 133 165 137 0
8.800000 25.300000 21.120000 134 166 138 0
9.020000 25.300000 11.220000 136 165 138 0
9.240000 25.300000 9.900000 137 166 139 0
9.460000 25.300000 30.800000 136 165 138 0
9.680000 25.300000 31.020000 136 165 138 0
9.900000 25.300000 18.920000 136 165 138 0
10.120000 25.300000 30.140000 137 166 139 0
10.340000 25.300000 39.820000 136 168 140 0
10.560000 25.300000 39.820000 135 167 139 0
10.780000 25.300000 40.040000 135 167 139 0
11.000000 25.300000 40.040000 134 166 138 0
11.220000 25.300000 41.140000 136 165 138 0
11.440000 25.300000 41.800000 137 166 139 0
11.660000 25.300000 41.580000 137 166 139 0
11.880000 25.300000 40.260000 136 165 138 0
12.100000 25.300000 40.260000 134 166 140 0
12.320000 25.300000 40.260000 133 165 139 0
12.540000 25.300000 40.480000 136 165 140 0
12.760000 25.300000 41.800000 136 165 140 0
12.980000 25.300000 31.020000 135 164 139 0
13.200000 25.300000 10.340000 135 164 139 0
13.860000 25.300000 0.880000 134 166 140 0
14.080000 25.300000 0.880000 134 166 140 0
14.300000 25.300000 0.880000 136 165 140 0
14.520000 25.300000 2.420000 136 165 140 0
14.740000 25.300000 2.420000 135 164 139 0
14.960000 25.300000 2.420000 137 166 141 0
15.180000 25.300000 2.640000 136 168 142 0
15.400000 25.300000 1.100000 135 167 141 0
15.620000 25.300000 1.320000 137 166 141 0
15.840000 25.300000 2.640000 137 166 141 0
16.060000 25.300000 2.420000 138 167 142 0
16.280000 25.300000 4.620000 138 167 142 0
16.500000 25.300000 5.720000 138 167 142 0
16.720000 25.300000 5.720000 138 167 142 0
16.940000 25.300000 5.720000 136 168 142 0
17.160000 25.300000 5.720000 135 167 141 0
17.380000 25.300000 5.720000 139 168 143 0
17.600000 25.300000 5.940000 138 167 142 0
17.820000 25.300000 5.940000 138 167 142 0
18.040000 25.300000 5.940000 137 166 141 0
18.260000 25.300000 6.160000 138 167 142 0
18.480000 25.300000 6.160000 137 166 141 0
18.700000 25.300000 6.160000 138 167 142 0
18.920000 25.300000 6.160000 139 168 143 0
19.140000 25.300000 6.380000 138 167 142 0
19.360000 25.300000 7.700000 138 167 142 0
19.580000 25.300000 7.920000 137 166 141 0
19.800000 25.300000 7.920000 138 167 142 0
20.020000 25.300000 7.920000 139 168 143 0
20.240000 25.300000 8.140000 138 167 142 0
20.460000 25.300000 8.140000 139 168 143 0
20.680000 25.300000 8.140000 139 168 143 0
20.900000 25.300000 8.140000 139 168 143 0
21.120000 25.300000 9.240000 140 169 144 0
21.340000 25.300000 10.120000 140 167 143 0
21.560000 25.300000 11.220000 141 168 144 0
21.780000 25.300000 11.220000 140 169 144 0
22.000000 25.300000 12.540000 140 169 144 0
22.220000 25.300000 12.760000 141 170 145 0
22.440000 25.300000 12.760000 140 169 144 0
22.660000 25.300000 12.760000 140 167 143 0
22.880000 25.300000 12.760000 141 168 144 0
23.100000 25.300000 12.980000 140 167 143 0
23.320000 25.300000 12.980000 141 168 144 0
23.540000 25.300000 14.520000 140 167 143 0
23.760000 25.300000 14.520000 140 167 143 0
23.980000 25.300000 14.520000 140 167 143 0
24.200000 25.300000 14.520000 141 168 144 0
24.420000 25.300000 14.740000 141 168 144 0
24.640000 25.300000 16.280000 142 169 145 0
24.860000 25.300000 16.280000 142 169 147 0
25.080000 25.300000 16.280000 142 169 147 0
25.300000 25.300000 17.820000 142 169 145 0
25.520000 25.300000 17.820000 142 169 145 0
25.740000 25.300000 17.820000 140 167 145 0
25.960000 25.300000 17.820000 140 167 145 0
26.180000 25.300000 18.920000 140 167 143 0
26.400000 25.300000 21.120000 141 168 144 0
26.620000 25.300000 22.220000 142 169 147 0
26.840000 25.300000 22.220000 141 168 146 0
27.060000 25.300000 23.760000 144 168 147 0
27.280000 25.300000 23.760000 144 168 147 0
27.500000 25.300000 23.760000 143 170 148 0
27.720000 25.300000 25.300000 143 170 148 0
27.940000 25.300000 25.300000 142 169 145 0
28.160000 25.300000 25.300000 142 169 145 0
28.380000 25.300000 25.520000 145 169 148 0
28.600000 25.300000 25.520000 145 169 148 0
28.820000 25.300000 27.060000 146 170 149 0
29.040000 25.300000 27.060000 146 170 149 0
29.260000 25.300000 27.060000 146 171 147 0
29.480000 25.300000 27.280000 146 171 147 0
29.700000 25.300000 27.280000 146 170 149 0
29.920000 25.300000 27.280000 145 169 148 0
30.140000 25.300000 27.500000 147 172 148 0
30.360000 25.300000 28.820000 149 174 150 0
30.580000 25.300000 28.820000 148 171 148 0
30.800000 25.300000 29.040000 149 172 149 0
31.020000 25.300000 28.600000 147 170 149 0
31.240000 25.300000 30.800000 147 170 149 0
31.460000 25.300000 31.900000 146 169 148 0
31.680000 25.300000 31.900000 145 168 147 0
31.900000 25.300000 31.900000 147 168 150 0
32.120000 25.300000 32.120000 146 167 149 0
32.340000 25.300000 32.120000 146 167 149 0
32.560000 25.300000 32.120000 146 167 149 0
32.780000 25.300000 32.120000 147 168 148 0
33.000000 25.300000 33.660000 147 168 148 0
33.220000 25.300000 33.660000 147 168 148 0
33.440000 25.300000 33.880000 147 168 148 0
33.660000 25.300000 33.880000 148 169 151 0
33.880000 25.300000 33.880000 147 168 150 0
34.100000 25.300000 34.100000 147 168 148 0
34.320000 25.300000 34.100000 147 168 148 0
34.540000 25.300000 34.100000 150 168 149 0
34.760000 25.300000 34.320000 150 168 149 0
34.980000 25.300000 34.320000 150 168 151 0
35.200000 25.300000 34.320000 149 167 150 0
35.420000 25.300000 34.540000 149 167 150 0
35.640000 25.300000 35.640000 150 168 151 0
35.860000 25.300000 37.620000 150 168 151 0
36.080000 25.300000 38.720000 149 167 150 0
36.300000 25.300000 40.260000 151 169 150 0
36.520000 25.300000 30.580000 154 172 153 0
36.740000 25.300000 9.900000 152 173 155 0
36.960000 25.300000 0.220000 151 172 154 0
37.180000 25.300000 0.220000 153 171 154 0
0.000000 25.520000 33.000000 132 166 136 0
0.220000 25.520000 33.000000 131 163 137 0
0.440000 25.520000 34.320000 130 162 136 0
0.660000 25.520000 34.320000 130 162 136 0
0.880000 25.520000 34.320000 130 162 136 0
1.100000 25.520000 34.320000 129 161 133 0
1.320000 25.520000 34.320000 129 161 133 0
1.540000 25.520000 34.320000 131 163 135 0
1.760000 25.520000 34.320000 131 163 135 0
1.980000 25.520000 34.320000 131 163 135 0
2.200000 25.520000 34.320000 131 163 135 0
2.420000 25.520000 34.320000 132 164 136 0
2.640000 25.520000 34.320000 131 163 135 0
2.860000 25.520000 34.540000 130 164 135 0
3.080000 25.520000 34.540000 130 164 135 0
3.300000 25.520000 35.640000 134 163 136 0
3.520000 25.520000 36.300000 135 164 137 0
3.740000 25.520000 37.400000 133 165 137 0
3.960000 25.520000 37.400000 133 165 137 0
4.180000 25.520000 37.400000 133 165 139 0
4.400000 25.520000 38.940000 132 164 138 0
4.620000 25.520000 38.940000 131 165 135 0
4.840000 25.520000 38.940000 132 166 136 0
5.060000 25.520000 39.160000 134 166 138 0
5.280000 25.520000 39.160000 135 167 139 0
5.500000 25.520000 39.160000 134 166 138 0
5.720000 25.520000 39.160000 135 167 139 0
5.940000 25.520000 40.700000 135 167 141 0
6.160000 25.520000 40.700000 134 166 140 0
6.380000 25.520000 40.920000 133 165 137 0
6.600000 25.520000 38.060000 133 165 137 0
6.820000 25.520000 25.740000 133 165 137 0
7.040000 25.520000 6.600000 134 166 138 0
8.580000 25.520000 9.240000 134 166 138 0
8.800000 25.520000 21.120000 134 166 138 0
9.020000 25.520000 11.220000 134 166 138 0
9.240000 25.520000 9.900000 134 166 138 0
9.460000 25.520000 30.800000 134 166 138 0
9.680000 25.520000 31.020000 134 166 138 0
9.900000 25.520000 20.240000 134 166 140 0
10.120000 25.520000 30.140000 135 167 141 0
10.340000 25.520000 39.820000 135 166 143 0
10.560000 25.520000 39.820000 136 167 144 0
10.780000 25.520000 40.040000 134 168 139 0
11.000000 25.520000 40.040000 133 167 138 0
11.220000 25.520000 41.140000 135 167 141 0
11.440000 25.520000 41.800000 136 168 142 0
11.660000 25.520000 41.580000 134 167 141 0
11.880000 25.520000 40.260000 133 166 140 0
12.100000 25.520000 40.260000 133 165 139 0
12.320000 25.520000 40.260000 134 166 140 0
12.540000 25.520000 40.480000 132 165 139 0
12.760000 25.520000 40.480000 133 166 140 0
12.980000 25.520000 33.660000 133 166 140 0
13.200000 25.520000 15.840000 133 166 140 0
13.420000 25.520000 1.980000 134 167 141 0
13.860000 25.520000 0.880000 135 166 143 0
14.080000 25.520000 0.880000 134 165 142 0
14.300000 25.520000 0.880000 133 166 140 0
14.520000 25.520000 2.420000 133 166 140 0
14.740000 25.520000 2.420000 134 167 141 0
14.960000 25.520000 2.420000 134 167 141 0
15.180000 25.520000 2.640000 135 168 142 0
15.400000 25.520000 1.100000 134 167 141 0
15.620000 25.520000 2.640000 136 168 142 0
15.840000 25.520000 2.640000 136 168 142 0
16.060000 25.520000 2.420000 136 168 142 0
16.280000 25.520000 4.620000 136 168 142 0
16.500000 25.520000 5.720000 136 168 142 0
16.720000 25.520000 5.720000 136 168 142 0
16.940000 25.520000 5.720000 135 168 142 0
17.160000 25.520000 5.720000 135 168 142 0
17.380000 25.520000 5.720000 136 168 142 0
17.600000 25.520000 5.940000 137 169 143 0
17.820000 25.520000 5.940000 136 170 141 0
18.040000 25.520000 5.940000 135 169 140 0
18.260000 25.520000 6.160000 136 168 142 0
18.480000 25.520000 6.160000 136 168 142 0
18.700000 25.520000 6.160000 136 168 142 0
18.920000 25.520000 6.160000 136 168 142 0
19.140000 25.520000 6.380000 139 168 143 0
19.360000 25.520000 7.700000 138 167 142 0
19.580000 25.520000 7.920000 139 168 143 0
19.800000 25.520000 7.920000 138 167 142 0
20.020000 25.520000 7.920000 138 167 142 0
20.240000 25.520000 8.140000 139 168 143 0
20.460000 25.520000 8.140000 138 167 144 0
20.680000 25.520000 8.140000 139 168 145 0
20.900000 25.520000 8.140000 140 169 144 0
21.120000 25.520000 9.240000 140 169 144 0
21.340000 25.520000 10.120000 138 170 144 0
21.560000 25.520000 11.220000 138 170 144 0
21.780000 25.520000 11.220000 140 169 144 0
22.000000 25.520000 12.540000 138 167 142 0
22.220000 25.520000 12.760000 140 167 145 0
22.440000 25.520000 12.760000 140 167 145 0
22.660000 25.520000 12.760000 141 168 146 0
22.880000 25.520000 12.760000 140 167 145 0
23.100000 25.520000 12.980000 139 168 143 0
23.320000 25.520000 12.980000 139 168 143 0
23.540000 25.520000 12.980000 140 167 145 0
23.760000 25.520000 14.520000 141 168 146 0
23.980000 25.520000 14.520000 140 167 145 0
24.200000 25.520000 14.520000 140 167 145 0
24.420000 25.520000 14.740000 139 168 143 0
24.640000 25.520000 16.280000 141 170 145 0
24.860000 25.520000 16.280000 140 169 144 0
25.080000 25.520000 16.280000 141 170 145 0
25.300000 25.520000 17.820000 143 167 146 0
25.520000 25.520000 17.820000 144 168 147 0
25.740000 25.520000 17.820000 142 169 147 0
25.960000 25.520000 17.820000 141 168 146 0
26.180000 25.520000 18.920000 140 167 145 0
26.400000 25.520000 21.120000 139 166 144 0
26.620000 25.520000 22.220000 140 167 143 0
26.840000 25.520000 22.220000 140 167 143 0
27.060000 25.520000 23.760000 144 168 147 0
27.280000 25.520000 23.760000 144 168 147 0
27.500000 25.520000 23.760000 143 170 148 0
27.720000 25.520000 25.300000 143 170 148 0
27.940000 25.520000 25.300000 142 169 145 0
28.160000 25.520000 25.300000 142 169 145 0
28.380000 25.520000 25.520000 144 168 147 0
28.600000 25.520000 25.520000 145 169 148 0
28.820000 25.520000 27.060000 145 169 148 0
29.040000 25.520000 27.060000 146 170 149 0
29.260000 25.520000 27.060000 146 170 149 0
29.480000 25.520000 27.280000 145 169 148 0
29.700000 25.520000 27.280000 144 169 145 0
29.920000 25.520000 27.280000 144 169 145 0
30.140000 25.520000 27.280000 147 170 149 0
30.360000 25.520000 28.820000 147 170 149 0
30.580000 25.520000 28.820000 146 170 149 0
30.800000 25.520000 29.040000 146 170 149 0
31.020000 25.520000 28.600000 146 170 149 0
31.240000 25.520000 30.800000 145 169 148 0
31.460000 25.520000 31.900000 145 168 147 0
31.680000 25.520000 31.900000 146 169 148 0
31.900000 25.520000 31.900000 146 169 148 0
32.120000 25.520000 32.120000 146 169 148 0
32.340000 25.520000 32.120000 145 167 149 0
32.560000 25.520000 32.120000 146 168 150 0
32.780000 25.520000 32.120000 146 169 148 0
33.000000 25.520000 33.660000 146 169 148 0
33.220000 25.520000 33.660000 146 169 148 0
33.440000 25.520000 33.880000 146 169 148 0
33.660000 25.520000 33.880000 147 168 150 0
33.880000 25.520000 33.880000 147 168 150 0
34.100000 25.520000 34.100000 148 169 149 0
34.320000 25.520000 34.100000 148 169 149 0
34.540000 25.520000 34.100000 151 169 150 0
34.760000 25.520000 34.320000 151 169 150 0
34.980000 25.520000 34.320000 151 169 152 0
35.200000 25.520000 34.320000 150 168 151 0
35.420000 25.520000 34.540000 148 169 151 0
35.640000 25.520000 35.640000 148 169 151 0
35.860000 25.520000 37.620000 149 170 152 0
36.080000 25.520000 38.720000 148 169 151 0
36.300000 25.520000 40.260000 150 168 151 0
36.520000 25.520000 30.580000 152 170 153 0
36.740000 25.520000 9.900000 152 170 153 0
36.960000 25.520000 0.220000 154 172 155 0
37.180000 25.520000 0.220000 152 169 154 0
0.000000 25.740000 33.000000 132 166 136 0
0.220000 25.740000 33.000000 132 164 138 0
0.440000 25.740000 34.320000 129 161 135 0
0.660000 25.740000 34.320000 129 161 135 0
0.880000 25.740000 34.320000 130 162 136 0
1.100000 25.740000 34.320000 130 162 134 0
1.320000 25.740000 34.320000 130 162 134 0
1.540000 25.740000 34.320000 129 161 133 0
1.760000 25.740000 34.320000 129 161 133 0
1.980000 25.740000 34.320000 131 163 135 0
2.200000 25.740000 34.320000 130 162 134 0
2.420000 25.740000 34.320000 131 163 135 0
2.640000 25.740000 34.320000 131 163 135 0
2.860000 25.740000 34.540000 129 163 134 0
3.080000 25.740000 34.540000 129 163 134 0
3.300000 25.740000 35.640000 132 161 134 0
3.520000 25.740000 37.620000 134 163 136 0
3.740000 25.740000 37.400000 133 165 137 0
3.960000 25.740000 37.400000 132 164 136 0
4.180000 25.740000 37.400000 132 164 138 0
4.400000 25.740000 37.620000 132 164 138 0
4.620000 25.740000 38.940000 132 166 136 0
4.840000 25.740000 38.940000 131 165 135 0
5.060000 25.740000 39.160000 131 163 135 0
5.280000 25.740000 39.160000 132 164 136 0
5.500000 25.740000 39.160000 133 165 137 0
5.720000 25.740000 39.160000 133 165 137 0
5.940000 25.740000 40.700000 133 165 139 0
6.160000 25.740000 40.700000 133 165 139 0
6.380000 25.740000 40.920000 132 164 136 0
6.600000 25.740000 40.920000 132 164 136 0
6.820000 25.740000 29.920000 132 164 136 0
7.040000 25.740000 9.240000 134 166 138 0
8.580000 25.740000 9.240000 134 166 138 0
8.800000 25.740000 21.120000 134 166 138 0
9.020000 25.740000 11.220000 133 165 137 0
9.240000 25.740000 9.900000 135 167 139 0
9.460000 25.740000 30.800000 134 166 138 0
9.680000 25.740000 31.020000 134 166 138 0
9.900000 25.740000 20.240000 134 166 140 0
10.120000 25.740000 30.140000 135 167 141 0
10.340000 25.740000 39.820000 134 165 142 0
10.560000 25.740000 39.820000 134 165 142 0
10.780000 25.740000 40.040000 135 169 140 0
11.000000 25.740000 40.040000 135 169 140 0
11.220000 25.740000 41.140000 134 166 140 0
11.440000 25.740000 41.800000 134 166 140 0
11.660000 25.740000 41.580000 133 166 140 0
11.880000 25.740000 40.260000 133 166 140 0
12.100000 25.740000 40.260000 133 165 139 0
12.320000 25.740000 40.260000 134 166 140 0
12.540000 25.740000 40.480000 133 166 140 0
12.760000 25.740000 40.480000 134 167 141 0
12.980000 25.740000 39.160000 135 168 142 0
13.200000 25.740000 25.520000 134 167 141 0
13.420000 25.740000 7.480000 134 167 141 0
13.860000 25.740000 0.880000 135 166 143 0
14.080000 25.740000 0.880000 134 165 142 0
14.300000 25.740000 0.880000 133 166 140 0
14.520000 25.740000 2.420000 134 167 141 0
14.740000 25.740000 2.420000 132 165 139 0
14.960000 25.740000 2.420000 134 167 141 0
15.180000 25.740000 2.640000 134 167 141 0
15.400000 25.740000 1.100000 134 167 141 0
15.620000 25.740000 2.640000 135 167 141 0
15.840000 25.740000 2.640000 136 168 142 0
16.060000 25.740000 2.420000 136 168 142 0
16.280000 25.740000 4.620000 135 167 141 0
16.500000 25.740000 5.720000 136 168 142 0
16.720000 25.740000 5.720000 136 168 142 0
16.940000 25.740000 5.720000 135 168 142 0
17.160000 25.740000 5.720000 135 168 142 0
17.380000 25.740000 5.720000 136 168 142 0
17.600000 25.740000 5.940000 136 168 142 0
17.820000 25.740000 5.940000 136 170 141 0
18.040000 25.740000 5.940000 136 170 141 0
18.260000 25.740000 6.160000 136 168 142 0
18.480000 25.740000 6.160000 135 167 141 0
18.700000 25.740000 6.160000 136 168 142 0
18.920000 25.740000 6.160000 136 168 142 0
19.140000 25.740000 6.380000 138 167 142 0
19.360000 25.740000 6.380000 138 167 142 0
19.580000 25.740000 7.920000 138 167 142 0
19.800000 25.740000 7.920000 138 167 142 0
20.020000 25.740000 7.920000 139 168 143 0
20.240000 25.740000 8.140000 139 168 143 0
20.460000 25.740000 8.140000 138 167 144 0
20.680000 25.740000 8.140000 138 167 144 0
20.900000 25.740000 8.140000 139 168 143 0
21.120000 25.740000 9.240000 141 170 145 0
21.340000 25.740000 10.120000 139 171 145 0
21.560000 25.740000 11.220000 139 171 145 0
21.780000 25.740000 11.220000 139 168 143 0
22.000000 25.740000 12.540000 139 168 143 0
22.220000 25.740000 12.760000 140 167 145 0
22.440000 25.740000 12.760000 140 167 145 0
22.660000 25.740000 12.760000 140 167 145 0
22.880000 25.740000 12.760000 140 167 145 0
23.100000 25.740000 12.980000 139 168 143 0
23.320000 25.740000 12.980000 139 168 143 0
23.540000 25.740000 12.980000 140 167 145 0
23.760000 25.740000 14.520000 140 167 145 0
23.980000 25.740000 14.520000 140 167 145 0
24.200000 25.740000 14.520000 141 168 146 0
24.420000 25.740000 14.740000 140 169 144 0
24.640000 25.740000 16.060000 141 170 145 0
24.860000 25.740000 16.280000 140 169 144 0
25.080000 25.740000 16.280000 141 170 145 0
25.300000 25.740000 17.820000 144 168 147 0
25.520000 25.740000 17.820000 144 168 147 0
25.740000 25.740000 17.820000 141 168 146 0
25.960000 25.740000 17.820000 141 168 146 0
26.180000 25.740000 18.920000 141 168 146 0
26.400000 25.740000 21.120000 140 167 145 0
26.620000 25.740000 22.220000 140 167 143 0
26.840000 25.740000 23.540000 141 168 144 0
27.060000 25.740000 23.760000 142 166 145 0
27.280000 25.740000 23.760000 143 167 146 0
27.500000 25.740000 23.760000 141 168 146 0
27.720000 25.740000 25.300000 142 169 147 0
27.940000 25.740000 25.300000 142 169 145 0
28.160000 25.740000 25.300000 142 169 145 0
28.380000 25.740000 25.520000 144 168 147 0
28.600000 25.740000 25.520000 144 168 147 0
28.820000 25.740000 27.060000 144 168 147 0
29.040000 25.740000 27.060000 144 168 147 0
29.260000 25.740000 27.060000 144 168 147 0
29.480000 25.740000 27.280000 144 168 147 0
29.700000 25.740000 27.280000 144 169 145 0
29.920000 25.740000 27.280000 145 170 146 0
30.140000 25.740000 28.820000 146 169 148 0
30.360000 25.740000 28.820000 146 169 148 0
30.580000 25.740000 28.820000 145 169 148 0
30.800000 25.740000 29.040000 144 168 147 0
31.020000 25.740000 28.600000 144 168 147 0
31.240000 25.740000 30.800000 144 168 147 0
31.460000 25.740000 31.900000 145 168 147 0
31.680000 25.740000 31.900000 145 168 147 0
31.900000 25.740000 31.900000 145 168 147 0
32.120000 25.740000 32.120000 146 169 148 0
32.340000 25.740000 32.120000 145 167 149 0
32.560000 25.740000 32.120000 145 167 149 0
32.780000 25.740000 33.660000 146 169 148 0
33.000000 25.740000 33.660000 145 168 147 0
33.220000 25.740000 33.660000 145 168 147 0
33.440000 25.740000 33.880000 146 169 148 0
33.660000 25.740000 33.880000 148 169 151 0
33.880000 25.740000 33.880000 148 169 151 0
34.100000 25.740000 34.100000 148 169 149 0
34.320000 25.740000 34.100000 148 169 149 0
34.540000 25.740000 34.100000 150 168 149 0
34.760000 25.740000 34.320000 151 169 150 0
34.980000 25.740000 34.320000 151 169 152 0
35.200000 25.740000 34.320000 150 168 151 0
35.420000 25.740000 34.320000 147 168 150 0
35.640000 25.740000 35.640000 148 169 151 0
35.860000 25.740000 37.620000 147 168 150 0
36.080000 25.740000 38.720000 148 169 151 0
36.300000 25.740000 40.260000 149 167 150 0
36.520000 25.740000 30.580000 150 168 151 0
36.740000 25.740000 9.900000 151 169 152 0
36.960000 25.740000 0.220000 151 169 152 0
37.180000 25.740000 0.220000 151 168 153 0
0.000000 25.960000 33.000000 132 164 135 0
0.220000 25.960000 33.000000 135 164 137 0
0.440000 25.960000 34.320000 132 161 134 0
0.660000 25.960000 34.320000 132 161 136 0
0.880000 25.960000 34.320000 132 161 136 0
1.100000 25.960000 34.320000 129 161 132 0
1.320000 25.960000 34.320000 130 162 133 0
1.540000 25.960000 34.320000 132 161 134 0
1.760000 25.960000 34.320000 132 161 134 0
1.980000 25.960000 34.320000 133 162 135 0
2.200000 25.960000 34.320000 133 162 135 0
2.420000 25.960000 34.320000 134 163 136 0
2.640000 25.960000 34.320000 133 162 135 0
2.860000 25.960000 34.540000 131 163 134 0
3.080000 25.960000 34.540000 130 162 133 0
3.300000 25.960000 35.640000 132 161 134 0
3.520000 25.960000 37.620000 133 162 135 0
3.740000 25.960000 37.400000 133 165 136 0
3.960000 25.960000 37.400000 133 165 136 0
4.180000 25.960000 37.400000 133 165 136 0
4.400000 25.960000 37.620000 133 165 136 0
4.620000 25.960000 38.940000 133 165 136 0
4.840000 25.960000 38.940000 132 164 135 0
5.060000 25.960000 39.160000 135 164 137 0
5.280000 25.960000 39.160000 134 163 136 0
5.500000 25.960000 39.160000 134 163 136 0
5.720000 25.960000 39.160000 135 164 137 0
5.940000 25.960000 40.700000 131 165 135 0
6.160000 25.960000 40.700000 132 166 136 0
6.380000 25.960000 40.920000 133 165 136 0
6.600000 25.960000 40.920000 133 165 136 0
6.820000 25.960000 29.920000 135 164 137 0
7.040000 25.960000 9.240000 135 164 137 0
8.580000 25.960000 9.240000 134 166 138 0
8.800000 25.960000 21.120000 134 166 138 0
9.020000 25.960000 11.220000 133 165 137 0
9.240000 25.960000 9.900000 134 166 138 0
9.460000 25.960000 30.800000 134 166 137 0
9.680000 25.960000 31.020000 134 166 137 0
9.900000 25.960000 20.240000 134 166 138 0
10.120000 25.960000 30.140000 135 167 139 0
10.340000 25.960000 39.820000 135 167 139 0
10.560000 25.960000 39.820000 135 167 139 0
10.780000 25.960000 40.040000 135 167 139 0
11.000000 25.960000 40.040000 135 167 139 0
11.220000 25.960000 41.140000 133 165 136 0
11.440000 25.960000 41.800000 133 165 136 0
11.660000 25.960000 41.580000 136 165 140 0
11.880000 25.960000 40.260000 136 165 140 0
12.100000 25.960000 40.260000 133 165 139 0
12.320000 25.960000 40.260000 134 166 140 0
12.540000 25.960000 40.480000 137 166 141 0
12.760000 25.960000 40.480000 137 166 141 0
12.980000 25.960000 42.020000 135 167 139 0
13.200000 25.960000 31.020000 136 168 140 0
13.420000 25.960000 10.340000 135 167 141 0
13.860000 25.960000 0.880000 135 167 141 0
14.080000 25.960000 0.880000 135 167 141 0
14.300000 25.960000 2.200000 135 169 140 0
14.520000 25.960000 2.420000 133 167 138 0
14.740000 25.960000 2.420000 134 166 138 0
14.960000 25.960000 2.420000 134 166 138 0
15.180000 25.960000 2.640000 136 168 142 0
15.400000 25.960000 2.640000 135 167 141 0
15.620000 25.960000 2.640000 135 167 141 0
15.840000 25.960000 2.640000 136 168 142 0
16.060000 25.960000 2.420000 135 167 141 0
16.280000 25.960000 4.620000 135 167 141 0
16.500000 25.960000 5.720000 137 166 141 0
16.720000 25.960000 5.720000 138 167 142 0
16.940000 25.960000 5.720000 136 168 142 0
17.160000 25.960000 5.720000 136 168 142 0
17.380000 25.960000 5.720000 136 168 142 0
17.600000 25.960000 5.940000 136 168 142 0
17.820000 25.960000 5.940000 138 170 142 0
18.040000 25.960000 5.940000 137 169 141 0
18.260000 25.960000 6.160000 136 168 140 0
18.480000 25.960000 6.160000 136 168 140 0
18.700000 25.960000 6.160000 137 169 143 0
18.920000 25.960000 6.160000 136 168 142 0
19.140000 25.960000 6.380000 136 168 142 0
19.360000 25.960000 6.380000 137 169 143 0
19.580000 25.960000 6.380000 138 167 140 0
19.800000 25.960000 7.920000 139 168 141 0
20.020000 25.960000 7.920000 141 168 144 0
20.240000 25.960000 8.140000 140 167 143 0
20.460000 25.960000 8.140000 139 168 143 0
20.680000 25.960000 8.140000 139 168 143 0
20.900000 25.960000 8.140000 140 169 142 0
21.120000 25.960000 9.240000 141 170 143 0
21.340000 25.960000 10.120000 142 171 144 0
21.560000 25.960000 11.220000 141 170 143 0
21.780000 25.960000 11.220000 140 167 145 0
22.000000 25.960000 11.220000 140 167 145 0
22.220000 25.960000 12.760000 139 168 143 0
22.440000 25.960000 12.760000 139 168 143 0
22.660000 25.960000 12.760000 140 168 141 0
22.880000 25.960000 12.760000 140 168 141 0
23.100000 25.960000 12.980000 138 167 142 0
23.320000 25.960000 12.980000 139 168 143 0
23.540000 25.960000 12.980000 139 166 142 0
23.760000 25.960000 14.520000 139 166 142 0
23.980000 25.960000 14.520000 140 167 143 0
24.200000 25.960000 14.520000 140 167 143 0
24.420000 25.960000 14.740000 141 169 142 0
24.640000 25.960000 16.060000 142 170 143 0
24.860000 25.960000 16.280000 141 168 144 0
25.080000 25.960000 16.280000 142 169 145 0
25.300000 25.960000 17.820000 144 169 145 0
25.520000 25.960000 17.820000 144 169 145 0
25.740000 25.960000 17.820000 141 168 144 0
25.960000 25.960000 17.820000 142 169 145 0
26.180000 25.960000 18.920000 143 168 144 0
26.400000 25.960000 21.120000 143 168 144 0
26.620000 25.960000 22.220000 141 168 144 0
26.840000 25.960000 23.540000 140 167 143 0
27.060000 25.960000 23.760000 140 167 145 0
27.280000 25.960000 23.760000 141 168 146 0
27.500000 25.960000 23.760000 141 165 144 0
27.720000 25.960000 25.300000 143 167 146 0
27.940000 25.960000 25.300000 143 168 144 0
28.160000 25.960000 25.300000 144 169 145 0
28.380000 25.960000 25.520000 144 167 146 0
28.600000 25.960000 25.520000 144 167 146 0
28.820000 25.960000 27.060000 143 167 146 0
29.040000 25.960000 27.060000 144 168 147 0
29.260000 25.960000 27.060000 146 169 148 0
29.480000 25.960000 27.280000 146 169 148 0
29.700000 25.960000 27.280000 146 169 148 0
29.920000 25.960000 27.280000 145 168 147 0
30.140000 25.960000 28.820000 145 168 147 0
30.360000 25.960000 28.820000 145 168 147 0
30.580000 25.960000 28.820000 145 168 147 0
30.800000 25.960000 29.040000 145 168 147 0
31.020000 25.960000 28.600000 145 168 147 0
31.240000 25.960000 30.800000 144 167 146 0
31.460000 25.960000 31.900000 145 168 147 0
31.680000 25.960000 31.900000 146 169 148 0
31.900000 25.960000 31.900000 148 169 147 0
32.120000 25.960000 32.120000 147 168 146 0
32.340000 25.960000 32.120000 147 168 148 0
32.560000 25.960000 32.120000 147 168 148 0
32.780000 25.960000 33.660000 145 168 147 0
33.000000 25.960000 33.660000 145 168 147 0
33.220000 25.960000 33.660000 147 168 148 0
33.440000 25.960000 33.880000 146 167 147 0
33.660000 25.960000 33.880000 147 168 146 0
33.880000 25.960000 33.880000 148 169 147 0
34.100000 25.960000 34.100000 150 168 149 0
34.320000 25.960000 34.100000 150 168 149 0
34.540000 25.960000 34.100000 147 170 149 0
34.760000 25.960000 34.320000 149 172 151 0
34.980000 25.960000 34.320000 150 171 151 0
35.200000 25.960000 34.320000 149 170 150 0
35.420000 25.960000 34.320000 149 167 148 0
35.640000 25.960000 35.420000 148 166 147 0
35.860000 25.960000 37.620000 147 168 148 0
36.080000 25.960000 38.720000 148 169 149 0
36.300000 25.960000 40.260000 147 170 149 0
36.520000 25.960000 30.580000 147 170 149 0
36.740000 25.960000 9.900000 150 168 151 0
36.960000 25.960000 0.220000 150 168 151 0
37.180000 25.960000 0.220000 148 169 149 0
0.000000 26.180000 33.000000 132 164 135 0
0.220000 26.180000 33.000000 134 163 136 0
0.440000 26.180000 34.320000 133 162 135 0
0.660000 26.180000 34.320000 133 162 137 0
0.880000 26.180000 34.320000 132 161 136 0
1.100000 26.180000 34.320000 130 162 133 0
1.320000 26.180000 34.320000 129 161 132 0
1.540000 26.180000 34.320000 133 162 135 0
1.760000 26.180000 34.320000 132 161 134 0
1.980000 26.180000 34.320000 132 161 134 0
2.200000 26.180000 34.320000 133 162 135 0
2.420000 26.180000 34.320000 133 162 135 0
2.640000 26.180000 34.320000 133 162 135 0
2.860000 26.180000 34.540000 132 164 135 0
3.080000 26.180000 34.540000 132 164 135 0
3.300000 26.180000 35.640000 133 162 135 0
3.520000 26.180000 37.620000 134 163 136 0
3.740000 26.180000 37.400000 132 164 135 0
3.960000 26.180000 37.400000 133 165 136 0
4.180000 26.180000 37.400000 133 165 136 0
4.400000 26.180000 38.940000 133 165 136 0
4.620000 26.180000 38.940000 133 165 136 0
4.840000 26.180000 38.940000 132 164 135 0
5.060000 26.180000 39.160000 135 164 137 0
5.280000 26.180000 39.160000 134 163 136 0
5.500000 26.180000 39.160000 133 162 135 0
5.720000 26.180000 39.160000 134 163 136 0
5.940000 26.180000 40.700000 131 165 135 0
6.160000 26.180000 40.700000 131 165 135 0
6.380000 26.180000 40.920000 132 164 135 0
6.600000 26.180000 40.920000 133 165 136 0
6.820000 26.180000 29.920000 135 164 137 0
7.040000 26.180000 9.240000 136 165 138 0
8.580000 26.180000 9.240000 133 165 137 0
8.800000 26.180000 21.120000 132 164 136 0
9.020000 26.180000 11.220000 134 166 138 0
9.240000 26.180000 9.900000 134 166 138 0
9.460000 26.180000 30.800000 134 166 137 0
9.680000 26.180000 31.020000 135 167 138 0
9.900000 26.180000 20.240000 135 167 139 0
10.120000 26.180000 29.920000 134 166 138 0
10.340000 26.180000 39.820000 134 166 138 0
10.560000 26.180000 39.820000 134 166 138 0
10.780000 26.180000 40.040000 134 166 138 0
11.000000 26.180000 40.040000 134 166 138 0
11.220000 26.180000 41.140000 135 167 138 0
11.440000 26.180000 41.800000 134 166 137 0
11.660000 26.180000 41.580000 137 166 141 0
11.880000 26.180000 40.260000 136 165 140 0
12.100000 26.180000 40.260000 134 166 140 0
12.320000 26.180000 40.260000 133 165 139 0
12.540000 26.180000 40.480000 136 165 140 0
12.760000 26.180000 40.480000 136 165 140 0
12.980000 26.180000 42.020000 135 167 139 0
13.200000 26.180000 31.020000 136 168 140 0
13.420000 26.180000 10.340000 135 167 141 0
13.860000 26.180000 0.880000 134 166 140 0
14.080000 26.180000 0.880000 135 167 141 0
14.300000 26.180000 2.200000 136 170 141 0
14.520000 26.180000 2.420000 136 170 141 0
14.740000 26.180000 2.420000 136 168 140 0
14.960000 26.180000 2.420000 136 168 140 0
15.180000 26.180000 2.640000 136 168 142 0
15.400000 26.180000 2.640000 135 167 141 0
15.620000 26.180000 2.640000 134 166 140 0
15.840000 26.180000 2.640000 135 167 141 0
16.060000 26.180000 2.420000 136 168 142 0
16.280000 26.180000 4.620000 134 166 140 0
16.500000 26.180000 5.500000 137 166 141 0
16.720000 26.180000 5.720000 138 167 142 0
16.940000 26.180000 5.720000 136 168 142 0
17.160000 26.180000 5.720000 137 169 143 0
17.380000 26.180000 5.720000 136 168 142 0
17.600000 26.180000 5.940000 136 168 142 0
17.820000 26.180000 5.940000 137 169 141 0
18.040000 26.180000 5.940000 137 169 141 0
18.260000 26.180000 6.160000 137 169 141 0
18.480000 26.180000 6.160000 137 169 141 0
18.700000 26.180000 6.160000 136 168 142 0
18.920000 26.180000 6.160000 136 168 142 0
19.140000 26.180000 6.380000 136 168 142 0
19.360000 26.180000 6.380000 137 169 143 0
19.580000 26.180000 6.380000 138 167 140 0
19.800000 26.180000 7.920000 140 169 142 0
20.020000 26.180000 7.920000 140 167 143 0
20.240000 26.180000 8.140000 140 167 143 0
20.460000 26.180000 8.140000 138 167 142 0
20.680000 26.180000 8.140000 139 168 143 0
20.900000 26.180000 8.140000 139 168 141 0
21.120000 26.180000 9.240000 140 169 142 0
21.340000 26.180000 10.120000 142 171 144 0
21.560000 26.180000 11.220000 141 170 143 0
21.780000 26.180000 11.220000 140 167 145 0
22.000000 26.180000 11.220000 139 166 144 0
22.220000 26.180000 12.760000 139 168 143 0
22.440000 26.180000 12.760000 138 167 142 0
22.660000 26.180000 12.760000 140 168 141 0
22.880000 26.180000 12.760000 140 168 141 0
23.100000 26.180000 12.980000 138 167 142 0
23.320000 26.180000 12.980000 138 167 142 0
23.540000 26.180000 12.980000 139 166 142 0
23.760000 26.180000 14.520000 140 167 143 0
23.980000 26.180000 14.520000 139 166 142 0
24.200000 26.180000 14.520000 141 168 144 0
24.420000 26.180000 14.740000 140 168 141 0
24.640000 26.180000 16.060000 142 170 143 0
24.860000 26.180000 16.280000 142 169 145 0
25.080000 26.180000 16.280000 141 168 144 0
25.300000 26.180000 17.820000 144 169 145 0
25.520000 26.180000 17.820000 144 169 145 0
25.740000 26.180000 17.820000 143 170 146 0
25.960000 26.180000 17.820000 141 168 144 0
26.180000 26.180000 18.920000 145 170 146 0
26.400000 26.180000 21.120000 144 169 145 0
26.620000 26.180000 22.220000 141 168 144 0
26.840000 26.180000 23.540000 141 168 144 0
27.060000 26.180000 23.760000 141 168 146 0
27.280000 26.180000 23.760000 140 167 145 0
27.500000 26.180000 25.080000 143 167 146 0
27.720000 26.180000 25.300000 142 166 145 0
27.940000 26.180000 25.300000 144 169 145 0
28.160000 26.180000 25.300000 144 169 145 0
28.380000 26.180000 25.520000 144 167 146 0
28.600000 26.180000 25.520000 144 167 146 0
28.820000 26.180000 27.060000 142 166 145 0
29.040000 26.180000 27.060000 144 168 147 0
29.260000 26.180000 27.060000 146 169 148 0
29.480000 26.180000 27.280000 146 169 148 0
29.700000 26.180000 27.280000 145 168 147 0
29.920000 26.180000 27.280000 145 168 147 0
30.140000 26.180000 28.820000 146 169 148 0
30.360000 26.180000 28.820000 145 168 147 0
30.580000 26.180000 28.820000 144 167 146 0
30.800000 26.180000 29.040000 144 167 146 0
31.020000 26.180000 28.600000 144 167 146 0
31.240000 26.180000 30.800000 143 166 145 0
31.460000 26.180000 31.900000 145 168 147 0
31.680000 26.180000 31.900000 145 168 147 0
31.900000 26.180000 31.900000 147 168 146 0
32.120000 26.180000 32.120000 147 168 146 0
32.340000 26.180000 32.120000 146 167 147 0
32.560000 26.180000 32.120000 146 167 147 0
32.780000 26.180000 33.660000 146 169 148 0
33.000000 26.180000 33.660000 145 168 147 0
33.220000 26.180000 33.660000 146 167 147 0
33.440000 26.180000 33.880000 146 167 147 0
33.660000 26.180000 33.880000 146 167 145 0
33.880000 26.180000 33.880000 147 168 146 0
34.100000 26.180000 34.100000 150 168 149 0
34.320000 26.180000 34.100000 150 168 149 0
34.540000 26.180000 34.100000 147 170 149 0
34.760000 26.180000 34.320000 148 171 150 0
34.980000 26.180000 34.320000 148 169 149 0
35.200000 26.180000 34.320000 148 169 149 0
35.420000 26.180000 34.320000 150 168 149 0
35.640000 26.180000 35.420000 150 168 149 0
35.860000 26.180000 37.620000 148 169 149 0
36.080000 26.180000 38.720000 147 168 148 0
36.300000 26.180000 40.260000 146 169 148 0
36.520000 26.180000 30.580000 146 169 148 0
36.740000 26.180000 9.900000 150 168 151 0
36.960000 26.180000 0.220000 149 167 150 0
37.180000 26.180000 0.220000 148 169 149 0
0.000000 26.400000 33.000000 134 163 136 0
0.220000 26.400000 33.000000 138 163 139 0
0.440000 26.400000 34.320000 136 161 137 0
0.660000 26.400000 34.320000 133 160 136 0
0.880000 26.400000 34.320000 133 160 136 0
1.100000 26.400000 34.320000 132 161 134 0
1.320000 26.400000 34.320000 131 160 133 0
1.540000 26.400000 34.320000 133 160 136 0
1.760000 26.400000 34.320000 132 159 135 0
1.980000 26.400000 34.320000 133 161 134 0
2.200000 26.400000 34.320000 133 161 134 0
2.420000 26.400000 34.320000 134 161 137 0
2.640000 26.400000 34.320000 134 161 137 0
2.860000 26.400000 34.540000 133 162 135 0
3.080000 26.400000 34.540000 133 162 135 0
3.300000 26.400000 35.640000 134 162 135 0
3.520000 26.400000 37.620000 134 162 135 0
3.740000 26.400000 37.400000 135 163 136 0
3.960000 26.400000 37.400000 135 163 136 0
4.180000 26.400000 37.400000 135 162 138 0
4.400000 26.400000 38.940000 135 162 138 0
4.620000 26.400000 38.940000 136 163 139 0
4.840000 26.400000 38.940000 136 163 139 0
5.060000 26.400000 39.160000 135 163 136 0
5.280000 26.400000 39.160000 134 162 135 0
5.500000 26.400000 39.160000 133 162 135 0
5.720000 26.400000 39.160000 134 163 136 0
5.940000 26.400000 40.700000 134 163 136 0
6.160000 26.400000 40.700000 135 164 137 0
6.380000 26.400000 40.920000 135 162 138 0
6.600000 26.400000 40.920000 136 163 139 0
6.820000 26.400000 29.920000 137 164 140 0
7.040000 26.400000 9.240000 136 163 139 0
8.580000 26.400000 9.240000 135 164 139 0
8.800000 26.400000 21.120000 134 163 138 0
9.020000 26.400000 11.220000 135 164 139 0
9.240000 26.400000 9.900000 135 164 139 0
9.460000 26.400000 32.120000 135 164 137 0
9.680000 26.400000 33.660000 136 165 138 0
9.900000 26.400000 25.740000 136 163 139 0
10.120000 26.400000 32.780000 137 164 140 0
10.340000 26.400000 39.820000 137 164 142 0
10.560000 26.400000 39.820000 137 164 142 0
10.780000 26.400000 40.040000 137 164 140 0
11.000000 26.400000 40.040000 137 164 140 0
11.220000 26.400000 41.140000 138 165 141 0
11.440000 26.400000 41.800000 136 163 139 0
11.660000 26.400000 41.580000 137 164 140 0
11.880000 26.400000 40.260000 137 164 140 0
12.100000 26.400000 40.260000 135 164 141 0
12.320000 26.400000 40.260000 135 164 141 0
12.540000 26.400000 40.480000 136 165 142 0
12.760000 26.400000 40.480000 136 165 142 0
12.980000 26.400000 42.020000 137 166 139 0
13.200000 26.400000 31.020000 136 165 138 0
13.420000 26.400000 10.340000 136 163 139 0
13.860000 26.400000 0.880000 139 166 142 0
14.080000 26.400000 0.880000 138 165 141 0
14.300000 26.400000 2.200000 139 166 144 0
14.520000 26.400000 2.420000 139 166 144 0
14.740000 26.400000 2.420000 140 167 145 0
14.960000 26.400000 2.420000 138 165 143 0
15.180000 26.400000 2.420000 138 165 141 0
15.400000 26.400000 2.640000 137 164 140 0
15.620000 26.400000 2.640000 136 163 141 0
15.840000 26.400000 2.640000 138 165 143 0
16.060000 26.400000 2.420000 138 165 143 0
16.280000 26.400000 4.620000 138 165 143 0
16.500000 26.400000 5.500000 137 164 140 0
16.720000 26.400000 5.720000 138 165 141 0
16.940000 26.400000 5.720000 139 166 142 0
17.160000 26.400000 5.720000 139 166 142 0
17.380000 26.400000 5.720000 139 166 142 0
17.600000 26.400000 5.940000 140 167 143 0
17.820000 26.400000 5.940000 142 166 145 0
18.040000 26.400000 5.940000 141 165 144 0
18.260000 26.400000 6.160000 140 167 143 0
18.480000 26.400000 6.160000 139 166 142 0
18.700000 26.400000 6.160000 139 166 142 0
18.920000 26.400000 6.160000 140 167 143 0
19.140000 26.400000 6.380000 139 166 144 0
19.360000 26.400000 6.380000 139 166 144 0
19.580000 26.400000 6.380000 139 166 144 0
19.800000 26.400000 7.920000 139 166 144 0
20.020000 26.400000 7.920000 142 166 145 0
20.240000 26.400000 7.920000 141 165 144 0
20.460000 26.400000 8.140000 143 166 145 0
20.680000 26.400000 8.140000 143 166 145 0
20.900000 26.400000 8.140000 142 166 145 0
21.120000 26.400000 9.240000 143 167 146 0
21.340000 26.400000 10.120000 143 170 148 0
21.560000 26.400000 11.220000 141 168 146 0
21.780000 26.400000 11.220000 142 165 144 0
22.000000 26.400000 11.220000 143 166 145 0
22.220000 26.400000 12.760000 142 165 144 0
22.440000 26.400000 12.760000 143 166 145 0
22.660000 26.400000 12.760000 142 164 146 0
22.880000 26.400000 12.760000 143 165 147 0
23.100000 26.400000 12.980000 141 165 144 0
23.320000 26.400000 12.980000 141 165 144 0
23.540000 26.400000 12.980000 141 165 144 0
23.760000 26.400000 13.200000 142 166 145 0
23.980000 26.400000 14.520000 141 165 144 0
24.200000 26.400000 14.520000 141 165 144 0
24.420000 26.400000 14.740000 142 165 144 0
24.640000 26.400000 16.060000 142 165 144 0
24.860000 26.400000 16.280000 144 168 147 0
25.080000 26.400000 16.280000 143 167 146 0
25.300000 26.400000 17.820000 145 166 146 0
25.520000 26.400000 17.820000 145 166 146 0
25.740000 26.400000 17.820000 146 169 148 0
25.960000 26.400000 17.820000 144 167 146 0
26.180000 26.400000 18.920000 146 169 148 0
26.400000 26.400000 21.120000 146 169 148 0
26.620000 26.400000 22.220000 143 167 146 0
26.840000 26.400000 23.540000 142 166 145 0
27.060000 26.400000 23.760000 144 167 146 0
27.280000 26.400000 23.760000 144 167 146 0
27.500000 26.400000 25.080000 144 167 146 0
27.720000 26.400000 25.300000 143 166 145 0
27.940000 26.400000 25.300000 144 165 145 0
28.160000 26.400000 25.300000 146 167 147 0
28.380000 26.400000 25.520000 146 166 150 0
28.600000 26.400000 25.520000 145 165 149 0
28.820000 26.400000 27.060000 145 166 148 0
29.040000 26.400000 27.060000 144 165 147 0
29.260000 26.400000 27.060000 145 166 148 0
29.480000 26.400000 27.280000 147 168 150 0
29.700000 26.400000 27.280000 145 166 148 0
29.920000 26.400000 27.280000 146 167 149 0
30.140000 26.400000 28.820000 145 166 148 0
30.360000 26.400000 28.820000 145 166 148 0
30.580000 26.400000 28.820000 144 165 147 0
30.800000 26.400000 28.820000 144 165 147 0
31.020000 26.400000 28.600000 147 165 148 0
31.240000 26.400000 30.800000 147 165 148 0
31.460000 26.400000 31.900000 149 165 149 0
31.680000 26.400000 31.900000 149 165 149 0
31.900000 26.400000 31.900000 150 168 151 0
32.120000 26.400000 32.120000 149 167 150 0
32.340000 26.400000 32.120000 150 166 151 0
32.560000 26.400000 32.120000 150 166 151 0
32.780000 26.400000 33.660000 150 166 151 0
33.000000 26.400000 33.660000 149 165 150 0
33.220000 26.400000 33.660000 149 165 150 0
33.440000 26.400000 33.880000 150 166 151 0
33.660000 26.400000 33.880000 148 166 149 0
33.880000 26.400000 33.880000 148 166 149 0
34.100000 26.400000 34.100000 150 165 153 0
34.320000 26.400000 34.100000 151 166 154 0
34.540000 26.400000 34.100000 151 167 151 0
34.760000 26.400000 34.320000 150 166 150 0
34.980000 26.400000 34.320000 153 166 152 0
35.200000 26.400000 34.320000 152 165 151 0
35.420000 26.400000 34.320000 151 167 151 0
35.640000 26.400000 35.420000 150 166 150 0
35.860000 26.400000 37.620000 148 166 149 0
36.080000 26.400000 38.720000 149 167 150 0
36.300000 26.400000 40.260000 149 165 150 0
36.520000 26.400000 30.580000 149 165 150 0
36.740000 26.400000 9.900000 152 165 151 0
36.960000 26.400000 0.220000 151 164 150 0
37.180000 26.400000 0.220000 150 166 151 0
0.000000 26.620000 33.000000 133 162 135 0
0.220000 26.620000 33.000000 136 161 137 0
0.440000 26.620000 34.320000 135 160 136 0
0.660000 26.620000 34.320000 131 158 134 0
0.880000 26.620000 34.320000 132 159 135 0
1.100000 26.620000 34.320000 130 159 132 0
1.320000 26.620000 34.320000 131 160 133 0
1.540000 26.620000 34.320000 132 159 135 0
1.760000 26.620000 34.320000 132 159 135 0
1.980000 26.620000 34.320000 133 161 134 0
2.200000 26.620000 34.320000 132 160 133 0
2.420000 26.620000 34.320000 133 160 136 0
2.640000 26.620000 34.320000 133 160 136 0
2.860000 26.620000 34.540000 133 162 135 0
3.080000 26.620000 34.540000 132 161 134 0
3.300000 26.620000 35.640000 134 162 135 0
3.520000 26.620000 36.300000 134 162 135 0
3.740000 26.620000 37.400000 134 162 135 0
3.960000 26.620000 37.400000 134 162 135 0
4.180000 26.620000 38.940000 133 160 136 0
4.400000 26.620000 38.940000 134 161 137 0
4.620000 26.620000 38.940000 134 161 137 0
4.840000 26.620000 38.940000 134 161 137 0
5.060000 26.620000 39.160000 134 162 135 0
5.280000 26.620000 39.160000 135 163 136 0
5.500000 26.620000 39.160000 133 162 135 0
5.720000 26.620000 39.160000 132 161 134 0
5.940000 26.620000 40.700000 132 161 134 0
6.160000 26.620000 40.700000 133 162 135 0
6.380000 26.620000 40.700000 134 161 137 0
6.600000 26.620000 40.920000 134 161 137 0
6.820000 26.620000 29.920000 134 161 137 0
7.040000 26.620000 9.240000 134 161 137 0
8.580000 26.620000 9.240000 133 162 137 0
8.800000 26.620000 21.120000 133 162 137 0
9.020000 26.620000 11.220000 133 162 137 0
9.240000 26.620000 9.900000 132 161 136 0
9.460000 26.620000 32.120000 133 162 135 0
9.680000 26.620000 36.520000 135 164 137 0
9.900000 26.620000 29.920000 136 163 139 0
10.120000 26.620000 35.640000 136 163 139 0
10.340000 26.620000 39.820000 136 163 141 0
10.560000 26.620000 39.820000 135 162 140 0
10.780000 26.620000 40.040000 135 162 138 0
11.000000 26.620000 40.040000 136 163 139 0
11.220000 26.620000 41.140000 136 163 139 0
11.440000 26.620000 41.800000 136 163 139 0
11.660000 26.620000 41.580000 136 163 139 0
11.880000 26.620000 40.260000 136 163 139 0
12.100000 26.620000 40.260000 133 162 139 0
12.320000 26.620000 40.260000 133 162 139 0
12.540000 26.620000 40.480000 133 162 139 0
12.760000 26.620000 40.480000 134 163 140 0
12.980000 26.620000 42.020000 135 164 137 0
13.200000 26.620000 31.020000 135 164 137 0
13.420000 26.620000 10.340000 136 163 139 0
13.860000 26.620000 0.660000 136 163 139 0
14.080000 26.620000 0.880000 136 163 139 0
14.300000 26.620000 2.200000 137 164 142 0
14.520000 26.620000 2.420000 138 165 143 0
14.740000 26.620000 2.420000 138 165 143 0
14.960000 26.620000 2.420000 137 164 142 0
15.180000 26.620000 2.420000 136 163 139 0
15.400000 26.620000 2.640000 136 163 139 0
15.620000 26.620000 2.640000 136 163 141 0
15.840000 26.620000 2.640000 135 162 140 0
16.060000 26.620000 2.420000 136 163 141 0
16.280000 26.620000 4.400000 136 163 141 0
16.500000 26.620000 5.500000 136 163 139 0
16.720000 26.620000 5.720000 136 163 139 0
16.940000 26.620000 5.720000 136 163 139 0
17.160000 26.620000 5.720000 137 164 140 0
17.380000 26.620000 5.720000 137 164 140 0
17.600000 26.620000 5.940000 138 165 141 0
17.820000 26.620000 5.940000 140 164 143 0
18.040000 26.620000 5.940000 138 162 141 0
18.260000 26.620000 6.160000 138 165 141 0
18.480000 26.620000 6.160000 138 165 141 0
18.700000 26.620000 6.160000 139 166 142 0
18.920000 26.620000 6.160000 138 165 141 0
19.140000 26.620000 6.380000 137 164 142 0
19.360000 26.620000 6.380000 137 164 142 0
19.580000 26.620000 6.380000 138 165 143 0
19.800000 26.620000 7.920000 138 165 143 0
20.020000 26.620000 7.920000 139 163 142 0
20.240000 26.620000 7.920000 140 164 143 0
20.460000 26.620000 8.140000 142 165 144 0
20.680000 26.620000 8.140000 143 166 145 0
20.900000 26.620000 8.140000 142 166 145 0
21.120000 26.620000 9.240000 142 166 145 0
