ply
format ascii 1.0
element vertex 1098
property float x
property float y
property float z
property uchar red
property uchar green
property uchar blue
property uchar alpha
end_header
1.760000 11.000000 30.580000 149 174 129 0
1.980000 11.000000 30.580000 149 174 129 0
2.200000 11.000000 30.580000 149 174 130 0
2.420000 11.000000 32.120000 148 173 129 0
2.640000 11.000000 32.120000 148 173 128 0
2.860000 11.000000 32.120000 148 173 128 0
3.080000 11.000000 33.660000 148 173 128 0
3.300000 11.000000 33.660000 148 173 128 0
3.520000 11.000000 33.880000 148 173 128 0
3.740000 11.000000 35.200000 147 172 127 0
3.960000 11.000000 35.200000 147 169 126 0
4.180000 11.000000 36.740000 147 169 126 0
4.400000 11.000000 38.060000 147 162 126 0
4.620000 11.000000 38.280000 143 158 122 0
4.840000 11.000000 38.280000 140 153 118 0
5.060000 11.000000 39.820000 135 148 113 0
5.280000 11.000000 39.820000 130 143 110 0
5.500000 11.000000 39.820000 129 142 109 0
5.720000 11.000000 39.820000 129 138 106 0
5.940000 11.000000 38.500000 129 138 106 0
6.160000 11.000000 38.500000 128 138 106 0
6.380000 11.000000 31.680000 130 140 108 0
6.600000 11.000000 24.640000 129 142 107 0
6.820000 11.000000 33.000000 131 144 109 0
7.040000 11.000000 39.820000 131 146 108 0
7.260000 11.000000 39.820000 133 148 110 0
7.480000 11.000000 39.820000 136 151 115 0
7.700000 11.000000 38.500000 139 154 118 0
7.920000 11.000000 38.500000 142 157 119 0
8.140000 11.000000 39.600000 144 159 121 0
8.360000 11.000000 39.160000 146 161 125 0
8.580000 11.000000 38.940000 148 163 127 0
8.800000 11.000000 37.400000 148 165 128 0
9.020000 11.000000 37.400000 148 165 128 0
9.240000 11.000000 37.400000 150 165 129 0
9.460000 11.000000 37.620000 151 166 130 0
9.680000 11.000000 37.620000 151 166 128 0
9.900000 11.000000 37.620000 151 166 128 0
10.120000 11.000000 39.160000 152 167 131 0
10.340000 11.000000 39.160000 152 167 131 0
10.560000 11.000000 40.480000 152 167 131 0
10.780000 11.000000 40.700000 153 168 132 0
11.000000 11.000000 40.700000 152 167 131 0
11.220000 11.000000 40.700000 152 167 131 0
11.440000 11.000000 33.880000 153 168 130 0
11.660000 11.000000 14.520000 153 168 130 0
11.880000 11.000000 0.880000 154 169 133 0
13.200000 11.000000 9.460000 153 166 131 0
13.420000 11.000000 30.140000 154 167 132 0
13.640000 11.000000 39.820000 154 167 134 0
13.860000 11.000000 38.500000 154 167 134 0
14.080000 11.000000 38.500000 154 167 134 0
14.300000 11.000000 38.500000 154 167 134 0
14.520000 11.000000 37.180000 153 166 133 0
14.740000 11.000000 27.500000 153 166 133 0
14.960000 11.000000 13.640000 154 167 134 0
15.180000 11.000000 5.500000 154 167 134 0
15.400000 11.000000 1.320000 155 168 135 0
15.840000 11.000000 7.260000 156 166 134 0
16.060000 11.000000 26.400000 156 166 134 0
16.280000 11.000000 38.940000 156 166 134 0
16.500000 11.000000 41.800000 157 167 135 0
16.720000 11.000000 40.700000 156 166 134 0
16.940000 11.000000 39.380000 157 167 135 0
17.160000 11.000000 28.380000 156 166 136 0
17.380000 11.000000 11.880000 157 167 137 0
17.600000 11.000000 0.880000 157 167 137 0
18.480000 11.000000 1.100000 158 168 136 0
18.700000 11.000000 1.100000 158 168 136 0
18.920000 11.000000 1.100000 158 168 138 0
19.140000 11.000000 2.640000 158 168 138 0
19.360000 11.000000 2.640000 159 167 138 0
19.580000 11.000000 3.740000 159 167 138 0
19.800000 11.000000 5.940000 159 167 139 0
20.020000 11.000000 8.360000 159 167 139 0
20.240000 11.000000 8.360000 159 167 138 0
20.460000 11.000000 8.580000 159 167 138 0
20.680000 11.000000 8.580000 159 167 139 0
20.900000 11.000000 10.120000 159 167 139 0
21.120000 11.000000 10.120000 161 166 139 0
21.340000 11.000000 10.120000 161 166 139 0
21.560000 11.000000 10.340000 161 166 139 0
21.780000 11.000000 10.340000 161 166 139 0
22.000000 11.000000 10.340000 161 166 139 0
22.220000 11.000000 10.560000 162 167 140 0
22.440000 11.000000 10.560000 161 166 141 0
22.660000 11.000000 10.560000 162 167 142 0
22.880000 11.000000 10.560000 162 166 139 0
23.100000 11.000000 10.560000 162 166 139 0
23.320000 11.000000 10.780000 161 164 140 0
23.540000 11.000000 10.780000 161 164 140 0
23.760000 11.000000 10.780000 161 164 140 0
23.980000 11.000000 11.000000 161 164 140 0
24.200000 11.000000 12.320000 161 166 141 0
24.420000 11.000000 13.860000 162 167 142 0
24.640000 11.000000 15.180000 164 169 144 0
24.860000 11.000000 16.060000 164 169 144 0
25.080000 11.000000 16.940000 164 169 144 0
25.300000 11.000000 18.040000 164 169 144 0
25.520000 11.000000 19.360000 166 169 145 0
25.740000 11.000000 19.580000 165 168 144 0
25.960000 11.000000 19.580000 164 169 144 0
26.180000 11.000000 19.580000 165 170 145 0
26.400000 11.000000 21.120000 166 169 145 0
26.620000 11.000000 21.120000 166 169 145 0
26.840000 11.000000 21.120000 165 170 145 0
27.060000 11.000000 21.340000 166 171 146 0
27.280000 11.000000 22.660000 167 170 148 0
27.500000 11.000000 22.660000 167 170 148 0
27.720000 11.000000 22.880000 166 169 145 0
27.940000 11.000000 22.880000 167 170 146 0
28.160000 11.000000 24.420000 165 170 145 0
28.380000 11.000000 24.420000 165 170 145 0
28.600000 11.000000 24.640000 167 170 148 0
28.820000 11.000000 24.640000 167 170 148 0
29.040000 11.000000 24.640000 168 171 147 0
29.260000 11.000000 26.180000 168 171 147 0
29.480000 11.000000 27.280000 168 171 149 0
29.700000 11.000000 27.940000 168 171 149 0
29.920000 11.000000 29.040000 169 172 150 0
30.140000 11.000000 30.580000 168 171 149 0
30.360000 11.000000 30.580000 168 170 151 0
30.580000 11.000000 30.800000 167 169 150 0
30.800000 11.000000 30.800000 169 170 149 0
31.020000 11.000000 30.800000 169 170 149 0
31.240000 11.000000 32.340000 170 168 150 0
31.460000 11.000000 32.340000 168 166 148 0
31.680000 11.000000 32.560000 168 166 146 0
31.900000 11.000000 32.560000 168 166 146 0
32.120000 11.000000 34.100000 167 165 147 0
32.340000 11.000000 34.100000 167 165 147 0
32.560000 11.000000 34.100000 162 163 142 0
32.780000 11.000000 34.320000 161 162 141 0
33.000000 11.000000 35.640000 163 160 140 0
33.220000 11.000000 35.860000 162 159 139 0
33.440000 11.000000 37.180000 158 154 138 0
33.660000 11.000000 38.280000 158 154 138 0
33.880000 11.000000 39.160000 154 150 134 0
34.100000 11.000000 40.260000 153 149 133 0
34.320000 11.000000 40.260000 151 147 131 0
34.540000 11.000000 40.260000 149 145 129 0
34.760000 11.000000 40.480000 148 144 127 0
34.980000 11.000000 40.480000 147 143 126 0
35.200000 11.000000 41.800000 149 142 127 0
35.420000 11.000000 42.020000 149 142 127 0
35.640000 11.000000 42.020000 148 141 128 0
35.860000 11.000000 32.560000 148 141 128 0
36.080000 11.000000 17.380000 146 142 128 0
36.300000 11.000000 6.380000 146 142 128 0
36.520000 11.000000 2.420000 146 142 125 0
36.960000 11.000000 1.100000 152 145 130 0
37.180000 11.000000 1.100000 155 148 133 0
0.000000 11.220000 26.180000 146 171 127 0
0.220000 11.220000 26.180000 146 171 127 0
0.440000 11.220000 26.180000 148 173 129 0
0.660000 11.220000 27.500000 148 173 129 0
0.880000 11.220000 27.500000 148 173 129 0
1.100000 11.220000 28.600000 148 173 129 0
1.320000 11.220000 30.800000 148 173 128 0
1.540000 11.220000 31.900000 148 173 128 0
1.760000 11.220000 30.580000 149 174 130 0
1.980000 11.220000 30.580000 149 174 130 0
2.200000 11.220000 32.120000 148 173 129 0
2.420000 11.220000 32.120000 148 173 129 0
2.640000 11.220000 32.120000 147 172 128 0
2.860000 11.220000 32.120000 148 173 129 0
3.080000 11.220000 33.660000 148 173 129 0
3.300000 11.220000 33.660000 149 174 130 0
3.520000 11.220000 33.880000 148 173 129 0
3.740000 11.220000 35.200000 146 171 127 0
3.960000 11.220000 35.200000 152 167 129 0
4.180000 11.220000 36.740000 149 164 126 0
4.400000 11.220000 38.060000 145 165 127 0
4.620000 11.220000 38.280000 141 161 123 0
4.840000 11.220000 38.280000 143 153 121 0
5.060000 11.220000 39.820000 138 148 116 0
5.280000 11.220000 39.820000 135 144 112 0
5.500000 11.220000 39.820000 131 140 108 0
5.720000 11.220000 39.820000 129 138 104 0
5.940000 11.220000 38.500000 129 138 104 0
6.160000 11.220000 38.500000 129 139 109 0
6.380000 11.220000 28.820000 129 139 109 0
6.600000 11.220000 16.280000 131 141 109 0
6.820000 11.220000 24.640000 132 142 110 0
7.040000 11.220000 37.180000 131 145 107 0
7.260000 11.220000 39.820000 134 148 110 0
7.480000 11.220000 39.820000 136 151 115 0
7.700000 11.220000 40.040000 139 154 118 0
7.920000 11.220000 38.500000 142 157 121 0
8.140000 11.220000 38.500000 143 158 122 0
8.360000 11.220000 38.280000 142 162 122 0
8.580000 11.220000 37.620000 144 164 124 0
8.800000 11.220000 37.400000 148 163 127 0
9.020000 11.220000 37.400000 149 164 128 0
9.240000 11.220000 37.400000 150 165 129 0
9.460000 11.220000 37.620000 150 165 129 0
9.680000 11.220000 37.620000 151 166 130 0
9.900000 11.220000 37.620000 151 166 130 0
10.120000 11.220000 39.160000 151 166 130 0
10.340000 11.220000 39.160000 152 167 131 0
10.560000 11.220000 40.480000 151 168 131 0
10.780000 11.220000 40.700000 152 169 132 0
11.000000 11.220000 40.700000 151 168 131 0
11.220000 11.220000 40.700000 152 169 132 0
11.440000 11.220000 38.060000 153 168 134 0
11.660000 11.220000 28.380000 152 167 133 0
11.880000 11.220000 11.880000 152 167 131 0
12.100000 11.220000 0.880000 153 168 132 0
13.200000 11.220000 9.460000 153 168 134 0
13.420000 11.220000 28.820000 154 169 135 0
13.640000 11.220000 38.500000 152 167 133 0
13.860000 11.220000 38.500000 153 168 134 0
14.080000 11.220000 38.500000 153 168 132 0
14.300000 11.220000 38.500000 153 168 132 0
14.520000 11.220000 38.720000 153 168 134 0
14.740000 11.220000 37.180000 153 168 134 0
14.960000 11.220000 31.680000 154 167 136 0
15.180000 11.220000 22.000000 154 167 136 0
15.400000 11.220000 6.600000 154 167 134 0
15.840000 11.220000 2.860000 155 168 135 0
16.060000 11.220000 15.400000 155 168 135 0
16.280000 11.220000 34.760000 156 169 136 0
16.500000 11.220000 41.800000 155 168 135 0
16.720000 11.220000 39.160000 157 167 137 0
16.940000 11.220000 28.160000 157 167 137 0
17.160000 11.220000 12.980000 156 169 138 0
17.380000 11.220000 2.200000 155 168 137 0
18.480000 11.220000 1.100000 158 168 138 0
18.700000 11.220000 1.100000 158 168 138 0
18.920000 11.220000 1.100000 158 168 138 0
19.140000 11.220000 1.320000 158 168 138 0
19.360000 11.220000 2.640000 158 168 138 0
19.580000 11.220000 3.960000 158 168 138 0
19.800000 11.220000 6.160000 159 167 138 0
20.020000 11.220000 7.040000 159 167 138 0
20.240000 11.220000 8.360000 158 166 138 0
20.460000 11.220000 8.580000 158 166 138 0
20.680000 11.220000 8.580000 159 167 139 0
20.900000 11.220000 8.580000 160 168 140 0
21.120000 11.220000 8.800000 160 168 140 0
21.340000 11.220000 8.800000 159 167 139 0
21.560000 11.220000 8.800000 161 166 139 0
21.780000 11.220000 9.020000 161 166 139 0
22.000000 11.220000 9.020000 160 168 140 0
22.220000 11.220000 10.340000 160 168 140 0
22.440000 11.220000 10.560000 162 167 142 0
22.660000 11.220000 10.560000 162 167 142 0
22.880000 11.220000 10.560000 161 166 141 0
23.100000 11.220000 10.560000 161 166 141 0
23.320000 11.220000 10.780000 160 165 140 0
23.540000 11.220000 10.780000 160 165 140 0
23.760000 11.220000 10.780000 161 166 139 0
23.980000 11.220000 11.000000 160 165 138 0
24.200000 11.220000 12.320000 161 166 139 0
24.420000 11.220000 12.320000 162 167 140 0
24.640000 11.220000 14.960000 164 167 143 0
24.860000 11.220000 17.160000 165 168 144 0
25.080000 11.220000 18.040000 165 170 145 0
25.300000 11.220000 18.040000 164 169 144 0
25.520000 11.220000 19.360000 164 169 144 0
25.740000 11.220000 19.580000 164 169 144 0
25.960000 11.220000 19.580000 166 169 145 0
26.180000 11.220000 19.800000 166 169 145 0
26.400000 11.220000 21.120000 166 169 147 0
26.620000 11.220000 21.120000 166 169 147 0
26.840000 11.220000 21.120000 166 171 146 0
27.060000 11.220000 21.340000 166 171 146 0
27.280000 11.220000 22.660000 167 170 148 0
27.500000 11.220000 22.660000 167 170 148 0
27.720000 11.220000 22.880000 168 169 148 0
27.940000 11.220000 22.880000 168 169 148 0
28.160000 11.220000 22.880000 165 170 147 0
28.380000 11.220000 24.420000 166 171 148 0
28.600000 11.220000 24.420000 165 170 145 0
28.820000 11.220000 24.640000 166 171 146 0
29.040000 11.220000 24.640000 167 170 148 0
29.260000 11.220000 26.180000 167 170 148 0
29.480000 11.220000 27.280000 168 170 151 0
29.700000 11.220000 27.940000 168 170 151 0
29.920000 11.220000 29.040000 169 171 152 0
30.140000 11.220000 30.580000 167 169 150 0
30.360000 11.220000 30.580000 167 170 148 0
30.580000 11.220000 30.800000 168 171 149 0
30.800000 11.220000 30.800000 169 170 151 0
31.020000 11.220000 31.020000 167 168 149 0
31.240000 11.220000 32.340000 170 168 150 0
31.460000 11.220000 32.340000 168 166 148 0
31.680000 11.220000 32.560000 166 167 146 0
31.900000 11.220000 32.560000 166 167 146 0
32.120000 11.220000 32.560000 166 164 144 0
32.340000 11.220000 34.100000 165 163 143 0
32.560000 11.220000 34.100000 162 160 142 0
32.780000 11.220000 34.320000 161 159 141 0
33.000000 11.220000 35.640000 161 157 140 0
33.220000 11.220000 35.860000 155 151 134 0
33.440000 11.220000 35.860000 155 148 133 0
33.660000 11.220000 36.960000 156 149 134 0
33.880000 11.220000 39.160000 149 143 126 0
34.100000 11.220000 40.260000 147 141 124 0
34.320000 11.220000 40.260000 146 139 124 0
34.540000 11.220000 40.260000 145 138 123 0
34.760000 11.220000 40.480000 145 138 117 0
34.980000 11.220000 40.480000 144 137 116 0
35.200000 11.220000 41.800000 143 135 119 0
35.420000 11.220000 41.800000 143 135 119 0
35.640000 11.220000 42.020000 141 135 116 0
35.860000 11.220000 31.020000 140 134 115 0
36.080000 11.220000 17.380000 142 136 119 0
36.300000 11.220000 14.740000 142 136 119 0
36.520000 11.220000 7.920000 143 137 120 0
36.740000 11.220000 0.880000 145 139 122 0
36.960000 11.220000 0.880000 146 140 123 0
37.180000 11.220000 1.980000 150 144 127 0
0.000000 11.440000 26.180000 145 170 126 0
0.220000 11.440000 26.180000 146 171 127 0
0.440000 11.440000 26.180000 148 173 129 0
0.660000 11.440000 27.500000 147 172 128 0
0.880000 11.440000 27.500000 149 174 130 0
1.100000 11.440000 28.600000 149 174 130 0
1.320000 11.440000 30.800000 148 173 128 0
1.540000 11.440000 31.900000 147 172 127 0
1.760000 11.440000 31.900000 149 174 130 0
1.980000 11.440000 30.580000 148 173 129 0
2.200000 11.440000 32.120000 148 173 129 0
2.420000 11.440000 32.120000 148 173 129 0
2.640000 11.440000 32.120000 148 173 129 0
2.860000 11.440000 32.120000 147 172 128 0
3.080000 11.440000 32.340000 148 173 129 0
3.300000 11.440000 33.660000 148 173 129 0
3.520000 11.440000 33.660000 147 172 128 0
3.740000 11.440000 35.200000 147 172 128 0
3.960000 11.440000 36.740000 151 166 128 0
4.180000 11.440000 38.060000 149 164 126 0
4.400000 11.440000 39.600000 144 164 126 0
4.620000 11.440000 39.600000 140 160 122 0
4.840000 11.440000 39.600000 141 151 119 0
5.060000 11.440000 39.600000 136 146 114 0
5.280000 11.440000 39.820000 134 143 111 0
5.500000 11.440000 39.820000 131 140 108 0
5.720000 11.440000 38.500000 130 139 105 0
5.940000 11.440000 38.500000 129 138 104 0
6.160000 11.440000 38.500000 129 139 109 0
6.380000 11.440000 28.820000 130 140 110 0
6.600000 11.440000 13.640000 131 141 109 0
6.820000 11.440000 19.140000 132 142 110 0
7.040000 11.440000 35.640000 132 146 108 0
7.260000 11.440000 39.820000 135 149 111 0
7.480000 11.440000 39.820000 135 150 114 0
7.700000 11.440000 39.820000 139 154 118 0
7.920000 11.440000 40.040000 141 156 120 0
8.140000 11.440000 38.720000 143 158 122 0
8.360000 11.440000 38.280000 142 162 122 0
8.580000 11.440000 37.620000 143 163 123 0
8.800000 11.440000 37.400000 148 163 127 0
9.020000 11.440000 37.400000 148 163 127 0
9.240000 11.440000 37.400000 149 164 128 0
9.460000 11.440000 37.620000 149 164 128 0
9.680000 11.440000 37.620000 151 166 130 0
9.900000 11.440000 37.620000 151 166 130 0
10.120000 11.440000 39.160000 152 167 131 0
10.340000 11.440000 39.160000 152 167 131 0
10.560000 11.440000 40.480000 151 168 131 0
10.780000 11.440000 40.480000 151 168 131 0
11.000000 11.440000 40.700000 151 168 131 0
11.220000 11.440000 40.700000 152 169 132 0
11.440000 11.440000 40.700000 153 168 134 0
11.660000 11.440000 38.060000 152 167 133 0
11.880000 11.440000 25.740000 154 169 133 0
12.100000 11.440000 6.380000 154 169 133 0
13.200000 11.440000 8.140000 153 168 134 0
13.420000 11.440000 28.820000 154 169 135 0
13.640000 11.440000 38.500000 153 168 134 0
13.860000 11.440000 38.500000 153 168 134 0
14.080000 11.440000 38.500000 153 168 132 0
14.300000 11.440000 38.500000 153 168 132 0
14.520000 11.440000 38.500000 153 168 134 0
14.740000 11.440000 40.040000 154 169 135 0
14.960000 11.440000 40.040000 154 167 136 0
15.180000 11.440000 28.820000 155 168 137 0
15.400000 11.440000 12.100000 155 168 135 0
15.620000 11.440000 4.400000 155 168 135 0
15.840000 11.440000 2.860000 155 168 135 0
16.060000 11.440000 8.360000 155 168 135 0
16.280000 11.440000 26.400000 155 168 135 0
16.500000 11.440000 38.940000 155 168 135 0
16.720000 11.440000 33.660000 158 168 138 0
16.940000 11.440000 15.620000 157 167 137 0
17.160000 11.440000 1.980000 154 167 136 0
18.480000 11.440000 1.100000 157 167 137 0
18.700000 11.440000 1.100000 159 169 139 0
18.920000 11.440000 1.100000 159 169 139 0
19.140000 11.440000 1.320000 158 168 138 0
19.360000 11.440000 2.640000 158 168 138 0
19.580000 11.440000 2.640000 158 168 138 0
19.800000 11.440000 5.060000 159 167 138 0
20.020000 11.440000 7.260000 159 167 138 0
20.240000 11.440000 8.360000 160 168 140 0
20.460000 11.440000 8.580000 159 167 139 0
20.680000 11.440000 8.580000 160 168 140 0
20.900000 11.440000 8.580000 159 167 139 0
21.120000 11.440000 8.800000 159 167 139 0
21.340000 11.440000 8.800000 159 167 139 0
21.560000 11.440000 8.800000 162 167 140 0
21.780000 11.440000 9.020000 162 167 140 0
22.000000 11.440000 9.020000 160 168 140 0
22.220000 11.440000 9.020000 160 168 140 0
22.440000 11.440000 9.020000 162 167 142 0
22.660000 11.440000 10.560000 162 167 142 0
22.880000 11.440000 10.560000 161 166 141 0
23.100000 11.440000 10.560000 161 166 141 0
23.320000 11.440000 10.780000 160 165 140 0
23.540000 11.440000 10.780000 159 164 139 0
23.760000 11.440000 10.780000 160 165 138 0
23.980000 11.440000 11.000000 160 165 138 0
24.200000 11.440000 11.000000 161 166 139 0
24.420000 11.440000 12.320000 163 168 141 0
24.640000 11.440000 14.740000 164 167 143 0
24.860000 11.440000 16.940000 165 168 144 0
25.080000 11.440000 18.040000 165 170 145 0
25.300000 11.440000 18.040000 166 171 146 0
25.520000 11.440000 18.040000 165 170 145 0
25.740000 11.440000 19.580000 165 170 145 0
25.960000 11.440000 19.580000 166 169 145 0
26.180000 11.440000 19.800000 166 169 145 0
26.400000 11.440000 21.120000 167 170 148 0
26.620000 11.440000 21.120000 167 170 148 0
26.840000 11.440000 21.120000 165 170 145 0
27.060000 11.440000 21.340000 166 171 146 0
27.280000 11.440000 22.660000 167 170 148 0
27.500000 11.440000 22.660000 166 169 147 0
27.720000 11.440000 22.880000 168 169 148 0
27.940000 11.440000 22.880000 168 169 148 0
28.160000 11.440000 22.880000 167 172 149 0
28.380000 11.440000 23.100000 167 172 149 0
28.600000 11.440000 24.420000 167 172 147 0
28.820000 11.440000 24.640000 167 172 147 0
29.040000 11.440000 24.640000 167 170 148 0
29.260000 11.440000 26.180000 168 171 149 0
29.480000 11.440000 27.280000 168 170 151 0
29.700000 11.440000 27.940000 168 170 151 0
29.920000 11.440000 29.040000 168 170 151 0
30.140000 11.440000 30.580000 168 170 151 0
30.360000 11.440000 30.580000 167 170 148 0
30.580000 11.440000 30.800000 167 170 148 0
30.800000 11.440000 30.800000 168 169 150 0
31.020000 11.440000 31.020000 168 169 150 0
31.240000 11.440000 31.020000 168 166 148 0
31.460000 11.440000 32.340000 169 167 149 0
31.680000 11.440000 32.560000 165 166 145 0
31.900000 11.440000 32.560000 163 164 143 0
32.120000 11.440000 32.560000 163 161 141 0
32.340000 11.440000 32.780000 161 159 139 0
32.560000 11.440000 34.100000 160 158 140 0
32.780000 11.440000 34.320000 157 155 137 0
33.000000 11.440000 34.320000 155 151 134 0
33.220000 11.440000 35.860000 152 148 131 0
33.440000 11.440000 35.860000 150 143 128 0
33.660000 11.440000 36.960000 149 142 127 0
33.880000 11.440000 37.840000 144 138 121 0
34.100000 11.440000 40.260000 143 137 120 0
34.320000 11.440000 40.260000 143 136 121 0
34.540000 11.440000 40.260000 139 132 117 0
34.760000 11.440000 40.260000 140 133 112 0
34.980000 11.440000 40.480000 139 132 111 0
35.200000 11.440000 41.800000 138 130 114 0
35.420000 11.440000 41.800000 139 131 115 0
35.640000 11.440000 41.800000 138 132 113 0
35.860000 11.440000 31.020000 138 132 113 0
36.080000 11.440000 20.020000 139 133 116 0
36.300000 11.440000 20.240000 140 134 117 0
36.520000 11.440000 10.560000 141 135 118 0
36.740000 11.440000 0.880000 143 137 120 0
36.960000 11.440000 1.760000 145 139 122 0
37.180000 11.440000 3.080000 147 141 124 0
0.000000 11.660000 26.180000 147 169 128 0
0.220000 11.660000 26.180000 149 171 130 0
0.440000 11.660000 26.180000 149 171 130 0
0.660000 11.660000 27.500000 149 171 130 0
0.880000 11.660000 27.500000 150 172 129 0
1.100000 11.660000 28.600000 150 172 129 0
1.320000 11.660000 30.800000 150 172 131 0
1.540000 11.660000 31.900000 150 172 131 0
1.760000 11.660000 31.900000 149 171 130 0
1.980000 11.660000 30.580000 150 172 131 0
2.200000 11.660000 32.120000 148 172 131 0
2.420000 11.660000 32.120000 147 171 130 0
2.640000 11.660000 32.120000 150 172 129 0
2.860000 11.660000 32.120000 151 173 130 0
3.080000 11.660000 32.340000 150 172 131 0
3.300000 11.660000 33.660000 149 171 130 0
3.520000 11.660000 33.660000 149 171 130 0
3.740000 11.660000 35.200000 149 171 130 0
3.960000 11.660000 36.740000 147 169 128 0
4.180000 11.660000 38.060000 145 167 126 0
4.400000 11.660000 39.600000 146 162 128 0
4.620000 11.660000 39.600000 143 159 125 0
4.840000 11.660000 39.600000 139 152 121 0
5.060000 11.660000 39.600000 136 149 118 0
5.280000 11.660000 39.820000 134 144 112 0
5.500000 11.660000 39.820000 130 140 108 0
5.720000 11.660000 38.500000 129 139 109 0
5.940000 11.660000 38.500000 128 138 108 0
6.160000 11.660000 38.500000 128 137 111 0
6.380000 11.660000 28.820000 130 139 113 0
6.600000 11.660000 16.280000 129 141 112 0
6.820000 11.660000 24.640000 130 142 113 0
7.040000 11.660000 38.500000 131 144 109 0
7.260000 11.660000 39.820000 135 148 113 0
7.480000 11.660000 39.820000 136 151 115 0
7.700000 11.660000 39.820000 138 153 117 0
7.920000 11.660000 40.040000 140 156 122 0
8.140000 11.660000 38.720000 141 157 123 0
8.360000 11.660000 38.500000 144 161 124 0
8.580000 11.660000 37.840000 145 162 125 0
8.800000 11.660000 37.400000 146 163 126 0
9.020000 11.660000 37.400000 147 164 127 0
9.240000 11.660000 37.400000 151 164 129 0
9.460000 11.660000 37.620000 151 164 129 0
9.680000 11.660000 37.620000 151 164 131 0
9.900000 11.660000 37.620000 152 165 132 0
10.120000 11.660000 38.940000 151 166 132 0
10.340000 11.660000 39.160000 152 167 133 0
10.560000 11.660000 39.160000 153 166 133 0
10.780000 11.660000 39.160000 153 166 133 0
11.000000 11.660000 39.160000 154 167 134 0
11.220000 11.660000 39.380000 153 166 133 0
11.440000 11.660000 39.380000 157 167 137 0
11.660000 11.660000 40.920000 156 166 136 0
11.880000 11.660000 29.920000 154 167 134 0
12.100000 11.660000 9.240000 154 167 134 0
12.980000 11.660000 1.320000 156 166 136 0
13.200000 11.660000 13.640000 157 167 137 0
13.420000 11.660000 31.680000 156 166 136 0
13.640000 11.660000 38.720000 155 168 137 0
13.860000 11.660000 38.720000 154 167 136 0
14.080000 11.660000 38.720000 156 166 136 0
14.300000 11.660000 38.500000 156 166 136 0
14.520000 11.660000 38.500000 156 166 136 0
14.740000 11.660000 38.500000 156 166 136 0
14.960000 11.660000 40.040000 158 166 137 0
15.180000 11.660000 28.820000 157 165 136 0
15.400000 11.660000 13.420000 156 166 136 0
15.620000 11.660000 10.120000 156 166 136 0
15.840000 11.660000 5.500000 156 166 137 0
16.060000 11.660000 2.860000 157 167 138 0
16.280000 11.660000 16.720000 158 166 137 0
16.500000 11.660000 32.120000 158 166 137 0
16.720000 11.660000 26.620000 158 166 138 0
16.940000 11.660000 7.480000 158 166 138 0
17.160000 11.660000 0.660000 159 167 139 0
18.480000 11.660000 1.100000 161 166 139 0
18.700000 11.660000 1.100000 162 167 140 0
18.920000 11.660000 1.100000 162 167 142 0
19.140000 11.660000 2.640000 161 166 141 0
19.360000 11.660000 2.640000 158 168 139 0
19.580000 11.660000 2.640000 158 168 139 0
19.800000 11.660000 3.740000 161 166 139 0
20.020000 11.660000 5.940000 162 167 140 0
20.240000 11.660000 7.040000 161 166 139 0
20.460000 11.660000 8.580000 162 167 140 0
20.680000 11.660000 8.580000 161 166 141 0
20.900000 11.660000 8.580000 161 166 141 0
21.120000 11.660000 8.800000 160 167 144 0
21.340000 11.660000 8.800000 160 167 144 0
21.560000 11.660000 8.800000 162 167 142 0
21.780000 11.660000 9.020000 162 167 142 0
22.000000 11.660000 9.020000 163 168 143 0
22.220000 11.660000 9.020000 162 167 142 0
22.440000 11.660000 9.020000 163 168 145 0
22.660000 11.660000 9.240000 162 167 144 0
22.880000 11.660000 10.560000 160 168 142 0
23.100000 11.660000 10.560000 160 168 142 0
23.320000 11.660000 10.780000 160 164 144 0
23.540000 11.660000 9.460000 160 164 144 0
23.760000 11.660000 9.460000 160 165 140 0
23.980000 11.660000 11.000000 160 165 140 0
24.200000 11.660000 11.000000 162 165 143 0
24.420000 11.660000 12.320000 163 166 144 0
24.640000 11.660000 14.740000 165 167 148 0
24.860000 11.660000 16.940000 165 167 148 0
25.080000 11.660000 18.040000 167 170 148 0
25.300000 11.660000 18.040000 166 169 147 0
25.520000 11.660000 18.040000 168 169 148 0
25.740000 11.660000 19.580000 167 168 147 0
25.960000 11.660000 19.580000 170 169 146 0
26.180000 11.660000 19.580000 169 168 145 0
26.400000 11.660000 21.120000 167 169 150 0
26.620000 11.660000 21.120000 167 169 150 0
26.840000 11.660000 21.120000 167 170 148 0
27.060000 11.660000 21.340000 166 169 147 0
27.280000 11.660000 21.340000 170 168 148 0
27.500000 11.660000 22.660000 170 168 148 0
27.720000 11.660000 22.880000 168 169 148 0
27.940000 11.660000 22.880000 168 169 148 0
28.160000 11.660000 22.880000 167 169 151 0
28.380000 11.660000 23.100000 168 170 152 0
28.600000 11.660000 24.420000 169 171 152 0
28.820000 11.660000 24.640000 168 170 151 0
29.040000 11.660000 24.640000 172 170 150 0
29.260000 11.660000 24.860000 171 169 149 0
29.480000 11.660000 25.960000 171 169 149 0
29.700000 11.660000 28.160000 171 169 149 0
29.920000 11.660000 29.260000 169 170 151 0
30.140000 11.660000 30.580000 169 170 151 0
30.360000 11.660000 30.580000 168 169 146 0
30.580000 11.660000 30.800000 168 169 146 0
30.800000 11.660000 30.800000 170 168 148 0
31.020000 11.660000 31.020000 169 167 147 0
31.240000 11.660000 31.020000 168 164 147 0
31.460000 11.660000 31.020000 168 164 147 0
31.680000 11.660000 31.020000 164 165 142 0
31.900000 11.660000 31.240000 162 163 140 0
32.120000 11.660000 32.560000 162 159 145 0
32.340000 11.660000 32.780000 159 156 142 0
32.560000 11.660000 32.780000 157 153 137 0
32.780000 11.660000 34.320000 152 148 132 0
33.000000 11.660000 34.320000 152 146 129 0
33.220000 11.660000 34.320000 149 143 126 0
33.440000 11.660000 35.860000 146 138 122 0
33.660000 11.660000 35.860000 143 135 119 0
33.880000 11.660000 36.960000 142 134 116 0
34.100000 11.660000 39.160000 140 132 114 0
34.320000 11.660000 40.260000 138 132 111 0
34.540000 11.660000 40.260000 138 132 111 0
34.760000 11.660000 41.580000 138 131 110 0
34.980000 11.660000 41.800000 139 132 111 0
35.200000 11.660000 41.800000 138 130 114 0
35.420000 11.660000 41.800000 139 131 115 0
35.640000 11.660000 41.800000 139 131 115 0
35.860000 11.660000 30.800000 140 132 116 0
36.080000 11.660000 21.340000 138 134 120 0
36.300000 11.660000 21.340000 139 135 121 0
36.520000 11.660000 10.340000 144 137 122 0
36.740000 11.660000 0.660000 148 141 126 0
36.960000 11.660000 1.760000 150 143 130 0
37.180000 11.660000 2.860000 152 145 132 0
0.000000 11.880000 26.180000 147 169 128 0
0.220000 11.880000 26.180000 149 171 130 0
0.440000 11.880000 26.180000 149 171 130 0
0.660000 11.880000 27.500000 150 172 131 0
0.880000 11.880000 27.500000 150 172 129 0
1.100000 11.880000 28.600000 149 171 128 0
1.320000 11.880000 30.800000 149 171 130 0
1.540000 11.880000 31.900000 150 172 131 0
1.760000 11.880000 31.900000 149 171 130 0
1.980000 11.880000 30.580000 149 171 130 0
2.200000 11.880000 32.120000 148 172 131 0
2.420000 11.880000 32.120000 148 172 131 0
2.640000 11.880000 32.120000 151 173 130 0
2.860000 11.880000 32.120000 150 172 129 0
3.080000 11.880000 32.340000 150 172 131 0
3.300000 11.880000 33.660000 149 171 130 0
3.520000 11.880000 33.660000 149 171 130 0
3.740000 11.880000 35.200000 149 171 130 0
3.960000 11.880000 36.740000 147 169 128 0
4.180000 11.880000 38.060000 145 167 126 0
4.400000 11.880000 39.600000 146 162 128 0
4.620000 11.880000 39.600000 142 158 124 0
4.840000 11.880000 39.600000 140 153 122 0
5.060000 11.880000 39.600000 136 149 118 0
5.280000 11.880000 39.820000 133 143 111 0
5.500000 11.880000 39.820000 130 140 108 0
5.720000 11.880000 38.500000 128 138 108 0
5.940000 11.880000 38.500000 128 138 108 0
6.160000 11.880000 38.500000 128 137 111 0
6.380000 11.880000 28.820000 129 138 112 0
6.600000 11.880000 19.140000 128 140 111 0
6.820000 11.880000 30.140000 130 142 113 0
7.040000 11.880000 41.140000 131 144 109 0
7.260000 11.880000 39.820000 134 147 112 0
7.480000 11.880000 39.820000 136 151 115 0
7.700000 11.880000 39.820000 138 153 117 0
7.920000 11.880000 40.040000 140 156 122 0
8.140000 11.880000 38.500000 141 157 123 0
8.360000 11.880000 38.500000 143 160 123 0
8.580000 11.880000 36.740000 145 162 125 0
8.800000 11.880000 37.620000 146 163 126 0
9.020000 11.880000 37.400000 146 163 126 0
9.240000 11.880000 37.400000 150 163 128 0
9.460000 11.880000 37.400000 151 164 129 0
9.680000 11.880000 37.620000 151 164 131 0
9.900000 11.880000 37.620000 152 165 132 0
10.120000 11.880000 37.620000 151 166 132 0
10.340000 11.880000 39.160000 151 166 132 0
10.560000 11.880000 39.160000 153 166 133 0
10.780000 11.880000 39.160000 153 166 133 0
11.000000 11.880000 39.160000 153 166 133 0
11.220000 11.880000 39.380000 153 166 133 0
11.440000 11.880000 39.380000 156 166 136 0
11.660000 11.880000 40.920000 157 167 137 0
11.880000 11.880000 29.920000 154 167 134 0
12.100000 11.880000 9.240000 155 168 135 0
12.980000 11.880000 6.820000 156 166 136 0
13.200000 11.880000 24.860000 156 166 136 0
13.420000 11.880000 37.180000 157 167 137 0
13.640000 11.880000 38.720000 155 168 137 0
13.860000 11.880000 38.720000 154 167 136 0
14.080000 11.880000 38.720000 156 166 136 0
14.300000 11.880000 40.040000 156 166 136 0
14.520000 11.880000 40.040000 157 167 137 0
14.740000 11.880000 40.040000 157 167 137 0
14.960000 11.880000 40.040000 158 166 137 0
15.180000 11.880000 29.040000 159 167 138 0
15.400000 11.880000 10.560000 157 167 137 0
15.620000 11.880000 4.400000 157 167 137 0
15.840000 11.880000 2.860000 157 167 138 0
16.060000 11.880000 0.220000 157 167 138 0
16.280000 11.880000 11.220000 158 166 137 0
16.500000 11.880000 23.760000 158 166 137 0
16.720000 11.880000 15.620000 158 166 138 0
16.940000 11.880000 3.300000 158 166 138 0
17.160000 11.880000 0.440000 158 166 138 0
17.380000 11.880000 0.660000 159 167 139 0
18.260000 11.880000 0.880000 160 168 140 0
18.480000 11.880000 1.100000 161 166 139 0
18.700000 11.880000 1.100000 161 166 139 0
18.920000 11.880000 1.100000 161 166 141 0
19.140000 11.880000 2.640000 162 167 142 0
19.360000 11.880000 2.640000 158 168 139 0
19.580000 11.880000 2.640000 158 168 139 0
19.800000 11.880000 3.740000 162 167 140 0
20.020000 11.880000 5.940000 162 167 140 0
20.240000 11.880000 7.040000 162 167 140 0
20.460000 11.880000 8.580000 161 166 139 0
20.680000 11.880000 8.580000 161 166 141 0
20.900000 11.880000 8.580000 162 167 142 0
21.120000 11.880000 8.580000 160 167 144 0
21.340000 11.880000 8.800000 161 168 145 0
21.560000 11.880000 8.800000 162 167 142 0
21.780000 11.880000 8.800000 163 168 143 0
22.000000 11.880000 9.020000 163 168 143 0
22.220000 11.880000 9.020000 162 167 142 0
22.440000 11.880000 9.020000 163 168 145 0
22.660000 11.880000 9.240000 162 167 144 0
22.880000 11.880000 9.240000 160 168 142 0
23.100000 11.880000 9.240000 159 167 141 0
23.320000 11.880000 9.240000 161 165 145 0
23.540000 11.880000 9.460000 160 164 144 0
23.760000 11.880000 9.460000 159 164 139 0
23.980000 11.880000 11.000000 160 165 140 0
24.200000 11.880000 11.000000 163 166 144 0
24.420000 11.880000 12.320000 163 166 144 0
24.640000 11.880000 13.640000 165 167 148 0
24.860000 11.880000 15.620000 166 168 149 0
25.080000 11.880000 18.040000 166 169 147 0
25.300000 11.880000 18.040000 167 170 148 0
25.520000 11.880000 18.040000 168 169 148 0
25.740000 11.880000 19.580000 168 169 148 0
25.960000 11.880000 19.580000 170 169 146 0
26.180000 11.880000 19.580000 170 169 146 0
26.400000 11.880000 21.120000 167 169 150 0
26.620000 11.880000 21.120000 167 169 150 0
26.840000 11.880000 21.120000 166 169 147 0
27.060000 11.880000 21.340000 168 171 149 0
27.280000 11.880000 21.340000 170 168 148 0
27.500000 11.880000 22.660000 171 169 149 0
27.720000 11.880000 22.880000 168 169 148 0
27.940000 11.880000 22.880000 168 169 148 0
28.160000 11.880000 22.880000 168 170 152 0
28.380000 11.880000 23.100000 168 170 152 0
28.600000 11.880000 23.100000 168 170 151 0
28.820000 11.880000 24.640000 168 170 151 0
29.040000 11.880000 24.640000 171 169 149 0
29.260000 11.880000 24.640000 172 170 150 0
29.480000 11.880000 26.180000 172 170 150 0
29.700000 11.880000 27.060000 172 170 150 0
29.920000 11.880000 29.260000 168 169 150 0
30.140000 11.880000 30.580000 169 170 151 0
30.360000 11.880000 30.580000 169 170 147 0
30.580000 11.880000 30.800000 168 169 146 0
30.800000 11.880000 30.800000 169 167 147 0
31.020000 11.880000 31.020000 168 166 146 0
31.240000 11.880000 31.020000 168 164 147 0
31.460000 11.880000 31.020000 167 163 146 0
31.680000 11.880000 31.240000 162 163 140 0
31.900000 11.880000 31.240000 159 160 137 0
32.120000 11.880000 31.240000 159 156 142 0
32.340000 11.880000 32.780000 155 152 138 0
32.560000 11.880000 32.780000 152 148 132 0
32.780000 11.880000 32.780000 148 144 128 0
33.000000 11.880000 34.320000 146 140 123 0
33.220000 11.880000 34.320000 142 136 119 0
33.440000 11.880000 34.320000 142 134 118 0
33.660000 11.880000 35.860000 140 132 116 0
33.880000 11.880000 37.180000 139 131 113 0
34.100000 11.880000 38.280000 139 131 113 0
34.320000 11.880000 39.160000 137 131 110 0
34.540000 11.880000 40.480000 137 131 110 0
34.760000 11.880000 41.580000 139 132 111 0
34.980000 11.880000 41.580000 140 133 112 0
35.200000 11.880000 41.580000 140 132 116 0
35.420000 11.880000 43.120000 142 134 118 0
35.640000 11.880000 43.120000 142 134 118 0
35.860000 11.880000 32.120000 143 135 119 0
36.080000 11.880000 20.900000 140 136 122 0
36.300000 11.880000 22.440000 145 141 127 0
36.520000 11.880000 11.440000 150 143 128 0
36.740000 11.880000 1.760000 153 146 131 0
36.960000 11.880000 3.080000 155 148 135 0
37.180000 11.880000 3.080000 159 152 139 0
0.000000 12.100000 26.180000 149 170 126 0
0.220000 12.100000 26.180000 151 172 128 0
0.440000 12.100000 26.180000 151 171 129 0
0.660000 12.100000 27.500000 152 172 130 0
0.880000 12.100000 27.500000 149 171 127 0
1.100000 12.100000 28.600000 149 171 127 0
1.320000 12.100000 30.800000 149 171 127 0
1.540000 12.100000 31.900000 149 171 127 0
1.760000 12.100000 31.900000 150 171 127 0
1.980000 12.100000 30.580000 151 172 128 0
2.200000 12.100000 32.120000 151 171 129 0
2.420000 12.100000 32.120000 151 171 129 0
2.640000 12.100000 32.120000 151 173 129 0
2.860000 12.100000 32.120000 151 173 129 0
3.080000 12.100000 32.340000 151 173 129 0
3.300000 12.100000 33.660000 150 172 128 0
3.520000 12.100000 33.660000 151 172 128 0
3.740000 12.100000 35.200000 150 171 127 0
3.960000 12.100000 36.740000 148 170 127 0
4.180000 12.100000 38.060000 146 168 125 0
4.400000 12.100000 39.600000 147 164 125 0
4.620000 12.100000 39.600000 143 160 121 0
4.840000 12.100000 39.600000 142 153 118 0
5.060000 12.100000 39.600000 138 149 114 0
5.280000 12.100000 39.600000 134 143 111 0
5.500000 12.100000 39.820000 131 140 108 0
5.720000 12.100000 38.500000 129 137 108 0
5.940000 12.100000 38.500000 129 137 108 0
6.160000 12.100000 39.820000 129 137 108 0
6.380000 12.100000 28.820000 130 138 109 0
6.600000 12.100000 19.140000 132 141 109 0
6.820000 12.100000 30.140000 133 142 110 0
7.040000 12.100000 41.140000 134 145 110 0
7.260000 12.100000 39.820000 135 146 111 0
7.480000 12.100000 39.820000 136 151 117 0
7.700000 12.100000 39.820000 139 154 120 0
7.920000 12.100000 40.040000 140 157 120 0
8.140000 12.100000 40.040000 142 159 122 0
8.360000 12.100000 38.720000 142 162 122 0
8.580000 12.100000 36.960000 144 164 124 0
8.800000 12.100000 37.620000 147 162 126 0
9.020000 12.100000 37.400000 148 163 127 0
9.240000 12.100000 37.400000 151 164 129 0
9.460000 12.100000 37.400000 151 164 129 0
9.680000 12.100000 37.620000 150 165 127 0
9.900000 12.100000 37.620000 151 166 128 0
10.120000 12.100000 37.620000 152 166 126 0
10.340000 12.100000 37.620000 152 166 126 0
10.560000 12.100000 39.160000 156 167 132 0
10.780000 12.100000 39.160000 156 167 132 0
11.000000 12.100000 39.160000 155 166 131 0
11.220000 12.100000 39.380000 156 167 132 0
11.440000 12.100000 39.380000 154 168 130 0
11.660000 12.100000 39.380000 154 168 130 0
11.880000 12.100000 29.920000 155 169 131 0
12.100000 12.100000 9.240000 155 169 131 0
12.980000 12.100000 8.140000 157 168 133 0
13.200000 12.100000 29.040000 157 168 133 0
13.420000 12.100000 38.720000 157 168 133 0
13.640000 12.100000 38.500000 157 168 131 0
13.860000 12.100000 39.820000 156 167 130 0
14.080000 12.100000 39.820000 157 166 132 0
14.300000 12.100000 39.820000 158 167 133 0
14.520000 12.100000 39.820000 157 167 135 0
14.740000 12.100000 40.040000 158 168 136 0
14.960000 12.100000 40.040000 158 167 133 0
15.180000 12.100000 29.040000 158 167 133 0
15.400000 12.100000 9.240000 158 167 135 0
16.060000 12.100000 0.220000 158 167 135 0
16.280000 12.100000 11.220000 158 167 135 0
16.500000 12.100000 20.900000 158 167 135 0
16.720000 12.100000 10.120000 159 168 136 0
16.940000 12.100000 0.440000 158 167 135 0
17.160000 12.100000 0.440000 159 168 136 0
17.380000 12.100000 0.660000 159 168 136 0
18.260000 12.100000 0.880000 162 168 139 0
18.480000 12.100000 1.100000 161 167 136 0
18.700000 12.100000 1.100000 162 168 137 0
18.920000 12.100000 1.100000 162 168 139 0
19.140000 12.100000 2.640000 161 167 138 0
19.360000 12.100000 2.640000 161 167 138 0
19.580000 12.100000 2.640000 162 168 139 0
19.800000 12.100000 3.740000 161 167 138 0
20.020000 12.100000 5.940000 162 168 139 0
20.240000 12.100000 7.040000 162 168 137 0
20.460000 12.100000 8.580000 162 168 137 0
20.680000 12.100000 8.580000 163 168 141 0
20.900000 12.100000 8.580000 162 167 140 0
21.120000 12.100000 8.580000 162 167 142 0
21.340000 12.100000 8.800000 162 167 142 0
21.560000 12.100000 8.800000 163 168 141 0
21.780000 12.100000 8.800000 165 170 143 0
22.000000 12.100000 9.020000 163 169 140 0
22.220000 12.100000 9.020000 163 169 140 0
22.440000 12.100000 9.020000 164 168 141 0
22.660000 12.100000 9.240000 163 167 140 0
22.880000 12.100000 9.240000 162 167 142 0
23.100000 12.100000 9.240000 161 166 141 0
23.320000 12.100000 9.460000 162 165 141 0
23.540000 12.100000 9.460000 161 164 140 0
23.760000 12.100000 9.460000 160 163 141 0
23.980000 12.100000 11.000000 161 164 142 0
24.200000 12.100000 11.000000 162 166 139 0
24.420000 12.100000 12.320000 164 168 141 0
24.640000 12.100000 13.640000 165 168 144 0
24.860000 12.100000 14.740000 166 169 145 0
25.080000 12.100000 16.940000 167 170 146 0
25.300000 12.100000 18.040000 167 170 146 0
25.520000 12.100000 18.040000 167 170 146 0
25.740000 12.100000 19.580000 167 170 146 0
25.960000 12.100000 19.580000 168 169 146 0
26.180000 12.100000 19.580000 168 169 146 0
26.400000 12.100000 21.120000 168 169 146 0
26.620000 12.100000 21.120000 168 169 146 0
26.840000 12.100000 21.120000 166 169 145 0
27.060000 12.100000 21.120000 167 170 146 0
27.280000 12.100000 21.340000 168 171 149 0
27.500000 12.100000 22.660000 167 170 148 0
27.720000 12.100000 22.880000 168 169 146 0
27.940000 12.100000 22.880000 169 170 147 0
28.160000 12.100000 22.880000 169 170 151 0
28.380000 12.100000 23.100000 170 171 152 0
28.600000 12.100000 23.100000 169 170 147 0
28.820000 12.100000 24.640000 169 170 147 0
29.040000 12.100000 24.640000 168 171 149 0
29.260000 12.100000 24.640000 169 172 150 0
29.480000 12.100000 24.860000 173 171 151 0
29.700000 12.100000 25.960000 172 170 150 0
29.920000 12.100000 27.940000 172 169 149 0
30.140000 12.100000 29.040000 171 168 148 0
30.360000 12.100000 30.580000 170 168 148 0
30.580000 12.100000 30.800000 170 168 148 0
30.800000 12.100000 30.800000 169 167 149 0
31.020000 12.100000 30.800000 168 166 148 0
31.240000 12.100000 31.020000 167 163 146 0
31.460000 12.100000 29.700000 165 161 144 0
31.680000 12.100000 29.700000 165 159 140 0
31.900000 12.100000 31.240000 163 157 138 0
32.120000 12.100000 31.240000 158 151 138 0
32.340000 12.100000 31.240000 153 146 133 0
32.560000 12.100000 32.780000 149 143 124 0
32.780000 12.100000 32.780000 145 139 120 0
33.000000 12.100000 33.000000 142 136 119 0
33.220000 12.100000 34.320000 140 134 117 0
33.440000 12.100000 34.320000 140 134 117 0
33.660000 12.100000 35.860000 138 132 115 0
33.880000 12.100000 37.180000 138 131 116 0
34.100000 12.100000 37.180000 139 132 117 0
34.320000 12.100000 38.500000 139 130 118 0
34.540000 12.100000 39.600000 140 131 119 0
34.760000 12.100000 40.480000 141 135 116 0
34.980000 12.100000 41.580000 142 136 117 0
35.200000 12.100000 41.580000 142 135 120 0
35.420000 12.100000 41.580000 144 137 122 0
35.640000 12.100000 41.580000 145 138 123 0
35.860000 12.100000 31.900000 148 141 126 0
36.080000 12.100000 19.580000 151 145 128 0
36.300000 12.100000 16.720000 156 150 133 0
36.520000 12.100000 9.900000 160 151 139 0
36.740000 12.100000 1.760000 162 153 141 0
36.960000 12.100000 3.080000 165 157 141 0
37.180000 12.100000 3.080000 166 158 142 0
0.000000 12.320000 26.180000 149 170 126 0
0.220000 12.320000 26.180000 151 172 128 0
0.440000 12.320000 27.500000 151 171 129 0
0.660000 12.320000 27.500000 151 171 129 0
0.880000 12.320000 27.500000 150 172 128 0
1.100000 12.320000 28.600000 149 171 127 0
1.320000 12.320000 30.800000 150 172 128 0
1.540000 12.320000 31.900000 149 171 127 0
1.760000 12.320000 31.900000 150 171 127 0
1.980000 12.320000 30.580000 151 172 128 0
2.200000 12.320000 32.120000 150 170 128 0
2.420000 12.320000 32.120000 151 171 129 0
2.640000 12.320000 32.120000 150 172 128 0
2.860000 12.320000 32.120000 151 173 129 0
3.080000 12.320000 32.340000 151 173 129 0
3.300000 12.320000 33.660000 150 172 128 0
3.520000 12.320000 33.660000 151 172 128 0
3.740000 12.320000 35.200000 151 172 128 0
3.960000 12.320000 36.740000 147 169 126 0
4.180000 12.320000 38.060000 145 167 124 0
4.400000 12.320000 39.600000 146 163 124 0
4.620000 12.320000 39.600000 143 160 121 0
4.840000 12.320000 39.600000 142 153 118 0
5.060000 12.320000 39.600000 137 148 113 0
5.280000 12.320000 39.600000 135 144 112 0
5.500000 12.320000 39.820000 130 139 107 0
5.720000 12.320000 38.280000 129 137 108 0
5.940000 12.320000 38.500000 128 136 107 0
6.160000 12.320000 39.820000 129 137 108 0
6.380000 12.320000 30.140000 130 138 109 0
6.600000 12.320000 19.140000 131 140 108 0
6.820000 12.320000 30.140000 134 143 111 0
7.040000 12.320000 41.140000 134 145 110 0
7.260000 12.320000 39.820000 135 146 111 0
7.480000 12.320000 39.820000 134 149 115 0
7.700000 12.320000 39.820000 138 153 119 0
7.920000 12.320000 40.040000 140 157 120 0
8.140000 12.320000 40.040000 142 159 122 0
8.360000 12.320000 38.720000 142 162 122 0
8.580000 12.320000 36.960000 143 163 123 0
8.800000 12.320000 37.620000 147 162 126 0
9.020000 12.320000 37.400000 148 163 127 0
9.240000 12.320000 37.400000 150 163 128 0
9.460000 12.320000 37.400000 151 164 129 0
9.680000 12.320000 37.620000 151 166 128 0
9.900000 12.320000 37.620000 151 166 128 0
10.120000 12.320000 37.620000 153 167 127 0
10.340000 12.320000 37.620000 154 168 128 0
10.560000 12.320000 37.840000 155 166 131 0
10.780000 12.320000 37.840000 155 166 131 0
11.000000 12.320000 39.160000 155 166 131 0
11.220000 12.320000 39.380000 156 167 132 0
11.440000 12.320000 39.380000 154 168 130 0
11.660000 12.320000 40.920000 154 168 130 0
11.880000 12.320000 29.920000 155 169 131 0
12.100000 12.320000 9.240000 155 169 131 0
12.980000 12.320000 8.140000 157 168 133 0
13.200000 12.320000 29.040000 157 168 133 0
13.420000 12.320000 38.720000 157 168 133 0
13.640000 12.320000 39.820000 156 167 130 0
13.860000 12.320000 40.700000 157 168 131 0
14.080000 12.320000 42.020000 157 166 132 0
14.300000 12.320000 38.280000 158 167 133 0
14.520000 12.320000 34.320000 157 167 135 0
14.740000 12.320000 37.180000 158 168 136 0
14.960000 12.320000 40.040000 158 167 133 0
15.180000 12.320000 29.040000 158 167 133 0
15.400000 12.320000 12.100000 158 167 135 0
15.620000 12.320000 4.400000 158 167 135 0
15.840000 12.320000 2.860000 157 166 134 0
16.060000 12.320000 0.220000 158 167 135 0
16.280000 12.320000 11.220000 158 167 135 0
16.500000 12.320000 20.900000 159 168 136 0
16.720000 12.320000 9.900000 159 168 136 0
16.940000 12.320000 0.440000 158 167 135 0
17.160000 12.320000 0.440000 158 167 135 0
18.040000 12.320000 0.880000 161 167 138 0
18.260000 12.320000 0.880000 161 167 138 0
18.480000 12.320000 1.100000 162 168 137 0
18.700000 12.320000 1.100000 162 168 137 0
18.920000 12.320000 1.100000 161 167 138 0
19.140000 12.320000 2.640000 162 168 139 0
19.360000 12.320000 2.640000 161 167 138 0
19.580000 12.320000 2.640000 162 168 139 0
19.800000 12.320000 3.740000 162 168 139 0
20.020000 12.320000 5.940000 162 168 139 0
20.240000 12.320000 7.040000 162 168 137 0
20.460000 12.320000 7.040000 163 169 138 0
20.680000 12.320000 8.580000 162 167 140 0
20.900000 12.320000 8.580000 163 168 141 0
21.120000 12.320000 8.580000 163 168 143 0
21.340000 12.320000 8.800000 163 168 143 0
21.560000 12.320000 8.800000 164 169 142 0
21.780000 12.320000 8.800000 163 168 141 0
22.000000 12.320000 9.020000 164 170 141 0
22.220000 12.320000 9.020000 164 170 141 0
22.440000 12.320000 9.020000 164 168 141 0
22.660000 12.320000 9.240000 164 168 141 0
22.880000 12.320000 9.240000 163 168 143 0
23.100000 12.320000 9.240000 162 167 142 0
23.320000 12.320000 9.460000 162 165 141 0
23.540000 12.320000 9.460000 162 165 141 0
23.760000 12.320000 9.460000 161 164 142 0
23.980000 12.320000 11.000000 162 165 143 0
24.200000 12.320000 11.000000 162 166 139 0
24.420000 12.320000 12.320000 163 167 140 0
24.640000 12.320000 13.860000 164 167 143 0
24.860000 12.320000 14.960000 166 169 145 0
25.080000 12.320000 16.940000 167 170 146 0
25.300000 12.320000 18.040000 167 170 146 0
25.520000 12.320000 18.040000 167 170 146 0
25.740000 12.320000 19.580000 167 170 146 0
25.960000 12.320000 19.580000 168 169 146 0
26.180000 12.320000 19.580000 168 169 146 0
26.400000 12.320000 21.120000 168 169 146 0
26.620000 12.320000 21.120000 168 169 146 0
26.840000 12.320000 21.120000 166 169 145 0
27.060000 12.320000 21.120000 167 170 146 0
27.280000 12.320000 21.340000 167 170 148 0
27.500000 12.320000 22.660000 168 171 149 0
27.720000 12.320000 22.880000 169 170 147 0
27.940000 12.320000 22.880000 169 170 147 0
28.160000 12.320000 22.880000 169 170 151 0
28.380000 12.320000 23.100000 170 171 152 0
28.600000 12.320000 23.100000 170 171 148 0
28.820000 12.320000 23.100000 170 171 148 0
29.040000 12.320000 24.640000 168 171 149 0
29.260000 12.320000 24.640000 169 172 150 0
29.480000 12.320000 24.860000 172 170 150 0
29.700000 12.320000 25.960000 172 170 150 0
29.920000 12.320000 27.940000 172 169 149 0
30.140000 12.320000 29.040000 171 168 148 0
30.360000 12.320000 29.260000 170 168 148 0
30.580000 12.320000 29.260000 169 167 147 0
30.800000 12.320000 29.480000 169 167 149 0
31.020000 12.320000 29.480000 166 164 146 0
