ply
format ascii 1.0
element vertex 1122
property float x
property float y
property float z
property uchar red
property uchar green
property uchar blue
property uchar alpha
end_header
33.660000 6.160000 19.140000 199 208 208 0
33.880000 6.160000 20.460000 199 208 208 0
34.100000 6.160000 20.460000 199 208 208 0
34.320000 6.160000 21.780000 198 209 208 0
34.540000 6.160000 23.100000 199 210 209 0
34.760000 6.160000 24.420000 203 211 209 0
34.980000 6.160000 23.100000 205 213 211 0
35.200000 6.160000 24.420000 209 213 211 0
35.420000 6.160000 25.960000 212 216 214 0
35.640000 6.160000 28.600000 212 218 213 0
35.860000 6.160000 31.240000 217 223 218 0
36.080000 6.160000 34.100000 225 227 221 0
36.300000 6.160000 36.960000 226 228 222 0
36.520000 6.160000 35.640000 230 231 228 0
36.740000 6.160000 27.280000 236 237 234 0
36.960000 6.160000 21.780000 239 240 239 0
37.180000 6.160000 21.780000 240 241 240 0
0.000000 6.380000 9.900000 182 240 239 0
0.220000 6.380000 10.120000 184 242 241 0
0.440000 6.380000 8.800000 179 241 241 0
0.660000 6.380000 8.800000 178 240 240 0
0.880000 6.380000 6.380000 166 241 242 0
1.100000 6.380000 5.280000 165 240 241 0
1.320000 6.380000 5.500000 166 239 241 0
1.540000 6.380000 6.820000 166 239 241 0
1.760000 6.380000 6.380000 163 240 241 0
1.980000 6.380000 13.200000 161 238 239 0
2.200000 6.380000 20.460000 162 239 240 0
2.420000 6.380000 14.960000 162 239 240 0
2.640000 6.380000 8.140000 164 239 240 0
2.860000 6.380000 13.640000 165 240 241 0
3.080000 6.380000 23.320000 162 239 240 0
3.300000 6.380000 28.820000 161 238 239 0
3.520000 6.380000 24.640000 161 238 239 0
3.740000 6.380000 13.640000 162 239 240 0
3.960000 6.380000 11.000000 163 240 241 0
4.180000 6.380000 17.820000 162 239 240 0
4.400000 6.380000 26.180000 162 239 240 0
4.620000 6.380000 28.600000 162 239 240 0
4.840000 6.380000 25.520000 163 240 241 0
5.060000 6.380000 23.980000 162 239 240 0
5.280000 6.380000 24.420000 161 238 239 0
5.500000 6.380000 25.960000 162 239 240 0
5.720000 6.380000 26.180000 161 240 242 0
5.940000 6.380000 23.320000 160 239 241 0
6.160000 6.380000 20.680000 158 237 239 0
6.380000 6.380000 16.500000 159 238 240 0
6.600000 6.380000 13.640000 159 238 240 0
6.820000 6.380000 12.320000 160 239 241 0
7.040000 6.380000 12.320000 161 238 241 0
7.260000 6.380000 12.320000 162 239 242 0
7.480000 6.380000 13.420000 162 241 241 0
7.700000 6.380000 14.740000 161 240 240 0
7.920000 6.380000 14.740000 160 239 241 0
8.140000 6.380000 14.960000 159 238 240 0
8.360000 6.380000 14.960000 162 239 244 0
8.580000 6.380000 14.960000 156 233 238 0
8.800000 6.380000 16.280000 164 224 245 0
9.020000 6.380000 16.280000 158 218 239 0
9.240000 6.380000 14.960000 156 216 237 0
9.460000 6.380000 13.640000 156 216 237 0
9.680000 6.380000 12.100000 159 215 235 0
9.900000 6.380000 10.780000 158 214 234 0
10.120000 6.380000 12.320000 160 212 231 0
10.340000 6.380000 12.100000 158 210 229 0
10.560000 6.380000 13.420000 163 210 231 0
10.780000 6.380000 13.420000 162 209 230 0
11.000000 6.380000 13.640000 160 207 228 0
11.220000 6.380000 14.960000 160 207 228 0
11.440000 6.380000 14.960000 161 207 225 0
11.660000 6.380000 14.960000 161 207 225 0
11.880000 6.380000 14.960000 160 206 224 0
12.100000 6.380000 14.960000 161 207 225 0
12.320000 6.380000 14.960000 161 206 224 0
12.540000 6.380000 16.280000 161 206 224 0
12.760000 6.380000 16.500000 163 205 224 0
12.980000 6.380000 16.500000 162 204 223 0
13.200000 6.380000 16.500000 161 203 220 0
13.420000 6.380000 14.960000 162 204 221 0
13.640000 6.380000 14.960000 159 204 220 0
13.860000 6.380000 14.960000 157 202 218 0
14.080000 6.380000 14.960000 164 202 218 0
14.300000 6.380000 16.500000 164 202 218 0
14.520000 6.380000 14.960000 165 203 219 0
14.740000 6.380000 16.280000 164 202 218 0
14.960000 6.380000 16.280000 165 202 216 0
15.180000 6.380000 16.280000 165 202 216 0
15.400000 6.380000 16.280000 163 202 215 0
15.620000 6.380000 16.280000 163 202 215 0
15.840000 6.380000 17.600000 164 201 215 0
16.060000 6.380000 16.280000 164 201 215 0
16.280000 6.380000 16.280000 164 201 217 0
16.500000 6.380000 17.820000 164 201 217 0
16.720000 6.380000 17.820000 165 202 216 0
16.940000 6.380000 17.820000 164 201 215 0
17.160000 6.380000 17.820000 164 201 215 0
17.380000 6.380000 17.820000 164 201 215 0
17.600000 6.380000 17.820000 163 200 214 0
17.820000 6.380000 17.820000 162 199 213 0
18.040000 6.380000 17.820000 163 201 217 0
18.260000 6.380000 17.820000 161 199 215 0
18.480000 6.380000 17.820000 164 199 214 0
18.700000 6.380000 17.820000 164 199 214 0
18.920000 6.380000 17.820000 162 199 212 0
19.140000 6.380000 17.820000 163 200 213 0
19.360000 6.380000 17.820000 164 199 214 0
19.580000 6.380000 17.820000 163 198 213 0
19.800000 6.380000 17.820000 164 199 213 0
20.020000 6.380000 17.820000 163 198 212 0
20.240000 6.380000 17.820000 164 199 213 0
20.460000 6.380000 17.820000 163 198 212 0
20.680000 6.380000 17.820000 163 198 212 0
20.900000 6.380000 19.140000 163 198 212 0
21.120000 6.380000 19.360000 164 199 213 0
21.340000 6.380000 17.820000 163 198 212 0
21.560000 6.380000 17.600000 163 198 212 0
21.780000 6.380000 19.800000 163 198 212 0
22.000000 6.380000 23.540000 165 198 212 0
22.220000 6.380000 24.860000 165 198 212 0
22.440000 6.380000 23.540000 163 198 212 0
22.660000 6.380000 20.900000 162 197 211 0
22.880000 6.380000 23.540000 165 198 212 0
23.100000 6.380000 31.900000 166 199 213 0
23.320000 6.380000 36.080000 165 198 212 0
23.540000 6.380000 34.760000 165 198 212 0
23.760000 6.380000 34.980000 167 198 211 0
23.980000 6.380000 37.620000 167 198 211 0
24.200000 6.380000 38.720000 167 198 211 0
24.420000 6.380000 38.720000 167 198 211 0
24.640000 6.380000 38.940000 167 198 211 0
24.860000 6.380000 38.940000 167 198 211 0
25.080000 6.380000 38.940000 167 198 213 0
25.300000 6.380000 37.400000 168 199 214 0
25.520000 6.380000 33.220000 170 199 212 0
25.740000 6.380000 30.580000 170 199 212 0
25.960000 6.380000 31.900000 168 199 212 0
26.180000 6.380000 26.400000 168 199 212 0
26.400000 6.380000 16.720000 168 199 212 0
26.620000 6.380000 11.220000 168 199 212 0
26.840000 6.380000 9.900000 171 198 212 0
27.060000 6.380000 5.720000 171 198 212 0
27.280000 6.380000 4.180000 172 198 210 0
27.500000 6.380000 4.180000 173 199 211 0
27.720000 6.380000 4.400000 183 200 211 0
27.940000 6.380000 4.400000 192 209 220 0
28.160000 6.380000 5.720000 197 215 224 0
28.380000 6.380000 10.120000 198 216 225 0
28.600000 6.380000 12.980000 198 214 222 0
28.820000 6.380000 12.980000 198 214 222 0
29.040000 6.380000 15.840000 200 212 219 0
29.260000 6.380000 25.520000 199 211 218 0
29.480000 6.380000 31.240000 200 213 217 0
29.700000 6.380000 36.960000 199 212 216 0
29.920000 6.380000 39.600000 200 210 214 0
30.140000 6.380000 36.960000 199 209 213 0
30.360000 6.380000 31.460000 197 210 213 0
30.580000 6.380000 21.780000 196 209 212 0
30.800000 6.380000 9.460000 195 209 213 0
31.020000 6.380000 5.280000 194 208 212 0
31.240000 6.380000 8.140000 195 208 212 0
31.460000 6.380000 10.780000 194 207 211 0
31.680000 6.380000 14.960000 197 208 209 0
31.900000 6.380000 16.280000 196 207 208 0
32.120000 6.380000 14.960000 195 206 207 0
32.340000 6.380000 16.280000 195 206 207 0
32.560000 6.380000 16.280000 195 206 207 0
32.780000 6.380000 17.600000 196 207 208 0
33.000000 6.380000 19.140000 195 206 207 0
33.220000 6.380000 19.140000 194 205 206 0
33.440000 6.380000 19.140000 196 205 205 0
33.660000 6.380000 19.140000 197 206 206 0
33.880000 6.380000 20.460000 198 207 207 0
34.100000 6.380000 20.460000 198 207 207 0
34.320000 6.380000 21.780000 197 208 207 0
34.540000 6.380000 23.100000 197 208 207 0
34.760000 6.380000 24.420000 202 210 208 0
34.980000 6.380000 24.420000 203 211 209 0
35.200000 6.380000 24.420000 207 211 209 0
35.420000 6.380000 27.280000 210 214 212 0
35.640000 6.380000 29.920000 212 218 213 0
35.860000 6.380000 32.780000 215 221 216 0
36.080000 6.380000 35.640000 223 225 219 0
36.300000 6.380000 36.960000 225 227 221 0
36.520000 6.380000 35.640000 230 231 228 0
36.740000 6.380000 25.960000 235 236 233 0
36.960000 6.380000 17.600000 238 239 238 0
37.180000 6.380000 17.820000 240 241 240 0
0.000000 6.600000 9.900000 179 244 245 0
0.220000 6.600000 9.900000 178 243 244 0
0.440000 6.600000 8.580000 171 243 244 0
0.660000 6.600000 8.580000 170 242 243 0
0.880000 6.600000 7.480000 167 242 242 0
1.100000 6.600000 6.600000 164 239 239 0
1.320000 6.600000 6.820000 163 240 241 0
1.540000 6.600000 7.920000 163 240 241 0
1.760000 6.600000 8.800000 165 240 241 0
1.980000 6.600000 15.620000 164 239 240 0
2.200000 6.600000 20.240000 166 239 240 0
2.420000 6.600000 10.780000 166 239 240 0
2.640000 6.600000 6.600000 163 240 241 0
2.860000 6.600000 14.960000 162 239 240 0
3.080000 6.600000 26.180000 161 238 239 0
3.300000 6.600000 30.360000 162 239 240 0
3.520000 6.600000 24.640000 163 240 241 0
3.740000 6.600000 12.320000 161 238 239 0
3.960000 6.600000 9.680000 161 240 240 0
4.180000 6.600000 16.500000 159 238 238 0
4.400000 6.600000 24.860000 160 239 239 0
4.620000 6.600000 28.600000 160 239 239 0
4.840000 6.600000 26.620000 160 237 238 0
5.060000 6.600000 25.300000 161 238 239 0
5.280000 6.600000 25.740000 161 238 239 0
5.500000 6.600000 25.960000 162 239 240 0
5.720000 6.600000 25.960000 160 237 238 0
5.940000 6.600000 24.860000 161 238 239 0
6.160000 6.600000 20.680000 159 238 238 0
6.380000 6.600000 17.820000 159 238 238 0
6.600000 6.600000 15.180000 160 239 239 0
6.820000 6.600000 12.320000 159 238 238 0
7.040000 6.600000 12.320000 160 237 238 0
7.260000 6.600000 12.320000 163 240 241 0
7.480000 6.600000 13.420000 162 239 240 0
7.700000 6.600000 13.420000 162 239 240 0
7.920000 6.600000 14.960000 158 239 241 0
8.140000 6.600000 14.960000 157 238 240 0
8.360000 6.600000 14.960000 159 236 237 0
8.580000 6.600000 16.280000 161 238 239 0
8.800000 6.600000 16.280000 165 235 248 0
9.020000 6.600000 16.280000 155 225 238 0
9.240000 6.600000 16.280000 153 222 238 0
9.460000 6.600000 13.640000 152 221 237 0
9.680000 6.600000 12.320000 153 219 236 0
9.900000 6.600000 12.320000 152 218 235 0
10.120000 6.600000 12.320000 155 217 237 0
10.340000 6.600000 12.100000 154 216 236 0
10.560000 6.600000 13.640000 157 215 237 0
10.780000 6.600000 13.420000 156 214 236 0
11.000000 6.600000 13.640000 153 215 235 0
11.220000 6.600000 13.640000 152 214 234 0
11.440000 6.600000 13.640000 160 212 231 0
11.660000 6.600000 14.960000 159 211 230 0
11.880000 6.600000 14.960000 159 210 232 0
12.100000 6.600000 14.960000 157 208 230 0
12.320000 6.600000 14.960000 158 208 230 0
12.540000 6.600000 14.960000 158 208 230 0
12.760000 6.600000 14.960000 160 206 225 0
12.980000 6.600000 14.960000 160 206 225 0
13.200000 6.600000 14.960000 162 204 223 0
13.420000 6.600000 14.960000 162 204 223 0
13.640000 6.600000 14.960000 160 206 225 0
13.860000 6.600000 14.960000 159 205 224 0
14.080000 6.600000 14.960000 162 204 223 0
14.300000 6.600000 14.960000 162 204 223 0
14.520000 6.600000 14.960000 163 204 221 0
14.740000 6.600000 14.960000 164 205 222 0
14.960000 6.600000 16.280000 163 204 221 0
15.180000 6.600000 16.280000 163 204 221 0
15.400000 6.600000 16.280000 163 201 217 0
15.620000 6.600000 16.280000 164 202 218 0
15.840000 6.600000 16.280000 165 202 218 0
16.060000 6.600000 16.280000 166 203 219 0
16.280000 6.600000 16.280000 165 203 219 0
16.500000 6.600000 17.820000 164 202 218 0
16.720000 6.600000 17.820000 165 203 219 0
16.940000 6.600000 17.820000 164 202 218 0
17.160000 6.600000 17.820000 165 202 216 0
17.380000 6.600000 17.820000 164 201 215 0
17.600000 6.600000 17.820000 164 201 217 0
17.820000 6.600000 17.820000 163 200 216 0
18.040000 6.600000 17.820000 164 201 215 0
18.260000 6.600000 17.820000 164 201 215 0
18.480000 6.600000 17.820000 164 201 217 0
18.700000 6.600000 17.820000 163 200 216 0
18.920000 6.600000 17.820000 164 201 215 0
19.140000 6.600000 17.820000 163 200 214 0
19.360000 6.600000 17.820000 164 199 214 0
19.580000 6.600000 17.820000 164 199 214 0
19.800000 6.600000 17.820000 165 200 214 0
20.020000 6.600000 17.820000 164 199 213 0
20.240000 6.600000 17.820000 163 200 214 0
20.460000 6.600000 17.820000 163 200 214 0
20.680000 6.600000 19.140000 163 198 212 0
20.900000 6.600000 19.140000 163 198 212 0
21.120000 6.600000 19.360000 164 199 213 0
21.340000 6.600000 19.360000 163 198 212 0
21.560000 6.600000 19.140000 163 198 212 0
21.780000 6.600000 21.560000 163 198 212 0
22.000000 6.600000 23.760000 164 199 213 0
22.220000 6.600000 24.860000 163 198 212 0
22.440000 6.600000 24.860000 166 199 213 0
22.660000 6.600000 24.860000 165 198 212 0
22.880000 6.600000 27.720000 166 199 213 0
23.100000 6.600000 31.900000 167 200 214 0
23.320000 6.600000 33.220000 163 198 212 0
23.540000 6.600000 33.440000 163 198 212 0
23.760000 6.600000 33.660000 165 198 212 0
23.980000 6.600000 34.760000 166 199 213 0
24.200000 6.600000 36.080000 166 199 211 0
24.420000 6.600000 37.400000 165 198 210 0
24.640000 6.600000 38.720000 166 199 213 0
24.860000 6.600000 37.400000 165 198 212 0
25.080000 6.600000 33.220000 167 200 214 0
25.300000 6.600000 26.400000 166 199 213 0
25.520000 6.600000 18.260000 168 199 214 0
25.740000 6.600000 14.080000 169 200 215 0
25.960000 6.600000 15.400000 166 199 213 0
26.180000 6.600000 12.760000 166 199 213 0
26.400000 6.600000 5.940000 168 197 206 0
26.620000 6.600000 3.080000 166 195 204 0
26.840000 6.600000 4.400000 171 198 212 0
27.060000 6.600000 5.720000 180 207 221 0
27.280000 6.600000 5.720000 188 213 228 0
27.500000 6.600000 5.940000 193 218 233 0
27.720000 6.600000 7.260000 198 220 229 0
27.940000 6.600000 8.580000 196 218 227 0
28.160000 6.600000 7.260000 195 219 227 0
28.380000 6.600000 7.260000 194 218 226 0
28.600000 6.600000 7.480000 193 217 225 0
28.820000 6.600000 7.700000 192 216 224 0
29.040000 6.600000 9.240000 194 213 222 0
29.260000 6.600000 13.420000 194 213 222 0
29.480000 6.600000 20.460000 194 212 219 0
29.700000 6.600000 31.460000 193 211 218 0
29.920000 6.600000 36.960000 192 210 217 0
30.140000 6.600000 35.640000 192 210 217 0
30.360000 6.600000 35.640000 191 209 216 0
30.580000 6.600000 27.500000 190 208 215 0
30.800000 6.600000 13.640000 190 208 215 0
31.020000 6.600000 9.460000 189 207 214 0
31.240000 6.600000 12.320000 190 207 212 0
31.460000 6.600000 13.640000 189 206 211 0
31.680000 6.600000 16.280000 188 206 211 0
31.900000 6.600000 16.280000 188 206 211 0
32.120000 6.600000 16.280000 187 205 210 0
32.340000 6.600000 16.280000 187 205 210 0
32.560000 6.600000 16.280000 188 205 210 0
32.780000 6.600000 17.600000 189 206 211 0
33.000000 6.600000 17.600000 188 205 210 0
33.220000 6.600000 19.140000 187 204 209 0
33.440000 6.600000 19.140000 188 205 210 0
33.660000 6.600000 19.140000 190 207 212 0
33.880000 6.600000 20.460000 189 207 212 0
34.100000 6.600000 20.460000 189 207 212 0
34.320000 6.600000 21.780000 190 207 212 0
34.540000 6.600000 23.100000 191 208 213 0
34.760000 6.600000 24.420000 195 209 215 0
34.980000 6.600000 24.420000 197 211 217 0
35.200000 6.600000 25.960000 202 210 210 0
35.420000 6.600000 27.280000 206 214 214 0
35.640000 6.600000 31.460000 208 217 217 0
35.860000 6.600000 34.100000 210 219 219 0
36.080000 6.600000 36.960000 214 224 221 0
36.300000 6.600000 38.280000 218 228 225 0
36.520000 6.600000 36.960000 226 227 224 0
36.740000 6.600000 27.280000 232 233 230 0
36.960000 6.600000 19.140000 236 237 236 0
37.180000 6.600000 19.140000 239 240 239 0
0.000000 6.820000 9.900000 176 241 242 0
0.220000 6.820000 9.900000 175 240 241 0
0.440000 6.820000 8.580000 169 241 242 0
0.660000 6.820000 8.580000 168 240 241 0
0.880000 6.820000 7.480000 165 240 240 0
1.100000 6.820000 6.600000 165 240 240 0
1.320000 6.820000 6.820000 163 240 241 0
1.540000 6.820000 9.020000 162 239 240 0
1.760000 6.820000 9.900000 165 240 241 0
1.980000 6.820000 16.940000 164 239 240 0
2.200000 6.820000 20.240000 166 239 240 0
2.420000 6.820000 12.320000 166 239 240 0
2.640000 6.820000 10.780000 162 239 240 0
2.860000 6.820000 22.000000 162 239 240 0
3.080000 6.820000 28.820000 161 238 239 0
3.300000 6.820000 30.360000 162 239 240 0
3.520000 6.820000 24.860000 162 239 240 0
3.740000 6.820000 15.180000 161 238 239 0
3.960000 6.820000 12.320000 159 238 238 0
4.180000 6.820000 16.500000 158 237 237 0
4.400000 6.820000 22.000000 159 238 238 0
4.620000 6.820000 24.640000 160 239 239 0
4.840000 6.820000 24.200000 161 238 239 0
5.060000 6.820000 23.100000 161 238 239 0
5.280000 6.820000 24.640000 162 239 240 0
5.500000 6.820000 25.960000 162 239 240 0
5.720000 6.820000 24.640000 160 237 238 0
5.940000 6.820000 23.320000 161 238 239 0
6.160000 6.820000 22.000000 159 238 238 0
6.380000 6.820000 19.140000 159 238 238 0
6.600000 6.820000 16.500000 159 238 238 0
6.820000 6.820000 13.640000 159 238 238 0
7.040000 6.820000 12.320000 160 237 238 0
7.260000 6.820000 12.320000 160 237 238 0
7.480000 6.820000 13.640000 161 238 239 0
7.700000 6.820000 13.420000 161 238 239 0
7.920000 6.820000 14.960000 157 238 240 0
8.140000 6.820000 14.960000 156 237 239 0
8.360000 6.820000 16.280000 159 236 237 0
8.580000 6.820000 16.280000 162 239 240 0
8.800000 6.820000 16.280000 162 232 245 0
9.020000 6.820000 16.500000 155 225 238 0
9.240000 6.820000 16.500000 154 223 239 0
9.460000 6.820000 14.960000 153 222 238 0
9.680000 6.820000 13.640000 154 220 237 0
9.900000 6.820000 12.320000 153 219 236 0
10.120000 6.820000 12.320000 156 218 238 0
10.340000 6.820000 12.320000 156 218 238 0
10.560000 6.820000 13.640000 156 214 236 0
10.780000 6.820000 12.100000 155 213 235 0
11.000000 6.820000 12.100000 153 215 235 0
11.220000 6.820000 12.100000 153 215 235 0
11.440000 6.820000 13.640000 160 212 231 0
11.660000 6.820000 13.640000 161 213 232 0
11.880000 6.820000 13.640000 159 210 232 0
12.100000 6.820000 13.640000 158 209 231 0
12.320000 6.820000 13.640000 158 208 230 0
12.540000 6.820000 13.640000 159 209 231 0
12.760000 6.820000 13.640000 161 207 226 0
12.980000 6.820000 13.640000 161 207 226 0
13.200000 6.820000 13.640000 164 206 225 0
13.420000 6.820000 13.640000 165 207 226 0
13.640000 6.820000 13.640000 160 206 225 0
13.860000 6.820000 14.960000 160 206 225 0
14.080000 6.820000 14.960000 163 205 224 0
14.300000 6.820000 14.960000 163 205 224 0
14.520000 6.820000 14.960000 163 204 221 0
14.740000 6.820000 14.960000 163 204 221 0
14.960000 6.820000 14.960000 164 205 222 0
15.180000 6.820000 16.280000 163 204 221 0
15.400000 6.820000 16.280000 165 203 219 0
15.620000 6.820000 16.280000 165 203 219 0
15.840000 6.820000 16.280000 166 203 219 0
16.060000 6.820000 16.280000 167 204 220 0
16.280000 6.820000 16.280000 165 203 219 0
16.500000 6.820000 16.280000 165 203 219 0
16.720000 6.820000 17.820000 164 202 218 0
16.940000 6.820000 17.820000 164 202 218 0
17.160000 6.820000 17.820000 166 203 217 0
17.380000 6.820000 17.820000 165 202 216 0
17.600000 6.820000 17.820000 165 202 218 0
17.820000 6.820000 17.820000 164 201 217 0
18.040000 6.820000 17.820000 164 201 215 0
18.260000 6.820000 17.820000 165 202 216 0
18.480000 6.820000 17.820000 164 201 217 0
18.700000 6.820000 17.820000 163 200 216 0
18.920000 6.820000 17.820000 164 201 215 0
19.140000 6.820000 17.820000 164 201 215 0
19.360000 6.820000 17.820000 166 201 216 0
19.580000 6.820000 19.140000 165 200 215 0
19.800000 6.820000 19.140000 164 199 213 0
20.020000 6.820000 17.820000 165 200 214 0
20.240000 6.820000 17.820000 164 201 215 0
20.460000 6.820000 19.140000 163 200 214 0
20.680000 6.820000 19.140000 164 199 213 0
20.900000 6.820000 19.140000 164 199 213 0
21.120000 6.820000 19.360000 164 199 213 0
21.340000 6.820000 19.360000 163 198 212 0
21.560000 6.820000 20.680000 164 199 213 0
21.780000 6.820000 22.880000 164 199 213 0
22.000000 6.820000 25.080000 163 198 212 0
22.220000 6.820000 26.400000 163 198 212 0
22.440000 6.820000 26.400000 165 198 212 0
22.660000 6.820000 27.720000 166 199 213 0
22.880000 6.820000 29.040000 166 199 213 0
23.100000 6.820000 31.900000 166 199 213 0
23.320000 6.820000 31.900000 164 199 213 0
23.540000 6.820000 31.900000 163 198 212 0
23.760000 6.820000 32.120000 165 198 212 0
23.980000 6.820000 32.120000 166 199 213 0
24.200000 6.820000 33.440000 165 198 210 0
24.420000 6.820000 34.760000 167 200 212 0
24.640000 6.820000 36.080000 165 198 212 0
24.860000 6.820000 30.580000 165 198 212 0
25.080000 6.820000 20.900000 166 199 213 0
25.300000 6.820000 14.080000 167 200 214 0
25.520000 6.820000 10.120000 167 198 213 0
25.740000 6.820000 7.260000 164 195 210 0
25.960000 6.820000 8.580000 161 194 208 0
26.180000 6.820000 7.260000 166 199 213 0
26.400000 6.820000 5.940000 180 209 218 0
26.620000 6.820000 5.940000 191 220 229 0
26.840000 6.820000 5.940000 194 221 235 0
27.060000 6.820000 8.580000 194 221 235 0
27.280000 6.820000 8.800000 195 220 235 0
27.500000 6.820000 9.020000 194 219 234 0
27.720000 6.820000 10.560000 196 218 227 0
27.940000 6.820000 12.980000 195 217 226 0
28.160000 6.820000 12.980000 194 218 226 0
28.380000 6.820000 12.980000 193 217 225 0
28.600000 6.820000 13.200000 192 216 224 0
28.820000 6.820000 13.200000 192 216 224 0
29.040000 6.820000 14.740000 193 212 221 0
29.260000 6.820000 16.280000 191 210 219 0
29.480000 6.820000 19.140000 192 210 217 0
29.700000 6.820000 25.960000 193 211 218 0
29.920000 6.820000 28.820000 190 208 215 0
30.140000 6.820000 28.820000 190 208 215 0
30.360000 6.820000 27.500000 189 207 214 0
30.580000 6.820000 23.320000 188 206 213 0
30.800000 6.820000 16.280000 187 205 212 0
31.020000 6.820000 14.960000 187 205 212 0
31.240000 6.820000 14.960000 188 205 210 0
31.460000 6.820000 16.280000 189 206 211 0
31.680000 6.820000 17.600000 187 205 210 0
31.900000 6.820000 17.600000 186 204 209 0
32.120000 6.820000 16.280000 186 204 209 0
32.340000 6.820000 16.280000 185 203 208 0
32.560000 6.820000 16.280000 187 204 209 0
32.780000 6.820000 17.600000 188 205 210 0
33.000000 6.820000 17.600000 186 203 208 0
33.220000 6.820000 17.820000 187 204 209 0
33.440000 6.820000 19.140000 186 203 208 0
33.660000 6.820000 19.140000 188 205 210 0
33.880000 6.820000 20.460000 186 204 209 0
34.100000 6.820000 20.460000 186 204 209 0
34.320000 6.820000 21.780000 188 205 210 0
34.540000 6.820000 23.100000 189 206 211 0
34.760000 6.820000 24.420000 191 205 211 0
34.980000 6.820000 24.420000 194 208 214 0
35.200000 6.820000 25.960000 200 208 208 0
35.420000 6.820000 27.280000 203 211 211 0
35.640000 6.820000 28.600000 205 214 214 0
35.860000 6.820000 28.600000 207 216 216 0
36.080000 6.820000 28.600000 210 220 217 0
36.300000 6.820000 30.140000 215 225 222 0
36.520000 6.820000 31.460000 223 224 221 0
36.740000 6.820000 27.280000 226 227 224 0
36.960000 6.820000 20.460000 230 231 230 0
37.180000 6.820000 20.460000 234 235 234 0
0.000000 7.040000 9.900000 171 240 242 0
0.220000 7.040000 9.900000 171 240 242 0
0.440000 7.040000 8.580000 167 242 243 0
0.660000 7.040000 8.580000 165 240 241 0
0.880000 7.040000 7.260000 167 238 241 0
1.100000 7.040000 6.380000 168 239 242 0
1.320000 7.040000 7.920000 165 240 241 0
1.540000 7.040000 10.120000 165 240 241 0
1.760000 7.040000 11.220000 165 240 240 0
1.980000 7.040000 14.080000 164 239 239 0
2.200000 7.040000 17.600000 163 240 241 0
2.420000 7.040000 12.100000 163 240 241 0
2.640000 7.040000 13.640000 163 240 241 0
2.860000 7.040000 26.180000 162 239 240 0
3.080000 7.040000 30.360000 161 238 239 0
3.300000 7.040000 30.360000 161 238 239 0
3.520000 7.040000 27.500000 160 239 239 0
3.740000 7.040000 22.000000 160 239 239 0
3.960000 7.040000 17.820000 160 239 239 0
4.180000 7.040000 17.820000 159 238 238 0
4.400000 7.040000 19.140000 159 238 238 0
4.620000 7.040000 20.460000 160 239 239 0
4.840000 7.040000 19.140000 162 241 241 0
5.060000 7.040000 20.680000 161 240 240 0
5.280000 7.040000 23.320000 161 240 240 0
5.500000 7.040000 24.640000 161 240 240 0
5.720000 7.040000 23.320000 159 238 238 0
5.940000 7.040000 22.000000 159 238 238 0
6.160000 7.040000 22.000000 157 238 240 0
6.380000 7.040000 20.680000 157 238 240 0
6.600000 7.040000 19.140000 160 239 241 0
6.820000 7.040000 14.960000 159 238 240 0
7.040000 7.040000 13.640000 159 238 240 0
7.260000 7.040000 12.320000 159 238 240 0
7.480000 7.040000 13.640000 160 239 241 0
7.700000 7.040000 14.960000 160 239 241 0
7.920000 7.040000 14.960000 156 237 239 0
8.140000 7.040000 14.960000 157 238 240 0
8.360000 7.040000 14.960000 160 239 241 0
8.580000 7.040000 16.280000 159 238 240 0
8.800000 7.040000 17.820000 158 237 239 0
9.020000 7.040000 17.820000 156 235 237 0
9.240000 7.040000 16.500000 154 233 235 0
9.460000 7.040000 14.960000 153 232 234 0
9.680000 7.040000 13.640000 152 230 235 0
9.900000 7.040000 13.640000 151 229 234 0
10.120000 7.040000 12.320000 150 228 235 0
10.340000 7.040000 12.320000 147 225 232 0
10.560000 7.040000 12.320000 150 224 232 0
10.780000 7.040000 12.100000 151 225 233 0
11.000000 7.040000 12.100000 150 221 236 0
11.220000 7.040000 12.100000 148 219 234 0
11.440000 7.040000 12.320000 154 216 234 0
11.660000 7.040000 12.320000 154 216 234 0
11.880000 7.040000 12.100000 152 216 236 0
12.100000 7.040000 12.100000 151 215 235 0
12.320000 7.040000 12.100000 155 213 235 0
12.540000 7.040000 12.320000 156 214 236 0
12.760000 7.040000 12.320000 153 214 237 0
12.980000 7.040000 12.320000 152 213 236 0
13.200000 7.040000 12.320000 159 210 232 0
13.420000 7.040000 13.640000 159 210 232 0
13.640000 7.040000 13.640000 157 211 232 0
13.860000 7.040000 13.640000 154 208 229 0
14.080000 7.040000 13.640000 156 210 231 0
14.300000 7.040000 13.640000 155 209 230 0
14.520000 7.040000 13.640000 151 209 231 0
14.740000 7.040000 13.640000 152 210 232 0
14.960000 7.040000 14.960000 161 208 229 0
15.180000 7.040000 16.280000 160 207 228 0
15.400000 7.040000 16.280000 161 207 226 0
15.620000 7.040000 16.280000 161 207 226 0
15.840000 7.040000 16.280000 162 207 225 0
16.060000 7.040000 16.280000 162 207 225 0
16.280000 7.040000 16.280000 160 206 225 0
16.500000 7.040000 16.280000 159 205 224 0
16.720000 7.040000 17.820000 162 204 223 0
16.940000 7.040000 17.820000 163 205 224 0
17.160000 7.040000 17.820000 162 203 220 0
17.380000 7.040000 17.820000 162 203 220 0
17.600000 7.040000 17.820000 163 204 221 0
17.820000 7.040000 16.500000 163 204 221 0
18.040000 7.040000 17.820000 164 202 218 0
18.260000 7.040000 17.820000 164 202 218 0
18.480000 7.040000 17.820000 163 201 217 0
18.700000 7.040000 17.820000 164 202 218 0
18.920000 7.040000 17.820000 163 201 217 0
19.140000 7.040000 17.820000 163 201 217 0
19.360000 7.040000 17.820000 165 202 216 0
19.580000 7.040000 19.140000 164 201 215 0
19.800000 7.040000 19.140000 165 202 216 0
20.020000 7.040000 19.140000 165 202 216 0
20.240000 7.040000 19.140000 165 200 215 0
20.460000 7.040000 19.140000 165 200 215 0
20.680000 7.040000 20.680000 164 201 215 0
20.900000 7.040000 20.680000 164 201 215 0
21.120000 7.040000 20.680000 163 200 214 0
21.340000 7.040000 22.000000 163 200 214 0
21.560000 7.040000 23.320000 164 201 214 0
21.780000 7.040000 25.520000 164 201 214 0
22.000000 7.040000 27.940000 167 200 214 0
22.220000 7.040000 27.720000 167 200 214 0
22.440000 7.040000 29.040000 164 199 213 0
22.660000 7.040000 29.040000 165 200 214 0
22.880000 7.040000 30.580000 165 200 214 0
23.100000 7.040000 30.580000 166 201 215 0
23.320000 7.040000 30.580000 164 199 213 0
23.540000 7.040000 30.580000 164 199 213 0
23.760000 7.040000 29.480000 168 199 214 0
23.980000 7.040000 29.700000 168 199 214 0
24.200000 7.040000 30.800000 166 199 213 0
24.420000 7.040000 29.260000 166 199 213 0
24.640000 7.040000 26.400000 164 199 213 0
24.860000 7.040000 22.220000 165 200 214 0
25.080000 7.040000 14.080000 154 201 206 0
25.300000 7.040000 8.580000 152 199 204 0
25.520000 7.040000 8.800000 161 205 203 0
25.740000 7.040000 8.800000 173 217 215 0
25.960000 7.040000 10.120000 190 233 234 0
26.180000 7.040000 9.900000 196 239 240 0
26.400000 7.040000 8.580000 187 244 248 0
26.620000 7.040000 7.260000 183 240 244 0
26.840000 7.040000 8.580000 187 222 236 0
27.060000 7.040000 11.440000 186 221 235 0
27.280000 7.040000 13.200000 189 220 236 0
27.500000 7.040000 13.420000 189 220 236 0
27.720000 7.040000 13.640000 191 218 230 0
27.940000 7.040000 14.960000 188 215 227 0
28.160000 7.040000 16.060000 190 216 226 0
28.380000 7.040000 16.060000 190 216 226 0
28.600000 7.040000 16.060000 189 215 225 0
28.820000 7.040000 16.060000 188 214 224 0
29.040000 7.040000 17.600000 190 212 221 0
29.260000 7.040000 20.460000 188 210 219 0
29.480000 7.040000 20.460000 188 210 219 0
29.700000 7.040000 21.780000 187 209 218 0
29.920000 7.040000 21.780000 185 209 217 0
30.140000 7.040000 21.780000 184 208 216 0
30.360000 7.040000 21.780000 182 208 218 0
30.580000 7.040000 19.140000 182 208 218 0
30.800000 7.040000 17.600000 184 206 215 0
31.020000 7.040000 16.280000 184 206 215 0
31.240000 7.040000 16.280000 183 205 214 0
31.460000 7.040000 16.280000 183 205 214 0
31.680000 7.040000 17.600000 183 205 214 0
31.900000 7.040000 17.600000 183 205 214 0
32.120000 7.040000 16.280000 181 204 215 0
32.340000 7.040000 16.280000 180 203 214 0
32.560000 7.040000 16.280000 180 204 212 0
32.780000 7.040000 16.280000 180 204 212 0
33.000000 7.040000 17.820000 180 204 212 0
33.220000 7.040000 17.820000 180 204 212 0
33.440000 7.040000 19.140000 181 203 212 0
33.660000 7.040000 19.140000 181 203 212 0
33.880000 7.040000 20.460000 181 204 215 0
34.100000 7.040000 20.460000 181 204 215 0
34.320000 7.040000 21.780000 181 205 213 0
34.540000 7.040000 23.100000 181 205 213 0
34.760000 7.040000 24.420000 183 205 214 0
34.980000 7.040000 24.420000 186 208 217 0
35.200000 7.040000 24.640000 186 208 216 0
35.420000 7.040000 27.280000 188 210 218 0
35.640000 7.040000 24.420000 193 212 222 0
35.860000 7.040000 16.280000 195 214 224 0
36.080000 7.040000 12.100000 202 215 219 0
36.300000 7.040000 12.100000 204 217 221 0
36.520000 7.040000 16.280000 206 217 218 0
36.740000 7.040000 18.920000 209 220 221 0
36.960000 7.040000 18.920000 214 223 223 0
37.180000 7.040000 21.780000 217 226 226 0
0.000000 7.260000 9.900000 170 239 241 0
0.220000 7.260000 9.900000 170 239 241 0
0.440000 7.260000 8.580000 165 240 241 0
0.660000 7.260000 8.580000 164 239 240 0
0.880000 7.260000 8.580000 168 239 242 0
1.100000 7.260000 7.480000 167 238 241 0
1.320000 7.260000 7.700000 165 240 241 0
1.540000 7.260000 8.580000 164 239 240 0
1.760000 7.260000 9.680000 165 240 240 0
1.980000 7.260000 8.580000 165 240 240 0
2.200000 7.260000 7.920000 161 238 239 0
2.420000 7.260000 6.600000 161 238 239 0
2.640000 7.260000 12.100000 162 239 240 0
2.860000 7.260000 22.000000 161 238 239 0
3.080000 7.260000 30.360000 160 237 238 0
3.300000 7.260000 31.680000 160 237 238 0
3.520000 7.260000 31.680000 159 238 238 0
3.740000 7.260000 30.140000 159 238 238 0
3.960000 7.260000 24.860000 159 238 238 0
4.180000 7.260000 19.360000 159 238 238 0
4.400000 7.260000 17.820000 159 238 238 0
4.620000 7.260000 16.500000 158 237 237 0
4.840000 7.260000 16.500000 160 239 239 0
5.060000 7.260000 19.140000 160 239 239 0
5.280000 7.260000 22.000000 159 238 238 0
5.500000 7.260000 23.320000 159 238 238 0
5.720000 7.260000 20.680000 160 239 239 0
5.940000 7.260000 19.140000 160 239 239 0
6.160000 7.260000 20.680000 157 238 240 0
6.380000 7.260000 22.000000 156 237 239 0
6.600000 7.260000 20.460000 159 238 240 0
6.820000 7.260000 17.820000 159 238 240 0
7.040000 7.260000 13.640000 159 238 240 0
7.260000 7.260000 13.640000 159 238 240 0
7.480000 7.260000 14.960000 160 239 241 0
7.700000 7.260000 14.960000 159 238 240 0
7.920000 7.260000 14.960000 157 238 240 0
8.140000 7.260000 14.960000 157 238 240 0
8.360000 7.260000 14.960000 160 239 241 0
8.580000 7.260000 16.280000 159 238 240 0
8.800000 7.260000 17.820000 158 237 239 0
9.020000 7.260000 17.820000 158 237 239 0
9.240000 7.260000 16.500000 159 238 240 0
9.460000 7.260000 13.640000 158 237 239 0
9.680000 7.260000 13.640000 158 236 241 0
9.900000 7.260000 13.640000 156 234 239 0
10.120000 7.260000 13.640000 156 234 241 0
10.340000 7.260000 13.640000 153 231 238 0
10.560000 7.260000 12.320000 157 231 239 0
10.780000 7.260000 12.320000 154 228 236 0
11.000000 7.260000 10.780000 153 224 239 0
11.220000 7.260000 10.780000 151 222 237 0
11.440000 7.260000 10.780000 156 218 236 0
11.660000 7.260000 10.780000 157 219 237 0
11.880000 7.260000 10.780000 154 218 238 0
12.100000 7.260000 12.100000 153 217 237 0
12.320000 7.260000 12.100000 156 214 236 0
12.540000 7.260000 10.780000 156 214 236 0
12.760000 7.260000 11.000000 153 214 237 0
12.980000 7.260000 10.780000 152 213 236 0
13.200000 7.260000 10.780000 159 210 232 0
13.420000 7.260000 12.100000 159 210 232 0
13.640000 7.260000 12.100000 158 212 233 0
13.860000 7.260000 12.100000 159 213 234 0
14.080000 7.260000 12.100000 157 211 232 0
14.300000 7.260000 12.320000 157 211 232 0
14.520000 7.260000 12.320000 152 210 232 0
14.740000 7.260000 12.100000 152 210 232 0
14.960000 7.260000 13.640000 162 209 230 0
15.180000 7.260000 14.960000 161 208 229 0
15.400000 7.260000 14.960000 163 209 228 0
15.620000 7.260000 14.960000 162 208 227 0
15.840000 7.260000 14.960000 162 207 225 0
16.060000 7.260000 14.960000 161 206 224 0
16.280000 7.260000 16.280000 160 206 225 0
16.500000 7.260000 16.280000 161 207 226 0
16.720000 7.260000 17.820000 164 206 225 0
16.940000 7.260000 16.280000 163 205 224 0
17.160000 7.260000 17.820000 165 206 223 0
17.380000 7.260000 17.820000 163 204 221 0
17.600000 7.260000 17.820000 163 204 221 0
17.820000 7.260000 17.820000 163 204 221 0
18.040000 7.260000 17.820000 165 203 219 0
18.260000 7.260000 17.820000 165 203 219 0
18.480000 7.260000 17.820000 164 202 218 0
18.700000 7.260000 17.820000 165 203 219 0
18.920000 7.260000 17.820000 165 203 219 0
19.140000 7.260000 19.140000 163 201 217 0
19.360000 7.260000 19.140000 165 202 216 0
19.580000 7.260000 19.140000 166 203 217 0
19.800000 7.260000 20.460000 165 202 216 0
20.020000 7.260000 20.680000 165 202 216 0
20.240000 7.260000 20.680000 166 201 216 0
20.460000 7.260000 20.680000 166 201 216 0
20.680000 7.260000 22.000000 165 202 216 0
20.900000 7.260000 22.000000 166 203 217 0
21.120000 7.260000 22.000000 165 202 216 0
21.340000 7.260000 23.540000 165 202 216 0
21.560000 7.260000 24.640000 165 202 215 0
21.780000 7.260000 27.060000 165 202 215 0
22.000000 7.260000 27.940000 168 201 215 0
22.220000 7.260000 29.040000 168 201 215 0
22.440000 7.260000 29.040000 166 201 215 0
22.660000 7.260000 29.260000 166 201 215 0
22.880000 7.260000 29.260000 166 201 215 0
23.100000 7.260000 29.260000 165 200 214 0
23.320000 7.260000 29.260000 165 200 214 0
23.540000 7.260000 29.260000 165 200 214 0
23.760000 7.260000 29.480000 169 200 215 0
23.980000 7.260000 29.700000 169 200 215 0
24.200000 7.260000 31.020000 168 201 215 0
24.420000 7.260000 26.840000 162 195 209 0
24.640000 7.260000 15.620000 159 194 208 0
24.860000 7.260000 11.220000 165 200 214 0
25.080000 7.260000 12.540000 174 221 226 0
25.300000 7.260000 11.440000 187 234 239 0
25.520000 7.260000 10.340000 197 241 239 0
25.740000 7.260000 10.340000 197 241 239 0
25.960000 7.260000 11.440000 196 239 240 0
26.180000 7.260000 11.220000 197 240 241 0
26.400000 7.260000 9.900000 184 241 245 0
26.620000 7.260000 10.120000 180 237 241 0
26.840000 7.260000 12.980000 185 220 234 0
27.060000 7.260000 15.620000 186 221 235 0
27.280000 7.260000 18.700000 188 219 235 0
27.500000 7.260000 17.600000 188 219 235 0
27.720000 7.260000 14.960000 190 217 229 0
27.940000 7.260000 14.960000 188 215 227 0
28.160000 7.260000 14.960000 188 214 224 0
28.380000 7.260000 16.060000 188 214 224 0
28.600000 7.260000 16.060000 187 213 223 0
28.820000 7.260000 16.060000 187 213 223 0
29.040000 7.260000 17.600000 189 211 220 0
29.260000 7.260000 19.140000 188 210 219 0
29.480000 7.260000 19.140000 186 208 217 0
29.700000 7.260000 19.140000 186 208 217 0
29.920000 7.260000 19.140000 184 208 216 0
30.140000 7.260000 20.460000 183 207 215 0
30.360000 7.260000 20.460000 180 206 216 0
30.580000 7.260000 19.140000 180 206 216 0
30.800000 7.260000 17.600000 183 205 214 0
31.020000 7.260000 17.600000 183 205 214 0
31.240000 7.260000 16.280000 182 204 213 0
31.460000 7.260000 17.600000 182 204 213 0
31.680000 7.260000 17.600000 182 204 213 0
31.900000 7.260000 17.600000 181 203 212 0
32.120000 7.260000 16.280000 179 202 213 0
32.340000 7.260000 16.280000 179 202 213 0
32.560000 7.260000 16.280000 180 204 212 0
32.780000 7.260000 16.280000 179 203 211 0
33.000000 7.260000 16.280000 179 203 211 0
33.220000 7.260000 17.820000 180 204 212 0
33.440000 7.260000 19.140000 180 202 211 0
33.660000 7.260000 20.460000 181 203 212 0
33.880000 7.260000 20.460000 180 203 214 0
34.100000 7.260000 20.460000 179 202 213 0
34.320000 7.260000 21.780000 180 204 212 0
34.540000 7.260000 24.640000 180 204 212 0
34.760000 7.260000 24.420000 181 203 212 0
34.980000 7.260000 23.100000 182 204 213 0
35.200000 7.260000 23.320000 183 205 213 0
35.420000 7.260000 24.640000 184 206 214 0
35.640000 7.260000 18.920000 187 206 216 0
35.860000 7.260000 9.240000 187 206 216 0
36.080000 7.260000 5.060000 193 206 210 0
36.300000 7.260000 6.380000 195 208 212 0
36.520000 7.260000 6.380000 199 210 211 0
36.740000 7.260000 7.920000 200 211 212 0
36.960000 7.260000 12.100000 203 212 212 0
37.180000 7.260000 17.600000 206 215 215 0
0.000000 7.480000 9.900000 177 235 242 0
0.220000 7.480000 8.580000 177 235 242 0
0.440000 7.480000 8.580000 172 236 241 0
0.660000 7.480000 7.260000 171 235 240 0
0.880000 7.480000 7.260000 164 237 239 0
1.100000 7.480000 5.940000 166 239 241 0
1.320000 7.480000 6.160000 167 240 242 0
1.540000 7.480000 7.260000 165 238 240 0
1.760000 7.480000 8.360000 165 236 239 0
1.980000 7.480000 5.940000 165 236 239 0
2.200000 7.480000 3.740000 165 236 239 0
2.420000 7.480000 3.740000 165 236 239 0
2.640000 7.480000 5.280000 162 237 238 0
2.860000 7.480000 12.320000 163 238 239 0
3.080000 7.480000 22.000000 160 237 238 0
3.300000 7.480000 26.180000 160 237 238 0
3.520000 7.480000 27.500000 160 237 238 0
3.740000 7.480000 31.680000 161 238 239 0
3.960000 7.480000 28.820000 164 237 239 0
4.180000 7.480000 19.140000 162 235 237 0
4.400000 7.480000 13.640000 160 237 238 0
4.620000 7.480000 12.320000 161 238 239 0
4.840000 7.480000 12.320000 160 237 240 0
5.060000 7.480000 14.960000 161 238 241 0
5.280000 7.480000 19.140000 159 238 240 0
5.500000 7.480000 20.680000 159 238 240 0
5.720000 7.480000 17.820000 161 238 239 0
5.940000 7.480000 16.500000 161 238 239 0
6.160000 7.480000 19.140000 158 239 241 0
6.380000 7.480000 22.000000 156 237 239 0
6.600000 7.480000 22.000000 159 238 240 0
6.820000 7.480000 17.820000 160 239 241 0
7.040000 7.480000 14.960000 159 238 240 0
7.260000 7.480000 14.960000 159 238 240 0
7.480000 7.480000 16.280000 162 239 240 0
7.700000 7.480000 17.600000 160 237 238 0
7.920000 7.480000 16.280000 155 238 239 0
8.140000 7.480000 14.960000 154 237 238 0
8.360000 7.480000 14.960000 160 239 241 0
8.580000 7.480000 16.280000 159 238 240 0
8.800000 7.480000 17.820000 156 237 239 0
9.020000 7.480000 17.820000 157 238 240 0
9.240000 7.480000 16.500000 161 240 242 0
9.460000 7.480000 13.640000 160 239 241 0
9.680000 7.480000 13.640000 159 238 240 0
9.900000 7.480000 13.640000 159 238 240 0
10.120000 7.480000 15.180000 159 238 240 0
10.340000 7.480000 15.180000 157 236 238 0
10.560000 7.480000 13.640000 157 236 238 0
10.780000 7.480000 12.320000 157 236 238 0
11.000000 7.480000 10.780000 157 236 236 0
11.220000 7.480000 9.460000 156 235 235 0
11.440000 7.480000 9.460000 150 233 238 0
11.660000 7.480000 9.460000 150 233 238 0
11.880000 7.480000 9.460000 152 230 235 0
12.100000 7.480000 10.780000 151 229 234 0
12.320000 7.480000 12.100000 149 227 232 0
12.540000 7.480000 10.780000 147 225 230 0
12.760000 7.480000 11.000000 150 222 232 0
12.980000 7.480000 9.460000 148 220 230 0
13.200000 7.480000 10.780000 146 222 233 0
13.420000 7.480000 10.780000 145 221 232 0
13.640000 7.480000 10.780000 149 220 237 0
13.860000 7.480000 10.780000 149 220 237 0
14.080000 7.480000 10.780000 151 215 237 0
14.300000 7.480000 10.780000 151 215 237 0
14.520000 7.480000 10.780000 154 212 234 0
14.740000 7.480000 10.780000 155 213 235 0
14.960000 7.480000 12.320000 154 212 234 0
15.180000 7.480000 12.100000 154 212 234 0
15.400000 7.480000 13.640000 155 213 235 0
15.620000 7.480000 13.640000 154 212 234 0
15.840000 7.480000 13.640000 152 212 233 0
16.060000 7.480000 14.960000 151 211 232 0
16.280000 7.480000 14.960000 154 210 232 0
16.500000 7.480000 16.280000 154 210 232 0
16.720000 7.480000 16.280000 158 209 231 0
16.940000 7.480000 16.280000 157 208 230 0
17.160000 7.480000 16.280000 158 208 228 0
17.380000 7.480000 17.820000 159 209 229 0
17.600000 7.480000 17.820000 163 205 225 0
17.820000 7.480000 17.820000 162 204 224 0
18.040000 7.480000 17.820000 163 205 224 0
18.260000 7.480000 17.820000 162 204 223 0
18.480000 7.480000 17.820000 164 205 222 0
18.700000 7.480000 17.820000 164 205 222 0
18.920000 7.480000 19.140000 161 206 224 0
19.140000 7.480000 19.140000 160 205 223 0
19.360000 7.480000 19.140000 163 203 223 0
19.580000 7.480000 20.460000 164 204 224 0
19.800000 7.480000 20.460000 166 204 222 0
20.020000 7.480000 22.000000 166 204 222 0
20.240000 7.480000 22.000000 164 202 220 0
20.460000 7.480000 22.000000 165 203 221 0
20.680000 7.480000 23.320000 165 203 219 0
20.900000 7.480000 23.320000 165 203 219 0
21.120000 7.480000 24.860000 167 204 220 0
21.340000 7.480000 24.860000 167 204 220 0
21.560000 7.480000 27.280000 165 203 219 0
21.780000 7.480000 28.160000 165 203 219 0
22.000000 7.480000 29.260000 167 202 217 0
22.220000 7.480000 29.040000 168 203 218 0
22.440000 7.480000 29.260000 168 203 220 0
22.660000 7.480000 29.260000 167 202 219 0
22.880000 7.480000 29.260000 168 203 218 0
23.100000 7.480000 30.580000 167 202 217 0
23.320000 7.480000 30.800000 165 203 219 0
23.540000 7.480000 30.800000 166 204 220 0
23.760000 7.480000 31.020000 149 208 211 0
23.980000 7.480000 32.560000 148 207 210 0
24.200000 7.480000 34.100000 156 205 205 0
24.420000 7.480000 28.600000 171 220 220 0
24.640000 7.480000 15.840000 184 235 236 0
24.860000 7.480000 12.540000 190 241 242 0
25.080000 7.480000 15.400000 189 243 241 0
25.300000 7.480000 15.400000 189 243 241 0
25.520000 7.480000 12.760000 192 241 241 0
25.740000 7.480000 12.980000 192 241 241 0
25.960000 7.480000 12.760000 192 241 241 0
26.180000 7.480000 12.760000 192 241 241 0
26.400000 7.480000 11.440000 187 240 245 0
26.620000 7.480000 12.980000 182 235 240 0
26.840000 7.480000 14.300000 181 222 237 0
27.060000 7.480000 18.480000 181 222 237 0
27.280000 7.480000 18.700000 183 220 236 0
27.500000 7.480000 17.600000 184 221 237 0
27.720000 7.480000 14.740000 183 218 233 0
27.940000 7.480000 13.420000 182 217 232 0
28.160000 7.480000 14.960000 185 214 227 0
28.380000 7.480000 16.060000 184 213 226 0
28.600000 7.480000 16.060000 186 212 224 0
28.820000 7.480000 16.060000 186 212 224 0
29.040000 7.480000 17.600000 186 209 222 0
29.260000 7.480000 17.600000 186 209 222 0
29.480000 7.480000 17.600000 181 208 220 0
29.700000 7.480000 17.600000 182 209 221 0
29.920000 7.480000 17.600000 184 207 218 0
30.140000 7.480000 19.140000 182 205 216 0
30.360000 7.480000 20.460000 180 206 218 0
30.580000 7.480000 19.140000 180 206 218 0
30.800000 7.480000 17.600000 179 205 217 0
31.020000 7.480000 17.600000 179 205 217 0
31.240000 7.480000 17.600000 179 205 215 0
31.460000 7.480000 17.600000 177 203 213 0
31.680000 7.480000 17.600000 178 204 216 0
31.900000 7.480000 16.280000 176 202 214 0
32.120000 7.480000 16.280000 175 202 216 0
32.340000 7.480000 16.280000 175 202 216 0
32.560000 7.480000 16.280000 177 202 217 0
32.780000 7.480000 16.280000 176 201 216 0
33.000000 7.480000 16.280000 175 202 216 0
33.220000 7.480000 17.820000 175 202 216 0
33.440000 7.480000 19.140000 175 202 216 0
33.660000 7.480000 20.460000 176 203 217 0
33.880000 7.480000 20.460000 176 203 217 0
34.100000 7.480000 22.000000 176 203 217 0
34.320000 7.480000 23.320000 175 202 216 0
34.540000 7.480000 24.640000 174 201 215 0
34.760000 7.480000 24.420000 177 200 211 0
34.980000 7.480000 23.100000 177 200 211 0
35.200000 7.480000 21.780000 176 199 212 0
35.420000 7.480000 19.140000 178 201 214 0
35.640000 7.480000 13.420000 176 203 217 0
35.860000 7.480000 9.240000 177 204 218 0
36.080000 7.480000 7.700000 182 201 213 0
36.300000 7.480000 7.700000 186 205 217 0
36.520000 7.480000 6.380000 185 202 213 0
36.740000 7.480000 5.060000 188 205 216 0
36.960000 7.480000 6.600000 188 206 215 0
37.180000 7.480000 7.920000 190 208 217 0
0.000000 7.700000 9.900000 174 232 239 0
0.220000 7.700000 8.580000 176 234 241 0
0.440000 7.700000 5.940000 171 235 240 0
0.660000 7.700000 4.620000 169 233 238 0
0.880000 7.700000 7.260000 164 237 239 0
1.100000 7.700000 7.480000 164 237 239 0
1.320000 7.700000 4.840000 164 237 239 0
1.540000 7.700000 4.620000 165 238 240 0
1.760000 7.700000 5.720000 164 235 238 0
1.980000 7.700000 4.620000 165 236 239 0
2.200000 7.700000 2.200000 164 235 238 0
2.420000 7.700000 2.420000 164 235 238 0
2.640000 7.700000 2.420000 162 237 238 0
2.860000 7.700000 2.640000 161 236 237 0
3.080000 7.700000 6.820000 160 237 238 0
3.300000 7.700000 9.460000 161 238 239 0
3.520000 7.700000 13.640000 160 237 238 0
3.740000 7.700000 21.780000 160 237 238 0
3.960000 7.700000 22.000000 163 236 238 0
4.180000 7.700000 10.780000 163 236 238 0
4.400000 7.700000 6.820000 160 237 238 0
4.620000 7.700000 6.600000 161 238 239 0
4.840000 7.700000 8.140000 160 237 240 0
5.060000 7.700000 12.320000 160 237 240 0
5.280000 7.700000 14.960000 158 237 239 0
5.500000 7.700000 16.500000 159 238 240 0
5.720000 7.700000 15.180000 160 237 238 0
5.940000 7.700000 15.180000 161 238 239 0
6.160000 7.700000 17.820000 157 238 240 0
6.380000 7.700000 22.000000 156 237 239 0
6.600000 7.700000 22.000000 158 237 239 0
6.820000 7.700000 19.140000 160 239 241 0
7.040000 7.700000 16.500000 159 238 240 0
7.260000 7.700000 17.820000 159 238 240 0
7.480000 7.700000 19.140000 160 237 238 0
7.700000 7.700000 19.140000 159 236 237 0
7.920000 7.700000 16.280000 155 238 239 0
8.140000 7.700000 16.500000 154 237 238 0
8.360000 7.700000 16.280000 159 238 240 0
8.580000 7.700000 16.280000 158 237 239 0
8.800000 7.700000 16.280000 156 237 239 0
9.020000 7.700000 16.500000 156 237 239 0
9.240000 7.700000 16.500000 160 239 241 0
9.460000 7.700000 14.960000 159 238 240 0
9.680000 7.700000 13.640000 160 239 241 0
9.900000 7.700000 15.180000 160 239 241 0
10.120000 7.700000 16.500000 159 238 240 0
10.340000 7.700000 16.500000 159 238 240 0
10.560000 7.700000 14.960000 160 239 241 0
10.780000 7.700000 14.960000 159 238 240 0
11.000000 7.700000 13.640000 160 239 239 0
11.220000 7.700000 12.320000 161 240 240 0
11.440000 7.700000 11.000000 152 235 240 0
11.660000 7.700000 11.000000 153 236 241 0
11.880000 7.700000 11.000000 155 233 238 0
12.100000 7.700000 12.320000 156 234 239 0
12.320000 7.700000 13.640000 156 234 239 0
12.540000 7.700000 13.640000 155 233 238 0
12.760000 7.700000 11.000000 157 229 239 0
12.980000 7.700000 9.460000 155 227 237 0
13.200000 7.700000 10.780000 153 229 240 0
13.420000 7.700000 9.460000 150 226 237 0
13.640000 7.700000 9.460000 152 223 240 0
13.860000 7.700000 9.460000 150 221 238 0
14.080000 7.700000 9.460000 154 218 240 0
14.300000 7.700000 9.460000 152 216 238 0
14.520000 7.700000 8.140000 157 215 237 0
14.740000 7.700000 8.140000 157 215 237 0
14.960000 7.700000 9.460000 156 214 236 0
15.180000 7.700000 10.780000 156 214 236 0
15.400000 7.700000 10.780000 155 213 235 0
15.620000 7.700000 12.100000 155 213 235 0
15.840000 7.700000 12.100000 153 213 234 0
16.060000 7.700000 13.640000 153 213 234 0
16.280000 7.700000 13.640000 156 212 234 0
16.500000 7.700000 14.960000 157 213 235 0
16.720000 7.700000 14.960000 160 211 233 0
16.940000 7.700000 14.960000 159 210 232 0
17.160000 7.700000 16.280000 160 210 230 0
17.380000 7.700000 17.820000 158 208 228 0
17.600000 7.700000 17.820000 164 206 226 0
17.820000 7.700000 19.140000 165 207 227 0
18.040000 7.700000 17.820000 165 207 226 0
18.260000 7.700000 19.140000 163 205 224 0
18.480000 7.700000 19.140000 164 205 222 0
