ply
format ascii 1.0
element vertex 1100
property float x
property float y
property float z
property uchar red
property uchar green
property uchar blue
property uchar alpha
end_header
32.120000 33.440000 34.540000 182 160 141 0
32.340000 33.440000 35.640000 185 163 144 0
32.560000 33.440000 37.840000 185 166 146 0
32.780000 33.440000 40.260000 186 167 147 0
33.000000 33.440000 40.260000 187 168 148 0
33.220000 33.440000 41.800000 189 170 150 0
33.440000 33.440000 41.800000 192 170 151 0
33.660000 33.440000 30.800000 192 170 151 0
33.880000 33.440000 10.340000 192 170 151 0
34.100000 33.440000 0.660000 194 172 153 0
34.320000 33.440000 0.660000 193 171 152 0
34.540000 33.440000 2.200000 193 171 152 0
34.760000 33.440000 2.200000 193 171 152 0
34.980000 33.440000 2.420000 192 170 151 0
35.200000 33.440000 2.420000 192 170 151 0
35.420000 33.440000 2.420000 193 171 152 0
35.640000 33.440000 3.960000 193 171 152 0
35.860000 33.440000 3.960000 192 170 151 0
36.080000 33.440000 3.960000 193 171 153 0
36.300000 33.440000 4.180000 192 170 152 0
36.520000 33.440000 5.280000 192 170 151 0
36.740000 33.440000 7.260000 191 169 150 0
36.960000 33.440000 8.360000 193 171 152 0
37.180000 33.440000 8.580000 192 170 151 0
0.000000 33.660000 40.260000 178 171 138 0
0.220000 33.660000 40.260000 179 172 139 0
0.440000 33.660000 40.480000 180 173 140 0
0.660000 33.660000 40.480000 180 173 140 0
0.880000 33.660000 39.380000 179 172 139 0
1.100000 33.660000 39.380000 179 172 139 0
1.320000 33.660000 39.380000 179 172 139 0
1.540000 33.660000 39.600000 179 172 139 0
1.760000 33.660000 39.600000 178 171 138 0
1.980000 33.660000 39.820000 177 170 137 0
2.200000 33.660000 39.820000 177 170 137 0
2.420000 33.660000 39.820000 177 170 137 0
2.640000 33.660000 39.820000 178 171 138 0
2.860000 33.660000 39.820000 178 171 138 0
3.080000 33.660000 40.040000 178 171 138 0
3.300000 33.660000 39.600000 177 170 137 0
3.520000 33.660000 41.800000 177 170 137 0
3.740000 33.660000 40.260000 178 171 138 0
3.960000 33.660000 30.800000 180 170 138 0
4.180000 33.660000 18.700000 178 168 136 0
4.400000 33.660000 4.840000 176 169 136 0
4.840000 33.660000 3.520000 174 167 134 0
5.060000 33.660000 17.600000 173 166 133 0
5.280000 33.660000 18.920000 175 165 133 0
5.500000 33.660000 6.600000 177 167 135 0
5.940000 33.660000 1.100000 181 171 139 0
6.160000 33.660000 2.640000 182 172 140 0
6.380000 33.660000 2.640000 182 172 140 0
6.600000 33.660000 4.180000 182 172 140 0
6.820000 33.660000 5.280000 182 172 140 0
7.040000 33.660000 7.260000 182 172 140 0
7.260000 33.660000 8.360000 183 173 141 0
7.480000 33.660000 8.580000 183 173 141 0
7.700000 33.660000 7.260000 184 174 142 0
7.920000 33.660000 8.580000 184 174 142 0
8.140000 33.660000 8.580000 184 174 142 0
8.360000 33.660000 8.800000 184 174 142 0
8.580000 33.660000 8.800000 186 176 144 0
8.800000 33.660000 8.800000 186 176 144 0
9.020000 33.660000 9.020000 187 177 145 0
9.240000 33.660000 9.020000 187 177 145 0
9.460000 33.660000 9.020000 186 176 144 0
9.680000 33.660000 10.560000 187 177 145 0
9.900000 33.660000 10.560000 186 176 144 0
10.120000 33.660000 10.780000 185 175 143 0
10.340000 33.660000 10.780000 185 175 143 0
10.560000 33.660000 10.780000 184 173 141 0
10.780000 33.660000 10.780000 180 169 137 0
11.000000 33.660000 12.320000 178 164 133 0
11.220000 33.660000 11.000000 169 155 124 0
11.440000 33.660000 11.000000 166 150 119 0
11.660000 33.660000 11.000000 165 149 118 0
11.880000 33.660000 10.780000 166 150 120 0
12.100000 33.660000 11.440000 166 150 120 0
12.320000 33.660000 11.220000 166 150 120 0
12.540000 33.660000 10.120000 167 151 121 0
12.760000 33.660000 9.020000 166 152 121 0
12.980000 33.660000 9.020000 168 154 123 0
13.200000 33.660000 9.240000 170 152 123 0
13.420000 33.660000 9.240000 173 155 126 0
13.640000 33.660000 10.560000 172 158 127 0
13.860000 33.660000 12.760000 176 162 131 0
14.080000 33.660000 13.860000 179 165 134 0
14.300000 33.660000 13.860000 181 167 136 0
14.520000 33.660000 13.860000 183 167 139 0
14.740000 33.660000 14.080000 184 168 140 0
14.960000 33.660000 14.080000 184 169 141 0
15.180000 33.660000 14.080000 185 170 142 0
15.400000 33.660000 14.300000 185 170 142 0
15.620000 33.660000 14.300000 187 172 144 0
15.840000 33.660000 14.300000 187 171 143 0
16.060000 33.660000 14.520000 186 170 142 0
16.280000 33.660000 14.520000 187 171 143 0
16.500000 33.660000 14.520000 187 171 143 0
16.720000 33.660000 16.060000 187 171 143 0
16.940000 33.660000 16.060000 187 171 143 0
17.160000 33.660000 16.280000 186 170 142 0
17.380000 33.660000 17.600000 186 170 142 0
17.600000 33.660000 17.820000 186 170 142 0
17.820000 33.660000 17.820000 187 171 143 0
18.040000 33.660000 17.820000 186 170 142 0
18.260000 33.660000 18.920000 187 171 143 0
18.480000 33.660000 21.120000 187 171 143 0
18.700000 33.660000 22.220000 187 171 143 0
18.920000 33.660000 22.220000 188 172 144 0
19.140000 33.660000 22.440000 188 172 144 0
19.360000 33.660000 22.440000 187 171 143 0
19.580000 33.660000 22.440000 187 171 143 0
19.800000 33.660000 22.660000 187 170 145 0
20.020000 33.660000 23.980000 188 171 146 0
20.240000 33.660000 23.980000 189 173 145 0
20.460000 33.660000 24.200000 187 171 143 0
20.680000 33.660000 24.200000 189 173 145 0
20.900000 33.660000 24.200000 188 172 144 0
21.120000 33.660000 24.420000 189 171 146 0
21.340000 33.660000 24.420000 189 171 146 0
21.560000 33.660000 24.640000 189 171 146 0
21.780000 33.660000 24.640000 189 171 146 0
22.000000 33.660000 26.180000 189 171 146 0
22.220000 33.660000 26.180000 189 171 146 0
22.440000 33.660000 27.280000 190 172 147 0
22.660000 33.660000 27.940000 188 170 145 0
22.880000 33.660000 29.040000 189 171 146 0
23.100000 33.660000 29.260000 190 172 147 0
23.320000 33.660000 29.260000 191 173 148 0
23.540000 33.660000 29.260000 190 172 147 0
23.760000 33.660000 30.800000 190 172 147 0
23.980000 33.660000 30.800000 190 172 147 0
24.200000 33.660000 30.800000 190 171 149 0
24.420000 33.660000 30.800000 190 171 149 0
24.640000 33.660000 31.020000 189 171 146 0
24.860000 33.660000 31.020000 188 170 145 0
25.080000 33.660000 32.560000 187 168 146 0
25.300000 33.660000 33.880000 187 168 146 0
25.520000 33.660000 36.520000 191 172 150 0
25.740000 33.660000 38.060000 193 174 152 0
25.960000 33.660000 39.380000 193 174 152 0
26.180000 33.660000 39.600000 196 177 155 0
26.400000 33.660000 40.920000 194 176 151 0
26.620000 33.660000 39.600000 196 178 153 0
26.840000 33.660000 39.820000 194 177 154 0
27.060000 33.660000 39.820000 194 177 154 0
27.280000 33.660000 39.820000 196 177 155 0
27.500000 33.660000 40.040000 196 177 155 0
27.720000 33.660000 40.040000 196 177 157 0
27.940000 33.660000 39.820000 196 177 157 0
28.160000 33.660000 42.020000 197 178 156 0
28.380000 33.660000 41.800000 196 177 155 0
28.600000 33.660000 29.700000 196 177 157 0
28.820000 33.660000 20.020000 195 176 156 0
29.040000 33.660000 29.920000 192 173 151 0
29.260000 33.660000 40.920000 187 168 146 0
29.480000 33.660000 29.920000 184 163 141 0
29.700000 33.660000 17.600000 181 160 138 0
29.920000 33.660000 24.420000 180 159 137 0
30.140000 33.660000 36.960000 179 158 136 0
30.360000 33.660000 39.820000 179 157 138 0
30.580000 33.660000 38.500000 178 156 137 0
30.800000 33.660000 37.180000 179 156 135 0
31.020000 33.660000 35.860000 180 157 136 0
31.240000 33.660000 33.000000 181 158 137 0
31.460000 33.660000 33.000000 181 158 137 0
31.680000 33.660000 33.000000 183 160 139 0
31.900000 33.660000 34.320000 183 160 139 0
32.120000 33.660000 34.100000 182 161 139 0
32.340000 33.660000 35.420000 183 162 140 0
32.560000 33.660000 37.620000 188 167 145 0
32.780000 33.660000 40.260000 189 168 146 0
33.000000 33.660000 40.260000 187 166 144 0
33.220000 33.660000 41.800000 191 170 148 0
33.440000 33.660000 41.800000 193 171 152 0
33.660000 33.660000 30.800000 193 171 152 0
33.880000 33.660000 10.340000 194 173 151 0
34.100000 33.660000 0.660000 194 173 151 0
34.320000 33.660000 0.660000 195 173 154 0
34.540000 33.660000 0.880000 195 173 154 0
34.760000 33.660000 2.200000 195 172 153 0
34.980000 33.660000 2.420000 196 173 154 0
35.200000 33.660000 2.420000 194 172 153 0
35.420000 33.660000 2.420000 194 172 153 0
35.640000 33.660000 3.960000 194 171 152 0
35.860000 33.660000 3.960000 194 171 152 0
36.080000 33.660000 3.960000 194 171 152 0
36.300000 33.660000 4.180000 195 172 153 0
36.520000 33.660000 5.280000 193 170 151 0
36.740000 33.660000 7.260000 194 171 152 0
36.960000 33.660000 8.360000 194 171 152 0
37.180000 33.660000 8.580000 195 172 153 0
0.000000 33.880000 40.260000 180 173 140 0
0.220000 33.880000 40.260000 180 173 140 0
0.440000 33.880000 40.480000 181 174 141 0
0.660000 33.880000 40.480000 181 174 141 0
0.880000 33.880000 39.380000 180 173 140 0
1.100000 33.880000 39.380000 179 172 139 0
1.320000 33.880000 39.380000 179 172 139 0
1.540000 33.880000 39.600000 180 173 140 0
1.760000 33.880000 39.600000 180 173 140 0
1.980000 33.880000 39.820000 179 172 139 0
2.200000 33.880000 39.820000 179 172 139 0
2.420000 33.880000 39.820000 178 171 138 0
2.640000 33.880000 39.820000 179 172 139 0
2.860000 33.880000 40.040000 178 171 138 0
3.080000 33.880000 38.720000 179 172 139 0
3.300000 33.880000 39.600000 178 171 138 0
3.520000 33.880000 41.800000 179 172 139 0
3.740000 33.880000 41.580000 178 171 138 0
3.960000 33.880000 33.660000 180 170 138 0
4.180000 33.880000 15.840000 179 169 137 0
4.400000 33.880000 1.980000 177 170 137 0
4.840000 33.880000 6.380000 175 168 135 0
5.060000 33.880000 23.100000 174 167 134 0
5.280000 33.880000 23.100000 179 169 137 0
5.500000 33.880000 7.920000 181 171 139 0
5.720000 33.880000 1.100000 183 173 141 0
5.940000 33.880000 2.420000 181 171 139 0
6.160000 33.880000 2.640000 183 173 141 0
6.380000 33.880000 3.960000 183 173 141 0
6.600000 33.880000 4.180000 184 174 142 0
6.820000 33.880000 5.280000 183 173 141 0
7.040000 33.880000 7.260000 184 174 142 0
7.260000 33.880000 8.360000 184 174 142 0
7.480000 33.880000 8.580000 185 175 143 0
7.700000 33.880000 7.260000 185 175 143 0
7.920000 33.880000 8.580000 185 175 143 0
8.140000 33.880000 8.580000 186 176 144 0
8.360000 33.880000 8.800000 186 176 144 0
8.580000 33.880000 8.800000 187 177 145 0
8.800000 33.880000 8.800000 188 178 146 0
9.020000 33.880000 9.020000 189 179 147 0
9.240000 33.880000 9.020000 188 178 146 0
9.460000 33.880000 9.020000 187 177 145 0
9.680000 33.880000 10.560000 187 177 145 0
9.900000 33.880000 10.560000 187 177 145 0
10.120000 33.880000 10.560000 187 177 145 0
10.340000 33.880000 10.780000 186 176 144 0
10.560000 33.880000 10.780000 183 172 140 0
10.780000 33.880000 10.780000 181 170 138 0
11.000000 33.880000 12.320000 178 164 133 0
11.220000 33.880000 11.000000 168 154 123 0
11.440000 33.880000 11.000000 167 151 120 0
11.660000 33.880000 9.460000 167 151 120 0
11.880000 33.880000 10.780000 165 149 119 0
12.100000 33.880000 11.440000 165 149 119 0
12.320000 33.880000 9.900000 167 151 121 0
12.540000 33.880000 10.120000 166 150 120 0
12.760000 33.880000 9.020000 167 153 122 0
12.980000 33.880000 9.240000 168 154 123 0
13.200000 33.880000 9.240000 171 153 124 0
13.420000 33.880000 9.240000 173 155 126 0
13.640000 33.880000 10.560000 175 161 130 0
13.860000 33.880000 12.760000 179 165 134 0
14.080000 33.880000 13.860000 180 166 135 0
14.300000 33.880000 13.860000 183 169 138 0
14.520000 33.880000 13.860000 184 168 140 0
14.740000 33.880000 14.080000 185 169 141 0
14.960000 33.880000 14.080000 186 171 143 0
15.180000 33.880000 14.080000 187 172 144 0
15.400000 33.880000 14.300000 187 172 144 0
15.620000 33.880000 14.300000 187 172 144 0
15.840000 33.880000 14.300000 188 172 144 0
16.060000 33.880000 14.520000 189 173 145 0
16.280000 33.880000 14.520000 188 172 144 0
16.500000 33.880000 14.520000 190 174 146 0
16.720000 33.880000 16.060000 189 173 145 0
16.940000 33.880000 16.060000 188 172 144 0
17.160000 33.880000 16.280000 188 172 144 0
17.380000 33.880000 17.600000 187 171 143 0
17.600000 33.880000 17.820000 188 172 144 0
17.820000 33.880000 17.820000 188 172 144 0
18.040000 33.880000 17.820000 187 171 143 0
18.260000 33.880000 18.920000 187 171 143 0
18.480000 33.880000 21.120000 188 172 144 0
18.700000 33.880000 22.220000 188 172 144 0
18.920000 33.880000 22.220000 188 172 144 0
19.140000 33.880000 22.440000 189 173 145 0
19.360000 33.880000 22.440000 189 173 145 0
19.580000 33.880000 22.440000 189 173 145 0
19.800000 33.880000 22.660000 190 173 148 0
20.020000 33.880000 23.980000 189 172 147 0
20.240000 33.880000 23.980000 189 173 145 0
20.460000 33.880000 24.200000 190 174 146 0
20.680000 33.880000 24.200000 188 172 144 0
20.900000 33.880000 24.200000 188 172 144 0
21.120000 33.880000 24.420000 190 172 147 0
21.340000 33.880000 24.420000 190 172 147 0
21.560000 33.880000 24.640000 190 172 147 0
21.780000 33.880000 24.640000 190 172 147 0
22.000000 33.880000 24.640000 189 171 146 0
22.220000 33.880000 26.180000 191 173 148 0
22.440000 33.880000 27.280000 191 173 148 0
22.660000 33.880000 27.940000 191 173 148 0
22.880000 33.880000 29.040000 191 173 148 0
23.100000 33.880000 29.260000 193 175 150 0
23.320000 33.880000 29.260000 192 174 149 0
23.540000 33.880000 29.260000 191 173 148 0
23.760000 33.880000 30.800000 190 172 147 0
23.980000 33.880000 30.800000 191 173 148 0
24.200000 33.880000 30.800000 190 171 149 0
24.420000 33.880000 30.800000 190 171 149 0
24.640000 33.880000 31.020000 190 172 147 0
24.860000 33.880000 31.020000 190 172 147 0
25.080000 33.880000 32.560000 189 170 148 0
25.300000 33.880000 33.880000 187 168 146 0
25.520000 33.880000 35.200000 191 172 150 0
25.740000 33.880000 36.740000 194 175 153 0
25.960000 33.880000 38.060000 194 175 153 0
26.180000 33.880000 39.380000 195 176 154 0
26.400000 33.880000 40.920000 196 178 153 0
26.620000 33.880000 41.140000 196 178 153 0
26.840000 33.880000 39.820000 196 179 156 0
27.060000 33.880000 39.820000 196 179 156 0
27.280000 33.880000 39.820000 196 177 155 0
27.500000 33.880000 40.040000 197 178 156 0
27.720000 33.880000 40.040000 196 177 157 0
27.940000 33.880000 39.820000 196 177 157 0
28.160000 33.880000 40.700000 197 178 156 0
28.380000 33.880000 41.800000 196 177 155 0
28.600000 33.880000 31.020000 196 177 157 0
28.820000 33.880000 20.240000 196 177 157 0
29.040000 33.880000 29.920000 195 176 154 0
29.260000 33.880000 39.600000 193 174 152 0
29.480000 33.880000 29.920000 187 166 144 0
29.700000 33.880000 18.920000 183 162 140 0
29.920000 33.880000 30.140000 181 160 138 0
30.140000 33.880000 39.820000 181 160 138 0
30.360000 33.880000 39.820000 180 158 139 0
30.580000 33.880000 38.500000 179 157 138 0
30.800000 33.880000 37.180000 181 158 137 0
31.020000 33.880000 35.860000 182 159 138 0
31.240000 33.880000 33.000000 181 158 137 0
31.460000 33.880000 33.000000 182 159 138 0
31.680000 33.880000 34.100000 183 160 139 0
31.900000 33.880000 34.980000 183 160 139 0
32.120000 33.880000 36.300000 183 162 140 0
32.340000 33.880000 36.300000 184 163 141 0
32.560000 33.880000 37.400000 188 167 145 0
32.780000 33.880000 40.260000 189 168 146 0
33.000000 33.880000 40.260000 191 170 148 0
33.220000 33.880000 41.800000 191 170 148 0
33.440000 33.880000 41.800000 192 170 151 0
33.660000 33.880000 33.660000 195 173 154 0
33.880000 33.880000 15.840000 195 174 152 0
34.100000 33.880000 1.980000 196 175 153 0
34.320000 33.880000 0.660000 196 174 155 0
34.540000 33.880000 0.880000 195 173 154 0
34.760000 33.880000 2.200000 197 174 155 0
34.980000 33.880000 2.420000 196 173 154 0
35.200000 33.880000 2.420000 195 173 154 0
35.420000 33.880000 2.420000 195 173 154 0
35.640000 33.880000 3.960000 196 173 154 0
35.860000 33.880000 3.960000 195 172 153 0
36.080000 33.880000 3.960000 196 173 154 0
36.300000 33.880000 4.180000 195 172 153 0
36.520000 33.880000 5.280000 195 172 153 0
36.740000 33.880000 7.260000 194 171 152 0
36.960000 33.880000 8.360000 194 171 152 0
37.180000 33.880000 8.580000 195 172 153 0
0.000000 34.100000 40.260000 181 174 141 0
0.220000 34.100000 40.260000 181 174 141 0
0.440000 34.100000 40.480000 182 175 142 0
0.660000 34.100000 40.480000 182 175 142 0
0.880000 34.100000 39.380000 182 172 140 0
1.100000 34.100000 39.380000 183 173 141 0
1.320000 34.100000 39.380000 182 172 140 0
1.540000 34.100000 39.600000 182 172 140 0
1.760000 34.100000 39.600000 182 172 140 0
1.980000 34.100000 39.600000 182 172 140 0
2.200000 34.100000 39.820000 181 171 139 0
2.420000 34.100000 39.820000 180 170 138 0
2.640000 34.100000 39.820000 180 170 138 0
2.860000 34.100000 40.040000 181 171 139 0
3.080000 34.100000 38.720000 181 171 139 0
3.300000 34.100000 39.600000 181 171 139 0
3.520000 34.100000 41.800000 180 171 137 0
3.740000 34.100000 41.580000 180 171 137 0
3.960000 34.100000 30.800000 181 170 138 0
4.180000 34.100000 10.340000 180 169 137 0
4.620000 34.100000 2.200000 179 168 136 0
4.840000 34.100000 11.880000 176 166 134 0
5.060000 34.100000 20.240000 178 168 136 0
5.280000 34.100000 11.880000 181 171 139 0
5.500000 34.100000 3.740000 182 172 140 0
5.720000 34.100000 2.420000 184 173 141 0
5.940000 34.100000 2.420000 184 173 141 0
6.160000 34.100000 2.640000 184 172 143 0
6.380000 34.100000 3.960000 184 172 143 0
6.600000 34.100000 4.180000 186 174 145 0
6.820000 34.100000 6.600000 185 173 144 0
7.040000 34.100000 7.260000 186 175 143 0
7.260000 34.100000 8.360000 187 176 144 0
7.480000 34.100000 7.040000 187 175 146 0
7.700000 34.100000 8.580000 186 174 145 0
7.920000 34.100000 8.580000 187 175 146 0
8.140000 34.100000 8.580000 186 174 145 0
8.360000 34.100000 8.800000 188 176 147 0
8.580000 34.100000 8.800000 189 177 148 0
8.800000 34.100000 8.800000 188 178 148 0
9.020000 34.100000 9.020000 189 179 149 0
9.240000 34.100000 9.020000 190 178 149 0
9.460000 34.100000 10.560000 190 178 149 0
9.680000 34.100000 10.560000 189 177 148 0
9.900000 34.100000 10.560000 188 176 147 0
10.120000 34.100000 10.560000 188 176 147 0
10.340000 34.100000 10.780000 186 174 145 0
10.560000 34.100000 10.780000 183 171 142 0
10.780000 34.100000 10.780000 181 169 140 0
11.000000 34.100000 12.320000 177 159 130 0
11.220000 34.100000 11.000000 168 150 121 0
11.440000 34.100000 11.000000 168 152 122 0
11.660000 34.100000 9.460000 166 150 120 0
11.880000 34.100000 10.780000 166 152 121 0
12.100000 34.100000 10.120000 166 152 121 0
12.320000 34.100000 9.900000 167 151 121 0
12.540000 34.100000 9.020000 168 152 122 0
12.760000 34.100000 9.240000 170 152 123 0
12.980000 34.100000 9.240000 171 153 124 0
13.200000 34.100000 9.240000 171 155 125 0
13.420000 34.100000 10.560000 172 156 126 0
13.640000 34.100000 11.440000 177 162 134 0
13.860000 34.100000 12.540000 180 165 137 0
14.080000 34.100000 13.860000 181 166 140 0
14.300000 34.100000 13.860000 182 167 141 0
14.520000 34.100000 13.860000 186 169 144 0
14.740000 34.100000 14.080000 188 171 146 0
14.960000 34.100000 14.080000 188 171 146 0
15.180000 34.100000 14.080000 188 171 146 0
15.400000 34.100000 14.300000 188 171 146 0
15.620000 34.100000 14.300000 189 172 147 0
15.840000 34.100000 14.300000 189 172 147 0
16.060000 34.100000 14.520000 188 171 146 0
16.280000 34.100000 14.520000 189 173 145 0
16.500000 34.100000 14.520000 189 173 145 0
16.720000 34.100000 16.060000 189 172 147 0
16.940000 34.100000 16.060000 189 172 147 0
17.160000 34.100000 16.280000 188 171 146 0
17.380000 34.100000 17.600000 189 172 147 0
17.600000 34.100000 17.820000 188 171 146 0
17.820000 34.100000 17.820000 188 171 146 0
18.040000 34.100000 17.820000 188 171 146 0
18.260000 34.100000 18.920000 188 171 146 0
18.480000 34.100000 21.120000 189 171 146 0
18.700000 34.100000 22.220000 190 172 147 0
18.920000 34.100000 22.220000 189 171 146 0
19.140000 34.100000 22.440000 190 172 147 0
19.360000 34.100000 22.440000 190 172 147 0
19.580000 34.100000 22.440000 190 172 147 0
19.800000 34.100000 22.660000 191 173 148 0
20.020000 34.100000 22.660000 191 173 148 0
20.240000 34.100000 23.980000 191 172 150 0
20.460000 34.100000 24.200000 191 172 150 0
20.680000 34.100000 24.200000 190 171 149 0
20.900000 34.100000 24.200000 190 171 149 0
21.120000 34.100000 24.420000 190 172 147 0
21.340000 34.100000 24.420000 190 172 147 0
21.560000 34.100000 24.640000 191 173 148 0
21.780000 34.100000 24.640000 190 172 147 0
22.000000 34.100000 24.640000 192 174 149 0
22.220000 34.100000 26.180000 191 173 148 0
22.440000 34.100000 27.280000 192 174 149 0
22.660000 34.100000 27.940000 192 174 149 0
22.880000 34.100000 29.040000 192 174 149 0
23.100000 34.100000 29.260000 192 174 149 0
23.320000 34.100000 29.260000 192 173 151 0
23.540000 34.100000 29.260000 193 174 152 0
23.760000 34.100000 29.260000 191 172 150 0
23.980000 34.100000 30.800000 192 173 151 0
24.200000 34.100000 30.800000 191 172 150 0
24.420000 34.100000 30.800000 192 173 151 0
24.640000 34.100000 31.020000 191 172 150 0
24.860000 34.100000 31.020000 190 171 149 0
25.080000 34.100000 31.020000 190 169 147 0
25.300000 34.100000 32.560000 190 169 147 0
25.520000 34.100000 35.200000 190 171 149 0
25.740000 34.100000 36.740000 193 174 152 0
25.960000 34.100000 38.060000 194 175 155 0
26.180000 34.100000 39.380000 196 177 157 0
26.400000 34.100000 39.600000 195 176 154 0
26.620000 34.100000 41.140000 196 177 155 0
26.840000 34.100000 39.820000 197 175 156 0
27.060000 34.100000 39.820000 196 174 155 0
27.280000 34.100000 39.820000 197 178 158 0
27.500000 34.100000 40.040000 196 177 157 0
27.720000 34.100000 40.040000 196 177 157 0
27.940000 34.100000 40.040000 198 179 159 0
28.160000 34.100000 39.600000 198 179 160 0
28.380000 34.100000 40.700000 197 178 159 0
28.600000 34.100000 29.700000 197 178 159 0
28.820000 34.100000 20.240000 196 177 158 0
29.040000 34.100000 29.920000 196 177 157 0
29.260000 34.100000 38.280000 194 175 155 0
29.480000 34.100000 24.420000 190 168 149 0
29.700000 34.100000 16.280000 184 162 143 0
29.920000 34.100000 28.600000 183 161 142 0
30.140000 34.100000 39.820000 181 159 140 0
30.360000 34.100000 38.500000 181 158 139 0
30.580000 34.100000 38.500000 181 158 139 0
30.800000 34.100000 37.180000 181 159 140 0
31.020000 34.100000 34.540000 181 159 140 0
31.240000 34.100000 33.220000 181 158 139 0
31.460000 34.100000 33.000000 182 159 140 0
31.680000 34.100000 34.980000 181 159 140 0
31.900000 34.100000 36.080000 185 163 144 0
32.120000 34.100000 37.400000 185 162 143 0
32.340000 34.100000 37.400000 185 162 143 0
32.560000 34.100000 38.940000 187 164 145 0
32.780000 34.100000 40.260000 191 168 149 0
33.000000 34.100000 40.260000 192 169 150 0
33.220000 34.100000 41.800000 192 169 150 0
33.440000 34.100000 41.800000 193 171 153 0
33.660000 34.100000 39.160000 194 172 154 0
33.880000 34.100000 25.520000 195 173 155 0
34.100000 34.100000 7.480000 196 174 156 0
34.320000 34.100000 0.660000 197 173 156 0
34.540000 34.100000 0.880000 197 173 156 0
34.760000 34.100000 0.880000 197 173 156 0
34.980000 34.100000 2.420000 196 172 155 0
35.200000 34.100000 2.420000 196 172 155 0
35.420000 34.100000 2.420000 196 172 155 0
35.640000 34.100000 3.960000 196 172 155 0
35.860000 34.100000 3.960000 196 172 155 0
36.080000 34.100000 3.960000 196 172 155 0
36.300000 34.100000 4.180000 196 172 155 0
36.520000 34.100000 5.280000 195 171 154 0
36.740000 34.100000 7.260000 196 172 155 0
36.960000 34.100000 8.360000 195 172 153 0
37.180000 34.100000 8.580000 196 173 154 0
0.000000 34.320000 40.260000 180 173 140 0
0.220000 34.320000 40.260000 181 174 141 0
0.440000 34.320000 40.480000 181 174 141 0
0.660000 34.320000 40.480000 181 174 141 0
0.880000 34.320000 39.380000 184 174 142 0
1.100000 34.320000 39.380000 182 172 140 0
1.320000 34.320000 39.380000 182 172 140 0
1.540000 34.320000 39.600000 183 173 141 0
1.760000 34.320000 39.600000 182 172 140 0
1.980000 34.320000 39.600000 182 172 140 0
2.200000 34.320000 39.820000 182 172 140 0
2.420000 34.320000 41.140000 182 172 140 0
2.640000 34.320000 39.820000 181 171 139 0
2.860000 34.320000 40.040000 181 171 139 0
3.080000 34.320000 38.720000 180 170 138 0
3.300000 34.320000 39.820000 180 170 138 0
3.520000 34.320000 40.480000 181 172 138 0
3.740000 34.320000 40.260000 180 171 137 0
3.960000 34.320000 30.800000 180 169 137 0
4.180000 34.320000 10.120000 180 169 137 0
4.620000 34.320000 4.840000 178 167 135 0
4.840000 34.320000 11.880000 178 168 136 0
5.060000 34.320000 9.240000 180 170 138 0
5.280000 34.320000 2.200000 183 173 141 0
5.500000 34.320000 0.880000 183 173 141 0
5.720000 34.320000 2.420000 183 172 140 0
5.940000 34.320000 2.420000 184 173 141 0
6.160000 34.320000 3.960000 185 173 144 0
6.380000 34.320000 3.960000 186 174 145 0
6.600000 34.320000 5.500000 185 173 144 0
6.820000 34.320000 5.060000 186 174 145 0
7.040000 34.320000 7.260000 185 174 142 0
7.260000 34.320000 7.040000 186 175 143 0
7.480000 34.320000 7.040000 186 174 145 0
7.700000 34.320000 8.580000 187 175 146 0
7.920000 34.320000 8.580000 187 175 146 0
8.140000 34.320000 8.580000 187 175 146 0
8.360000 34.320000 8.800000 187 175 146 0
8.580000 34.320000 8.800000 188 176 147 0
8.800000 34.320000 8.800000 189 179 149 0
9.020000 34.320000 9.020000 189 179 149 0
9.240000 34.320000 9.020000 190 178 149 0
9.460000 34.320000 10.560000 190 178 149 0
9.680000 34.320000 10.560000 189 177 148 0
9.900000 34.320000 10.560000 188 176 147 0
10.120000 34.320000 10.560000 187 175 146 0
10.340000 34.320000 10.780000 186 174 145 0
10.560000 34.320000 10.780000 183 171 142 0
10.780000 34.320000 12.320000 178 166 137 0
11.000000 34.320000 12.320000 172 154 125 0
11.220000 34.320000 11.000000 168 150 121 0
11.440000 34.320000 11.000000 167 151 121 0
11.660000 34.320000 9.460000 168 152 122 0
11.880000 34.320000 9.460000 167 153 122 0
12.100000 34.320000 10.340000 166 152 121 0
12.320000 34.320000 8.800000 167 151 121 0
12.540000 34.320000 9.020000 168 152 122 0
12.760000 34.320000 9.240000 169 151 122 0
12.980000 34.320000 9.240000 170 152 123 0
13.200000 34.320000 9.240000 171 155 125 0
13.420000 34.320000 10.560000 175 159 129 0
13.640000 34.320000 11.440000 176 161 133 0
13.860000 34.320000 12.540000 180 165 137 0
14.080000 34.320000 13.860000 183 168 142 0
14.300000 34.320000 13.860000 183 168 142 0
14.520000 34.320000 13.860000 187 170 145 0
14.740000 34.320000 14.080000 187 170 145 0
14.960000 34.320000 14.080000 188 171 146 0
15.180000 34.320000 14.080000 188 171 146 0
15.400000 34.320000 14.300000 188 171 146 0
15.620000 34.320000 14.300000 188 171 146 0
15.840000 34.320000 14.300000 188 171 146 0
16.060000 34.320000 14.520000 189 172 147 0
16.280000 34.320000 14.520000 188 172 144 0
16.500000 34.320000 16.060000 189 173 145 0
16.720000 34.320000 16.060000 188 171 146 0
16.940000 34.320000 16.060000 189 172 147 0
17.160000 34.320000 16.280000 188 171 146 0
17.380000 34.320000 17.600000 188 171 146 0
17.600000 34.320000 17.820000 189 172 147 0
17.820000 34.320000 17.820000 188 171 146 0
18.040000 34.320000 17.820000 189 172 147 0
18.260000 34.320000 18.920000 189 172 147 0
18.480000 34.320000 21.120000 189 171 146 0
18.700000 34.320000 22.220000 191 173 148 0
18.920000 34.320000 22.220000 189 171 146 0
19.140000 34.320000 22.440000 190 172 147 0
19.360000 34.320000 22.440000 190 172 147 0
19.580000 34.320000 22.440000 192 174 149 0
19.800000 34.320000 22.660000 191 173 148 0
20.020000 34.320000 22.660000 191 173 148 0
20.240000 34.320000 23.980000 190 171 149 0
20.460000 34.320000 24.200000 190 171 149 0
20.680000 34.320000 24.200000 190 171 149 0
20.900000 34.320000 24.200000 191 172 150 0
21.120000 34.320000 24.420000 190 172 147 0
21.340000 34.320000 24.420000 190 172 147 0
21.560000 34.320000 24.640000 191 173 148 0
21.780000 34.320000 24.640000 191 173 148 0
22.000000 34.320000 24.640000 192 174 149 0
22.220000 34.320000 26.180000 192 174 149 0
22.440000 34.320000 27.280000 192 174 149 0
22.660000 34.320000 27.940000 191 173 148 0
22.880000 34.320000 29.040000 192 174 149 0
23.100000 34.320000 29.260000 193 175 150 0
23.320000 34.320000 29.260000 193 174 152 0
23.540000 34.320000 29.260000 191 172 150 0
23.760000 34.320000 29.260000 191 172 150 0
23.980000 34.320000 30.800000 191 172 150 0
24.200000 34.320000 30.800000 192 173 151 0
24.420000 34.320000 30.800000 192 173 151 0
24.640000 34.320000 31.020000 192 173 151 0
24.860000 34.320000 31.020000 190 171 149 0
25.080000 34.320000 31.020000 191 170 148 0
25.300000 34.320000 32.560000 189 168 146 0
25.520000 34.320000 33.880000 189 170 148 0
25.740000 34.320000 36.740000 192 173 151 0
25.960000 34.320000 38.060000 195 176 156 0
26.180000 34.320000 38.060000 194 175 155 0
26.400000 34.320000 39.600000 195 176 154 0
26.620000 34.320000 39.600000 194 175 153 0
26.840000 34.320000 39.820000 197 175 156 0
27.060000 34.320000 39.820000 194 172 153 0
27.280000 34.320000 39.820000 196 177 157 0
27.500000 34.320000 40.040000 197 178 158 0
27.720000 34.320000 40.040000 197 178 158 0
27.940000 34.320000 40.040000 197 178 158 0
28.160000 34.320000 40.040000 198 179 160 0
28.380000 34.320000 39.820000 197 178 159 0
28.600000 34.320000 29.920000 198 179 160 0
28.820000 34.320000 20.240000 197 178 159 0
29.040000 34.320000 29.920000 196 177 157 0
29.260000 34.320000 32.780000 195 176 156 0
29.480000 34.320000 13.420000 194 172 153 0
29.700000 34.320000 10.780000 186 164 145 0
29.920000 34.320000 28.820000 182 160 141 0
30.140000 34.320000 38.500000 180 158 139 0
30.360000 34.320000 38.500000 180 157 138 0
30.580000 34.320000 38.500000 181 158 139 0
30.800000 34.320000 37.180000 180 158 139 0
31.020000 34.320000 34.540000 180 158 139 0
31.240000 34.320000 34.540000 181 158 139 0
31.460000 34.320000 34.100000 182 159 140 0
31.680000 34.320000 36.300000 182 160 141 0
31.900000 34.320000 37.400000 183 161 142 0
32.120000 34.320000 37.400000 185 162 143 0
32.340000 34.320000 38.940000 186 163 144 0
32.560000 34.320000 38.940000 186 163 144 0
32.780000 34.320000 40.260000 189 166 147 0
33.000000 34.320000 41.800000 191 168 149 0
33.220000 34.320000 41.800000 192 169 150 0
33.440000 34.320000 41.800000 191 169 151 0
33.660000 34.320000 42.020000 194 172 154 0
33.880000 34.320000 33.660000 195 173 155 0
34.100000 34.320000 15.840000 195 173 155 0
34.320000 34.320000 2.200000 196 172 155 0
34.540000 34.320000 0.880000 196 172 155 0
34.760000 34.320000 0.880000 197 173 156 0
34.980000 34.320000 0.880000 197 173 156 0
35.200000 34.320000 2.420000 197 173 156 0
35.420000 34.320000 2.420000 197 173 156 0
35.640000 34.320000 3.960000 197 173 156 0
35.860000 34.320000 3.960000 196 172 155 0
36.080000 34.320000 3.960000 196 172 155 0
36.300000 34.320000 4.180000 196 172 155 0
36.520000 34.320000 5.280000 195 171 154 0
36.740000 34.320000 7.260000 197 173 156 0
36.960000 34.320000 8.360000 196 173 154 0
37.180000 34.320000 8.580000 196 173 154 0
0.000000 34.540000 40.260000 183 173 141 0
0.220000 34.540000 40.260000 183 173 141 0
0.440000 34.540000 40.480000 182 175 144 0
0.660000 34.540000 40.480000 181 174 143 0
0.880000 34.540000 39.380000 180 173 140 0
1.100000 34.540000 39.380000 180 173 140 0
1.320000 34.540000 40.920000 180 173 142 0
1.540000 34.540000 40.920000 181 174 143 0
1.760000 34.540000 39.600000 182 172 142 0
1.980000 34.540000 41.140000 183 173 143 0
2.200000 34.540000 38.280000 182 172 142 0
2.420000 34.540000 35.640000 182 172 142 0
2.640000 34.540000 37.180000 182 172 140 0
2.860000 34.540000 40.040000 181 171 139 0
3.080000 34.540000 38.720000 181 171 139 0
3.300000 34.540000 39.820000 181 171 139 0
3.520000 34.540000 40.480000 181 171 141 0
3.740000 34.540000 37.620000 180 170 140 0
3.960000 34.540000 25.300000 179 169 139 0
4.180000 34.540000 7.480000 177 167 137 0
4.620000 34.540000 1.980000 177 167 137 0
4.840000 34.540000 4.840000 182 170 141 0
5.060000 34.540000 2.200000 183 171 142 0
5.280000 34.540000 0.880000 183 173 143 0
5.500000 34.540000 2.420000 183 173 143 0
5.720000 34.540000 3.740000 185 173 144 0
5.940000 34.540000 3.960000 184 172 143 0
6.160000 34.540000 3.960000 184 174 144 0
6.380000 34.540000 3.960000 184 174 144 0
6.600000 34.540000 5.500000 184 174 144 0
6.820000 34.540000 5.060000 185 175 145 0
7.040000 34.540000 7.260000 185 175 145 0
7.260000 34.540000 7.040000 185 175 145 0
7.480000 34.540000 7.040000 187 175 146 0
7.700000 34.540000 8.580000 187 175 146 0
7.920000 34.540000 8.580000 186 176 146 0
8.140000 34.540000 8.580000 187 177 147 0
8.360000 34.540000 8.800000 188 176 147 0
8.580000 34.540000 8.800000 189 177 148 0
8.800000 34.540000 8.800000 190 178 149 0
9.020000 34.540000 9.020000 190 178 149 0
9.240000 34.540000 9.020000 190 180 150 0
9.460000 34.540000 10.560000 190 180 150 0
9.680000 34.540000 10.560000 189 179 149 0
9.900000 34.540000 10.560000 189 179 149 0
10.120000 34.540000 10.560000 188 177 145 0
10.340000 34.540000 10.780000 187 176 144 0
10.560000 34.540000 10.780000 182 170 141 0
10.780000 34.540000 12.320000 175 163 134 0
11.000000 34.540000 12.320000 170 153 128 0
11.220000 34.540000 10.780000 167 150 125 0
11.440000 34.540000 9.460000 165 151 120 0
11.660000 34.540000 9.460000 165 151 120 0
11.880000 34.540000 9.460000 167 151 121 0
12.100000 34.540000 9.460000 167 151 121 0
12.320000 34.540000 7.920000 166 152 121 0
12.540000 34.540000 7.920000 166 152 121 0
12.760000 34.540000 9.240000 168 152 124 0
12.980000 34.540000 9.240000 169 153 125 0
13.200000 34.540000 9.460000 172 154 127 0
13.420000 34.540000 9.460000 175 157 130 0
13.640000 34.540000 10.560000 178 162 134 0
13.860000 34.540000 12.760000 182 166 138 0
14.080000 34.540000 13.860000 182 167 141 0
14.300000 34.540000 13.860000 183 168 142 0
14.520000 34.540000 13.860000 185 170 144 0
14.740000 34.540000 14.080000 186 171 145 0
14.960000 34.540000 14.080000 187 171 143 0
15.180000 34.540000 14.080000 188 172 144 0
15.400000 34.540000 14.300000 187 171 143 0
15.620000 34.540000 14.300000 188 172 144 0
15.840000 34.540000 14.300000 190 173 148 0
16.060000 34.540000 14.520000 190 173 148 0
16.280000 34.540000 14.520000 190 174 146 0
16.500000 34.540000 16.060000 188 172 144 0
16.720000 34.540000 16.060000 188 172 144 0
16.940000 34.540000 16.060000 189 173 145 0
17.160000 34.540000 16.280000 189 172 147 0
17.380000 34.540000 17.600000 190 173 148 0
17.600000 34.540000 17.820000 190 173 148 0
17.820000 34.540000 17.820000 189 172 147 0
18.040000 34.540000 17.820000 189 172 147 0
18.260000 34.540000 18.920000 189 172 147 0
18.480000 34.540000 21.120000 189 172 147 0
18.700000 34.540000 22.220000 188 171 146 0
18.920000 34.540000 22.220000 189 172 147 0
19.140000 34.540000 22.440000 190 173 148 0
19.360000 34.540000 22.440000 191 174 149 0
19.580000 34.540000 22.440000 189 172 147 0
19.800000 34.540000 22.660000 190 171 149 0
20.020000 34.540000 22.660000 190 171 149 0
20.240000 34.540000 23.980000 190 171 149 0
20.460000 34.540000 24.200000 191 172 150 0
20.680000 34.540000 24.200000 191 174 151 0
20.900000 34.540000 24.200000 190 173 150 0
21.120000 34.540000 24.420000 190 172 147 0
21.340000 34.540000 24.420000 191 173 148 0
21.560000 34.540000 24.640000 191 172 150 0
21.780000 34.540000 24.640000 192 173 151 0
22.000000 34.540000 24.640000 191 172 150 0
22.220000 34.540000 26.180000 192 173 151 0
22.440000 34.540000 25.960000 191 172 150 0
22.660000 34.540000 27.940000 192 173 151 0
22.880000 34.540000 29.040000 192 173 151 0
23.100000 34.540000 29.260000 193 174 152 0
23.320000 34.540000 29.260000 192 173 151 0
23.540000 34.540000 29.260000 192 173 151 0
23.760000 34.540000 29.260000 192 173 151 0
23.980000 34.540000 30.800000 191 172 150 0
24.200000 34.540000 30.800000 192 173 151 0
24.420000 34.540000 30.800000 192 173 151 0
24.640000 34.540000 31.020000 191 172 150 0
24.860000 34.540000 31.020000 191 172 150 0
25.080000 34.540000 31.020000 190 171 149 0
25.300000 34.540000 32.560000 188 169 147 0
25.520000 34.540000 33.880000 189 170 150 0
25.740000 34.540000 35.200000 190 171 151 0
25.960000 34.540000 36.740000 193 174 154 0
26.180000 34.540000 38.060000 194 175 155 0
26.400000 34.540000 39.600000 196 177 155 0
26.620000 34.540000 39.600000 194 175 153 0
26.840000 34.540000 38.500000 195 176 156 0
27.060000 34.540000 35.640000 195 176 156 0
27.280000 34.540000 37.180000 196 177 158 0
27.500000 34.540000 40.040000 196 177 158 0
27.720000 34.540000 40.040000 196 179 158 0
27.940000 34.540000 40.040000 196 179 158 0
28.160000 34.540000 38.720000 196 179 158 0
28.380000 34.540000 37.180000 197 180 159 0
28.600000 34.540000 24.640000 197 179 160 0
28.820000 34.540000 17.600000 197 179 160 0
29.040000 34.540000 27.280000 196 177 158 0
29.260000 34.540000 24.420000 196 177 158 0
29.480000 34.540000 6.600000 195 176 154 0
29.700000 34.540000 9.460000 188 169 147 0
29.920000 34.540000 28.820000 184 161 140 0
30.140000 34.540000 38.500000 182 159 138 0
30.360000 34.540000 38.500000 182 159 138 0
30.580000 34.540000 38.500000 181 158 137 0
30.800000 34.540000 37.180000 180 158 139 0
31.020000 34.540000 35.860000 179 157 138 0
31.240000 34.540000 35.640000 180 158 139 0
31.460000 34.540000 36.520000 181 159 140 0
31.680000 34.540000 37.400000 182 159 140 0
31.900000 34.540000 38.720000 184 161 142 0
32.120000 34.540000 38.940000 184 161 140 0
32.340000 34.540000 40.260000 184 161 140 0
32.560000 34.540000 40.260000 185 162 143 0
32.780000 34.540000 40.480000 188 165 146 0
33.000000 34.540000 41.800000 189 167 149 0
33.220000 34.540000 41.800000 190 168 150 0
33.440000 34.540000 42.020000 191 169 150 0
33.660000 34.540000 42.020000 192 170 151 0
33.880000 34.540000 39.380000 194 171 152 0
34.100000 34.540000 25.520000 195 172 153 0
34.320000 34.540000 7.700000 196 172 155 0
34.760000 34.540000 0.880000 195 173 155 0
34.980000 34.540000 0.880000 195 173 155 0
35.200000 34.540000 2.420000 196 174 156 0
35.420000 34.540000 2.420000 196 174 156 0
35.640000 34.540000 2.640000 197 174 155 0
35.860000 34.540000 2.640000 197 174 155 0
36.080000 34.540000 3.960000 197 174 155 0
36.300000 34.540000 4.180000 196 173 154 0
36.520000 34.540000 5.280000 196 172 155 0
36.740000 34.540000 7.260000 196 172 155 0
36.960000 34.540000 8.360000 196 173 154 0
37.180000 34.540000 8.580000 195 172 153 0
0.000000 34.760000 40.260000 184 174 142 0
0.220000 34.760000 40.260000 184 174 142 0
0.440000 34.760000 40.480000 181 174 143 0
0.660000 34.760000 40.700000 181 174 143 0
0.880000 34.760000 40.700000 181 174 141 0
1.100000 34.760000 39.380000 180 173 140 0
1.320000 34.760000 40.920000 181 174 143 0
1.540000 34.760000 40.920000 180 173 142 0
1.760000 34.760000 38.280000 182 172 142 0
1.980000 34.760000 32.780000 182 172 142 0
2.200000 34.760000 24.420000 182 172 142 0
2.420000 34.760000 21.780000 182 172 142 0
2.640000 34.760000 31.460000 181 171 139 0
2.860000 34.760000 40.040000 181 171 139 0
3.080000 34.760000 40.040000 181 171 139 0
3.300000 34.760000 39.820000 180 170 138 0
3.520000 34.760000 40.480000 179 169 139 0
3.740000 34.760000 33.440000 179 169 139 0
3.960000 34.760000 15.620000 178 168 138 0
4.180000 34.760000 3.300000 177 167 137 0
4.400000 34.760000 0.660000 177 167 137 0
4.840000 34.760000 0.660000 184 172 143 0
5.060000 34.760000 0.880000 185 173 144 0
5.280000 34.760000 2.200000 183 173 143 0
5.500000 34.760000 2.420000 184 174 144 0
5.720000 34.760000 3.740000 185 173 144 0
5.940000 34.760000 3.960000 186 174 145 0
6.160000 34.760000 3.960000 184 174 144 0
6.380000 34.760000 3.960000 183 173 143 0
6.600000 34.760000 4.180000 184 174 144 0
6.820000 34.760000 5.060000 184 174 144 0
7.040000 34.760000 7.260000 185 175 145 0
7.260000 34.760000 7.040000 185 175 145 0
7.480000 34.760000 8.360000 187 175 146 0
7.700000 34.760000 8.580000 187 175 146 0
7.920000 34.760000 8.580000 187 177 147 0
8.140000 34.760000 8.580000 187 177 147 0
8.360000 34.760000 8.800000 189 177 148 0
8.580000 34.760000 8.800000 189 177 148 0
8.800000 34.760000 8.800000 189 177 148 0
9.020000 34.760000 9.020000 190 178 149 0
9.240000 34.760000 9.020000 189 179 149 0
9.460000 34.760000 10.560000 189 179 149 0
9.680000 34.760000 10.560000 189 179 149 0
9.900000 34.760000 10.560000 188 178 148 0
10.120000 34.760000 10.560000 188 177 145 0
10.340000 34.760000 10.780000 185 174 142 0
10.560000 34.760000 10.780000 181 169 140 0
10.780000 34.760000 12.320000 172 160 131 0
11.000000 34.760000 12.320000 169 152 127 0
11.220000 34.760000 10.780000 167 150 125 0
11.440000 34.760000 9.460000 165 151 120 0
11.660000 34.760000 9.460000 165 151 120 0
11.880000 34.760000 9.460000 167 151 121 0
12.100000 34.760000 8.140000 167 151 121 0
12.320000 34.760000 8.140000 165 151 120 0
12.540000 34.760000 7.920000 166 152 121 0
12.760000 34.760000 9.240000 168 152 124 0
12.980000 34.760000 9.240000 170 154 126 0
13.200000 34.760000 9.460000 173 155 128 0
13.420000 34.760000 9.680000 177 159 132 0
13.640000 34.760000 10.780000 181 165 137 0
13.860000 34.760000 12.760000 181 165 137 0
14.080000 34.760000 13.860000 182 167 141 0
14.300000 34.760000 13.860000 184 169 143 0
14.520000 34.760000 13.860000 186 171 145 0
14.740000 34.760000 14.080000 186 171 145 0
14.960000 34.760000 14.080000 188 172 144 0
15.180000 34.760000 14.080000 188 172 144 0
15.400000 34.760000 14.300000 189 173 145 0
15.620000 34.760000 14.300000 189 173 145 0
15.840000 34.760000 14.300000 189 172 147 0
16.060000 34.760000 14.520000 189 172 147 0
16.280000 34.760000 14.520000 189 173 145 0
16.500000 34.760000 16.060000 189 173 145 0
16.720000 34.760000 16.060000 189 173 145 0
16.940000 34.760000 16.060000 189 173 145 0
17.160000 34.760000 16.280000 189 172 147 0
17.380000 34.760000 17.600000 190 173 148 0
17.600000 34.760000 17.820000 190 173 148 0
17.820000 34.760000 17.820000 190 173 148 0
18.040000 34.760000 17.820000 189 172 147 0
18.260000 34.760000 18.920000 188 171 146 0
18.480000 34.760000 21.120000 190 173 148 0
18.700000 34.760000 22.220000 190 173 148 0
18.920000 34.760000 22.220000 189 172 147 0
19.140000 34.760000 22.220000 189 172 147 0
19.360000 34.760000 22.440000 190 173 148 0
19.580000 34.760000 22.440000 190 173 148 0
19.800000 34.760000 22.660000 190 171 149 0
20.020000 34.760000 22.660000 190 171 149 0
20.240000 34.760000 23.980000 190 171 149 0
20.460000 34.760000 24.200000 192 173 151 0
20.680000 34.760000 24.200000 190 173 150 0
20.900000 34.760000 24.200000 190 173 150 0
21.120000 34.760000 24.420000 190 172 147 0
21.340000 34.760000 24.420000 190 172 147 0
21.560000 34.760000 24.640000 190 171 149 0
21.780000 34.760000 24.640000 192 173 151 0
22.000000 34.760000 24.640000 191 172 150 0
22.220000 34.760000 26.180000 192 173 151 0
22.440000 34.760000 25.960000 192 173 151 0
22.660000 34.760000 27.940000 191 172 150 0
22.880000 34.760000 29.040000 193 174 152 0
23.100000 34.760000 29.260000 192 173 151 0
23.320000 34.760000 29.260000 191 172 150 0
23.540000 34.760000 29.260000 193 174 152 0
23.760000 34.760000 29.260000 192 173 151 0
23.980000 34.760000 30.800000 192 173 151 0
24.200000 34.760000 30.800000 192 173 151 0
24.420000 34.760000 30.800000 192 173 151 0
24.640000 34.760000 31.020000 192 173 151 0
24.860000 34.760000 31.020000 191 172 150 0
25.080000 34.760000 31.020000 190 171 149 0
25.300000 34.760000 32.560000 188 169 147 0
25.520000 34.760000 32.560000 188 169 149 0
25.740000 34.760000 35.200000 189 170 150 0
25.960000 34.760000 36.740000 193 174 154 0
26.180000 34.760000 38.060000 194 175 155 0
26.400000 34.760000 38.060000 196 177 155 0
26.620000 34.760000 39.600000 196 177 155 0
26.840000 34.760000 32.780000 195 176 156 0
27.060000 34.760000 24.640000 196 177 157 0
27.280000 34.760000 31.680000 196 177 158 0
27.500000 34.760000 40.040000 196 177 158 0
27.720000 34.760000 38.500000 196 179 158 0
27.940000 34.760000 40.040000 196 179 158 0
28.160000 34.760000 38.720000 197 180 159 0
28.380000 34.760000 31.680000 197 180 159 0
28.600000 34.760000 13.640000 197 179 160 0
28.820000 34.760000 12.100000 197 179 160 0
29.040000 34.760000 23.100000 197 178 159 0
29.260000 34.760000 14.740000 195 176 157 0
29.480000 34.760000 2.420000 195 176 154 0
29.700000 34.760000 6.600000 193 174 152 0
29.920000 34.760000 23.320000 189 166 145 0
30.140000 34.760000 35.640000 183 160 139 0
30.360000 34.760000 38.500000 182 159 138 0
30.580000 34.760000 39.820000 181 158 137 0
30.800000 34.760000 39.820000 181 159 140 0
31.020000 34.760000 36.960000 180 158 139 0
31.240000 34.760000 36.960000 181 159 140 0
31.460000 34.760000 37.620000 180 158 139 0
31.680000 34.760000 38.720000 182 159 140 0
31.900000 34.760000 40.260000 183 160 141 0
32.120000 34.760000 40.260000 184 161 140 0
32.340000 34.760000 40.260000 184 161 140 0
32.560000 34.760000 40.260000 184 161 142 0
32.780000 34.760000 40.480000 187 164 145 0
33.000000 34.760000 40.480000 188 166 148 0
33.220000 34.760000 42.020000 191 169 151 0
33.440000 34.760000 42.020000 191 169 150 0
33.660000 34.760000 42.020000 192 170 151 0
33.880000 34.760000 42.020000 194 171 152 0
34.100000 34.760000 31.020000 195 172 153 0
34.320000 34.760000 10.340000 196 172 155 0
34.980000 34.760000 0.880000 196 174 156 0
35.200000 34.760000 1.100000 195 173 155 0
35.420000 34.760000 2.420000 195 173 155 0
35.640000 34.760000 2.640000 196 173 154 0
35.860000 34.760000 2.640000 198 175 156 0
36.080000 34.760000 3.960000 196 173 154 0
36.300000 34.760000 4.180000 197 174 155 0
36.520000 34.760000 5.280000 196 172 155 0
36.740000 34.760000 7.260000 195 171 154 0
36.960000 34.760000 8.360000 196 173 154 0
37.180000 34.760000 8.580000 197 174 155 0
0.000000 34.980000 40.260000 180 173 140 0
0.220000 34.980000 40.260000 181 174 141 0
0.440000 34.980000 40.480000 180 173 140 0
0.660000 34.980000 40.700000 181 174 141 0
0.880000 34.980000 40.700000 180 173 140 0
1.100000 34.980000 40.700000 181 174 141 0
1.320000 34.980000 40.700000 180 173 140 0
1.540000 34.980000 38.060000 179 172 139 0
1.760000 34.980000 27.280000 181 171 139 0
1.980000 34.980000 14.740000 182 172 140 0
2.200000 34.980000 6.600000 182 172 142 0
2.420000 34.980000 12.100000 182 172 142 0
2.640000 34.980000 30.140000 178 171 140 0
2.860000 34.980000 40.040000 178 171 140 0
3.080000 34.980000 40.040000 178 171 138 0
3.300000 34.980000 39.820000 177 170 137 0
3.520000 34.980000 40.480000 177 170 137 0
3.740000 34.980000 30.580000 176 169 136 0
3.960000 34.980000 11.440000 177 167 137 0
4.180000 34.980000 0.440000 177 167 137 0
4.400000 34.980000 0.660000 177 170 137 0
4.620000 34.980000 0.660000 181 174 141 0
4.840000 34.980000 0.660000 183 173 141 0
5.060000 34.980000 0.880000 183 173 141 0
5.280000 34.980000 2.200000 184 174 142 0
5.500000 34.980000 2.420000 184 174 142 0
5.720000 34.980000 3.740000 184 174 144 0
5.940000 34.980000 3.960000 184 174 144 0
6.160000 34.980000 3.960000 182 175 144 0
6.380000 34.980000 3.960000 183 176 145 0
6.600000 34.980000 4.180000 186 175 143 0
6.820000 34.980000 5.060000 185 174 142 0
7.040000 34.980000 5.940000 185 175 143 0
7.260000 34.980000 7.040000 185 175 143 0
7.480000 34.980000 8.360000 186 176 144 0
7.700000 34.980000 8.580000 187 177 145 0
7.920000 34.980000 8.580000 187 177 145 0
8.140000 34.980000 8.580000 187 177 145 0
8.360000 34.980000 8.800000 188 178 146 0
8.580000 34.980000 8.800000 188 178 146 0
8.800000 34.980000 8.800000 191 180 148 0
9.020000 34.980000 9.020000 191 180 148 0
9.240000 34.980000 9.020000 188 178 146 0
9.460000 34.980000 10.560000 189 179 147 0
9.680000 34.980000 10.560000 189 179 149 0
9.900000 34.980000 10.560000 189 179 149 0
10.120000 34.980000 10.560000 187 176 144 0
10.340000 34.980000 10.780000 185 174 142 0
10.560000 34.980000 10.780000 183 167 137 0
10.780000 34.980000 12.320000 175 159 129 0
11.000000 34.980000 12.320000 167 153 122 0
11.220000 34.980000 10.780000 165 151 120 0
11.440000 34.980000 9.460000 166 152 121 0
11.660000 34.980000 9.460000 166 152 121 0
11.880000 34.980000 8.140000 167 151 121 0
12.100000 34.980000 8.140000 167 151 121 0
12.320000 34.980000 8.140000 167 151 121 0
12.540000 34.980000 7.920000 169 153 123 0
12.760000 34.980000 9.240000 169 155 124 0
12.980000 34.980000 9.240000 169 155 124 0
13.200000 34.980000 9.460000 172 156 128 0
13.420000 34.980000 9.680000 177 161 133 0
13.640000 34.980000 10.780000 179 164 136 0
13.860000 34.980000 12.760000 181 166 138 0
14.080000 34.980000 13.860000 182 167 139 0
14.300000 34.980000 13.860000 184 169 141 0
