ply
format ascii 1.0
element vertex 1111
property float x
property float y
property float z
property uchar red
property uchar green
property uchar blue
property uchar alpha
end_header
34.100000 24.860000 8.580000 143 145 129 0
34.320000 24.860000 7.920000 144 146 130 0
34.540000 24.860000 7.260000 145 147 131 0
34.760000 24.860000 6.600000 145 147 131 0
34.980000 24.860000 5.170000 145 147 129 0
35.200000 24.860000 5.170000 144 146 128 0
35.420000 24.860000 4.510000 145 145 130 0
35.640000 24.860000 4.510000 143 143 128 0
35.860000 24.860000 4.510000 143 145 127 0
36.080000 24.860000 5.280000 142 144 126 0
36.300000 24.860000 6.600000 142 144 126 0
36.520000 24.860000 7.370000 140 142 124 0
36.740000 24.860000 7.370000 140 142 124 0
36.960000 24.860000 8.030000 140 142 124 0
37.180000 24.860000 8.690000 141 141 124 0
0.000000 25.080000 2.750000 216 216 213 0
0.220000 25.080000 2.860000 215 215 212 0
0.440000 25.080000 2.860000 213 213 210 0
0.660000 25.080000 2.860000 213 213 210 0
0.880000 25.080000 3.630000 214 214 211 0
1.100000 25.080000 3.630000 215 215 212 0
1.320000 25.080000 3.630000 216 216 213 0
1.540000 25.080000 3.740000 216 216 213 0
1.760000 25.080000 3.740000 215 215 212 0
1.980000 25.080000 3.740000 215 215 212 0
2.200000 25.080000 4.400000 215 215 212 0
2.420000 25.080000 4.510000 214 214 211 0
2.640000 25.080000 4.510000 213 213 210 0
2.860000 25.080000 4.510000 210 210 207 0
3.080000 25.080000 4.510000 207 207 204 0
3.300000 25.080000 4.510000 207 208 205 0
3.520000 25.080000 5.280000 206 207 204 0
3.740000 25.080000 5.280000 208 208 203 0
3.960000 25.080000 5.280000 208 208 203 0
4.180000 25.080000 6.050000 209 209 206 0
4.400000 25.080000 7.370000 214 214 211 0
4.620000 25.080000 8.140000 218 218 215 0
4.840000 25.080000 8.140000 217 217 214 0
5.060000 25.080000 8.140000 216 217 214 0
5.280000 25.080000 8.140000 215 216 213 0
5.500000 25.080000 8.250000 214 215 212 0
5.720000 25.080000 8.250000 214 215 212 0
5.940000 25.080000 8.910000 214 215 212 0
6.160000 25.080000 8.800000 212 213 210 0
6.380000 25.080000 9.900000 212 213 212 0
6.600000 25.080000 9.680000 209 210 209 0
6.820000 25.080000 9.790000 205 206 203 0
7.040000 25.080000 9.130000 201 202 199 0
7.260000 25.080000 9.130000 191 190 181 0
7.480000 25.080000 9.130000 181 180 171 0
7.700000 25.080000 9.130000 179 176 164 0
7.920000 25.080000 8.470000 176 173 161 0
8.140000 25.080000 8.580000 175 174 164 0
8.360000 25.080000 8.580000 178 177 167 0
8.580000 25.080000 8.690000 182 181 172 0
8.800000 25.080000 8.580000 184 183 174 0
9.020000 25.080000 9.130000 187 186 177 0
9.240000 25.080000 9.790000 189 188 179 0
9.460000 25.080000 9.900000 190 189 179 0
9.680000 25.080000 9.240000 190 189 179 0
9.900000 25.080000 8.470000 188 189 178 0
10.120000 25.080000 8.470000 188 189 178 0
10.340000 25.080000 7.810000 189 188 178 0
10.560000 25.080000 7.700000 189 188 178 0
10.780000 25.080000 7.700000 191 190 181 0
11.000000 25.080000 7.700000 190 189 180 0
11.220000 25.080000 7.700000 194 193 183 0
11.440000 25.080000 7.700000 193 192 182 0
11.660000 25.080000 8.470000 196 196 189 0
11.880000 25.080000 8.470000 202 202 195 0
12.100000 25.080000 9.130000 204 206 200 0
12.320000 25.080000 9.240000 206 208 202 0
12.540000 25.080000 9.240000 207 209 203 0
12.760000 25.080000 9.240000 209 211 205 0
12.980000 25.080000 9.240000 211 213 207 0
13.200000 25.080000 9.240000 211 213 207 0
13.420000 25.080000 9.350000 211 213 207 0
13.640000 25.080000 10.010000 211 213 207 0
13.860000 25.080000 10.010000 211 213 207 0
14.080000 25.080000 10.120000 211 213 207 0
14.300000 25.080000 10.120000 211 213 207 0
14.520000 25.080000 10.120000 211 213 207 0
14.740000 25.080000 10.890000 211 213 207 0
14.960000 25.080000 10.890000 212 214 208 0
15.180000 25.080000 10.890000 212 214 208 0
15.400000 25.080000 11.660000 212 214 208 0
15.620000 25.080000 11.660000 212 214 208 0
15.840000 25.080000 12.320000 211 213 207 0
16.060000 25.080000 12.430000 212 214 208 0
16.280000 25.080000 12.430000 212 214 208 0
16.500000 25.080000 12.980000 210 212 204 0
16.720000 25.080000 13.970000 210 212 204 0
16.940000 25.080000 14.520000 210 212 206 0
17.160000 25.080000 14.630000 211 213 207 0
17.380000 25.080000 14.630000 210 212 206 0
17.600000 25.080000 14.630000 211 213 207 0
17.820000 25.080000 14.630000 211 213 207 0
18.040000 25.080000 14.740000 211 213 207 0
18.260000 25.080000 14.740000 208 212 206 0
18.480000 25.080000 14.740000 210 214 208 0
18.700000 25.080000 14.740000 212 214 208 0
18.920000 25.080000 15.510000 211 213 207 0
19.140000 25.080000 15.510000 209 213 207 0
19.360000 25.080000 15.620000 208 212 206 0
19.580000 25.080000 15.620000 210 212 206 0
19.800000 25.080000 15.620000 211 213 207 0
20.020000 25.080000 15.620000 209 213 207 0
20.240000 25.080000 15.620000 208 212 206 0
20.460000 25.080000 16.390000 207 211 205 0
20.680000 25.080000 16.390000 207 211 205 0
20.900000 25.080000 16.500000 207 211 205 0
21.120000 25.080000 16.500000 208 212 206 0
21.340000 25.080000 16.500000 208 212 206 0
21.560000 25.080000 17.270000 207 211 205 0
21.780000 25.080000 17.820000 206 210 204 0
22.000000 25.080000 18.150000 206 210 204 0
22.220000 25.080000 18.700000 206 210 204 0
22.440000 25.080000 18.700000 206 210 204 0
22.660000 25.080000 18.700000 206 210 204 0
22.880000 25.080000 19.470000 204 208 202 0
23.100000 25.080000 19.470000 204 208 202 0
23.320000 25.080000 19.470000 203 207 201 0
23.540000 25.080000 20.240000 202 206 200 0
23.760000 25.080000 20.240000 200 204 198 0
23.980000 25.080000 20.350000 197 204 194 0
24.200000 25.080000 21.010000 190 197 187 0
24.420000 25.080000 20.350000 182 182 169 0
24.640000 25.080000 15.510000 170 170 157 0
24.860000 25.080000 5.170000 165 165 148 0
25.080000 25.080000 0.330000 160 160 143 0
25.300000 25.080000 1.760000 158 156 139 0
25.520000 25.080000 1.760000 155 153 136 0
25.740000 25.080000 1.100000 154 150 134 0
25.960000 25.080000 1.760000 152 148 132 0
26.180000 25.080000 2.530000 149 146 132 0
26.400000 25.080000 3.190000 148 145 131 0
26.620000 25.080000 3.960000 145 145 130 0
26.840000 25.080000 3.960000 144 144 129 0
27.060000 25.080000 4.620000 144 144 129 0
27.280000 25.080000 4.730000 140 140 125 0
27.500000 25.080000 5.390000 136 138 122 0
27.720000 25.080000 5.390000 133 135 119 0
27.940000 25.080000 5.390000 133 135 119 0
28.160000 25.080000 5.390000 132 134 118 0
28.380000 25.080000 5.390000 132 134 118 0
28.600000 25.080000 6.160000 131 133 117 0
28.820000 25.080000 7.370000 131 133 117 0
29.040000 25.080000 8.030000 132 134 118 0
29.260000 25.080000 8.690000 131 133 117 0
29.480000 25.080000 8.690000 131 133 117 0
29.700000 25.080000 8.800000 129 131 115 0
29.920000 25.080000 9.460000 128 130 114 0
30.140000 25.080000 9.350000 129 131 115 0
30.360000 25.080000 9.790000 129 131 115 0
30.580000 25.080000 9.790000 132 134 118 0
30.800000 25.080000 9.130000 133 135 119 0
31.020000 25.080000 9.020000 134 136 120 0
31.240000 25.080000 9.020000 134 136 120 0
31.460000 25.080000 8.360000 134 136 120 0
31.680000 25.080000 8.470000 135 137 121 0
31.900000 25.080000 8.470000 136 138 122 0
32.120000 25.080000 9.130000 135 137 121 0
32.340000 25.080000 9.790000 136 138 122 0
32.560000 25.080000 10.560000 138 140 124 0
32.780000 25.080000 10.560000 138 140 124 0
33.000000 25.080000 9.900000 140 142 126 0
33.220000 25.080000 9.240000 139 141 123 0
33.440000 25.080000 8.470000 141 143 125 0
33.660000 25.080000 8.470000 141 143 127 0
33.880000 25.080000 8.580000 141 143 127 0
34.100000 25.080000 8.580000 142 144 126 0
34.320000 25.080000 7.920000 144 146 128 0
34.540000 25.080000 7.260000 144 146 128 0
34.760000 25.080000 5.830000 145 147 129 0
34.980000 25.080000 5.170000 146 146 129 0
35.200000 25.080000 4.510000 145 145 128 0
35.420000 25.080000 3.850000 145 145 128 0
35.640000 25.080000 3.850000 144 144 127 0
35.860000 25.080000 4.510000 142 144 126 0
36.080000 25.080000 5.280000 142 144 126 0
36.300000 25.080000 6.600000 143 143 126 0
36.520000 25.080000 7.370000 142 142 125 0
36.740000 25.080000 7.370000 141 141 124 0
36.960000 25.080000 8.030000 141 141 124 0
37.180000 25.080000 8.690000 141 141 124 0
0.000000 25.300000 2.750000 216 216 213 0
0.220000 25.300000 2.860000 216 216 213 0
0.440000 25.300000 2.860000 214 214 211 0
0.660000 25.300000 2.860000 213 213 210 0
0.880000 25.300000 2.970000 214 214 211 0
1.100000 25.300000 3.630000 215 215 212 0
1.320000 25.300000 3.630000 215 215 212 0
1.540000 25.300000 3.740000 216 216 213 0
1.760000 25.300000 3.740000 215 215 212 0
1.980000 25.300000 3.740000 215 215 212 0
2.200000 25.300000 4.400000 215 215 212 0
2.420000 25.300000 4.510000 214 214 211 0
2.640000 25.300000 4.510000 213 213 210 0
2.860000 25.300000 4.510000 212 212 209 0
3.080000 25.300000 4.510000 210 210 207 0
3.300000 25.300000 4.510000 209 210 207 0
3.520000 25.300000 5.280000 207 208 205 0
3.740000 25.300000 5.280000 208 208 203 0
3.960000 25.300000 5.280000 208 208 203 0
4.180000 25.300000 6.050000 209 209 206 0
4.400000 25.300000 7.370000 214 214 211 0
4.620000 25.300000 8.140000 217 217 214 0
4.840000 25.300000 8.140000 216 216 213 0
5.060000 25.300000 8.140000 216 217 214 0
5.280000 25.300000 8.140000 215 216 213 0
5.500000 25.300000 8.250000 214 215 212 0
5.720000 25.300000 8.250000 213 214 211 0
5.940000 25.300000 8.910000 214 215 212 0
6.160000 25.300000 8.800000 212 213 210 0
6.380000 25.300000 9.900000 211 212 211 0
6.600000 25.300000 9.680000 209 210 209 0
6.820000 25.300000 9.790000 206 207 204 0
7.040000 25.300000 9.130000 200 201 198 0
7.260000 25.300000 9.130000 193 192 183 0
7.480000 25.300000 9.130000 182 181 172 0
7.700000 25.300000 9.130000 178 175 163 0
7.920000 25.300000 8.470000 177 174 162 0
8.140000 25.300000 8.580000 175 174 164 0
8.360000 25.300000 8.580000 179 178 168 0
8.580000 25.300000 8.690000 182 181 172 0
8.800000 25.300000 8.580000 184 183 174 0
9.020000 25.300000 9.130000 186 185 176 0
9.240000 25.300000 9.790000 188 187 178 0
9.460000 25.300000 9.900000 189 188 178 0
9.680000 25.300000 9.240000 188 187 177 0
9.900000 25.300000 8.470000 187 188 177 0
10.120000 25.300000 8.470000 188 189 178 0
10.340000 25.300000 8.470000 189 188 178 0
10.560000 25.300000 7.700000 189 188 178 0
10.780000 25.300000 7.700000 189 188 179 0
11.000000 25.300000 7.700000 190 189 180 0
11.220000 25.300000 7.700000 191 190 180 0
11.440000 25.300000 7.700000 193 192 182 0
11.660000 25.300000 8.470000 197 197 190 0
11.880000 25.300000 8.470000 201 201 194 0
12.100000 25.300000 9.130000 205 207 201 0
12.320000 25.300000 9.240000 206 208 202 0
12.540000 25.300000 9.240000 207 209 203 0
12.760000 25.300000 9.240000 209 211 205 0
12.980000 25.300000 9.240000 210 212 206 0
13.200000 25.300000 9.240000 210 212 206 0
13.420000 25.300000 9.350000 210 212 206 0
13.640000 25.300000 10.010000 211 213 207 0
13.860000 25.300000 10.010000 211 213 207 0
14.080000 25.300000 10.120000 211 213 207 0
14.300000 25.300000 10.120000 211 213 207 0
14.520000 25.300000 10.120000 211 213 207 0
14.740000 25.300000 10.890000 212 214 208 0
14.960000 25.300000 10.890000 212 214 208 0
15.180000 25.300000 10.890000 212 214 208 0
15.400000 25.300000 11.660000 212 214 208 0
15.620000 25.300000 11.660000 212 214 208 0
15.840000 25.300000 12.320000 211 213 207 0
16.060000 25.300000 12.430000 211 213 207 0
16.280000 25.300000 12.430000 210 212 206 0
16.500000 25.300000 12.980000 209 211 203 0
16.720000 25.300000 13.970000 210 212 204 0
16.940000 25.300000 14.520000 210 212 206 0
17.160000 25.300000 14.630000 211 213 207 0
17.380000 25.300000 14.630000 211 213 207 0
17.600000 25.300000 14.630000 211 213 207 0
17.820000 25.300000 14.630000 211 213 207 0
18.040000 25.300000 14.740000 210 212 206 0
18.260000 25.300000 14.740000 207 211 205 0
18.480000 25.300000 14.740000 209 213 207 0
18.700000 25.300000 14.740000 211 213 207 0
18.920000 25.300000 15.510000 211 213 207 0
19.140000 25.300000 15.510000 208 212 206 0
19.360000 25.300000 15.620000 207 211 205 0
19.580000 25.300000 15.620000 210 212 206 0
19.800000 25.300000 15.620000 210 212 206 0
20.020000 25.300000 15.620000 209 213 207 0
20.240000 25.300000 15.620000 208 212 206 0
20.460000 25.300000 16.390000 206 210 204 0
20.680000 25.300000 16.390000 207 211 205 0
20.900000 25.300000 16.500000 207 211 205 0
21.120000 25.300000 16.500000 208 212 206 0
21.340000 25.300000 16.500000 207 211 205 0
21.560000 25.300000 17.270000 207 211 205 0
21.780000 25.300000 17.820000 206 210 204 0
22.000000 25.300000 18.150000 207 211 205 0
22.220000 25.300000 18.700000 206 210 204 0
22.440000 25.300000 18.700000 206 210 204 0
22.660000 25.300000 18.700000 205 209 203 0
22.880000 25.300000 19.470000 205 209 203 0
23.100000 25.300000 19.470000 204 208 202 0
23.320000 25.300000 19.470000 202 206 200 0
23.540000 25.300000 20.240000 201 205 199 0
23.760000 25.300000 20.240000 200 204 198 0
23.980000 25.300000 20.350000 196 203 193 0
24.200000 25.300000 21.010000 191 198 188 0
24.420000 25.300000 20.350000 183 183 170 0
24.640000 25.300000 15.510000 169 169 156 0
24.860000 25.300000 5.170000 165 165 148 0
25.080000 25.300000 0.330000 159 159 142 0
25.300000 25.300000 0.990000 157 155 138 0
25.520000 25.300000 1.760000 155 153 136 0
25.740000 25.300000 1.100000 153 149 133 0
25.960000 25.300000 1.870000 152 148 132 0
26.180000 25.300000 2.530000 149 146 132 0
26.400000 25.300000 3.190000 148 145 131 0
26.620000 25.300000 3.960000 146 146 131 0
26.840000 25.300000 3.960000 143 143 128 0
27.060000 25.300000 4.620000 143 143 128 0
27.280000 25.300000 4.730000 140 140 125 0
27.500000 25.300000 5.390000 135 137 121 0
27.720000 25.300000 5.390000 132 134 118 0
27.940000 25.300000 5.390000 132 134 118 0
28.160000 25.300000 5.390000 133 135 119 0
28.380000 25.300000 5.390000 133 135 119 0
28.600000 25.300000 6.820000 132 134 118 0
28.820000 25.300000 7.480000 131 133 117 0
29.040000 25.300000 8.030000 131 133 117 0
29.260000 25.300000 8.690000 130 132 116 0
29.480000 25.300000 8.690000 131 133 117 0
29.700000 25.300000 9.460000 130 132 116 0
29.920000 25.300000 9.460000 129 131 115 0
30.140000 25.300000 9.350000 130 132 116 0
30.360000 25.300000 9.900000 130 132 116 0
30.580000 25.300000 9.680000 133 135 119 0
30.800000 25.300000 9.680000 134 136 120 0
31.020000 25.300000 9.020000 134 136 120 0
31.240000 25.300000 9.020000 134 136 120 0
31.460000 25.300000 8.360000 134 136 120 0
31.680000 25.300000 8.470000 135 137 121 0
31.900000 25.300000 8.470000 135 137 121 0
32.120000 25.300000 9.130000 136 138 122 0
32.340000 25.300000 9.790000 136 138 122 0
32.560000 25.300000 10.560000 138 140 124 0
32.780000 25.300000 10.560000 139 141 125 0
33.000000 25.300000 9.900000 138 140 124 0
33.220000 25.300000 9.130000 140 142 124 0
33.440000 25.300000 8.470000 141 143 125 0
33.660000 25.300000 8.470000 141 143 127 0
33.880000 25.300000 8.580000 143 145 129 0
34.100000 25.300000 8.580000 142 144 126 0
34.320000 25.300000 7.920000 143 145 127 0
34.540000 25.300000 7.260000 145 147 129 0
34.760000 25.300000 5.830000 145 147 129 0
34.980000 25.300000 5.170000 145 145 128 0
35.200000 25.300000 4.510000 145 145 128 0
35.420000 25.300000 3.850000 144 144 127 0
35.640000 25.300000 3.850000 143 143 126 0
35.860000 25.300000 3.850000 142 144 126 0
36.080000 25.300000 5.280000 141 143 125 0
36.300000 25.300000 6.600000 142 142 125 0
36.520000 25.300000 7.370000 141 141 124 0
36.740000 25.300000 7.370000 141 141 124 0
36.960000 25.300000 8.030000 141 141 124 0
37.180000 25.300000 8.690000 141 141 124 0
0.000000 25.520000 2.750000 215 215 212 0
0.220000 25.520000 2.860000 216 216 213 0
0.440000 25.520000 2.860000 215 215 212 0
0.660000 25.520000 2.860000 215 215 212 0
0.880000 25.520000 2.970000 214 214 211 0
1.100000 25.520000 3.630000 214 214 211 0
1.320000 25.520000 3.630000 215 215 212 0
1.540000 25.520000 3.740000 216 216 213 0
1.760000 25.520000 3.740000 217 217 214 0
1.980000 25.520000 3.740000 216 216 213 0
2.200000 25.520000 4.400000 215 215 212 0
2.420000 25.520000 4.510000 213 214 211 0
2.640000 25.520000 4.510000 212 213 210 0
2.860000 25.520000 4.510000 211 212 209 0
3.080000 25.520000 4.510000 211 212 209 0
3.300000 25.520000 4.510000 210 211 208 0
3.520000 25.520000 5.280000 208 209 206 0
3.740000 25.520000 5.280000 208 208 205 0
3.960000 25.520000 5.940000 208 208 205 0
4.180000 25.520000 6.050000 207 208 205 0
4.400000 25.520000 7.370000 213 214 211 0
4.620000 25.520000 8.140000 216 217 214 0
4.840000 25.520000 8.140000 215 216 213 0
5.060000 25.520000 8.140000 215 216 213 0
5.280000 25.520000 8.140000 216 217 214 0
5.500000 25.520000 8.250000 216 217 216 0
5.720000 25.520000 8.250000 213 214 213 0
5.940000 25.520000 8.910000 212 213 212 0
6.160000 25.520000 8.800000 212 213 212 0
6.380000 25.520000 9.900000 208 212 210 0
6.600000 25.520000 9.680000 207 211 209 0
6.820000 25.520000 9.790000 206 207 204 0
7.040000 25.520000 9.130000 200 201 198 0
7.260000 25.520000 9.130000 192 191 182 0
7.480000 25.520000 9.130000 182 181 172 0
7.700000 25.520000 9.130000 179 176 166 0
7.920000 25.520000 9.240000 176 173 163 0
8.140000 25.520000 9.240000 176 175 166 0
8.360000 25.520000 8.580000 179 178 169 0
8.580000 25.520000 8.690000 180 181 171 0
8.800000 25.520000 9.240000 183 184 174 0
9.020000 25.520000 9.130000 185 186 176 0
9.240000 25.520000 9.790000 187 188 178 0
9.460000 25.520000 9.900000 188 187 177 0
9.680000 25.520000 9.240000 188 187 177 0
9.900000 25.520000 9.240000 187 188 177 0
10.120000 25.520000 8.470000 187 188 177 0
10.340000 25.520000 8.470000 187 188 178 0
10.560000 25.520000 7.700000 188 189 179 0
10.780000 25.520000 7.700000 188 189 179 0
11.000000 25.520000 7.700000 190 191 181 0
11.220000 25.520000 7.700000 191 190 181 0
11.440000 25.520000 7.700000 194 193 184 0
11.660000 25.520000 8.470000 196 198 190 0
11.880000 25.520000 8.470000 201 203 195 0
12.100000 25.520000 9.130000 204 206 200 0
12.320000 25.520000 9.240000 206 208 202 0
12.540000 25.520000 9.240000 205 209 203 0
12.760000 25.520000 9.240000 207 211 205 0
12.980000 25.520000 9.240000 207 211 205 0
13.200000 25.520000 9.240000 208 212 206 0
13.420000 25.520000 9.350000 211 213 207 0
13.640000 25.520000 10.010000 211 213 207 0
13.860000 25.520000 10.010000 211 213 207 0
14.080000 25.520000 10.120000 212 214 208 0
14.300000 25.520000 10.120000 211 213 207 0
14.520000 25.520000 10.120000 212 214 208 0
14.740000 25.520000 10.890000 210 214 208 0
14.960000 25.520000 10.890000 210 214 208 0
15.180000 25.520000 10.890000 212 214 208 0
15.400000 25.520000 11.660000 212 214 208 0
15.620000 25.520000 11.660000 212 214 208 0
15.840000 25.520000 12.320000 211 213 207 0
16.060000 25.520000 12.430000 209 213 207 0
16.280000 25.520000 12.430000 208 212 206 0
16.500000 25.520000 12.980000 208 212 206 0
16.720000 25.520000 13.970000 209 213 207 0
16.940000 25.520000 14.520000 212 214 208 0
17.160000 25.520000 14.630000 211 213 207 0
17.380000 25.520000 14.630000 211 213 207 0
17.600000 25.520000 14.630000 212 214 208 0
17.820000 25.520000 14.630000 209 213 207 0
18.040000 25.520000 14.740000 209 213 207 0
18.260000 25.520000 14.740000 209 213 207 0
18.480000 25.520000 14.740000 208 212 206 0
18.700000 25.520000 14.740000 211 213 207 0
18.920000 25.520000 15.510000 211 213 207 0
19.140000 25.520000 15.510000 208 212 206 0
19.360000 25.520000 15.620000 208 212 206 0
19.580000 25.520000 15.620000 207 211 205 0
19.800000 25.520000 15.620000 209 213 207 0
20.020000 25.520000 15.620000 208 212 206 0
20.240000 25.520000 15.620000 208 212 206 0
20.460000 25.520000 16.390000 207 211 205 0
20.680000 25.520000 16.390000 207 211 205 0
20.900000 25.520000 16.500000 208 212 206 0
21.120000 25.520000 16.500000 207 211 205 0
21.340000 25.520000 16.500000 207 211 205 0
21.560000 25.520000 17.270000 207 211 205 0
21.780000 25.520000 17.820000 207 211 205 0
22.000000 25.520000 18.150000 207 211 205 0
22.220000 25.520000 18.700000 207 211 205 0
22.440000 25.520000 18.700000 206 210 204 0
22.660000 25.520000 18.700000 206 210 204 0
22.880000 25.520000 19.470000 205 209 203 0
23.100000 25.520000 19.470000 204 208 202 0
23.320000 25.520000 19.470000 203 207 201 0
23.540000 25.520000 20.240000 201 207 200 0
23.760000 25.520000 20.240000 199 205 198 0
23.980000 25.520000 20.350000 196 201 192 0
24.200000 25.520000 21.010000 192 197 188 0
24.420000 25.520000 20.350000 183 184 171 0
24.640000 25.520000 15.510000 169 170 157 0
24.860000 25.520000 5.170000 166 164 147 0
25.080000 25.520000 0.330000 161 159 142 0
25.300000 25.520000 0.990000 156 156 139 0
25.520000 25.520000 1.760000 154 154 137 0
25.740000 25.520000 1.100000 154 151 137 0
25.960000 25.520000 1.870000 152 149 135 0
26.180000 25.520000 2.530000 147 149 133 0
26.400000 25.520000 3.190000 146 148 132 0
26.620000 25.520000 3.960000 144 144 129 0
26.840000 25.520000 3.960000 145 145 130 0
27.060000 25.520000 4.620000 142 142 127 0
27.280000 25.520000 4.730000 140 140 125 0
27.500000 25.520000 5.390000 137 137 122 0
27.720000 25.520000 5.390000 133 133 118 0
27.940000 25.520000 5.390000 134 134 119 0
28.160000 25.520000 5.390000 133 133 118 0
28.380000 25.520000 5.500000 133 133 118 0
28.600000 25.520000 6.820000 132 132 117 0
28.820000 25.520000 7.480000 132 134 118 0
29.040000 25.520000 8.030000 131 133 117 0
29.260000 25.520000 8.690000 130 132 116 0
29.480000 25.520000 8.690000 130 132 116 0
29.700000 25.520000 9.460000 131 131 116 0
29.920000 25.520000 9.460000 131 131 116 0
30.140000 25.520000 9.350000 131 131 116 0
30.360000 25.520000 9.900000 132 132 117 0
30.580000 25.520000 9.790000 132 134 118 0
30.800000 25.520000 9.680000 133 135 119 0
31.020000 25.520000 9.020000 134 136 120 0
31.240000 25.520000 9.020000 134 136 120 0
31.460000 25.520000 8.360000 136 136 121 0
31.680000 25.520000 8.470000 136 136 121 0
31.900000 25.520000 9.130000 136 138 122 0
32.120000 25.520000 9.130000 136 138 122 0
32.340000 25.520000 9.790000 138 138 123 0
32.560000 25.520000 9.790000 138 138 123 0
32.780000 25.520000 9.900000 137 139 123 0
33.000000 25.520000 9.900000 139 141 125 0
33.220000 25.520000 8.470000 140 142 126 0
33.440000 25.520000 8.470000 140 142 126 0
33.660000 25.520000 8.470000 142 144 126 0
33.880000 25.520000 8.580000 142 144 126 0
34.100000 25.520000 8.580000 143 145 127 0
34.320000 25.520000 7.920000 144 146 128 0
34.540000 25.520000 7.260000 144 146 128 0
34.760000 25.520000 5.830000 144 146 128 0
34.980000 25.520000 5.170000 145 147 129 0
35.200000 25.520000 4.510000 144 146 128 0
35.420000 25.520000 3.850000 143 145 127 0
35.640000 25.520000 3.850000 143 145 127 0
35.860000 25.520000 3.850000 141 143 125 0
36.080000 25.520000 5.280000 141 143 125 0
36.300000 25.520000 6.600000 142 144 126 0
36.520000 25.520000 7.370000 141 143 125 0
36.740000 25.520000 7.370000 141 141 126 0
36.960000 25.520000 8.030000 141 141 126 0
37.180000 25.520000 8.690000 140 142 124 0
0.000000 25.740000 2.750000 215 215 212 0
0.220000 25.740000 2.860000 216 216 213 0
0.440000 25.740000 2.860000 217 217 214 0
0.660000 25.740000 2.860000 217 217 214 0
0.880000 25.740000 2.970000 215 215 212 0
1.100000 25.740000 3.630000 216 216 213 0
1.320000 25.740000 3.630000 217 217 214 0
1.540000 25.740000 3.740000 217 217 214 0
1.760000 25.740000 3.740000 218 218 215 0
1.980000 25.740000 3.740000 217 217 214 0
2.200000 25.740000 4.400000 216 216 213 0
2.420000 25.740000 4.510000 213 214 211 0
2.640000 25.740000 4.510000 212 213 210 0
2.860000 25.740000 4.510000 211 212 209 0
3.080000 25.740000 4.510000 210 211 208 0
3.300000 25.740000 4.510000 210 211 208 0
3.520000 25.740000 5.280000 209 210 207 0
3.740000 25.740000 5.280000 208 208 205 0
3.960000 25.740000 5.940000 208 208 205 0
4.180000 25.740000 6.710000 208 209 206 0
4.400000 25.740000 7.370000 212 213 210 0
4.620000 25.740000 8.140000 216 217 214 0
4.840000 25.740000 8.140000 217 218 215 0
5.060000 25.740000 8.140000 216 217 214 0
5.280000 25.740000 8.140000 215 216 213 0
5.500000 25.740000 8.250000 216 217 216 0
5.720000 25.740000 8.250000 215 216 215 0
5.940000 25.740000 8.910000 213 214 213 0
6.160000 25.740000 8.800000 212 213 212 0
6.380000 25.740000 9.900000 209 213 211 0
6.600000 25.740000 9.680000 208 212 210 0
6.820000 25.740000 9.790000 207 208 205 0
7.040000 25.740000 9.130000 201 202 199 0
7.260000 25.740000 9.130000 193 192 183 0
7.480000 25.740000 9.130000 181 180 171 0
7.700000 25.740000 9.130000 178 175 165 0
7.920000 25.740000 9.240000 176 173 163 0
8.140000 25.740000 9.240000 174 173 164 0
8.360000 25.740000 8.580000 179 178 169 0
8.580000 25.740000 8.690000 180 181 171 0
8.800000 25.740000 9.240000 183 184 174 0
9.020000 25.740000 9.130000 185 186 176 0
9.240000 25.740000 9.790000 186 187 177 0
9.460000 25.740000 9.900000 188 187 177 0
9.680000 25.740000 9.240000 188 187 177 0
9.900000 25.740000 9.240000 187 188 177 0
10.120000 25.740000 8.470000 187 188 177 0
10.340000 25.740000 8.470000 189 190 180 0
10.560000 25.740000 7.700000 188 189 179 0
10.780000 25.740000 7.700000 189 190 180 0
11.000000 25.740000 7.700000 189 190 180 0
11.220000 25.740000 7.700000 192 191 182 0
11.440000 25.740000 7.700000 194 193 184 0
11.660000 25.740000 8.470000 196 198 190 0
11.880000 25.740000 8.470000 201 203 195 0
12.100000 25.740000 9.130000 204 206 200 0
12.320000 25.740000 9.240000 206 208 202 0
12.540000 25.740000 9.240000 205 209 203 0
12.760000 25.740000 9.240000 206 210 204 0
12.980000 25.740000 9.240000 207 211 205 0
13.200000 25.740000 9.240000 209 213 207 0
13.420000 25.740000 9.350000 211 213 207 0
13.640000 25.740000 10.010000 211 213 207 0
13.860000 25.740000 10.010000 211 213 207 0
14.080000 25.740000 10.120000 211 213 207 0
14.300000 25.740000 10.120000 212 214 208 0
14.520000 25.740000 10.120000 212 214 208 0
14.740000 25.740000 10.120000 210 214 208 0
14.960000 25.740000 10.890000 210 214 208 0
15.180000 25.740000 10.890000 212 214 208 0
15.400000 25.740000 11.660000 212 214 208 0
15.620000 25.740000 11.660000 212 214 208 0
15.840000 25.740000 12.320000 211 213 207 0
16.060000 25.740000 12.430000 209 213 207 0
16.280000 25.740000 12.430000 209 213 207 0
16.500000 25.740000 12.980000 208 212 206 0
16.720000 25.740000 13.970000 209 213 207 0
16.940000 25.740000 14.520000 212 214 208 0
17.160000 25.740000 14.630000 212 214 208 0
17.380000 25.740000 14.630000 211 213 207 0
17.600000 25.740000 14.630000 211 213 207 0
17.820000 25.740000 14.630000 209 213 207 0
18.040000 25.740000 14.740000 209 213 207 0
18.260000 25.740000 14.740000 209 213 207 0
18.480000 25.740000 14.740000 208 212 206 0
18.700000 25.740000 14.740000 211 213 207 0
18.920000 25.740000 15.510000 212 214 208 0
19.140000 25.740000 15.510000 209 213 207 0
19.360000 25.740000 15.510000 208 212 206 0
19.580000 25.740000 15.620000 208 212 206 0
19.800000 25.740000 15.620000 208 212 206 0
20.020000 25.740000 15.620000 208 212 206 0
20.240000 25.740000 15.620000 210 214 208 0
20.460000 25.740000 16.390000 208 212 206 0
20.680000 25.740000 16.390000 209 213 207 0
20.900000 25.740000 16.500000 208 212 206 0
21.120000 25.740000 16.500000 208 212 206 0
21.340000 25.740000 16.500000 207 211 205 0
21.560000 25.740000 17.270000 207 211 205 0
21.780000 25.740000 17.820000 207 211 205 0
22.000000 25.740000 18.150000 207 211 205 0
22.220000 25.740000 18.700000 206 210 204 0
22.440000 25.740000 18.700000 206 210 204 0
22.660000 25.740000 18.700000 206 210 204 0
22.880000 25.740000 19.470000 206 210 204 0
23.100000 25.740000 19.470000 204 208 202 0
23.320000 25.740000 19.470000 203 207 201 0
23.540000 25.740000 20.240000 201 207 200 0
23.760000 25.740000 20.240000 200 206 199 0
23.980000 25.740000 20.350000 197 202 193 0
24.200000 25.740000 21.010000 192 197 188 0
24.420000 25.740000 20.350000 184 185 172 0
24.640000 25.740000 15.510000 171 172 159 0
24.860000 25.740000 5.170000 166 164 147 0
25.080000 25.740000 0.330000 162 160 143 0
25.300000 25.740000 0.990000 155 155 138 0
25.520000 25.740000 1.760000 153 153 136 0
25.740000 25.740000 1.100000 154 151 137 0
25.960000 25.740000 1.870000 151 148 134 0
26.180000 25.740000 2.530000 147 149 133 0
26.400000 25.740000 3.190000 145 147 131 0
26.620000 25.740000 3.960000 146 146 131 0
26.840000 25.740000 3.960000 144 144 129 0
27.060000 25.740000 4.730000 142 142 127 0
27.280000 25.740000 4.730000 140 140 125 0
27.500000 25.740000 5.390000 135 135 120 0
27.720000 25.740000 5.390000 134 134 119 0
27.940000 25.740000 5.500000 133 133 118 0
28.160000 25.740000 5.500000 133 133 118 0
28.380000 25.740000 5.500000 133 133 118 0
28.600000 25.740000 6.820000 132 132 117 0
28.820000 25.740000 7.480000 132 134 118 0
29.040000 25.740000 8.030000 131 133 117 0
29.260000 25.740000 8.690000 131 133 117 0
29.480000 25.740000 9.350000 131 133 117 0
29.700000 25.740000 9.350000 132 132 117 0
29.920000 25.740000 9.350000 131 131 116 0
30.140000 25.740000 9.350000 130 130 115 0
30.360000 25.740000 9.900000 132 132 117 0
30.580000 25.740000 9.790000 131 133 117 0
30.800000 25.740000 9.130000 133 135 119 0
31.020000 25.740000 9.020000 135 137 121 0
31.240000 25.740000 9.020000 134 136 120 0
31.460000 25.740000 8.470000 137 137 122 0
31.680000 25.740000 8.470000 136 136 121 0
31.900000 25.740000 9.130000 135 137 121 0
32.120000 25.740000 9.130000 137 139 123 0
32.340000 25.740000 9.790000 139 139 124 0
32.560000 25.740000 9.790000 139 139 124 0
32.780000 25.740000 9.900000 139 141 125 0
33.000000 25.740000 9.130000 138 140 124 0
33.220000 25.740000 8.470000 139 141 125 0
33.440000 25.740000 8.470000 140 142 126 0
33.660000 25.740000 8.580000 142 144 126 0
33.880000 25.740000 8.580000 143 145 127 0
34.100000 25.740000 8.580000 143 145 127 0
34.320000 25.740000 7.920000 144 146 128 0
34.540000 25.740000 7.260000 145 147 129 0
34.760000 25.740000 5.830000 145 147 129 0
34.980000 25.740000 5.170000 145 147 129 0
35.200000 25.740000 4.510000 145 147 129 0
35.420000 25.740000 3.850000 144 146 128 0
35.640000 25.740000 3.850000 143 145 127 0
35.860000 25.740000 3.850000 143 145 127 0
36.080000 25.740000 5.280000 141 143 125 0
36.300000 25.740000 6.600000 141 143 125 0
36.520000 25.740000 7.370000 141 143 125 0
36.740000 25.740000 7.370000 141 141 126 0
36.960000 25.740000 8.030000 141 141 126 0
37.180000 25.740000 8.690000 140 142 124 0
0.000000 25.960000 2.750000 216 216 213 0
0.220000 25.960000 2.860000 215 215 212 0
0.440000 25.960000 2.860000 216 216 213 0
0.660000 25.960000 2.860000 217 217 214 0
0.880000 25.960000 2.970000 216 216 213 0
1.100000 25.960000 3.630000 216 216 213 0
1.320000 25.960000 3.630000 217 217 214 0
1.540000 25.960000 3.740000 216 216 213 0
1.760000 25.960000 3.740000 216 216 213 0
1.980000 25.960000 3.740000 217 217 214 0
2.200000 25.960000 4.400000 217 217 214 0
2.420000 25.960000 4.510000 215 216 213 0
2.640000 25.960000 4.510000 213 214 211 0
2.860000 25.960000 4.510000 213 214 211 0
3.080000 25.960000 4.510000 211 212 209 0
3.300000 25.960000 4.510000 211 212 209 0
3.520000 25.960000 5.280000 209 210 207 0
3.740000 25.960000 5.280000 209 209 206 0
3.960000 25.960000 5.940000 209 209 206 0
4.180000 25.960000 6.710000 208 209 208 0
4.400000 25.960000 7.370000 214 215 214 0
4.620000 25.960000 8.140000 214 215 214 0
4.840000 25.960000 8.140000 217 218 217 0
5.060000 25.960000 8.140000 217 218 215 0
5.280000 25.960000 8.140000 216 217 214 0
5.500000 25.960000 8.250000 216 217 214 0
5.720000 25.960000 8.250000 217 218 215 0
5.940000 25.960000 8.910000 213 214 213 0
6.160000 25.960000 8.800000 211 212 211 0
6.380000 25.960000 9.900000 209 213 211 0
6.600000 25.960000 9.680000 208 212 210 0
6.820000 25.960000 9.790000 207 208 205 0
7.040000 25.960000 9.790000 201 202 199 0
7.260000 25.960000 9.130000 193 192 182 0
7.480000 25.960000 9.130000 183 182 172 0
7.700000 25.960000 9.130000 179 176 166 0
7.920000 25.960000 9.240000 177 174 164 0
8.140000 25.960000 9.240000 176 173 163 0
8.360000 25.960000 8.580000 180 177 167 0
8.580000 25.960000 8.690000 180 181 171 0
8.800000 25.960000 9.240000 183 184 174 0
9.020000 25.960000 9.130000 187 186 177 0
9.240000 25.960000 9.790000 188 187 178 0
9.460000 25.960000 9.900000 188 187 178 0
9.680000 25.960000 9.240000 188 187 178 0
9.900000 25.960000 9.240000 191 188 178 0
10.120000 25.960000 8.470000 191 188 178 0
10.340000 25.960000 8.470000 188 189 179 0
10.560000 25.960000 7.700000 188 189 179 0
10.780000 25.960000 7.700000 188 189 179 0
11.000000 25.960000 7.700000 190 191 181 0
11.220000 25.960000 7.700000 192 191 181 0
11.440000 25.960000 7.700000 194 193 183 0
11.660000 25.960000 8.470000 195 197 189 0
11.880000 25.960000 8.470000 201 203 195 0
12.100000 25.960000 9.130000 204 206 200 0
12.320000 25.960000 9.240000 206 208 202 0
12.540000 25.960000 9.240000 208 210 204 0
12.760000 25.960000 9.240000 209 211 205 0
12.980000 25.960000 9.240000 210 212 206 0
13.200000 25.960000 9.240000 210 212 206 0
13.420000 25.960000 9.350000 211 213 207 0
13.640000 25.960000 10.010000 210 212 206 0
13.860000 25.960000 10.010000 211 213 207 0
14.080000 25.960000 10.120000 212 214 208 0
14.300000 25.960000 10.120000 211 213 207 0
14.520000 25.960000 10.120000 211 213 207 0
14.740000 25.960000 10.120000 213 215 209 0
14.960000 25.960000 10.890000 211 213 207 0
15.180000 25.960000 10.890000 211 213 207 0
15.400000 25.960000 11.660000 211 213 207 0
15.620000 25.960000 11.660000 212 214 208 0
15.840000 25.960000 12.320000 212 214 208 0
16.060000 25.960000 12.430000 209 213 207 0
16.280000 25.960000 12.430000 208 212 206 0
16.500000 25.960000 12.980000 210 212 206 0
16.720000 25.960000 13.970000 210 212 206 0
16.940000 25.960000 14.520000 209 213 207 0
17.160000 25.960000 14.630000 210 214 208 0
17.380000 25.960000 14.630000 210 214 208 0
17.600000 25.960000 14.630000 209 213 207 0
17.820000 25.960000 14.630000 209 213 207 0
18.040000 25.960000 14.740000 210 214 208 0
18.260000 25.960000 14.740000 208 212 206 0
18.480000 25.960000 14.740000 209 213 207 0
18.700000 25.960000 14.740000 209 213 207 0
18.920000 25.960000 15.510000 208 212 206 0
19.140000 25.960000 15.510000 209 213 207 0
19.360000 25.960000 15.510000 209 213 207 0
19.580000 25.960000 15.620000 209 213 207 0
19.800000 25.960000 15.620000 209 213 207 0
20.020000 25.960000 15.620000 209 213 207 0
20.240000 25.960000 15.620000 209 213 207 0
20.460000 25.960000 16.390000 209 213 207 0
20.680000 25.960000 16.390000 208 212 206 0
20.900000 25.960000 16.500000 207 211 205 0
21.120000 25.960000 16.500000 208 212 206 0
21.340000 25.960000 16.500000 208 212 206 0
21.560000 25.960000 17.270000 207 211 205 0
21.780000 25.960000 17.820000 207 211 205 0
22.000000 25.960000 18.150000 207 211 205 0
22.220000 25.960000 18.700000 206 210 204 0
22.440000 25.960000 18.700000 206 210 204 0
22.660000 25.960000 18.700000 206 210 204 0
22.880000 25.960000 18.810000 205 209 203 0
23.100000 25.960000 19.470000 204 208 202 0
23.320000 25.960000 19.470000 204 208 202 0
23.540000 25.960000 20.240000 201 207 200 0
23.760000 25.960000 20.240000 200 206 199 0
23.980000 25.960000 20.350000 196 202 195 0
24.200000 25.960000 20.350000 191 197 190 0
24.420000 25.960000 20.350000 184 187 173 0
24.640000 25.960000 15.510000 171 174 160 0
24.860000 25.960000 5.170000 166 164 147 0
25.080000 25.960000 0.330000 163 161 144 0
25.300000 25.960000 0.990000 158 156 139 0
25.520000 25.960000 1.760000 155 153 136 0
25.740000 25.960000 1.100000 151 151 134 0
25.960000 25.960000 1.870000 149 149 132 0
26.180000 25.960000 2.530000 150 148 131 0
26.400000 25.960000 3.190000 149 147 130 0
26.620000 25.960000 3.960000 146 146 129 0
26.840000 25.960000 3.960000 144 144 127 0
27.060000 25.960000 4.730000 142 142 127 0
27.280000 25.960000 4.730000 140 140 125 0
27.500000 25.960000 5.390000 136 136 121 0
27.720000 25.960000 5.390000 133 133 118 0
27.940000 25.960000 5.500000 132 134 118 0
28.160000 25.960000 5.500000 132 134 118 0
28.380000 25.960000 5.500000 131 133 117 0
28.600000 25.960000 6.710000 132 134 118 0
28.820000 25.960000 7.370000 132 134 118 0
29.040000 25.960000 8.690000 131 133 117 0
29.260000 25.960000 8.690000 133 133 118 0
29.480000 25.960000 8.690000 131 131 116 0
29.700000 25.960000 9.350000 131 133 117 0
29.920000 25.960000 9.350000 129 131 115 0
30.140000 25.960000 9.350000 129 131 115 0
30.360000 25.960000 9.900000 129 131 115 0
30.580000 25.960000 9.900000 132 134 118 0
30.800000 25.960000 9.240000 132 134 118 0
31.020000 25.960000 9.130000 134 134 119 0
31.240000 25.960000 9.020000 136 136 121 0
31.460000 25.960000 9.130000 134 136 120 0
31.680000 25.960000 8.470000 134 136 120 0
31.900000 25.960000 8.470000 135 137 121 0
32.120000 25.960000 9.130000 137 139 123 0
32.340000 25.960000 9.790000 137 139 123 0
32.560000 25.960000 9.900000 137 139 123 0
32.780000 25.960000 9.900000 139 141 123 0
33.000000 25.960000 9.900000 139 141 123 0
33.220000 25.960000 9.130000 140 142 124 0
33.440000 25.960000 8.470000 141 143 125 0
33.660000 25.960000 8.580000 141 143 125 0
33.880000 25.960000 8.580000 142 144 126 0
34.100000 25.960000 8.580000 143 145 129 0
34.320000 25.960000 7.920000 144 146 130 0
34.540000 25.960000 7.260000 145 147 131 0
34.760000 25.960000 5.830000 145 147 131 0
34.980000 25.960000 5.170000 145 147 131 0
35.200000 25.960000 4.510000 145 147 131 0
35.420000 25.960000 3.850000 144 146 128 0
35.640000 25.960000 3.850000 143 145 127 0
35.860000 25.960000 4.510000 142 144 126 0
36.080000 25.960000 5.280000 142 144 126 0
36.300000 25.960000 6.600000 142 144 126 0
36.520000 25.960000 7.370000 142 144 126 0
36.740000 25.960000 7.370000 140 142 124 0
36.960000 25.960000 8.030000 141 143 125 0
37.180000 25.960000 8.690000 140 142 124 0
0.000000 26.180000 2.750000 216 216 213 0
0.220000 26.180000 2.860000 215 215 212 0
0.440000 26.180000 2.860000 216 216 213 0
0.660000 26.180000 2.860000 216 216 213 0
0.880000 26.180000 2.970000 217 217 214 0
1.100000 26.180000 3.630000 216 216 213 0
1.320000 26.180000 3.630000 215 215 212 0
1.540000 26.180000 3.740000 216 216 213 0
1.760000 26.180000 3.740000 216 216 213 0
1.980000 26.180000 3.740000 216 216 213 0
2.200000 26.180000 4.400000 216 216 213 0
2.420000 26.180000 4.510000 215 216 213 0
2.640000 26.180000 4.510000 215 216 213 0
2.860000 26.180000 4.510000 213 214 211 0
3.080000 26.180000 4.510000 211 212 209 0
3.300000 26.180000 4.510000 211 212 209 0
3.520000 26.180000 5.280000 210 211 208 0
3.740000 26.180000 5.280000 209 209 206 0
3.960000 26.180000 5.940000 208 208 205 0
4.180000 26.180000 6.710000 207 208 207 0
4.400000 26.180000 7.370000 213 214 213 0
4.620000 26.180000 8.140000 215 216 215 0
4.840000 26.180000 8.140000 215 216 215 0
5.060000 26.180000 8.140000 216 217 214 0
5.280000 26.180000 8.140000 215 216 213 0
5.500000 26.180000 8.250000 214 215 212 0
5.720000 26.180000 8.250000 215 216 213 0
5.940000 26.180000 8.910000 213 214 213 0
6.160000 26.180000 8.800000 211 212 211 0
6.380000 26.180000 9.900000 208 212 210 0
6.600000 26.180000 9.680000 208 212 210 0
6.820000 26.180000 9.790000 208 209 206 0
7.040000 26.180000 9.790000 201 202 199 0
7.260000 26.180000 9.130000 193 192 182 0
7.480000 26.180000 9.130000 182 181 171 0
7.700000 26.180000 9.130000 180 177 167 0
7.920000 26.180000 9.240000 177 174 164 0
8.140000 26.180000 9.240000 176 173 163 0
8.360000 26.180000 8.580000 180 177 167 0
8.580000 26.180000 8.690000 181 182 172 0
8.800000 26.180000 9.240000 184 185 175 0
9.020000 26.180000 9.130000 186 185 176 0
9.240000 26.180000 9.900000 188 187 178 0
9.460000 26.180000 9.900000 189 188 179 0
9.680000 26.180000 9.240000 188 187 178 0
9.900000 26.180000 9.240000 191 188 178 0
10.120000 26.180000 8.470000 190 187 177 0
10.340000 26.180000 8.470000 187 188 178 0
10.560000 26.180000 7.700000 187 188 178 0
10.780000 26.180000 7.700000 189 190 180 0
11.000000 26.180000 7.700000 190 191 181 0
11.220000 26.180000 7.700000 192 191 181 0
11.440000 26.180000 7.810000 193 192 182 0
11.660000 26.180000 8.470000 196 198 190 0
11.880000 26.180000 8.470000 200 202 194 0
12.100000 26.180000 9.130000 204 206 200 0
12.320000 26.180000 9.240000 206 208 202 0
12.540000 26.180000 9.240000 208 210 204 0
12.760000 26.180000 9.240000 209 211 205 0
12.980000 26.180000 9.240000 210 212 206 0
13.200000 26.180000 9.240000 211 213 207 0
13.420000 26.180000 9.350000 210 212 206 0
13.640000 26.180000 10.010000 211 213 207 0
13.860000 26.180000 10.010000 211 213 207 0
14.080000 26.180000 10.120000 211 213 207 0
14.300000 26.180000 10.120000 211 213 207 0
14.520000 26.180000 10.120000 211 213 207 0
14.740000 26.180000 10.120000 212 214 208 0
14.960000 26.180000 10.890000 212 214 208 0
15.180000 26.180000 10.890000 211 213 207 0
15.400000 26.180000 11.660000 212 214 208 0
15.620000 26.180000 11.660000 212 214 208 0
15.840000 26.180000 12.320000 212 214 208 0
16.060000 26.180000 12.430000 209 213 207 0
16.280000 26.180000 12.430000 209 213 207 0
16.500000 26.180000 12.980000 210 212 206 0
16.720000 26.180000 13.970000 210 212 206 0
16.940000 26.180000 14.520000 208 212 206 0
17.160000 26.180000 14.630000 208 212 206 0
17.380000 26.180000 14.630000 209 213 207 0
17.600000 26.180000 14.630000 209 213 207 0
17.820000 26.180000 14.630000 209 213 207 0
18.040000 26.180000 14.740000 208 212 206 0
18.260000 26.180000 14.740000 209 213 207 0
18.480000 26.180000 14.740000 209 213 207 0
18.700000 26.180000 14.740000 209 213 207 0
18.920000 26.180000 14.850000 208 212 206 0
19.140000 26.180000 15.510000 208 212 206 0
19.360000 26.180000 15.510000 209 213 207 0
19.580000 26.180000 15.620000 209 213 207 0
19.800000 26.180000 15.620000 209 213 207 0
20.020000 26.180000 15.620000 209 213 207 0
20.240000 26.180000 15.620000 209 213 207 0
20.460000 26.180000 16.390000 209 213 207 0
20.680000 26.180000 16.390000 209 213 207 0
20.900000 26.180000 16.500000 207 211 205 0
21.120000 26.180000 16.500000 207 211 205 0
21.340000 26.180000 16.500000 207 211 205 0
21.560000 26.180000 17.270000 207 211 205 0
21.780000 26.180000 17.820000 207 211 205 0
22.000000 26.180000 18.150000 206 210 204 0
22.220000 26.180000 18.700000 207 211 205 0
22.440000 26.180000 18.700000 206 210 204 0
22.660000 26.180000 18.700000 205 209 203 0
22.880000 26.180000 18.810000 205 209 203 0
23.100000 26.180000 19.470000 205 209 203 0
23.320000 26.180000 19.470000 203 207 201 0
23.540000 26.180000 20.240000 201 207 200 0
23.760000 26.180000 20.240000 199 205 198 0
23.980000 26.180000 20.350000 197 203 196 0
24.200000 26.180000 20.350000 192 198 191 0
24.420000 26.180000 20.350000 183 186 172 0
24.640000 26.180000 15.510000 172 175 161 0
24.860000 26.180000 5.170000 167 165 148 0
25.080000 26.180000 0.330000 163 161 144 0
25.300000 26.180000 0.990000 159 157 140 0
25.520000 26.180000 1.760000 157 155 138 0
25.740000 26.180000 1.100000 151 151 134 0
25.960000 26.180000 1.870000 151 151 134 0
26.180000 26.180000 1.870000 150 148 131 0
26.400000 26.180000 3.300000 149 147 130 0
26.620000 26.180000 3.300000 145 145 128 0
26.840000 26.180000 3.960000 144 144 127 0
27.060000 26.180000 4.730000 142 142 127 0
27.280000 26.180000 4.730000 140 140 125 0
27.500000 26.180000 5.390000 136 136 121 0
27.720000 26.180000 5.500000 134 134 119 0
27.940000 26.180000 5.500000 133 135 119 0
28.160000 26.180000 5.500000 132 134 118 0
28.380000 26.180000 6.050000 132 134 118 0
28.600000 26.180000 7.260000 132 134 118 0
28.820000 26.180000 7.920000 132 134 118 0
29.040000 26.180000 8.690000 132 134 118 0
29.260000 26.180000 8.690000 132 132 117 0
29.480000 26.180000 8.690000 132 132 117 0
29.700000 26.180000 9.350000 129 131 115 0
29.920000 26.180000 9.350000 129 131 115 0
30.140000 26.180000 9.350000 129 131 115 0
30.360000 26.180000 9.900000 129 131 115 0
30.580000 26.180000 9.900000 133 135 119 0
30.800000 26.180000 9.240000 132 134 118 0
31.020000 26.180000 9.130000 134 134 119 0
31.240000 26.180000 9.130000 135 135 120 0
31.460000 26.180000 9.130000 135 137 121 0
31.680000 26.180000 8.470000 135 137 121 0
31.900000 26.180000 8.470000 135 137 121 0
32.120000 26.180000 9.130000 136 138 122 0
32.340000 26.180000 9.130000 137 139 123 0
32.560000 26.180000 9.900000 138 140 124 0
32.780000 26.180000 9.900000 138 140 122 0
33.000000 26.180000 9.900000 140 142 124 0
33.220000 26.180000 9.130000 141 143 125 0
33.440000 26.180000 8.470000 141 143 125 0
33.660000 26.180000 8.580000 141 143 125 0
33.880000 26.180000 8.580000 142 144 126 0
34.100000 26.180000 8.580000 143 145 129 0
34.320000 26.180000 7.920000 144 146 130 0
34.540000 26.180000 7.260000 145 147 131 0
34.760000 26.180000 5.830000 144 146 130 0
34.980000 26.180000 5.170000 145 147 131 0
35.200000 26.180000 4.510000 144 146 130 0
35.420000 26.180000 3.850000 143 145 127 0
35.640000 26.180000 3.850000 143 145 127 0
35.860000 26.180000 4.510000 142 144 126 0
36.080000 26.180000 5.280000 142 144 126 0
36.300000 26.180000 6.600000 141 143 125 0
36.520000 26.180000 7.370000 140 142 124 0
36.740000 26.180000 7.370000 140 142 124 0
36.960000 26.180000 8.030000 140 142 124 0
37.180000 26.180000 8.690000 140 142 124 0
0.000000 26.400000 2.750000 215 215 212 0
0.220000 26.400000 2.860000 216 216 213 0
0.440000 26.400000 2.860000 214 214 211 0
0.660000 26.400000 2.860000 214 214 211 0
0.880000 26.400000 2.970000 216 216 213 0
1.100000 26.400000 3.630000 214 214 211 0
1.320000 26.400000 3.630000 216 216 213 0
1.540000 26.400000 3.740000 214 215 212 0
1.760000 26.400000 3.740000 215 216 213 0
1.980000 26.400000 4.400000 216 216 213 0
2.200000 26.400000 4.400000 215 215 212 0
2.420000 26.400000 4.510000 214 215 212 0
2.640000 26.400000 4.510000 214 215 212 0
2.860000 26.400000 4.510000 213 214 211 0
3.080000 26.400000 4.510000 211 212 209 0
3.300000 26.400000 4.510000 211 212 209 0
3.520000 26.400000 5.280000 210 211 208 0
3.740000 26.400000 5.280000 209 209 206 0
3.960000 26.400000 5.940000 208 208 205 0
4.180000 26.400000 6.710000 207 208 205 0
4.400000 26.400000 7.370000 212 213 210 0
4.620000 26.400000 8.140000 214 215 212 0
4.840000 26.400000 8.140000 214 215 212 0
5.060000 26.400000 8.140000 214 215 212 0
5.280000 26.400000 8.140000 214 215 212 0
5.500000 26.400000 8.250000 213 214 211 0
5.720000 26.400000 8.250000 213 214 211 0
5.940000 26.400000 8.910000 213 214 213 0
6.160000 26.400000 8.800000 211 212 211 0
6.380000 26.400000 9.900000 207 211 207 0
6.600000 26.400000 9.680000 206 210 206 0
6.820000 26.400000 9.790000 206 207 204 0
7.040000 26.400000 9.790000 201 202 199 0
7.260000 26.400000 9.130000 193 190 180 0
7.480000 26.400000 9.130000 183 180 170 0
7.700000 26.400000 9.130000 179 175 161 0
7.920000 26.400000 9.240000 178 174 160 0
8.140000 26.400000 9.240000 175 172 160 0
8.360000 26.400000 8.580000 180 177 165 0
8.580000 26.400000 8.690000 182 181 171 0
8.800000 26.400000 9.240000 183 182 172 0
9.020000 26.400000 9.130000 186 185 175 0
9.240000 26.400000 9.900000 187 186 176 0
9.460000 26.400000 9.900000 188 187 177 0
9.680000 26.400000 9.240000 188 187 177 0
9.900000 26.400000 9.240000 187 188 177 0
10.120000 26.400000 8.470000 188 189 178 0
10.340000 26.400000 8.470000 188 187 177 0
10.560000 26.400000 8.360000 188 187 177 0
10.780000 26.400000 7.700000 188 187 177 0
11.000000 26.400000 7.700000 190 189 179 0
11.220000 26.400000 7.700000 191 190 180 0
11.440000 26.400000 7.810000 194 193 183 0
11.660000 26.400000 8.470000 196 196 189 0
11.880000 26.400000 8.470000 201 201 194 0
12.100000 26.400000 9.130000 204 206 200 0
12.320000 26.400000 9.240000 206 208 202 0
12.540000 26.400000 9.240000 207 209 203 0
12.760000 26.400000 9.240000 208 210 204 0
12.980000 26.400000 9.240000 209 211 205 0
13.200000 26.400000 9.240000 210 212 206 0
13.420000 26.400000 9.350000 210 212 206 0
13.640000 26.400000 10.010000 211 213 207 0
13.860000 26.400000 10.010000 211 213 207 0
14.080000 26.400000 10.120000 212 214 208 0
14.300000 26.400000 10.120000 212 214 208 0
14.520000 26.400000 10.120000 211 213 207 0
14.740000 26.400000 10.780000 211 213 205 0
14.960000 26.400000 10.890000 211 213 205 0
15.180000 26.400000 10.890000 211 213 207 0
15.400000 26.400000 11.660000 211 213 207 0
15.620000 26.400000 11.660000 211 213 207 0
15.840000 26.400000 12.320000 211 213 207 0
16.060000 26.400000 12.430000 210 212 206 0
16.280000 26.400000 12.430000 210 212 206 0
16.500000 26.400000 12.980000 210 212 206 0
