ply
format ascii 1.0
element vertex 1097
property float x
property float y
property float z
property uchar red
property uchar green
property uchar blue
property uchar alpha
end_header
25.520000 15.400000 9.020000 148 148 145 0
25.740000 15.400000 9.020000 143 145 139 0
25.960000 15.400000 9.020000 141 143 137 0
26.180000 15.400000 9.020000 139 139 136 0
26.400000 15.400000 10.560000 138 138 135 0
26.620000 15.400000 10.560000 138 140 134 0
26.840000 15.400000 10.560000 137 139 133 0
27.060000 15.400000 10.560000 135 137 131 0
27.280000 15.400000 11.880000 133 135 129 0
27.500000 15.400000 11.880000 132 132 125 0
27.720000 15.400000 13.200000 134 134 127 0
27.940000 15.400000 13.200000 133 133 126 0
28.160000 15.400000 13.200000 132 132 125 0
28.380000 15.400000 12.980000 131 133 127 0
28.600000 15.400000 11.440000 131 133 127 0
28.820000 15.400000 11.660000 131 131 126 0
29.040000 15.400000 10.560000 131 131 126 0
29.260000 15.400000 10.560000 132 131 124 0
29.480000 15.400000 10.560000 132 131 124 0
29.700000 15.400000 10.120000 130 130 123 0
29.920000 15.400000 10.120000 131 131 124 0
30.140000 15.400000 10.560000 130 130 123 0
30.360000 15.400000 10.560000 129 129 122 0
30.580000 15.400000 11.440000 129 129 122 0
30.800000 15.400000 12.760000 129 129 122 0
31.020000 15.400000 12.980000 129 128 121 0
31.240000 15.400000 12.980000 129 128 121 0
31.460000 15.400000 12.980000 128 127 118 0
31.680000 15.400000 14.520000 128 127 118 0
31.900000 15.400000 14.520000 128 127 118 0
32.120000 15.400000 14.520000 128 127 118 0
32.340000 15.400000 13.200000 129 125 117 0
32.560000 15.400000 13.200000 130 126 118 0
32.780000 15.400000 13.200000 130 126 118 0
33.000000 15.400000 13.200000 130 126 118 0
33.220000 15.400000 13.420000 130 125 117 0
33.440000 15.400000 13.420000 130 125 117 0
33.660000 15.400000 14.740000 127 124 114 0
33.880000 15.400000 15.840000 128 125 115 0
34.100000 15.400000 16.940000 129 124 115 0
34.320000 15.400000 17.160000 128 123 114 0
34.540000 15.400000 17.160000 128 123 114 0
34.760000 15.400000 15.840000 128 123 114 0
34.980000 15.400000 15.840000 127 122 113 0
35.200000 15.400000 15.840000 129 124 115 0
35.420000 15.400000 17.380000 128 123 114 0
35.640000 15.400000 18.700000 128 123 114 0
35.860000 15.400000 20.020000 130 125 116 0
36.080000 15.400000 20.020000 131 126 117 0
36.300000 15.400000 20.240000 130 125 116 0
36.520000 15.400000 20.240000 131 126 117 0
36.740000 15.400000 20.240000 131 126 115 0
36.960000 15.400000 21.560000 131 126 115 0
37.180000 15.400000 21.560000 131 126 117 0
0.000000 15.620000 5.500000 209 216 219 0
0.220000 15.620000 5.720000 209 216 219 0
0.440000 15.620000 5.720000 209 216 219 0
0.660000 15.620000 5.720000 208 215 218 0
0.880000 15.620000 5.940000 208 215 218 0
1.100000 15.620000 7.260000 207 214 217 0
1.320000 15.620000 7.260000 208 215 218 0
1.540000 15.620000 7.480000 208 215 218 0
1.760000 15.620000 7.480000 208 215 218 0
1.980000 15.620000 7.480000 208 215 218 0
2.200000 15.620000 8.800000 208 215 218 0
2.420000 15.620000 9.020000 208 215 218 0
2.640000 15.620000 9.020000 208 215 218 0
2.860000 15.620000 9.020000 207 214 219 0
3.080000 15.620000 9.020000 206 213 218 0
3.300000 15.620000 9.240000 205 214 218 0
3.520000 15.620000 10.560000 204 213 217 0
3.740000 15.620000 10.560000 203 210 213 0
3.960000 15.620000 10.560000 202 209 212 0
4.180000 15.620000 12.100000 201 210 212 0
4.400000 15.620000 13.420000 207 216 218 0
4.620000 15.620000 14.960000 213 223 227 0
4.840000 15.620000 16.280000 213 223 227 0
5.060000 15.620000 16.280000 214 223 227 0
5.280000 15.620000 16.500000 212 221 225 0
5.500000 15.620000 16.500000 212 222 226 0
5.720000 15.620000 16.500000 213 223 227 0
5.940000 15.620000 16.500000 211 220 224 0
6.160000 15.620000 17.600000 211 220 224 0
6.380000 15.620000 18.260000 209 218 222 0
6.600000 15.620000 19.360000 207 216 220 0
6.820000 15.620000 19.580000 204 213 217 0
7.040000 15.620000 18.260000 201 210 214 0
7.260000 15.620000 18.260000 195 203 203 0
7.480000 15.620000 18.260000 185 193 193 0
7.700000 15.620000 18.480000 182 187 186 0
7.920000 15.620000 19.800000 177 182 181 0
8.140000 15.620000 19.800000 175 183 181 0
8.360000 15.620000 20.020000 175 183 181 0
8.580000 15.620000 18.700000 176 185 185 0
8.800000 15.620000 17.380000 179 188 188 0
9.020000 15.620000 17.380000 188 196 196 0
9.240000 15.620000 17.160000 191 199 199 0
9.460000 15.620000 18.480000 192 200 200 0
9.680000 15.620000 18.480000 193 201 201 0
9.900000 15.620000 18.260000 193 201 201 0
10.120000 15.620000 16.940000 192 200 200 0
10.340000 15.620000 16.940000 191 200 200 0
10.560000 15.620000 15.400000 190 199 199 0
10.780000 15.620000 15.400000 189 197 197 0
11.000000 15.620000 14.080000 191 199 199 0
11.220000 15.620000 14.080000 191 199 199 0
11.440000 15.620000 15.400000 192 200 200 0
11.660000 15.620000 15.400000 195 200 201 0
11.880000 15.620000 16.940000 198 203 204 0
12.100000 15.620000 18.260000 201 208 211 0
12.320000 15.620000 18.480000 203 210 213 0
12.540000 15.620000 18.480000 203 210 213 0
12.760000 15.620000 18.480000 205 212 215 0
12.980000 15.620000 18.480000 206 213 216 0
13.200000 15.620000 18.700000 206 213 216 0
13.420000 15.620000 18.700000 207 215 215 0
13.640000 15.620000 18.700000 208 216 216 0
13.860000 15.620000 20.240000 208 216 216 0
14.080000 15.620000 20.240000 209 217 217 0
14.300000 15.620000 21.560000 208 215 218 0
14.520000 15.620000 21.560000 208 215 218 0
14.740000 15.620000 21.780000 209 217 217 0
14.960000 15.620000 23.100000 208 216 216 0
15.180000 15.620000 23.100000 209 217 217 0
15.400000 15.620000 24.640000 209 217 217 0
15.620000 15.620000 24.640000 209 217 217 0
15.840000 15.620000 24.640000 209 217 217 0
16.060000 15.620000 24.860000 209 217 217 0
16.280000 15.620000 25.960000 209 217 217 0
16.500000 15.620000 27.940000 208 216 216 0
16.720000 15.620000 29.040000 209 217 217 0
16.940000 15.620000 29.040000 210 218 218 0
17.160000 15.620000 29.260000 210 218 218 0
17.380000 15.620000 29.260000 210 218 218 0
17.600000 15.620000 29.260000 210 218 218 0
17.820000 15.620000 29.480000 210 218 218 0
18.040000 15.620000 30.800000 209 217 217 0
18.260000 15.620000 30.800000 209 217 217 0
18.480000 15.620000 31.020000 208 216 216 0
18.700000 15.620000 31.020000 209 217 217 0
18.920000 15.620000 31.020000 208 216 216 0
19.140000 15.620000 31.020000 208 216 216 0
19.360000 15.620000 31.240000 208 216 216 0
19.580000 15.620000 31.240000 207 215 215 0
19.800000 15.620000 31.240000 207 215 215 0
20.020000 15.620000 31.240000 207 215 215 0
20.240000 15.620000 31.460000 206 214 214 0
20.460000 15.620000 32.780000 206 214 214 0
20.680000 15.620000 32.780000 206 214 214 0
20.900000 15.620000 33.000000 205 213 213 0
21.120000 15.620000 34.320000 204 212 212 0
21.340000 15.620000 34.540000 204 212 212 0
21.560000 15.620000 34.540000 203 211 211 0
21.780000 15.620000 35.640000 202 210 210 0
22.000000 15.620000 37.620000 201 209 209 0
22.220000 15.620000 38.720000 201 209 209 0
22.440000 15.620000 38.940000 200 208 208 0
22.660000 15.620000 38.940000 200 208 208 0
22.880000 15.620000 38.940000 198 206 206 0
23.100000 15.620000 38.940000 195 204 204 0
23.320000 15.620000 40.480000 193 202 202 0
23.540000 15.620000 40.480000 189 200 201 0
23.760000 15.620000 40.700000 184 195 196 0
23.980000 15.620000 35.200000 177 183 180 0
24.200000 15.620000 21.340000 169 175 172 0
24.420000 15.620000 7.480000 163 167 161 0
24.640000 15.620000 4.840000 158 162 156 0
24.860000 15.620000 7.480000 155 161 154 0
25.080000 15.620000 7.480000 154 160 153 0
25.300000 15.620000 9.020000 154 154 151 0
25.520000 15.620000 9.020000 153 153 150 0
25.740000 15.620000 9.020000 151 153 147 0
25.960000 15.620000 9.020000 148 150 144 0
26.180000 15.620000 9.020000 146 146 143 0
26.400000 15.620000 9.020000 145 145 142 0
26.620000 15.620000 10.560000 145 147 141 0
26.840000 15.620000 10.560000 144 146 140 0
27.060000 15.620000 11.880000 140 142 136 0
27.280000 15.620000 11.880000 137 139 133 0
27.500000 15.620000 13.200000 134 134 127 0
27.720000 15.620000 13.200000 134 134 127 0
27.940000 15.620000 13.200000 133 133 126 0
28.160000 15.620000 12.980000 134 134 127 0
28.380000 15.620000 12.760000 132 134 128 0
28.600000 15.620000 12.760000 132 134 128 0
28.820000 15.620000 11.660000 132 132 127 0
29.040000 15.620000 11.880000 132 132 127 0
29.260000 15.620000 10.560000 131 130 123 0
29.480000 15.620000 10.560000 133 132 125 0
29.700000 15.620000 10.120000 132 132 125 0
29.920000 15.620000 10.120000 130 130 123 0
30.140000 15.620000 10.340000 130 130 123 0
30.360000 15.620000 10.340000 129 129 122 0
30.580000 15.620000 11.440000 129 129 122 0
30.800000 15.620000 12.760000 129 129 122 0
31.020000 15.620000 12.760000 129 128 121 0
31.240000 15.620000 12.980000 130 129 122 0
31.460000 15.620000 12.980000 128 127 118 0
31.680000 15.620000 14.520000 129 128 119 0
31.900000 15.620000 13.200000 129 128 119 0
32.120000 15.620000 13.200000 129 128 119 0
32.340000 15.620000 13.200000 130 126 118 0
32.560000 15.620000 13.420000 130 126 118 0
32.780000 15.620000 13.200000 129 125 117 0
33.000000 15.620000 13.420000 130 126 118 0
33.220000 15.620000 13.420000 131 126 118 0
33.440000 15.620000 14.740000 130 125 117 0
33.660000 15.620000 14.520000 128 125 115 0
33.880000 15.620000 16.940000 129 126 116 0
34.100000 15.620000 16.720000 129 124 115 0
34.320000 15.620000 16.940000 130 125 116 0
34.540000 15.620000 15.840000 128 123 114 0
34.760000 15.620000 15.840000 129 124 115 0
34.980000 15.620000 14.520000 129 124 115 0
35.200000 15.620000 14.520000 129 124 115 0
35.420000 15.620000 15.840000 129 124 115 0
35.640000 15.620000 18.700000 129 124 115 0
35.860000 15.620000 20.020000 130 125 116 0
36.080000 15.620000 20.020000 130 125 116 0
36.300000 15.620000 20.240000 131 126 117 0
36.520000 15.620000 20.240000 130 125 116 0
36.740000 15.620000 20.240000 130 125 114 0
36.960000 15.620000 21.560000 131 126 115 0
37.180000 15.620000 20.240000 131 126 117 0
0.000000 15.840000 5.500000 209 216 219 0
0.220000 15.840000 5.720000 211 215 219 0
0.440000 15.840000 5.720000 210 214 218 0
0.660000 15.840000 5.720000 209 213 217 0
0.880000 15.840000 5.940000 209 213 217 0
1.100000 15.840000 7.260000 210 214 218 0
1.320000 15.840000 7.260000 210 214 218 0
1.540000 15.840000 7.480000 208 215 218 0
1.760000 15.840000 7.480000 207 214 217 0
1.980000 15.840000 7.480000 208 215 218 0
2.200000 15.840000 8.800000 208 215 218 0
2.420000 15.840000 9.020000 208 215 218 0
2.640000 15.840000 9.020000 207 214 217 0
2.860000 15.840000 9.020000 207 214 217 0
3.080000 15.840000 9.020000 206 213 216 0
3.300000 15.840000 9.240000 206 213 216 0
3.520000 15.840000 10.560000 206 213 216 0
3.740000 15.840000 10.560000 203 210 213 0
3.960000 15.840000 10.560000 202 209 212 0
4.180000 15.840000 12.100000 203 210 215 0
4.400000 15.840000 13.420000 210 217 222 0
4.620000 15.840000 14.960000 215 222 227 0
4.840000 15.840000 16.280000 215 222 227 0
5.060000 15.840000 16.280000 215 224 228 0
5.280000 15.840000 16.500000 214 223 227 0
5.500000 15.840000 16.500000 213 222 226 0
5.720000 15.840000 16.500000 213 222 226 0
5.940000 15.840000 16.500000 213 220 225 0
6.160000 15.840000 17.600000 212 219 224 0
6.380000 15.840000 18.260000 210 219 223 0
6.600000 15.840000 19.360000 207 216 220 0
6.820000 15.840000 19.580000 206 213 216 0
7.040000 15.840000 18.260000 201 208 211 0
7.260000 15.840000 18.260000 198 203 204 0
7.480000 15.840000 18.260000 187 192 193 0
7.700000 15.840000 18.480000 180 185 184 0
7.920000 15.840000 18.480000 178 183 182 0
8.140000 15.840000 18.480000 175 183 183 0
8.360000 15.840000 18.700000 178 186 186 0
8.580000 15.840000 18.700000 182 190 190 0
8.800000 15.840000 17.380000 190 198 198 0
9.020000 15.840000 17.380000 191 199 199 0
9.240000 15.840000 17.160000 190 198 198 0
9.460000 15.840000 18.260000 193 198 197 0
9.680000 15.840000 18.260000 193 198 197 0
9.900000 15.840000 16.940000 193 198 197 0
10.120000 15.840000 16.940000 194 199 198 0
10.340000 15.840000 15.400000 191 199 199 0
10.560000 15.840000 15.400000 191 199 199 0
10.780000 15.840000 13.860000 193 198 199 0
11.000000 15.840000 14.080000 192 197 198 0
11.220000 15.840000 14.080000 193 198 197 0
11.440000 15.840000 15.400000 193 198 197 0
11.660000 15.840000 15.400000 196 201 200 0
11.880000 15.840000 16.940000 199 204 203 0
12.100000 15.840000 18.260000 201 209 209 0
12.320000 15.840000 18.480000 203 211 211 0
12.540000 15.840000 18.480000 204 211 214 0
12.760000 15.840000 18.480000 205 212 215 0
12.980000 15.840000 18.480000 206 214 214 0
13.200000 15.840000 18.700000 207 215 215 0
13.420000 15.840000 18.700000 209 214 215 0
13.640000 15.840000 18.700000 210 215 216 0
13.860000 15.840000 20.240000 208 216 216 0
14.080000 15.840000 20.240000 209 217 217 0
14.300000 15.840000 21.560000 211 216 217 0
14.520000 15.840000 21.560000 210 215 216 0
14.740000 15.840000 21.780000 210 215 216 0
14.960000 15.840000 21.780000 211 216 217 0
15.180000 15.840000 23.100000 210 215 216 0
15.400000 15.840000 23.320000 211 216 217 0
15.620000 15.840000 24.640000 211 216 217 0
15.840000 15.840000 24.640000 212 217 218 0
16.060000 15.840000 24.860000 212 217 218 0
16.280000 15.840000 25.960000 211 216 217 0
16.500000 15.840000 27.940000 210 215 216 0
16.720000 15.840000 29.040000 212 217 218 0
16.940000 15.840000 29.040000 211 216 217 0
17.160000 15.840000 29.260000 211 216 217 0
17.380000 15.840000 29.260000 212 217 218 0
17.600000 15.840000 29.260000 212 217 218 0
17.820000 15.840000 29.480000 212 217 218 0
18.040000 15.840000 29.480000 212 217 218 0
18.260000 15.840000 29.480000 211 216 217 0
18.480000 15.840000 29.480000 212 217 218 0
18.700000 15.840000 31.020000 211 216 217 0
18.920000 15.840000 31.020000 211 216 217 0
19.140000 15.840000 31.020000 210 215 216 0
19.360000 15.840000 31.240000 210 215 216 0
19.580000 15.840000 31.240000 210 215 216 0
19.800000 15.840000 31.240000 209 214 215 0
20.020000 15.840000 31.240000 209 214 215 0
20.240000 15.840000 31.460000 209 214 215 0
20.460000 15.840000 31.460000 209 214 215 0
20.680000 15.840000 32.780000 209 214 215 0
20.900000 15.840000 33.000000 208 213 214 0
21.120000 15.840000 33.000000 208 213 214 0
21.340000 15.840000 34.540000 206 211 212 0
21.560000 15.840000 34.540000 206 211 212 0
21.780000 15.840000 35.640000 206 211 212 0
22.000000 15.840000 36.300000 205 210 211 0
22.220000 15.840000 37.400000 204 209 210 0
22.440000 15.840000 38.940000 204 209 210 0
22.660000 15.840000 38.940000 203 208 209 0
22.880000 15.840000 38.940000 202 207 208 0
23.100000 15.840000 38.940000 198 206 206 0
23.320000 15.840000 40.480000 196 204 204 0
23.540000 15.840000 40.480000 192 201 203 0
23.760000 15.840000 40.700000 185 194 196 0
23.980000 15.840000 37.840000 184 185 185 0
24.200000 15.840000 25.520000 173 174 174 0
24.420000 15.840000 10.340000 164 166 160 0
24.640000 15.840000 3.300000 161 163 157 0
24.860000 15.840000 4.840000 158 159 156 0
25.080000 15.840000 6.160000 157 158 155 0
25.300000 15.840000 6.160000 155 157 151 0
25.520000 15.840000 6.160000 152 154 148 0
25.740000 15.840000 7.700000 153 153 148 0
25.960000 15.840000 7.700000 152 152 147 0
26.180000 15.840000 9.020000 149 149 144 0
26.400000 15.840000 9.240000 150 150 145 0
26.620000 15.840000 9.240000 149 149 144 0
26.840000 15.840000 10.560000 148 148 143 0
27.060000 15.840000 11.880000 144 144 139 0
27.280000 15.840000 11.880000 138 138 133 0
27.500000 15.840000 13.200000 135 135 130 0
27.720000 15.840000 13.200000 134 134 129 0
27.940000 15.840000 13.200000 135 135 128 0
28.160000 15.840000 13.200000 134 134 127 0
28.380000 15.840000 12.980000 134 134 129 0
28.600000 15.840000 12.980000 134 134 129 0
28.820000 15.840000 13.200000 133 133 126 0
29.040000 15.840000 11.880000 132 132 125 0
29.260000 15.840000 11.880000 131 131 124 0
29.480000 15.840000 10.780000 132 132 125 0
29.700000 15.840000 9.020000 131 131 124 0
29.920000 15.840000 10.120000 130 130 123 0
30.140000 15.840000 11.440000 130 130 123 0
30.360000 15.840000 11.440000 129 129 122 0
30.580000 15.840000 11.440000 130 129 122 0
30.800000 15.840000 11.440000 131 130 123 0
31.020000 15.840000 12.980000 130 129 122 0
31.240000 15.840000 12.980000 129 128 121 0
31.460000 15.840000 14.520000 129 128 119 0
31.680000 15.840000 14.520000 130 129 120 0
31.900000 15.840000 13.200000 130 129 120 0
32.120000 15.840000 13.200000 129 128 119 0
32.340000 15.840000 13.420000 131 127 119 0
32.560000 15.840000 13.420000 130 126 118 0
32.780000 15.840000 13.420000 129 125 117 0
33.000000 15.840000 13.420000 129 125 117 0
33.220000 15.840000 14.740000 130 127 117 0
33.440000 15.840000 15.840000 130 127 117 0
33.660000 15.840000 15.620000 130 125 116 0
33.880000 15.840000 16.940000 130 125 116 0
34.100000 15.840000 16.940000 131 126 117 0
34.320000 15.840000 15.620000 130 125 116 0
34.540000 15.840000 14.520000 129 124 115 0
34.760000 15.840000 14.520000 130 125 116 0
34.980000 15.840000 14.520000 129 124 113 0
35.200000 15.840000 14.520000 130 125 114 0
35.420000 15.840000 15.840000 130 125 116 0
35.640000 15.840000 18.700000 129 124 115 0
35.860000 15.840000 18.700000 133 125 117 0
36.080000 15.840000 18.700000 133 125 117 0
36.300000 15.840000 20.240000 131 126 117 0
36.520000 15.840000 20.240000 131 126 117 0
36.740000 15.840000 20.240000 134 127 116 0
36.960000 15.840000 20.240000 133 126 115 0
37.180000 15.840000 20.240000 133 126 115 0
0.000000 16.060000 5.500000 209 216 219 0
0.220000 16.060000 5.720000 210 214 218 0
0.440000 16.060000 5.720000 211 215 219 0
0.660000 16.060000 5.720000 209 213 217 0
0.880000 16.060000 5.940000 209 213 217 0
1.100000 16.060000 7.260000 210 214 218 0
1.320000 16.060000 7.260000 210 214 218 0
1.540000 16.060000 7.480000 207 214 217 0
1.760000 16.060000 7.480000 207 214 217 0
1.980000 16.060000 7.480000 207 214 217 0
2.200000 16.060000 8.800000 208 215 218 0
2.420000 16.060000 9.020000 208 215 218 0
2.640000 16.060000 9.020000 208 215 218 0
2.860000 16.060000 9.020000 207 214 217 0
3.080000 16.060000 9.020000 206 213 216 0
3.300000 16.060000 9.240000 206 213 216 0
3.520000 16.060000 10.560000 205 212 215 0
3.740000 16.060000 10.560000 204 211 214 0
3.960000 16.060000 10.560000 202 209 212 0
4.180000 16.060000 12.100000 201 208 213 0
4.400000 16.060000 13.420000 208 215 220 0
4.620000 16.060000 14.960000 215 222 227 0
4.840000 16.060000 16.280000 214 221 226 0
5.060000 16.060000 16.280000 213 222 226 0
5.280000 16.060000 16.500000 214 223 227 0
5.500000 16.060000 16.500000 213 222 226 0
5.720000 16.060000 16.500000 212 221 225 0
5.940000 16.060000 16.500000 214 221 226 0
6.160000 16.060000 17.600000 211 218 223 0
6.380000 16.060000 18.260000 209 218 222 0
6.600000 16.060000 19.360000 208 217 221 0
6.820000 16.060000 19.580000 205 212 215 0
7.040000 16.060000 18.260000 201 208 211 0
7.260000 16.060000 18.260000 198 203 204 0
7.480000 16.060000 18.260000 184 189 190 0
7.700000 16.060000 18.480000 180 185 184 0
7.920000 16.060000 18.480000 178 183 182 0
8.140000 16.060000 18.480000 175 183 183 0
8.360000 16.060000 18.700000 178 186 186 0
8.580000 16.060000 17.380000 185 193 193 0
8.800000 16.060000 17.380000 189 197 197 0
9.020000 16.060000 17.160000 189 197 197 0
9.240000 16.060000 16.940000 190 198 198 0
9.460000 16.060000 18.260000 193 198 197 0
9.680000 16.060000 16.940000 193 198 197 0
9.900000 16.060000 16.940000 193 198 197 0
10.120000 16.060000 15.620000 193 198 197 0
10.340000 16.060000 15.400000 190 198 198 0
10.560000 16.060000 15.400000 191 199 199 0
10.780000 16.060000 13.860000 192 197 198 0
11.000000 16.060000 14.080000 191 196 197 0
11.220000 16.060000 15.400000 193 198 197 0
11.440000 16.060000 15.400000 192 197 196 0
11.660000 16.060000 15.400000 195 200 199 0
11.880000 16.060000 16.940000 198 203 202 0
12.100000 16.060000 18.260000 200 208 208 0
12.320000 16.060000 18.480000 201 209 209 0
12.540000 16.060000 18.480000 204 211 214 0
12.760000 16.060000 18.480000 205 212 215 0
12.980000 16.060000 18.480000 205 213 213 0
13.200000 16.060000 18.700000 207 215 215 0
13.420000 16.060000 18.700000 208 213 214 0
13.640000 16.060000 20.020000 210 215 216 0
13.860000 16.060000 20.240000 207 215 215 0
14.080000 16.060000 20.240000 208 216 216 0
14.300000 16.060000 20.240000 210 215 216 0
14.520000 16.060000 21.560000 210 215 216 0
14.740000 16.060000 21.780000 210 215 216 0
14.960000 16.060000 21.780000 211 216 217 0
15.180000 16.060000 23.100000 210 215 216 0
15.400000 16.060000 23.320000 210 215 216 0
15.620000 16.060000 24.640000 211 216 217 0
15.840000 16.060000 24.640000 211 216 217 0
16.060000 16.060000 24.860000 212 217 218 0
16.280000 16.060000 25.960000 211 216 217 0
16.500000 16.060000 27.940000 211 216 217 0
16.720000 16.060000 29.040000 211 216 217 0
16.940000 16.060000 29.040000 211 216 217 0
17.160000 16.060000 29.260000 211 216 217 0
17.380000 16.060000 29.260000 211 216 217 0
17.600000 16.060000 29.260000 211 216 217 0
17.820000 16.060000 29.480000 212 217 218 0
18.040000 16.060000 29.480000 212 217 218 0
18.260000 16.060000 29.480000 211 216 217 0
18.480000 16.060000 29.480000 211 216 217 0
18.700000 16.060000 29.700000 211 216 217 0
18.920000 16.060000 29.700000 211 216 217 0
19.140000 16.060000 31.020000 211 216 217 0
19.360000 16.060000 31.240000 210 215 216 0
19.580000 16.060000 31.240000 210 215 216 0
19.800000 16.060000 31.240000 210 215 216 0
20.020000 16.060000 31.240000 210 215 216 0
20.240000 16.060000 31.460000 209 214 215 0
20.460000 16.060000 31.460000 209 214 215 0
20.680000 16.060000 32.780000 208 213 214 0
20.900000 16.060000 33.000000 207 212 213 0
21.120000 16.060000 33.000000 207 212 213 0
21.340000 16.060000 34.320000 206 211 212 0
21.560000 16.060000 34.540000 206 211 212 0
21.780000 16.060000 35.640000 206 211 212 0
22.000000 16.060000 36.300000 206 211 212 0
22.220000 16.060000 37.400000 205 210 211 0
22.440000 16.060000 37.400000 204 209 210 0
22.660000 16.060000 38.940000 204 209 210 0
22.880000 16.060000 38.940000 202 207 208 0
23.100000 16.060000 38.940000 198 206 206 0
23.320000 16.060000 39.160000 196 204 204 0
23.540000 16.060000 40.480000 193 202 204 0
23.760000 16.060000 40.700000 188 197 199 0
23.980000 16.060000 40.700000 185 186 186 0
24.200000 16.060000 31.020000 171 172 172 0
24.420000 16.060000 11.660000 165 167 161 0
24.640000 16.060000 3.300000 161 163 157 0
24.860000 16.060000 4.840000 158 159 156 0
25.080000 16.060000 6.160000 155 156 153 0
25.300000 16.060000 6.160000 153 155 149 0
25.520000 16.060000 6.160000 152 154 148 0
25.740000 16.060000 6.380000 152 152 147 0
25.960000 16.060000 7.700000 152 152 147 0
26.180000 16.060000 7.700000 150 150 145 0
26.400000 16.060000 9.240000 149 149 144 0
26.620000 16.060000 9.240000 148 148 143 0
26.840000 16.060000 10.560000 147 147 142 0
27.060000 16.060000 11.880000 143 143 138 0
27.280000 16.060000 11.880000 140 140 135 0
27.500000 16.060000 13.200000 137 137 132 0
27.720000 16.060000 13.200000 134 134 129 0
27.940000 16.060000 13.200000 135 135 128 0
28.160000 16.060000 13.200000 134 134 127 0
28.380000 16.060000 11.660000 133 133 128 0
28.600000 16.060000 12.980000 133 133 128 0
28.820000 16.060000 13.200000 133 133 126 0
29.040000 16.060000 13.200000 133 133 126 0
29.260000 16.060000 11.880000 132 132 125 0
29.480000 16.060000 10.780000 131 131 124 0
29.700000 16.060000 9.240000 131 131 124 0
29.920000 16.060000 10.120000 130 130 123 0
30.140000 16.060000 11.220000 130 130 123 0
30.360000 16.060000 11.440000 129 129 122 0
30.580000 16.060000 11.440000 130 129 122 0
30.800000 16.060000 11.660000 130 129 122 0
31.020000 16.060000 12.980000 130 129 122 0
31.240000 16.060000 13.200000 130 129 122 0
31.460000 16.060000 14.520000 129 128 119 0
31.680000 16.060000 14.520000 130 129 120 0
31.900000 16.060000 14.520000 130 129 120 0
32.120000 16.060000 13.200000 130 129 120 0
32.340000 16.060000 13.420000 130 126 118 0
32.560000 16.060000 13.420000 130 126 118 0
32.780000 16.060000 14.740000 130 126 118 0
33.000000 16.060000 14.740000 130 126 118 0
33.220000 16.060000 14.740000 130 127 117 0
33.440000 16.060000 15.620000 130 127 117 0
33.660000 16.060000 16.720000 131 126 117 0
33.880000 16.060000 16.940000 131 126 117 0
34.100000 16.060000 15.620000 130 125 116 0
34.320000 16.060000 14.300000 130 125 116 0
34.540000 16.060000 14.520000 130 125 116 0
34.760000 16.060000 13.200000 130 125 116 0
34.980000 16.060000 13.200000 130 125 114 0
35.200000 16.060000 14.520000 131 126 115 0
35.420000 16.060000 16.060000 130 125 116 0
35.640000 16.060000 17.380000 131 126 117 0
35.860000 16.060000 18.700000 133 125 117 0
36.080000 16.060000 18.700000 134 126 118 0
36.300000 16.060000 18.700000 132 127 118 0
36.520000 16.060000 20.240000 132 127 118 0
36.740000 16.060000 20.240000 133 126 115 0
36.960000 16.060000 20.240000 133 126 115 0
37.180000 16.060000 20.240000 133 126 115 0
0.000000 16.280000 5.500000 211 215 219 0
0.220000 16.280000 5.720000 210 214 218 0
0.440000 16.280000 5.720000 209 213 217 0
0.660000 16.280000 5.720000 210 214 218 0
0.880000 16.280000 5.940000 209 213 217 0
1.100000 16.280000 7.260000 210 214 218 0
1.320000 16.280000 7.260000 210 214 218 0
1.540000 16.280000 7.480000 209 213 217 0
1.760000 16.280000 7.480000 209 213 217 0
1.980000 16.280000 7.480000 207 214 217 0
2.200000 16.280000 8.800000 208 215 218 0
2.420000 16.280000 9.020000 208 215 218 0
2.640000 16.280000 9.020000 208 215 218 0
2.860000 16.280000 9.020000 207 214 217 0
3.080000 16.280000 9.020000 206 213 216 0
3.300000 16.280000 9.240000 206 213 216 0
3.520000 16.280000 10.560000 205 212 215 0
3.740000 16.280000 10.560000 205 209 213 0
3.960000 16.280000 10.560000 204 208 212 0
4.180000 16.280000 12.100000 202 209 212 0
4.400000 16.280000 13.420000 207 214 217 0
4.620000 16.280000 14.960000 213 222 226 0
4.840000 16.280000 16.280000 213 222 226 0
5.060000 16.280000 16.280000 214 221 226 0
5.280000 16.280000 16.500000 214 221 226 0
5.500000 16.280000 16.500000 213 220 225 0
5.720000 16.280000 16.500000 213 220 225 0
5.940000 16.280000 16.500000 212 221 223 0
6.160000 16.280000 17.600000 211 220 222 0
6.380000 16.280000 18.260000 208 217 221 0
6.600000 16.280000 19.360000 206 215 219 0
6.820000 16.280000 19.580000 206 213 218 0
7.040000 16.280000 18.260000 200 207 212 0
7.260000 16.280000 18.260000 196 201 202 0
7.480000 16.280000 18.260000 187 192 193 0
7.700000 16.280000 18.480000 181 186 185 0
7.920000 16.280000 18.480000 178 183 182 0
8.140000 16.280000 18.480000 178 181 181 0
8.360000 16.280000 17.160000 181 184 184 0
8.580000 16.280000 17.380000 184 189 190 0
8.800000 16.280000 16.060000 189 194 195 0
9.020000 16.280000 17.160000 192 197 198 0
9.240000 16.280000 16.940000 192 197 198 0
9.460000 16.280000 16.940000 190 198 198 0
9.680000 16.280000 16.940000 191 199 199 0
9.900000 16.280000 16.940000 193 198 197 0
10.120000 16.280000 15.620000 192 197 196 0
10.340000 16.280000 15.400000 192 197 196 0
10.560000 16.280000 15.400000 191 196 195 0
10.780000 16.280000 15.400000 192 197 198 0
11.000000 16.280000 15.400000 192 197 198 0
11.220000 16.280000 15.400000 193 198 199 0
11.440000 16.280000 15.400000 193 198 199 0
11.660000 16.280000 16.940000 194 199 198 0
11.880000 16.280000 16.940000 198 203 202 0
12.100000 16.280000 18.260000 201 208 211 0
12.320000 16.280000 18.480000 201 208 211 0
12.540000 16.280000 18.480000 203 211 211 0
12.760000 16.280000 18.480000 204 212 212 0
12.980000 16.280000 18.480000 205 213 213 0
13.200000 16.280000 18.700000 205 213 213 0
13.420000 16.280000 18.700000 206 214 214 0
13.640000 16.280000 20.020000 207 215 215 0
13.860000 16.280000 20.240000 209 214 215 0
14.080000 16.280000 20.240000 209 214 215 0
14.300000 16.280000 20.240000 208 216 216 0
14.520000 16.280000 21.560000 208 216 216 0
14.740000 16.280000 21.780000 210 215 216 0
14.960000 16.280000 21.780000 210 215 216 0
15.180000 16.280000 23.100000 211 216 217 0
15.400000 16.280000 23.320000 210 215 216 0
15.620000 16.280000 24.640000 211 216 217 0
15.840000 16.280000 24.640000 211 216 217 0
16.060000 16.280000 24.860000 212 217 218 0
16.280000 16.280000 25.960000 210 215 216 0
16.500000 16.280000 27.940000 211 216 217 0
16.720000 16.280000 29.040000 211 216 217 0
16.940000 16.280000 29.040000 211 216 217 0
17.160000 16.280000 29.260000 211 216 217 0
17.380000 16.280000 29.260000 211 216 217 0
17.600000 16.280000 29.260000 212 217 218 0
17.820000 16.280000 29.480000 212 217 218 0
18.040000 16.280000 29.480000 212 217 218 0
18.260000 16.280000 29.480000 211 216 217 0
18.480000 16.280000 29.480000 211 216 217 0
18.700000 16.280000 29.700000 211 216 217 0
18.920000 16.280000 29.700000 211 216 217 0
19.140000 16.280000 31.020000 211 216 217 0
19.360000 16.280000 31.240000 210 215 216 0
19.580000 16.280000 31.240000 209 214 213 0
19.800000 16.280000 31.240000 210 215 214 0
20.020000 16.280000 31.240000 209 214 215 0
20.240000 16.280000 31.460000 209 214 215 0
20.460000 16.280000 31.460000 209 214 213 0
20.680000 16.280000 32.780000 208 213 212 0
20.900000 16.280000 33.000000 207 212 213 0
21.120000 16.280000 33.000000 207 212 213 0
21.340000 16.280000 34.320000 207 212 211 0
21.560000 16.280000 34.540000 207 212 211 0
21.780000 16.280000 35.640000 204 212 210 0
22.000000 16.280000 36.300000 204 212 210 0
22.220000 16.280000 37.400000 204 209 208 0
22.440000 16.280000 37.400000 205 210 209 0
22.660000 16.280000 38.940000 203 208 209 0
22.880000 16.280000 38.940000 202 207 208 0
23.100000 16.280000 38.940000 199 207 207 0
23.320000 16.280000 39.160000 196 204 204 0
23.540000 16.280000 40.480000 192 201 201 0
23.760000 16.280000 40.700000 189 198 198 0
23.980000 16.280000 40.700000 184 185 184 0
24.200000 16.280000 31.020000 172 173 172 0
24.420000 16.280000 11.660000 165 165 160 0
24.640000 16.280000 1.980000 161 161 156 0
24.860000 16.280000 3.300000 159 159 154 0
25.080000 16.280000 4.840000 155 155 150 0
25.300000 16.280000 4.840000 154 154 149 0
25.520000 16.280000 6.160000 153 153 148 0
25.740000 16.280000 6.380000 152 152 149 0
25.960000 16.280000 7.700000 150 150 147 0
26.180000 16.280000 7.700000 148 148 143 0
26.400000 16.280000 9.240000 148 148 143 0
26.620000 16.280000 9.240000 145 147 139 0
26.840000 16.280000 10.560000 145 147 139 0
27.060000 16.280000 12.100000 144 144 137 0
27.280000 16.280000 11.880000 140 140 133 0
27.500000 16.280000 13.200000 135 137 129 0
27.720000 16.280000 13.200000 134 136 128 0
27.940000 16.280000 13.200000 133 135 129 0
28.160000 16.280000 13.200000 133 135 129 0
28.380000 16.280000 11.660000 134 134 129 0
28.600000 16.280000 12.980000 132 132 127 0
28.820000 16.280000 12.980000 132 132 125 0
29.040000 16.280000 13.200000 133 133 126 0
29.260000 16.280000 11.880000 131 133 125 0
29.480000 16.280000 10.560000 130 132 124 0
29.700000 16.280000 10.560000 131 131 124 0
29.920000 16.280000 10.340000 131 131 124 0
30.140000 16.280000 11.440000 129 129 122 0
30.360000 16.280000 12.760000 130 130 123 0
30.580000 16.280000 12.980000 132 131 124 0
30.800000 16.280000 12.980000 131 130 123 0
31.020000 16.280000 13.200000 129 130 120 0
31.240000 16.280000 14.520000 128 129 119 0
31.460000 16.280000 14.520000 129 128 121 0
31.680000 16.280000 14.520000 130 129 122 0
31.900000 16.280000 14.520000 130 129 120 0
32.120000 16.280000 14.740000 129 128 119 0
32.340000 16.280000 14.740000 131 127 119 0
32.560000 16.280000 14.740000 131 127 119 0
32.780000 16.280000 16.060000 131 127 119 0
33.000000 16.280000 16.060000 131 127 119 0
33.220000 16.280000 14.740000 130 127 117 0
33.440000 16.280000 15.620000 130 127 117 0
33.660000 16.280000 15.620000 131 128 118 0
33.880000 16.280000 15.620000 129 126 116 0
34.100000 16.280000 14.520000 130 127 117 0
34.320000 16.280000 14.520000 130 127 117 0
34.540000 16.280000 14.520000 131 126 117 0
34.760000 16.280000 13.200000 130 125 116 0
34.980000 16.280000 13.200000 131 126 115 0
35.200000 16.280000 13.200000 131 126 115 0
35.420000 16.280000 14.520000 131 126 117 0
35.640000 16.280000 17.380000 132 127 118 0
35.860000 16.280000 17.380000 133 128 119 0
36.080000 16.280000 17.380000 133 128 119 0
36.300000 16.280000 18.700000 132 127 116 0
36.520000 16.280000 18.700000 132 127 116 0
36.740000 16.280000 20.240000 132 127 116 0
36.960000 16.280000 20.240000 131 126 115 0
37.180000 16.280000 20.240000 132 127 116 0
0.000000 16.500000 5.500000 210 214 218 0
0.220000 16.500000 5.720000 210 214 218 0
0.440000 16.500000 5.720000 210 214 218 0
0.660000 16.500000 5.720000 210 214 218 0
0.880000 16.500000 5.940000 210 214 218 0
1.100000 16.500000 7.260000 210 214 218 0
1.320000 16.500000 7.260000 209 213 217 0
1.540000 16.500000 7.480000 209 213 217 0
1.760000 16.500000 7.480000 209 213 217 0
1.980000 16.500000 7.480000 207 214 217 0
2.200000 16.500000 8.800000 207 214 217 0
2.420000 16.500000 9.020000 209 216 219 0
2.640000 16.500000 9.020000 208 215 218 0
2.860000 16.500000 9.020000 207 214 217 0
3.080000 16.500000 9.020000 206 213 216 0
3.300000 16.500000 9.240000 206 213 216 0
3.520000 16.500000 10.560000 203 210 213 0
3.740000 16.500000 10.560000 205 209 213 0
3.960000 16.500000 10.560000 204 208 212 0
4.180000 16.500000 12.100000 202 209 212 0
4.400000 16.500000 13.420000 209 216 219 0
4.620000 16.500000 14.960000 213 222 226 0
4.840000 16.500000 16.280000 212 221 225 0
5.060000 16.500000 16.280000 215 222 227 0
5.280000 16.500000 16.500000 214 221 226 0
5.500000 16.500000 16.500000 213 220 225 0
5.720000 16.500000 16.500000 212 219 224 0
5.940000 16.500000 16.500000 212 221 223 0
6.160000 16.500000 17.600000 210 219 221 0
6.380000 16.500000 18.260000 210 219 223 0
6.600000 16.500000 19.360000 206 215 219 0
6.820000 16.500000 19.580000 206 213 218 0
7.040000 16.500000 18.260000 203 210 215 0
7.260000 16.500000 18.260000 197 202 203 0
7.480000 16.500000 18.260000 188 193 194 0
7.700000 16.500000 18.480000 180 185 184 0
7.920000 16.500000 17.160000 178 183 182 0
8.140000 16.500000 17.160000 178 181 181 0
8.360000 16.500000 17.160000 180 183 183 0
8.580000 16.500000 17.380000 184 189 190 0
8.800000 16.500000 15.840000 189 194 195 0
9.020000 16.500000 17.160000 190 195 196 0
9.240000 16.500000 16.940000 192 197 198 0
9.460000 16.500000 16.940000 190 198 198 0
9.680000 16.500000 16.940000 190 198 198 0
9.900000 16.500000 16.940000 191 196 195 0
10.120000 16.500000 15.620000 192 197 196 0
10.340000 16.500000 15.400000 191 196 195 0
10.560000 16.500000 15.400000 192 197 196 0
10.780000 16.500000 15.400000 191 196 197 0
11.000000 16.500000 15.400000 192 197 198 0
11.220000 16.500000 15.400000 192 197 198 0
11.440000 16.500000 15.400000 193 198 199 0
11.660000 16.500000 16.940000 196 201 200 0
11.880000 16.500000 16.940000 198 203 202 0
12.100000 16.500000 18.260000 200 207 210 0
12.320000 16.500000 18.480000 202 209 212 0
12.540000 16.500000 18.480000 203 211 211 0
12.760000 16.500000 18.480000 204 212 212 0
12.980000 16.500000 18.480000 204 212 212 0
13.200000 16.500000 18.700000 204 212 212 0
13.420000 16.500000 18.700000 206 214 214 0
13.640000 16.500000 20.020000 207 215 215 0
13.860000 16.500000 20.240000 209 214 215 0
14.080000 16.500000 20.240000 209 214 215 0
14.300000 16.500000 20.240000 207 215 215 0
14.520000 16.500000 21.560000 208 216 216 0
14.740000 16.500000 21.780000 211 216 217 0
14.960000 16.500000 21.780000 210 215 216 0
15.180000 16.500000 23.100000 211 216 217 0
15.400000 16.500000 23.320000 211 216 217 0
15.620000 16.500000 24.640000 210 215 216 0
15.840000 16.500000 24.640000 211 216 217 0
16.060000 16.500000 24.860000 211 216 217 0
16.280000 16.500000 25.960000 212 217 218 0
16.500000 16.500000 27.940000 212 217 218 0
16.720000 16.500000 29.040000 211 216 217 0
16.940000 16.500000 29.040000 211 216 217 0
17.160000 16.500000 29.260000 211 216 217 0
17.380000 16.500000 29.260000 211 216 217 0
17.600000 16.500000 29.260000 212 217 218 0
17.820000 16.500000 29.480000 212 217 218 0
18.040000 16.500000 29.480000 212 217 218 0
18.260000 16.500000 29.480000 212 217 218 0
18.480000 16.500000 29.480000 211 216 217 0
18.700000 16.500000 29.700000 211 216 217 0
18.920000 16.500000 31.020000 211 216 217 0
19.140000 16.500000 31.020000 211 216 217 0
19.360000 16.500000 31.240000 210 215 216 0
19.580000 16.500000 31.240000 210 215 214 0
19.800000 16.500000 31.240000 211 216 215 0
20.020000 16.500000 31.240000 209 214 215 0
20.240000 16.500000 31.460000 209 214 215 0
20.460000 16.500000 31.460000 209 214 213 0
20.680000 16.500000 32.780000 209 214 213 0
20.900000 16.500000 33.000000 208 213 214 0
21.120000 16.500000 33.000000 207 212 213 0
21.340000 16.500000 34.320000 208 213 212 0
21.560000 16.500000 34.540000 207 212 211 0
21.780000 16.500000 35.640000 204 212 210 0
22.000000 16.500000 36.300000 204 212 210 0
22.220000 16.500000 37.400000 206 211 210 0
22.440000 16.500000 37.400000 205 210 209 0
22.660000 16.500000 38.940000 204 209 210 0
22.880000 16.500000 38.940000 203 208 209 0
23.100000 16.500000 38.940000 199 207 207 0
23.320000 16.500000 39.160000 197 205 205 0
23.540000 16.500000 40.480000 193 202 202 0
23.760000 16.500000 40.480000 189 198 198 0
23.980000 16.500000 40.700000 183 184 183 0
24.200000 16.500000 31.020000 173 174 173 0
24.420000 16.500000 10.340000 165 165 160 0
24.640000 16.500000 1.980000 160 160 155 0
24.860000 16.500000 3.300000 158 158 153 0
25.080000 16.500000 4.840000 154 154 149 0
25.300000 16.500000 4.840000 153 153 148 0
25.520000 16.500000 4.840000 152 152 147 0
25.740000 16.500000 6.380000 151 151 148 0
25.960000 16.500000 7.700000 148 148 145 0
26.180000 16.500000 7.700000 147 147 142 0
26.400000 16.500000 9.240000 148 148 143 0
26.620000 16.500000 9.240000 145 147 139 0
26.840000 16.500000 10.560000 144 146 138 0
27.060000 16.500000 10.560000 143 143 136 0
27.280000 16.500000 12.100000 141 141 134 0
27.500000 16.500000 13.200000 134 136 128 0
27.720000 16.500000 13.200000 132 134 126 0
27.940000 16.500000 13.200000 133 135 129 0
28.160000 16.500000 11.880000 134 136 130 0
28.380000 16.500000 11.660000 134 134 129 0
28.600000 16.500000 12.980000 133 133 128 0
28.820000 16.500000 12.980000 133 133 126 0
29.040000 16.500000 13.200000 133 133 126 0
29.260000 16.500000 13.200000 131 133 125 0
29.480000 16.500000 11.880000 131 133 125 0
29.700000 16.500000 10.560000 131 131 124 0
29.920000 16.500000 10.560000 130 130 123 0
30.140000 16.500000 11.880000 130 130 123 0
30.360000 16.500000 13.200000 130 130 123 0
30.580000 16.500000 13.200000 131 130 123 0
30.800000 16.500000 13.200000 131 130 123 0
31.020000 16.500000 13.200000 129 130 120 0
31.240000 16.500000 14.740000 129 130 120 0
31.460000 16.500000 14.520000 129 128 121 0
31.680000 16.500000 16.060000 130 129 122 0
31.900000 16.500000 16.060000 131 130 121 0
32.120000 16.500000 16.060000 130 129 120 0
32.340000 16.500000 16.280000 131 127 119 0
32.560000 16.500000 16.280000 131 127 119 0
32.780000 16.500000 17.380000 131 127 119 0
33.000000 16.500000 16.060000 131 127 119 0
33.220000 16.500000 16.060000 131 128 118 0
33.440000 16.500000 15.840000 131 128 118 0
33.660000 16.500000 15.840000 131 128 118 0
33.880000 16.500000 14.520000 131 128 118 0
34.100000 16.500000 14.740000 131 128 118 0
34.320000 16.500000 14.740000 131 128 118 0
34.540000 16.500000 14.740000 133 128 119 0
34.760000 16.500000 14.740000 133 128 119 0
34.980000 16.500000 13.200000 133 128 117 0
35.200000 16.500000 13.200000 133 128 117 0
35.420000 16.500000 14.520000 133 128 119 0
35.640000 16.500000 16.060000 134 129 120 0
35.860000 16.500000 17.380000 134 129 120 0
36.080000 16.500000 17.380000 133 128 119 0
36.300000 16.500000 18.700000 133 128 117 0
36.520000 16.500000 18.700000 133 128 117 0
36.740000 16.500000 18.920000 133 128 117 0
36.960000 16.500000 20.240000 132 127 116 0
37.180000 16.500000 20.240000 132 127 116 0
0.000000 16.720000 5.500000 209 213 217 0
0.220000 16.720000 5.720000 210 214 218 0
0.440000 16.720000 5.720000 210 214 218 0
0.660000 16.720000 5.720000 210 215 216 0
0.880000 16.720000 5.940000 209 214 215 0
1.100000 16.720000 7.260000 209 213 217 0
1.320000 16.720000 7.260000 209 213 217 0
1.540000 16.720000 7.480000 209 213 217 0
1.760000 16.720000 7.480000 209 213 217 0
1.980000 16.720000 7.480000 207 214 217 0
2.200000 16.720000 8.800000 206 213 216 0
2.420000 16.720000 9.020000 209 213 217 0
2.640000 16.720000 9.020000 208 212 216 0
2.860000 16.720000 9.020000 207 214 217 0
3.080000 16.720000 9.020000 206 213 216 0
3.300000 16.720000 9.240000 207 211 215 0
3.520000 16.720000 10.560000 207 211 215 0
3.740000 16.720000 10.560000 205 209 213 0
3.960000 16.720000 10.560000 204 208 212 0
4.180000 16.720000 12.100000 204 208 212 0
4.400000 16.720000 13.420000 213 217 221 0
4.620000 16.720000 14.960000 214 221 226 0
4.840000 16.720000 16.280000 215 222 227 0
5.060000 16.720000 16.280000 215 222 225 0
5.280000 16.720000 16.500000 215 222 225 0
5.500000 16.720000 16.500000 214 221 224 0
5.720000 16.720000 16.500000 214 221 224 0
5.940000 16.720000 16.500000 213 220 223 0
6.160000 16.720000 17.600000 213 220 223 0
6.380000 16.720000 18.260000 211 218 223 0
6.600000 16.720000 19.360000 209 216 221 0
6.820000 16.720000 19.580000 206 213 218 0
7.040000 16.720000 18.260000 202 209 214 0
7.260000 16.720000 18.260000 199 204 203 0
7.480000 16.720000 18.260000 188 193 192 0
7.700000 16.720000 18.480000 181 186 185 0
7.920000 16.720000 16.940000 179 184 183 0
8.140000 16.720000 17.160000 177 183 180 0
8.360000 16.720000 17.160000 180 186 183 0
8.580000 16.720000 17.380000 183 188 187 0
8.800000 16.720000 15.840000 189 194 193 0
9.020000 16.720000 17.160000 190 195 194 0
9.240000 16.720000 16.940000 191 196 195 0
9.460000 16.720000 18.260000 191 196 195 0
9.680000 16.720000 18.480000 191 196 195 0
9.900000 16.720000 16.940000 192 197 196 0
10.120000 16.720000 15.620000 191 196 195 0
10.340000 16.720000 15.400000 191 196 197 0
10.560000 16.720000 15.400000 191 196 197 0
10.780000 16.720000 15.400000 191 196 195 0
11.000000 16.720000 15.400000 192 197 196 0
11.220000 16.720000 15.400000 192 197 196 0
11.440000 16.720000 15.400000 194 199 198 0
11.660000 16.720000 16.940000 195 200 199 0
11.880000 16.720000 16.940000 198 203 202 0
12.100000 16.720000 18.260000 202 206 210 0
12.320000 16.720000 18.480000 203 207 211 0
12.540000 16.720000 18.480000 202 209 212 0
12.760000 16.720000 18.480000 204 211 214 0
12.980000 16.720000 18.480000 205 213 213 0
13.200000 16.720000 18.700000 204 212 212 0
13.420000 16.720000 18.700000 207 212 213 0
13.640000 16.720000 20.020000 209 214 215 0
13.860000 16.720000 20.240000 208 213 214 0
14.080000 16.720000 20.240000 209 214 215 0
14.300000 16.720000 20.240000 209 214 215 0
14.520000 16.720000 21.560000 210 215 216 0
14.740000 16.720000 21.780000 210 215 216 0
14.960000 16.720000 21.780000 211 216 217 0
15.180000 16.720000 23.100000 211 216 217 0
15.400000 16.720000 23.320000 211 216 217 0
15.620000 16.720000 24.640000 211 216 217 0
15.840000 16.720000 24.640000 211 216 217 0
16.060000 16.720000 24.860000 211 216 217 0
16.280000 16.720000 25.960000 211 216 217 0
16.500000 16.720000 27.940000 212 217 218 0
16.720000 16.720000 29.040000 211 216 217 0
16.940000 16.720000 29.040000 211 216 217 0
17.160000 16.720000 29.260000 211 216 217 0
17.380000 16.720000 29.260000 212 217 218 0
17.600000 16.720000 29.260000 211 216 217 0
17.820000 16.720000 29.480000 212 217 218 0
18.040000 16.720000 29.480000 212 217 218 0
18.260000 16.720000 29.480000 211 216 217 0
18.480000 16.720000 29.480000 211 216 217 0
18.700000 16.720000 29.700000 212 217 216 0
18.920000 16.720000 31.020000 211 216 215 0
19.140000 16.720000 31.020000 210 215 214 0
19.360000 16.720000 31.240000 211 216 215 0
19.580000 16.720000 31.240000 210 215 214 0
19.800000 16.720000 31.240000 211 216 215 0
20.020000 16.720000 31.240000 209 214 213 0
20.240000 16.720000 31.460000 210 215 214 0
20.460000 16.720000 31.460000 207 215 213 0
20.680000 16.720000 32.780000 207 215 213 0
20.900000 16.720000 33.000000 209 214 213 0
21.120000 16.720000 33.000000 208 213 212 0
21.340000 16.720000 34.320000 208 213 212 0
21.560000 16.720000 34.540000 207 212 211 0
21.780000 16.720000 35.640000 207 212 211 0
22.000000 16.720000 36.300000 207 212 211 0
22.220000 16.720000 37.400000 204 212 210 0
22.440000 16.720000 37.400000 204 212 210 0
22.660000 16.720000 38.940000 204 209 208 0
22.880000 16.720000 38.940000 203 208 207 0
23.100000 16.720000 38.940000 201 206 205 0
23.320000 16.720000 40.480000 198 203 202 0
23.540000 16.720000 40.480000 194 202 202 0
23.760000 16.720000 40.480000 189 197 197 0
23.980000 16.720000 40.700000 182 188 183 0
24.200000 16.720000 31.020000 171 177 172 0
24.420000 16.720000 10.340000 164 165 162 0
24.640000 16.720000 1.980000 158 159 156 0
24.860000 16.720000 3.300000 157 157 152 0
25.080000 16.720000 4.840000 154 154 149 0
25.300000 16.720000 4.840000 152 152 145 0
25.520000 16.720000 4.840000 151 151 144 0
25.740000 16.720000 6.380000 150 150 143 0
25.960000 16.720000 7.700000 149 149 142 0
26.180000 16.720000 7.700000 147 147 140 0
26.400000 16.720000 9.240000 147 147 140 0
26.620000 16.720000 9.240000 146 146 139 0
26.840000 16.720000 10.560000 143 143 136 0
27.060000 16.720000 10.560000 141 143 135 0
27.280000 16.720000 12.100000 139 141 133 0
27.500000 16.720000 11.880000 134 136 128 0
27.720000 16.720000 13.200000 134 136 128 0
27.940000 16.720000 13.200000 134 134 129 0
28.160000 16.720000 11.880000 134 134 129 0
28.380000 16.720000 11.660000 134 134 127 0
28.600000 16.720000 12.980000 133 133 126 0
28.820000 16.720000 12.980000 132 132 125 0
29.040000 16.720000 13.200000 133 133 126 0
29.260000 16.720000 13.200000 132 132 125 0
29.480000 16.720000 11.880000 132 132 125 0
29.700000 16.720000 12.100000 132 132 125 0
29.920000 16.720000 10.780000 131 131 124 0
30.140000 16.720000 12.100000 131 131 124 0
30.360000 16.720000 13.420000 130 130 123 0
30.580000 16.720000 13.420000 130 130 123 0
30.800000 16.720000 14.740000 130 130 123 0
31.020000 16.720000 14.740000 131 130 123 0
31.240000 16.720000 14.740000 130 129 122 0
31.460000 16.720000 16.060000 129 129 122 0
31.680000 16.720000 16.060000 129 129 122 0
31.900000 16.720000 17.380000 130 129 120 0
32.120000 16.720000 17.380000 130 129 120 0
32.340000 16.720000 17.600000 130 129 120 0
32.560000 16.720000 17.600000 129 128 119 0
32.780000 16.720000 17.600000 129 128 119 0
33.000000 16.720000 17.600000 129 128 119 0
33.220000 16.720000 16.060000 132 128 120 0
33.440000 16.720000 16.060000 130 126 118 0
33.660000 16.720000 14.740000 130 129 120 0
33.880000 16.720000 14.740000 130 129 120 0
34.100000 16.720000 14.740000 129 130 120 0
34.320000 16.720000 14.740000 130 131 121 0
34.540000 16.720000 14.740000 129 131 121 0
34.760000 16.720000 14.520000 134 136 126 0
34.980000 16.720000 14.520000 137 138 128 0
35.200000 16.720000 14.520000 135 136 126 0
35.420000 16.720000 14.520000 135 136 126 0
35.640000 16.720000 16.060000 132 133 123 0
35.860000 16.720000 17.380000 133 134 124 0
36.080000 16.720000 17.380000 133 134 124 0
36.300000 16.720000 17.380000 132 133 122 0
36.520000 16.720000 18.700000 131 132 121 0
36.740000 16.720000 18.700000 135 132 122 0
36.960000 16.720000 18.920000 133 130 120 0
37.180000 16.720000 20.240000 133 130 120 0
0.000000 16.940000 5.500000 209 213 217 0
0.220000 16.940000 5.720000 209 213 217 0
0.440000 16.940000 5.720000 210 214 218 0
0.660000 16.940000 5.720000 210 215 216 0
0.880000 16.940000 5.940000 210 215 216 0
1.100000 16.940000 7.260000 209 213 217 0
1.320000 16.940000 7.260000 209 213 217 0
1.540000 16.940000 7.480000 209 213 217 0
1.760000 16.940000 7.480000 210 214 218 0
1.980000 16.940000 7.480000 209 216 219 0
2.200000 16.940000 8.800000 207 214 217 0
2.420000 16.940000 9.020000 209 213 217 0
2.640000 16.940000 9.020000 208 212 216 0
2.860000 16.940000 9.020000 206 213 216 0
3.080000 16.940000 9.020000 206 213 216 0
3.300000 16.940000 9.240000 208 212 216 0
3.520000 16.940000 10.560000 207 211 215 0
3.740000 16.940000 10.560000 205 209 213 0
3.960000 16.940000 10.560000 204 208 212 0
4.180000 16.940000 12.100000 204 208 212 0
4.400000 16.940000 13.420000 213 217 221 0
4.620000 16.940000 14.960000 215 222 227 0
4.840000 16.940000 16.280000 215 222 227 0
