ply
format ascii 1.0
element vertex 1095
property float x
property float y
property float z
property uchar red
property uchar green
property uchar blue
property uchar alpha
end_header
24.860000 25.080000 36.300000 212 178 161 0
25.080000 25.080000 36.300000 214 180 165 0
25.300000 25.080000 37.840000 216 182 167 0
25.520000 25.080000 37.840000 215 185 170 0
25.740000 25.080000 37.840000 217 187 172 0
25.960000 25.080000 36.520000 219 189 173 0
26.180000 25.080000 36.520000 219 189 173 0
26.400000 25.080000 36.740000 220 190 174 0
26.620000 25.080000 36.740000 221 191 175 0
26.840000 25.080000 36.740000 224 194 179 0
27.060000 25.080000 36.740000 225 195 180 0
27.280000 25.080000 36.740000 226 196 181 0
27.500000 25.080000 38.280000 226 196 181 0
27.720000 25.080000 38.280000 226 193 179 0
27.940000 25.080000 39.820000 227 194 180 0
28.160000 25.080000 39.820000 226 194 178 0
28.380000 25.080000 39.820000 226 194 178 0
28.600000 25.080000 40.040000 222 192 177 0
28.820000 25.080000 41.140000 220 190 175 0
29.040000 25.080000 41.800000 219 190 177 0
29.260000 25.080000 42.900000 217 188 175 0
29.480000 25.080000 41.800000 218 189 176 0
29.700000 25.080000 41.800000 217 188 175 0
29.920000 25.080000 40.700000 215 187 171 0
30.140000 25.080000 39.380000 218 190 174 0
30.360000 25.080000 39.380000 220 190 175 0
30.580000 25.080000 39.380000 219 189 174 0
30.800000 25.080000 38.060000 224 191 177 0
31.020000 25.080000 38.280000 223 190 176 0
31.240000 25.080000 38.280000 225 188 174 0
31.460000 25.080000 39.600000 224 187 173 0
31.680000 25.080000 30.140000 222 184 168 0
31.900000 25.080000 8.140000 220 182 166 0
32.120000 25.080000 5.280000 217 178 158 0
32.340000 25.080000 13.640000 211 172 152 0
32.560000 25.080000 6.820000 198 160 154 0
33.220000 25.080000 1.100000 179 145 138 0
33.440000 25.080000 12.760000 187 154 142 0
33.660000 25.080000 22.220000 196 163 151 0
33.880000 25.080000 22.440000 195 160 149 0
34.100000 25.080000 21.120000 194 159 148 0
34.320000 25.080000 19.800000 177 169 164 0
34.540000 25.080000 15.840000 185 177 172 0
34.760000 25.080000 13.200000 190 184 181 0
34.980000 25.080000 11.880000 193 187 184 0
35.200000 25.080000 10.560000 194 188 185 0
35.420000 25.080000 12.100000 196 190 187 0
35.640000 25.080000 13.420000 196 192 188 0
35.860000 25.080000 14.740000 199 195 191 0
36.080000 25.080000 16.280000 201 197 193 0
36.300000 25.080000 16.280000 202 198 194 0
36.520000 25.080000 14.960000 201 197 193 0
36.740000 25.080000 14.960000 203 199 195 0
36.960000 25.080000 15.180000 202 198 194 0
37.180000 25.080000 15.180000 202 198 194 0
0.000000 25.300000 10.560000 197 197 180 0
0.220000 25.300000 10.560000 192 192 175 0
0.440000 25.300000 10.560000 199 173 146 0
0.660000 25.300000 10.780000 191 165 138 0
0.880000 25.300000 10.780000 190 154 123 0
1.100000 25.300000 10.780000 187 151 120 0
1.320000 25.300000 10.780000 191 154 123 0
1.540000 25.300000 12.320000 193 156 125 0
1.760000 25.300000 12.320000 196 156 126 0
1.980000 25.300000 12.320000 197 157 127 0
2.200000 25.300000 12.320000 194 157 126 0
2.420000 25.300000 13.420000 193 156 125 0
2.640000 25.300000 15.620000 193 156 125 0
2.860000 25.300000 16.720000 192 155 124 0
3.080000 25.300000 16.720000 192 155 124 0
3.300000 25.300000 16.720000 193 156 125 0
3.520000 25.300000 16.720000 196 156 125 0
3.740000 25.300000 16.720000 195 155 124 0
3.960000 25.300000 16.720000 193 156 125 0
4.180000 25.300000 15.400000 193 156 125 0
4.400000 25.300000 15.400000 193 156 125 0
4.620000 25.300000 15.620000 194 157 126 0
4.840000 25.300000 15.620000 194 157 125 0
5.060000 25.300000 15.620000 194 157 125 0
5.280000 25.300000 16.940000 196 156 126 0
5.500000 25.300000 16.940000 195 155 125 0
5.720000 25.300000 17.160000 195 158 127 0
5.940000 25.300000 18.480000 194 157 126 0
6.160000 25.300000 18.480000 195 158 127 0
6.380000 25.300000 18.480000 195 158 127 0
6.600000 25.300000 18.700000 198 158 127 0
6.820000 25.300000 17.380000 199 159 128 0
7.040000 25.300000 17.380000 200 161 127 0
7.260000 25.300000 17.380000 207 168 134 0
7.480000 25.300000 17.380000 211 174 140 0
7.700000 25.300000 17.380000 219 182 148 0
7.920000 25.300000 17.600000 224 187 155 0
8.140000 25.300000 18.920000 227 190 158 0
8.360000 25.300000 17.600000 226 189 157 0
8.580000 25.300000 17.820000 227 190 158 0
8.800000 25.300000 17.820000 227 190 158 0
9.020000 25.300000 17.820000 228 191 159 0
9.240000 25.300000 17.820000 227 190 158 0
9.460000 25.300000 18.920000 226 189 157 0
9.680000 25.300000 21.120000 226 189 157 0
9.900000 25.300000 22.220000 226 189 157 0
10.120000 25.300000 22.220000 227 190 158 0
10.340000 25.300000 20.900000 226 189 157 0
10.560000 25.300000 20.900000 228 191 159 0
10.780000 25.300000 22.440000 228 191 159 0
11.000000 25.300000 22.440000 229 189 158 0
11.220000 25.300000 22.660000 228 188 157 0
11.440000 25.300000 22.660000 227 190 158 0
11.660000 25.300000 22.660000 228 191 159 0
11.880000 25.300000 22.880000 228 191 159 0
12.100000 25.300000 24.200000 229 192 160 0
12.320000 25.300000 24.420000 231 191 161 0
12.540000 25.300000 25.740000 232 192 162 0
12.760000 25.300000 25.960000 233 193 163 0
12.980000 25.300000 25.960000 233 193 163 0
13.200000 25.300000 26.180000 232 194 166 0
13.420000 25.300000 26.180000 233 195 167 0
13.640000 25.300000 27.060000 232 195 164 0
13.860000 25.300000 27.940000 232 195 164 0
14.080000 25.300000 29.040000 232 192 162 0
14.300000 25.300000 29.260000 230 190 160 0
14.520000 25.300000 29.260000 231 191 160 0
14.740000 25.300000 29.260000 231 191 160 0
14.960000 25.300000 29.260000 231 191 161 0
15.180000 25.300000 29.480000 230 190 160 0
15.400000 25.300000 29.480000 231 191 161 0
15.620000 25.300000 29.480000 229 189 159 0
15.840000 25.300000 29.700000 231 189 160 0
16.060000 25.300000 29.700000 226 184 155 0
16.280000 25.300000 29.700000 226 185 154 0
16.500000 25.300000 29.920000 226 185 154 0
16.720000 25.300000 29.920000 224 183 152 0
16.940000 25.300000 29.920000 223 182 151 0
17.160000 25.300000 31.240000 224 178 150 0
17.380000 25.300000 31.460000 222 176 148 0
17.600000 25.300000 31.460000 218 172 144 0
17.820000 25.300000 31.460000 216 170 142 0
18.040000 25.300000 31.460000 215 167 142 0
18.260000 25.300000 33.000000 213 165 140 0
18.480000 25.300000 34.320000 214 162 135 0
18.700000 25.300000 35.860000 211 159 132 0
18.920000 25.300000 35.860000 208 153 127 0
19.140000 25.300000 37.180000 205 150 124 0
19.360000 25.300000 38.280000 202 149 126 0
19.580000 25.300000 39.160000 201 148 125 0
19.800000 25.300000 31.900000 200 149 127 0
20.020000 25.300000 22.220000 197 146 124 0
20.240000 25.300000 20.900000 191 140 118 0
20.460000 25.300000 33.440000 184 133 111 0
20.680000 25.300000 37.620000 178 126 108 0
20.900000 25.300000 25.300000 175 123 105 0
21.120000 25.300000 8.800000 170 123 102 0
21.340000 25.300000 1.980000 170 123 102 0
21.560000 25.300000 0.660000 173 121 103 0
21.780000 25.300000 0.880000 174 122 104 0
22.000000 25.300000 0.880000 170 120 106 0
22.660000 25.300000 1.100000 185 143 124 0
22.880000 25.300000 14.740000 197 161 144 0
23.100000 25.300000 32.120000 206 170 153 0
23.320000 25.300000 38.720000 208 174 157 0
23.540000 25.300000 37.400000 209 175 158 0
23.760000 25.300000 37.620000 210 176 159 0
23.980000 25.300000 37.620000 209 175 158 0
24.200000 25.300000 37.620000 209 175 158 0
24.420000 25.300000 37.620000 210 176 159 0
24.640000 25.300000 37.620000 211 177 160 0
24.860000 25.300000 36.300000 211 177 160 0
25.080000 25.300000 36.300000 214 180 165 0
25.300000 25.300000 36.300000 216 182 167 0
25.520000 25.300000 37.840000 215 185 170 0
25.740000 25.300000 36.520000 217 187 172 0
25.960000 25.300000 36.520000 218 188 172 0
26.180000 25.300000 36.520000 219 189 173 0
26.400000 25.300000 36.740000 221 191 175 0
26.620000 25.300000 36.740000 223 193 177 0
26.840000 25.300000 36.740000 225 195 180 0
27.060000 25.300000 36.740000 227 197 182 0
27.280000 25.300000 36.960000 227 197 182 0
27.500000 25.300000 38.280000 227 197 182 0
27.720000 25.300000 38.280000 229 196 182 0
27.940000 25.300000 39.820000 227 194 180 0
28.160000 25.300000 39.820000 226 194 178 0
28.380000 25.300000 37.180000 226 194 178 0
28.600000 25.300000 31.680000 221 191 176 0
28.820000 25.300000 32.780000 222 192 177 0
29.040000 25.300000 36.300000 220 191 178 0
29.260000 25.300000 37.400000 219 190 177 0
29.480000 25.300000 38.940000 218 189 176 0
29.700000 25.300000 41.800000 216 187 174 0
29.920000 25.300000 40.700000 214 186 170 0
30.140000 25.300000 37.840000 212 184 168 0
30.360000 25.300000 35.200000 214 184 169 0
30.580000 25.300000 36.740000 217 187 172 0
30.800000 25.300000 38.060000 219 186 172 0
31.020000 25.300000 38.280000 220 187 173 0
31.240000 25.300000 38.280000 220 183 169 0
31.460000 25.300000 36.960000 218 181 167 0
31.680000 25.300000 24.640000 216 178 162 0
31.900000 25.300000 8.140000 216 178 162 0
32.120000 25.300000 5.280000 211 172 152 0
32.340000 25.300000 5.500000 206 167 147 0
32.560000 25.300000 1.320000 190 152 146 0
33.220000 25.300000 6.380000 182 148 141 0
33.440000 25.300000 19.580000 193 160 148 0
33.660000 25.300000 23.540000 196 163 151 0
33.880000 25.300000 20.900000 195 160 149 0
34.100000 25.300000 19.800000 194 159 148 0
34.320000 25.300000 18.480000 178 170 165 0
34.540000 25.300000 14.520000 191 183 178 0
34.760000 25.300000 13.200000 192 186 183 0
34.980000 25.300000 11.880000 194 188 185 0
35.200000 25.300000 12.100000 196 190 187 0
35.420000 25.300000 12.100000 197 191 188 0
35.640000 25.300000 14.740000 198 194 190 0
35.860000 25.300000 16.060000 202 198 194 0
36.080000 25.300000 16.280000 202 198 194 0
36.300000 25.300000 16.280000 201 197 193 0
36.520000 25.300000 14.960000 202 198 194 0
36.740000 25.300000 14.960000 202 198 194 0
36.960000 25.300000 15.180000 203 199 195 0
37.180000 25.300000 15.180000 203 199 195 0
0.000000 25.520000 10.560000 198 199 180 0
0.220000 25.520000 10.560000 192 193 174 0
0.440000 25.520000 10.780000 201 172 149 0
0.660000 25.520000 10.780000 192 163 140 0
0.880000 25.520000 10.780000 189 151 123 0
1.100000 25.520000 10.780000 188 150 122 0
1.320000 25.520000 10.780000 192 155 124 0
1.540000 25.520000 12.320000 194 157 126 0
1.760000 25.520000 12.320000 195 158 126 0
1.980000 25.520000 12.320000 195 158 126 0
2.200000 25.520000 12.320000 194 157 126 0
2.420000 25.520000 13.420000 193 156 125 0
2.640000 25.520000 15.620000 192 155 124 0
2.860000 25.520000 16.720000 194 157 126 0
3.080000 25.520000 16.720000 196 156 126 0
3.300000 25.520000 16.720000 195 155 125 0
3.520000 25.520000 16.720000 196 156 125 0
3.740000 25.520000 16.720000 194 154 123 0
3.960000 25.520000 15.400000 193 156 125 0
4.180000 25.520000 15.400000 193 156 125 0
4.400000 25.520000 15.400000 193 156 125 0
4.620000 25.520000 15.620000 193 156 125 0
4.840000 25.520000 15.620000 197 157 127 0
5.060000 25.520000 15.620000 196 156 126 0
5.280000 25.520000 16.940000 195 155 124 0
5.500000 25.520000 16.940000 196 156 125 0
5.720000 25.520000 17.160000 194 157 126 0
5.940000 25.520000 18.480000 194 157 126 0
6.160000 25.520000 18.480000 197 157 127 0
6.380000 25.520000 18.480000 197 157 127 0
6.600000 25.520000 18.700000 198 158 127 0
6.820000 25.520000 17.380000 198 158 127 0
7.040000 25.520000 17.380000 201 160 129 0
7.260000 25.520000 17.380000 207 166 135 0
7.480000 25.520000 17.380000 212 175 143 0
7.700000 25.520000 17.380000 219 182 150 0
7.920000 25.520000 18.920000 224 187 155 0
8.140000 25.520000 18.920000 226 189 157 0
8.360000 25.520000 17.600000 227 190 158 0
8.580000 25.520000 17.820000 227 190 158 0
8.800000 25.520000 17.820000 227 190 156 0
9.020000 25.520000 17.820000 227 190 156 0
9.240000 25.520000 17.820000 227 190 156 0
9.460000 25.520000 18.920000 227 190 156 0
9.680000 25.520000 21.120000 227 190 158 0
9.900000 25.520000 22.220000 227 190 158 0
10.120000 25.520000 20.900000 227 190 158 0
10.340000 25.520000 20.900000 228 191 159 0
10.560000 25.520000 20.900000 228 191 157 0
10.780000 25.520000 22.440000 227 190 156 0
11.000000 25.520000 22.440000 229 190 156 0
11.220000 25.520000 22.660000 230 191 157 0
11.440000 25.520000 22.660000 227 190 158 0
11.660000 25.520000 22.660000 227 190 158 0
11.880000 25.520000 22.880000 231 191 161 0
12.100000 25.520000 24.200000 231 191 161 0
12.320000 25.520000 24.420000 232 192 161 0
12.540000 25.520000 25.740000 231 191 160 0
12.760000 25.520000 25.960000 230 193 161 0
12.980000 25.520000 25.960000 231 194 162 0
13.200000 25.520000 25.960000 232 195 164 0
13.420000 25.520000 26.180000 233 196 165 0
13.640000 25.520000 27.280000 234 194 164 0
13.860000 25.520000 27.940000 233 193 163 0
14.080000 25.520000 29.040000 232 192 161 0
14.300000 25.520000 29.260000 232 192 161 0
14.520000 25.520000 29.260000 232 192 161 0
14.740000 25.520000 29.260000 232 192 161 0
14.960000 25.520000 29.260000 232 192 161 0
15.180000 25.520000 29.480000 231 191 160 0
15.400000 25.520000 29.480000 231 191 161 0
15.620000 25.520000 29.480000 229 189 159 0
15.840000 25.520000 29.700000 228 186 157 0
16.060000 25.520000 29.700000 227 185 156 0
16.280000 25.520000 29.700000 229 184 156 0
16.500000 25.520000 29.700000 227 182 154 0
16.720000 25.520000 29.920000 226 181 155 0
16.940000 25.520000 31.240000 225 180 154 0
17.160000 25.520000 31.240000 223 177 148 0
17.380000 25.520000 31.460000 220 174 145 0
17.600000 25.520000 31.460000 218 170 143 0
17.820000 25.520000 31.460000 216 168 141 0
18.040000 25.520000 32.780000 217 165 139 0
18.260000 25.520000 33.000000 213 161 135 0
18.480000 25.520000 34.320000 214 157 133 0
18.700000 25.520000 34.320000 210 153 129 0
18.920000 25.520000 35.860000 206 149 125 0
19.140000 25.520000 37.180000 204 147 123 0
19.360000 25.520000 38.500000 199 146 123 0
19.580000 25.520000 40.700000 200 147 124 0
19.800000 25.520000 34.760000 199 148 126 0
20.020000 25.520000 16.720000 197 146 124 0
20.240000 25.520000 14.080000 194 141 120 0
20.460000 25.520000 30.580000 188 135 114 0
20.680000 25.520000 40.480000 180 127 108 0
20.900000 25.520000 32.340000 176 123 104 0
21.120000 25.520000 15.840000 172 120 101 0
21.340000 25.520000 3.300000 172 120 101 0
21.560000 25.520000 0.660000 170 120 104 0
21.780000 25.520000 0.880000 170 120 104 0
22.880000 25.520000 9.240000 193 155 137 0
23.100000 25.520000 30.800000 203 165 147 0
23.320000 25.520000 40.260000 207 173 156 0
23.540000 25.520000 38.940000 208 174 157 0
23.760000 25.520000 37.620000 209 175 158 0
23.980000 25.520000 37.620000 209 175 158 0
24.200000 25.520000 37.620000 210 174 157 0
24.420000 25.520000 37.620000 210 174 157 0
24.640000 25.520000 37.620000 211 175 156 0
24.860000 25.520000 36.300000 214 178 159 0
25.080000 25.520000 36.300000 213 179 164 0
25.300000 25.520000 36.300000 215 181 166 0
25.520000 25.520000 36.520000 217 185 169 0
25.740000 25.520000 36.520000 218 186 170 0
25.960000 25.520000 36.520000 217 187 171 0
26.180000 25.520000 36.520000 219 189 173 0
26.400000 25.520000 36.740000 219 191 175 0
26.620000 25.520000 36.740000 222 194 178 0
26.840000 25.520000 36.740000 227 197 182 0
27.060000 25.520000 36.740000 228 198 183 0
27.280000 25.520000 36.960000 228 198 183 0
27.500000 25.520000 38.280000 227 197 182 0
27.720000 25.520000 38.280000 225 197 181 0
27.940000 25.520000 39.820000 224 196 180 0
28.160000 25.520000 39.820000 225 195 179 0
28.380000 25.520000 31.680000 224 194 178 0
28.600000 25.520000 16.500000 224 192 176 0
28.820000 25.520000 16.280000 223 191 175 0
29.040000 25.520000 26.620000 220 190 177 0
29.260000 25.520000 26.400000 217 187 174 0
29.480000 25.520000 33.440000 212 182 175 0
29.700000 25.520000 40.480000 209 179 172 0
29.920000 25.520000 40.700000 205 176 165 0
30.140000 25.520000 32.340000 203 174 163 0
30.360000 25.520000 24.200000 204 173 165 0
30.580000 25.520000 31.240000 205 174 166 0
30.800000 25.520000 38.060000 212 175 161 0
31.020000 25.520000 38.280000 213 176 162 0
31.240000 25.520000 38.280000 213 174 162 0
31.460000 25.520000 31.460000 212 173 161 0
31.680000 25.520000 13.640000 209 172 159 0
31.900000 25.520000 8.140000 208 171 158 0
32.120000 25.520000 13.640000 207 167 155 0
32.340000 25.520000 6.820000 201 161 149 0
33.000000 25.520000 2.420000 174 146 138 0
33.220000 25.520000 14.300000 182 154 146 0
33.440000 25.520000 25.080000 193 163 150 0
33.660000 25.520000 23.760000 192 162 149 0
33.880000 25.520000 21.120000 184 160 155 0
34.100000 25.520000 19.800000 186 162 157 0
34.320000 25.520000 17.160000 181 173 168 0
34.540000 25.520000 14.520000 193 185 180 0
34.760000 25.520000 13.200000 195 189 184 0
34.980000 25.520000 11.880000 195 189 184 0
35.200000 25.520000 11.880000 197 193 189 0
35.420000 25.520000 13.420000 197 193 189 0
35.640000 25.520000 16.060000 200 195 194 0
35.860000 25.520000 16.060000 202 197 196 0
36.080000 25.520000 17.600000 203 199 195 0
36.300000 25.520000 17.820000 201 197 193 0
36.520000 25.520000 16.500000 203 199 195 0
36.740000 25.520000 14.960000 203 199 195 0
36.960000 25.520000 15.180000 203 199 195 0
37.180000 25.520000 15.180000 203 199 195 0
0.000000 25.740000 10.560000 198 199 180 0
0.220000 25.740000 10.560000 193 194 175 0
0.440000 25.740000 10.780000 203 174 151 0
0.660000 25.740000 10.780000 193 164 141 0
0.880000 25.740000 10.780000 187 149 121 0
1.100000 25.740000 10.780000 188 150 122 0
1.320000 25.740000 10.780000 193 156 125 0
1.540000 25.740000 12.320000 195 158 127 0
1.760000 25.740000 12.320000 196 159 127 0
1.980000 25.740000 12.320000 197 160 128 0
2.200000 25.740000 12.320000 196 159 128 0
2.420000 25.740000 13.420000 195 158 127 0
2.640000 25.740000 15.620000 194 157 126 0
2.860000 25.740000 16.720000 193 156 125 0
3.080000 25.740000 16.720000 196 156 126 0
3.300000 25.740000 16.720000 196 156 126 0
3.520000 25.740000 16.720000 196 156 125 0
3.740000 25.740000 16.720000 195 155 124 0
3.960000 25.740000 15.400000 192 155 124 0
4.180000 25.740000 15.400000 193 156 125 0
4.400000 25.740000 15.400000 193 156 125 0
4.620000 25.740000 15.620000 194 157 126 0
4.840000 25.740000 15.620000 196 156 126 0
5.060000 25.740000 15.620000 196 156 126 0
5.280000 25.740000 16.940000 195 155 124 0
5.500000 25.740000 16.940000 196 156 125 0
5.720000 25.740000 17.160000 194 157 126 0
5.940000 25.740000 18.480000 194 157 126 0
6.160000 25.740000 18.480000 197 157 127 0
6.380000 25.740000 18.480000 197 157 127 0
6.600000 25.740000 18.700000 197 157 126 0
6.820000 25.740000 17.380000 198 158 127 0
7.040000 25.740000 17.380000 202 161 130 0
7.260000 25.740000 17.380000 207 166 135 0
7.480000 25.740000 17.380000 212 175 143 0
7.700000 25.740000 17.380000 218 181 149 0
7.920000 25.740000 18.920000 223 186 154 0
8.140000 25.740000 18.920000 225 188 156 0
8.360000 25.740000 18.920000 228 191 159 0
8.580000 25.740000 17.600000 227 190 158 0
8.800000 25.740000 17.820000 227 190 156 0
9.020000 25.740000 17.820000 228 191 157 0
9.240000 25.740000 17.820000 228 191 157 0
9.460000 25.740000 18.920000 228 191 157 0
9.680000 25.740000 21.120000 228 191 159 0
9.900000 25.740000 22.220000 227 190 158 0
10.120000 25.740000 22.220000 228 191 159 0
10.340000 25.740000 22.220000 228 191 159 0
10.560000 25.740000 22.440000 228 191 157 0
10.780000 25.740000 22.440000 228 191 157 0
11.000000 25.740000 22.440000 230 191 157 0
11.220000 25.740000 22.660000 230 191 157 0
11.440000 25.740000 22.660000 227 190 158 0
11.660000 25.740000 22.660000 228 191 159 0
11.880000 25.740000 22.880000 230 190 160 0
12.100000 25.740000 24.200000 231 191 161 0
12.320000 25.740000 24.420000 232 192 161 0
12.540000 25.740000 25.740000 231 191 160 0
12.760000 25.740000 25.960000 231 194 162 0
12.980000 25.740000 25.960000 231 194 162 0
13.200000 25.740000 25.960000 230 193 162 0
13.420000 25.740000 26.180000 232 195 164 0
13.640000 25.740000 27.280000 233 193 163 0
13.860000 25.740000 27.940000 232 192 162 0
14.080000 25.740000 29.040000 231 191 160 0
14.300000 25.740000 29.260000 232 192 161 0
14.520000 25.740000 29.260000 233 193 162 0
14.740000 25.740000 29.260000 232 192 161 0
14.960000 25.740000 29.260000 232 192 161 0
15.180000 25.740000 29.480000 231 191 160 0
15.400000 25.740000 29.480000 231 191 161 0
15.620000 25.740000 29.480000 230 190 160 0
15.840000 25.740000 29.700000 229 187 158 0
16.060000 25.740000 29.700000 228 186 157 0
16.280000 25.740000 29.700000 229 184 156 0
16.500000 25.740000 29.700000 228 183 155 0
16.720000 25.740000 29.920000 227 182 156 0
16.940000 25.740000 31.240000 224 179 153 0
17.160000 25.740000 31.240000 224 178 149 0
17.380000 25.740000 31.460000 221 175 146 0
17.600000 25.740000 31.460000 219 171 144 0
17.820000 25.740000 32.780000 216 168 141 0
18.040000 25.740000 32.780000 217 165 139 0
18.260000 25.740000 33.000000 214 162 136 0
18.480000 25.740000 34.320000 214 157 133 0
18.700000 25.740000 34.320000 209 152 128 0
18.920000 25.740000 35.860000 206 149 125 0
19.140000 25.740000 35.860000 203 146 122 0
19.360000 25.740000 37.180000 200 147 124 0
19.580000 25.740000 39.600000 200 147 124 0
19.800000 25.740000 30.800000 199 148 126 0
20.020000 25.740000 11.220000 200 149 127 0
20.240000 25.740000 9.900000 198 145 124 0
20.460000 25.740000 30.580000 191 138 117 0
20.680000 25.740000 40.480000 183 130 111 0
20.900000 25.740000 37.840000 178 125 106 0
21.120000 25.740000 25.300000 172 120 101 0
21.340000 25.740000 8.800000 170 118 99 0
21.560000 25.740000 0.660000 168 118 102 0
21.780000 25.740000 0.880000 168 118 102 0
22.880000 25.740000 9.240000 187 149 131 0
23.100000 25.740000 30.800000 199 161 143 0
23.320000 25.740000 40.260000 205 171 154 0
23.540000 25.740000 38.940000 208 174 157 0
23.760000 25.740000 37.400000 208 174 157 0
23.980000 25.740000 37.620000 208 174 157 0
24.200000 25.740000 37.620000 209 173 156 0
24.420000 25.740000 37.620000 210 174 157 0
24.640000 25.740000 37.620000 211 175 156 0
24.860000 25.740000 36.300000 213 177 158 0
25.080000 25.740000 36.300000 212 178 163 0
25.300000 25.740000 36.300000 214 180 165 0
25.520000 25.740000 36.520000 215 183 167 0
25.740000 25.740000 36.520000 216 184 168 0
25.960000 25.740000 36.520000 216 186 170 0
26.180000 25.740000 36.520000 219 189 173 0
26.400000 25.740000 36.740000 219 191 175 0
26.620000 25.740000 36.740000 225 197 181 0
26.840000 25.740000 36.740000 227 197 182 0
27.060000 25.740000 36.740000 228 198 183 0
27.280000 25.740000 38.280000 228 198 183 0
27.500000 25.740000 38.280000 227 197 182 0
27.720000 25.740000 39.820000 226 198 182 0
27.940000 25.740000 39.820000 225 197 181 0
28.160000 25.740000 37.180000 225 195 179 0
28.380000 25.740000 24.640000 224 194 178 0
28.600000 25.740000 5.500000 224 192 176 0
28.820000 25.740000 9.240000 222 190 174 0
29.040000 25.740000 23.980000 218 188 175 0
29.260000 25.740000 26.400000 213 183 170 0
29.480000 25.740000 33.440000 204 174 167 0
29.700000 25.740000 40.480000 196 166 159 0
29.920000 25.740000 37.840000 190 161 150 0
30.140000 25.740000 28.380000 190 161 150 0
30.360000 25.740000 21.560000 187 156 148 0
30.580000 25.740000 31.240000 190 159 151 0
30.800000 25.740000 38.280000 199 162 148 0
31.020000 25.740000 38.280000 200 163 149 0
31.240000 25.740000 38.280000 203 164 152 0
31.460000 25.740000 28.820000 203 164 152 0
31.680000 25.740000 8.140000 202 165 152 0
31.900000 25.740000 8.140000 203 166 153 0
32.120000 25.740000 19.140000 203 163 151 0
32.340000 25.740000 9.680000 194 154 142 0
33.000000 25.740000 5.060000 172 144 136 0
33.220000 25.740000 19.800000 184 156 148 0
33.440000 25.740000 27.720000 189 159 146 0
33.660000 25.740000 22.220000 188 158 145 0
33.880000 25.740000 19.580000 181 157 152 0
34.100000 25.740000 18.480000 187 163 158 0
34.320000 25.740000 15.840000 186 178 173 0
34.540000 25.740000 12.980000 196 188 183 0
34.760000 25.740000 11.660000 194 188 183 0
34.980000 25.740000 11.880000 197 191 186 0
35.200000 25.740000 11.880000 196 192 188 0
35.420000 25.740000 14.740000 198 194 190 0
35.640000 25.740000 16.060000 201 196 195 0
35.860000 25.740000 17.600000 203 198 197 0
36.080000 25.740000 17.600000 202 198 194 0
36.300000 25.740000 17.820000 202 198 194 0
36.520000 25.740000 16.500000 203 199 195 0
36.740000 25.740000 14.960000 204 200 196 0
36.960000 25.740000 15.180000 203 199 195 0
37.180000 25.740000 15.180000 204 200 196 0
0.000000 25.960000 10.560000 199 200 181 0
0.220000 25.960000 10.560000 193 194 175 0
0.440000 25.960000 10.780000 201 179 153 0
0.660000 25.960000 10.780000 190 168 142 0
0.880000 25.960000 10.780000 188 151 120 0
1.100000 25.960000 10.780000 188 151 120 0
1.320000 25.960000 10.780000 194 157 126 0
1.540000 25.960000 12.320000 196 159 128 0
1.760000 25.960000 12.320000 198 161 129 0
1.980000 25.960000 12.320000 197 160 128 0
2.200000 25.960000 12.320000 196 160 129 0
2.420000 25.960000 13.420000 196 160 129 0
2.640000 25.960000 15.620000 195 158 127 0
2.860000 25.960000 16.720000 193 156 125 0
3.080000 25.960000 16.720000 196 156 125 0
3.300000 25.960000 16.720000 196 156 125 0
3.520000 25.960000 16.720000 194 157 125 0
3.740000 25.960000 16.720000 193 156 124 0
3.960000 25.960000 16.720000 193 156 125 0
4.180000 25.960000 15.400000 194 157 126 0
4.400000 25.960000 15.400000 193 156 125 0
4.620000 25.960000 15.620000 194 157 126 0
4.840000 25.960000 15.620000 196 156 125 0
5.060000 25.960000 15.620000 197 157 126 0
5.280000 25.960000 16.940000 193 156 124 0
5.500000 25.960000 16.940000 195 158 126 0
5.720000 25.960000 17.160000 195 158 126 0
5.940000 25.960000 18.480000 195 158 126 0
6.160000 25.960000 18.480000 197 157 127 0
6.380000 25.960000 18.480000 197 157 127 0
6.600000 25.960000 18.700000 197 157 126 0
6.820000 25.960000 18.700000 199 159 128 0
7.040000 25.960000 17.380000 203 163 132 0
7.260000 25.960000 17.380000 205 165 134 0
7.480000 25.960000 17.380000 210 174 137 0
7.700000 25.960000 17.380000 217 181 144 0
7.920000 25.960000 18.920000 224 187 155 0
8.140000 25.960000 18.920000 225 188 156 0
8.360000 25.960000 18.920000 226 189 157 0
8.580000 25.960000 17.600000 228 191 159 0
8.800000 25.960000 17.820000 228 191 159 0
9.020000 25.960000 17.820000 227 190 158 0
9.240000 25.960000 17.820000 229 190 156 0
9.460000 25.960000 18.920000 229 190 156 0
9.680000 25.960000 21.120000 227 190 158 0
9.900000 25.960000 22.220000 228 191 159 0
10.120000 25.960000 22.220000 230 190 159 0
10.340000 25.960000 22.220000 230 190 159 0
10.560000 25.960000 22.440000 230 190 159 0
10.780000 25.960000 22.440000 230 190 159 0
11.000000 25.960000 22.440000 230 190 159 0
11.220000 25.960000 22.660000 229 189 158 0
11.440000 25.960000 22.660000 230 190 159 0
11.660000 25.960000 22.660000 230 190 159 0
11.880000 25.960000 22.880000 231 191 160 0
12.100000 25.960000 24.200000 231 191 160 0
12.320000 25.960000 24.420000 231 191 160 0
12.540000 25.960000 25.740000 232 192 161 0
12.760000 25.960000 25.960000 233 193 162 0
12.980000 25.960000 25.960000 232 192 161 0
13.200000 25.960000 25.960000 231 194 163 0
13.420000 25.960000 26.180000 230 193 162 0
13.640000 25.960000 27.280000 232 192 161 0
13.860000 25.960000 27.940000 233 193 162 0
14.080000 25.960000 29.040000 233 192 161 0
14.300000 25.960000 29.260000 233 192 161 0
14.520000 25.960000 29.260000 234 193 162 0
14.740000 25.960000 29.260000 233 192 161 0
14.960000 25.960000 29.260000 231 191 160 0
15.180000 25.960000 29.480000 231 191 160 0
15.400000 25.960000 29.480000 231 189 160 0
15.620000 25.960000 29.480000 231 189 160 0
15.840000 25.960000 29.700000 229 188 157 0
16.060000 25.960000 29.700000 229 188 157 0
16.280000 25.960000 29.700000 227 186 155 0
16.500000 25.960000 29.700000 227 186 155 0
16.720000 25.960000 29.920000 226 184 155 0
16.940000 25.960000 31.240000 223 181 152 0
17.160000 25.960000 31.240000 223 178 150 0
17.380000 25.960000 31.460000 221 176 148 0
17.600000 25.960000 32.780000 220 174 146 0
17.820000 25.960000 32.780000 219 173 145 0
18.040000 25.960000 32.780000 216 166 138 0
18.260000 25.960000 33.000000 213 163 135 0
18.480000 25.960000 34.320000 212 157 131 0
18.700000 25.960000 34.320000 208 153 127 0
18.920000 25.960000 35.860000 202 151 125 0
19.140000 25.960000 35.860000 203 152 126 0
19.360000 25.960000 37.180000 203 152 128 0
19.580000 25.960000 38.280000 201 150 126 0
19.800000 25.960000 32.120000 200 149 127 0
20.020000 25.960000 18.040000 200 149 127 0
20.240000 25.960000 18.040000 198 147 125 0
20.460000 25.960000 33.440000 193 142 120 0
20.680000 25.960000 40.260000 187 134 115 0
20.900000 25.960000 39.160000 180 127 108 0
21.120000 25.960000 29.480000 173 119 102 0
21.340000 25.960000 10.120000 172 118 101 0
21.560000 25.960000 0.660000 172 116 99 0
21.780000 25.960000 0.660000 171 115 98 0
22.880000 25.960000 6.600000 185 141 123 0
23.100000 25.960000 26.620000 198 154 136 0
23.320000 25.960000 38.720000 203 169 152 0
23.540000 25.960000 38.940000 206 172 155 0
23.760000 25.960000 37.400000 210 173 152 0
23.980000 25.960000 37.620000 210 173 152 0
24.200000 25.960000 37.620000 210 172 154 0
24.420000 25.960000 37.620000 211 173 155 0
24.640000 25.960000 37.620000 212 174 156 0
24.860000 25.960000 36.300000 214 176 158 0
25.080000 25.960000 36.300000 212 178 161 0
25.300000 25.960000 36.520000 214 180 163 0
25.520000 25.960000 36.520000 216 182 165 0
25.740000 25.960000 36.520000 217 183 166 0
25.960000 25.960000 36.520000 218 186 170 0
26.180000 25.960000 36.520000 221 189 173 0
26.400000 25.960000 36.740000 223 193 178 0
26.620000 25.960000 36.740000 225 195 180 0
26.840000 25.960000 36.740000 226 198 182 0
27.060000 25.960000 36.740000 227 199 183 0
27.280000 25.960000 38.280000 227 197 184 0
27.500000 25.960000 38.280000 227 197 184 0
27.720000 25.960000 39.820000 226 196 181 0
27.940000 25.960000 39.820000 223 193 178 0
28.160000 25.960000 31.680000 224 194 179 0
28.380000 25.960000 13.640000 223 193 178 0
28.820000 25.960000 9.240000 221 189 173 0
29.040000 25.960000 29.260000 217 184 172 0
29.260000 25.960000 37.400000 208 175 163 0
29.480000 25.960000 38.940000 193 167 161 0
29.700000 25.960000 42.020000 180 154 148 0
29.920000 25.960000 33.660000 169 147 144 0
30.140000 25.960000 22.880000 168 146 143 0
30.360000 25.960000 27.060000 166 148 143 0
30.580000 25.960000 36.740000 170 152 147 0
30.800000 25.960000 39.600000 179 153 147 0
31.020000 25.960000 39.600000 182 156 150 0
31.240000 25.960000 39.820000 192 153 143 0
31.460000 25.960000 28.820000 196 157 147 0
31.680000 25.960000 9.460000 196 161 152 0
31.900000 25.960000 8.140000 199 164 155 0
32.120000 25.960000 19.140000 204 166 152 0
32.340000 25.960000 9.680000 196 158 144 0
33.000000 25.960000 2.200000 170 142 134 0
33.220000 25.960000 12.760000 174 146 138 0
33.440000 25.960000 22.220000 171 149 147 0
33.660000 25.960000 20.900000 172 150 148 0
33.880000 25.960000 18.260000 170 160 154 0
34.100000 25.960000 17.160000 180 170 164 0
34.320000 25.960000 14.520000 191 183 178 0
34.540000 25.960000 12.980000 196 188 183 0
34.760000 25.960000 11.660000 194 188 183 0
34.980000 25.960000 11.880000 198 192 187 0
35.200000 25.960000 11.880000 196 192 188 0
35.420000 25.960000 14.740000 198 194 190 0
35.640000 25.960000 17.380000 201 197 193 0
35.860000 25.960000 17.600000 202 198 194 0
36.080000 25.960000 17.600000 202 198 194 0
36.300000 25.960000 17.820000 203 199 195 0
36.520000 25.960000 16.500000 203 199 195 0
36.740000 25.960000 16.500000 204 200 196 0
36.960000 25.960000 15.180000 204 200 196 0
37.180000 25.960000 15.180000 204 200 196 0
0.000000 26.180000 9.240000 200 201 182 0
0.220000 26.180000 10.560000 195 196 177 0
0.440000 26.180000 10.780000 200 178 152 0
0.660000 26.180000 10.780000 191 169 143 0
0.880000 26.180000 10.780000 187 150 119 0
1.100000 26.180000 10.780000 189 152 121 0
1.320000 26.180000 10.780000 194 157 126 0
1.540000 26.180000 12.320000 198 161 130 0
1.760000 26.180000 12.320000 198 161 129 0
1.980000 26.180000 12.320000 199 162 130 0
2.200000 26.180000 12.320000 197 161 130 0
2.420000 26.180000 13.420000 196 160 129 0
2.640000 26.180000 15.620000 194 157 126 0
2.860000 26.180000 16.720000 195 158 127 0
3.080000 26.180000 16.720000 195 155 124 0
3.300000 26.180000 16.720000 196 156 125 0
3.520000 26.180000 16.720000 194 157 125 0
3.740000 26.180000 16.720000 193 156 124 0
3.960000 26.180000 16.720000 193 156 125 0
4.180000 26.180000 16.720000 192 155 124 0
4.400000 26.180000 15.400000 194 157 126 0
4.620000 26.180000 15.620000 194 157 126 0
4.840000 26.180000 15.620000 196 156 125 0
5.060000 26.180000 16.940000 196 156 125 0
5.280000 26.180000 16.940000 194 157 125 0
5.500000 26.180000 16.940000 194 157 125 0
5.720000 26.180000 18.480000 195 158 126 0
5.940000 26.180000 18.480000 195 158 126 0
6.160000 26.180000 18.480000 197 157 127 0
6.380000 26.180000 18.480000 197 157 127 0
6.600000 26.180000 18.700000 198 158 127 0
6.820000 26.180000 18.700000 199 159 128 0
7.040000 26.180000 17.380000 201 161 130 0
7.260000 26.180000 17.380000 204 164 133 0
7.480000 26.180000 17.380000 208 172 135 0
7.700000 26.180000 17.380000 215 179 142 0
7.920000 26.180000 18.920000 222 185 153 0
8.140000 26.180000 18.920000 223 186 154 0
8.360000 26.180000 18.920000 226 189 157 0
8.580000 26.180000 17.600000 227 190 158 0
8.800000 26.180000 17.820000 226 189 157 0
9.020000 26.180000 17.820000 227 190 158 0
9.240000 26.180000 17.820000 229 190 156 0
9.460000 26.180000 18.920000 228 189 155 0
9.680000 26.180000 21.120000 226 189 157 0
9.900000 26.180000 22.220000 227 190 158 0
10.120000 26.180000 22.220000 231 191 160 0
10.340000 26.180000 22.220000 230 190 159 0
10.560000 26.180000 22.440000 230 190 159 0
10.780000 26.180000 22.440000 230 190 159 0
11.000000 26.180000 22.440000 229 189 158 0
11.220000 26.180000 22.660000 229 189 158 0
11.440000 26.180000 22.660000 229 189 158 0
11.660000 26.180000 22.660000 229 189 158 0
11.880000 26.180000 22.880000 230 190 159 0
12.100000 26.180000 24.200000 230 190 159 0
12.320000 26.180000 24.420000 232 192 161 0
12.540000 26.180000 25.740000 232 192 161 0
12.760000 26.180000 25.960000 231 191 160 0
12.980000 26.180000 25.960000 232 192 161 0
13.200000 26.180000 25.960000 231 194 163 0
13.420000 26.180000 26.180000 230 193 162 0
13.640000 26.180000 27.280000 233 193 162 0
13.860000 26.180000 27.940000 232 192 161 0
14.080000 26.180000 29.040000 233 192 161 0
14.300000 26.180000 29.040000 233 192 161 0
14.520000 26.180000 29.260000 233 192 161 0
14.740000 26.180000 29.260000 232 191 160 0
14.960000 26.180000 29.260000 232 192 161 0
15.180000 26.180000 29.480000 231 191 160 0
15.400000 26.180000 29.480000 232 190 161 0
15.620000 26.180000 29.480000 230 188 159 0
15.840000 26.180000 29.700000 230 189 158 0
16.060000 26.180000 29.700000 230 189 158 0
16.280000 26.180000 29.700000 228 187 156 0
16.500000 26.180000 29.700000 226 185 154 0
16.720000 26.180000 29.920000 224 182 153 0
16.940000 26.180000 31.240000 224 182 153 0
17.160000 26.180000 31.240000 223 178 150 0
17.380000 26.180000 31.460000 221 176 148 0
17.600000 26.180000 32.780000 221 175 147 0
17.820000 26.180000 32.780000 219 173 145 0
18.040000 26.180000 32.780000 218 168 140 0
18.260000 26.180000 33.000000 216 166 138 0
18.480000 26.180000 34.320000 215 160 134 0
18.700000 26.180000 34.320000 211 156 130 0
18.920000 26.180000 35.860000 207 156 130 0
19.140000 26.180000 35.860000 206 155 129 0
19.360000 26.180000 37.180000 207 156 132 0
19.580000 26.180000 38.280000 205 154 130 0
19.800000 26.180000 37.620000 205 154 132 0
20.020000 26.180000 34.540000 204 153 131 0
20.240000 26.180000 33.220000 200 149 127 0
20.460000 26.180000 37.400000 196 145 123 0
20.680000 26.180000 40.260000 191 138 119 0
20.900000 26.180000 40.480000 183 130 111 0
21.120000 26.180000 32.120000 175 121 104 0
21.340000 26.180000 17.160000 171 117 100 0
21.560000 26.180000 7.480000 171 115 98 0
21.780000 26.180000 3.520000 169 113 96 0
22.000000 26.180000 0.880000 166 114 98 0
22.880000 26.180000 1.100000 180 136 118 0
23.100000 26.180000 12.980000 195 151 133 0
23.320000 26.180000 27.720000 200 166 149 0
23.540000 26.180000 37.400000 205 171 154 0
23.760000 26.180000 38.940000 209 172 151 0
23.980000 26.180000 37.620000 209 172 151 0
24.200000 26.180000 37.620000 209 171 153 0
24.420000 26.180000 37.620000 209 171 153 0
24.640000 26.180000 37.620000 211 173 155 0
24.860000 26.180000 36.300000 212 174 156 0
25.080000 26.180000 36.300000 211 177 160 0
25.300000 26.180000 36.520000 214 180 163 0
25.520000 26.180000 36.520000 215 181 164 0
25.740000 26.180000 37.840000 216 182 165 0
25.960000 26.180000 36.520000 217 185 169 0
26.180000 26.180000 36.520000 220 188 172 0
26.400000 26.180000 36.740000 222 192 177 0
26.620000 26.180000 36.740000 225 195 180 0
26.840000 26.180000 36.740000 225 197 181 0
27.060000 26.180000 38.280000 225 197 181 0
27.280000 26.180000 38.280000 226 196 183 0
27.500000 26.180000 39.820000 226 196 183 0
27.720000 26.180000 39.820000 223 193 178 0
27.940000 26.180000 39.820000 224 194 179 0
28.160000 26.180000 28.820000 222 192 177 0
28.380000 26.180000 8.140000 221 191 176 0
28.820000 26.180000 10.120000 221 189 173 0
29.040000 26.180000 31.900000 214 181 169 0
29.260000 26.180000 41.800000 205 172 160 0
29.480000 26.180000 41.800000 186 160 154 0
29.700000 26.180000 39.160000 171 145 139 0
29.920000 26.180000 25.520000 161 139 136 0
30.140000 26.180000 17.380000 160 138 135 0
30.360000 26.180000 28.380000 158 140 135 0
30.580000 26.180000 39.600000 160 142 137 0
30.800000 26.180000 39.600000 167 141 135 0
31.020000 26.180000 39.820000 170 144 138 0
31.240000 26.180000 36.960000 185 146 136 0
31.460000 26.180000 24.640000 191 152 142 0
31.680000 26.180000 9.460000 195 160 151 0
31.900000 26.180000 13.640000 199 164 155 0
32.120000 26.180000 22.000000 205 167 153 0
32.340000 26.180000 9.680000 202 164 150 0
33.000000 26.180000 1.980000 165 137 129 0
33.220000 26.180000 5.720000 165 137 129 0
33.440000 26.180000 12.540000 162 140 138 0
33.660000 26.180000 16.940000 171 149 147 0
33.880000 26.180000 16.940000 174 164 158 0
34.100000 26.180000 17.160000 188 178 172 0
34.320000 26.180000 14.520000 193 185 180 0
34.540000 26.180000 11.660000 196 188 183 0
34.760000 26.180000 11.660000 195 189 184 0
34.980000 26.180000 11.880000 197 191 186 0
35.200000 26.180000 11.880000 197 193 189 0
35.420000 26.180000 14.740000 199 195 191 0
35.640000 26.180000 17.380000 200 196 192 0
35.860000 26.180000 17.600000 202 198 194 0
36.080000 26.180000 17.600000 203 199 195 0
36.300000 26.180000 17.820000 203 199 195 0
36.520000 26.180000 16.500000 204 200 196 0
36.740000 26.180000 16.500000 203 199 195 0
36.960000 26.180000 15.180000 204 200 196 0
37.180000 26.180000 15.180000 205 201 197 0
0.000000 26.400000 9.240000 199 201 182 0
0.220000 26.400000 10.560000 194 196 177 0
0.440000 26.400000 10.780000 200 179 155 0
0.660000 26.400000 10.780000 191 170 146 0
0.880000 26.400000 10.780000 188 152 121 0
1.100000 26.400000 10.780000 188 152 121 0
1.320000 26.400000 11.000000 195 158 127 0
1.540000 26.400000 12.320000 198 161 130 0
1.760000 26.400000 12.320000 198 161 130 0
1.980000 26.400000 12.320000 200 163 132 0
2.200000 26.400000 12.320000 198 161 130 0
2.420000 26.400000 13.200000 198 161 130 0
2.640000 26.400000 15.400000 196 159 128 0
2.860000 26.400000 16.720000 193 156 125 0
3.080000 26.400000 16.720000 193 156 125 0
3.300000 26.400000 16.720000 194 157 126 0
3.520000 26.400000 16.720000 194 157 126 0
3.740000 26.400000 16.720000 194 157 126 0
3.960000 26.400000 16.720000 194 157 125 0
4.180000 26.400000 16.940000 194 157 125 0
4.400000 26.400000 16.940000 193 156 124 0
4.620000 26.400000 15.620000 194 157 125 0
4.840000 26.400000 15.620000 194 157 126 0
5.060000 26.400000 16.940000 194 157 126 0
5.280000 26.400000 16.940000 194 157 126 0
5.500000 26.400000 16.940000 195 158 127 0
5.720000 26.400000 18.480000 194 157 125 0
5.940000 26.400000 18.480000 195 158 126 0
6.160000 26.400000 18.480000 197 157 126 0
6.380000 26.400000 18.480000 198 158 127 0
6.600000 26.400000 18.700000 199 159 129 0
6.820000 26.400000 18.700000 200 160 130 0
7.040000 26.400000 17.380000 200 160 129 0
7.260000 26.400000 17.380000 203 163 132 0
7.480000 26.400000 17.380000 208 172 135 0
7.700000 26.400000 18.920000 214 178 141 0
7.920000 26.400000 18.920000 220 183 149 0
8.140000 26.400000 18.920000 225 188 154 0
8.360000 26.400000 18.920000 225 188 156 0
8.580000 26.400000 19.140000 227 190 158 0
8.800000 26.400000 17.820000 227 190 158 0
9.020000 26.400000 17.820000 227 190 158 0
9.240000 26.400000 17.820000 227 190 158 0
9.460000 26.400000 18.920000 226 189 157 0
9.680000 26.400000 21.120000 226 189 155 0
9.900000 26.400000 22.220000 227 190 156 0
10.120000 26.400000 22.220000 228 191 159 0
10.340000 26.400000 22.220000 228 191 159 0
10.560000 26.400000 22.440000 229 192 160 0
10.780000 26.400000 22.440000 227 190 158 0
11.000000 26.400000 22.440000 230 190 159 0
11.220000 26.400000 22.660000 228 188 157 0
11.440000 26.400000 22.660000 228 188 157 0
11.660000 26.400000 22.660000 230 190 159 0
11.880000 26.400000 22.880000 230 190 159 0
12.100000 26.400000 24.200000 230 190 159 0
12.320000 26.400000 24.420000 232 192 161 0
12.540000 26.400000 25.740000 230 190 159 0
12.760000 26.400000 25.960000 231 191 160 0
12.980000 26.400000 25.960000 233 193 162 0
13.200000 26.400000 25.960000 232 192 161 0
13.420000 26.400000 26.180000 233 193 162 0
13.640000 26.400000 27.280000 232 192 162 0
13.860000 26.400000 28.160000 232 192 162 0
14.080000 26.400000 29.260000 232 192 161 0
14.300000 26.400000 29.040000 232 192 161 0
14.520000 26.400000 29.260000 231 191 160 0
14.740000 26.400000 29.260000 232 192 161 0
14.960000 26.400000 29.260000 232 192 161 0
15.180000 26.400000 29.480000 231 191 160 0
15.400000 26.400000 29.480000 230 190 159 0
15.620000 26.400000 29.480000 229 189 158 0
15.840000 26.400000 29.700000 229 188 157 0
16.060000 26.400000 29.700000 229 188 157 0
16.280000 26.400000 29.700000 228 187 156 0
16.500000 26.400000 29.700000 227 186 155 0
16.720000 26.400000 31.240000 225 183 154 0
16.940000 26.400000 31.240000 223 181 152 0
17.160000 26.400000 31.240000 222 181 150 0
17.380000 26.400000 31.460000 221 180 149 0
17.600000 26.400000 32.780000 220 175 149 0
17.820000 26.400000 32.780000 219 174 148 0
18.040000 26.400000 32.780000 219 168 142 0
18.260000 26.400000 33.000000 216 165 139 0
18.480000 26.400000 34.320000 212 164 139 0
18.700000 26.400000 34.320000 210 162 137 0
18.920000 26.400000 35.860000 208 161 136 0
19.140000 26.400000 35.860000 208 161 136 0
19.360000 26.400000 37.180000 207 160 137 0
19.580000 26.400000 38.280000 206 159 136 0
19.800000 26.400000 40.480000 207 158 136 0
20.020000 26.400000 41.580000 203 154 132 0
20.240000 26.400000 41.580000 200 151 129 0
20.460000 26.400000 40.260000 198 149 127 0
20.680000 26.400000 40.260000 192 139 118 0
20.900000 26.400000 40.480000 184 131 110 0
21.120000 26.400000 37.840000 176 123 102 0
21.340000 26.400000 33.660000 170 117 96 0
21.560000 26.400000 23.980000 168 112 94 0
21.780000 26.400000 9.020000 168 112 94 0
22.000000 26.400000 3.520000 167 113 96 0
22.220000 26.400000 5.060000 166 112 95 0
22.440000 26.400000 1.100000 162 114 97 0
23.100000 26.400000 0.880000 194 148 130 0
23.320000 26.400000 15.620000 199 161 143 0
23.540000 26.400000 33.220000 209 171 153 0
23.760000 26.400000 38.940000 210 172 156 0
23.980000 26.400000 37.620000 209 171 155 0
24.200000 26.400000 37.620000 210 171 153 0
24.420000 26.400000 37.620000 211 172 154 0
24.640000 26.400000 37.620000 210 174 157 0
24.860000 26.400000 36.300000 212 176 159 0
25.080000 26.400000 36.300000 214 176 158 0
25.300000 26.400000 36.520000 216 178 160 0
25.520000 26.400000 36.520000 214 180 165 0
25.740000 26.400000 37.840000 215 181 166 0
25.960000 26.400000 38.060000 213 183 168 0
26.180000 26.400000 38.060000 217 187 172 0
26.400000 26.400000 36.740000 220 190 175 0
26.620000 26.400000 36.740000 223 193 178 0
26.840000 26.400000 38.280000 224 194 179 0
27.060000 26.400000 38.280000 224 194 179 0
27.280000 26.400000 38.280000 223 194 183 0
27.500000 26.400000 39.820000 222 193 182 0
27.720000 26.400000 39.820000 222 192 177 0
27.940000 26.400000 37.180000 221 191 176 0
28.160000 26.400000 23.320000 220 190 175 0
28.380000 26.400000 5.500000 221 191 176 0
28.600000 26.400000 1.100000 220 190 175 0
28.820000 26.400000 15.620000 218 188 173 0
29.040000 26.400000 34.760000 214 183 173 0
29.260000 26.400000 41.800000 202 171 161 0
29.480000 26.400000 42.020000 191 160 152 0
29.700000 26.400000 33.880000 177 146 138 0
29.920000 26.400000 17.380000 163 138 137 0
30.140000 26.400000 17.380000 162 137 136 0
30.360000 26.400000 31.240000 153 141 138 0
30.580000 26.400000 39.600000 155 143 140 0
30.800000 26.400000 39.600000 162 142 138 0
31.020000 26.400000 39.820000 161 141 137 0
31.240000 26.400000 31.460000 176 145 137 0
31.460000 26.400000 13.640000 183 152 144 0
31.680000 26.400000 9.460000 199 161 147 0
31.900000 26.400000 22.000000 204 166 152 0
32.120000 26.400000 22.000000 208 170 156 0
32.340000 26.400000 6.820000 205 167 153 0
32.780000 26.400000 0.880000 183 144 136 0
33.000000 26.400000 3.080000 166 136 131 0
33.220000 26.400000 7.040000 165 135 130 0
33.440000 26.400000 11.220000 156 142 137 0
33.660000 26.400000 15.400000 170 156 151 0
33.880000 26.400000 16.940000 181 176 168 0
34.100000 26.400000 15.840000 189 184 176 0
34.320000 26.400000 12.980000 193 187 182 0
34.540000 26.400000 11.660000 194 188 183 0
34.760000 26.400000 11.880000 196 190 187 0
34.980000 26.400000 11.880000 197 191 188 0
35.200000 26.400000 13.200000 197 193 189 0
35.420000 26.400000 16.060000 199 195 191 0
35.640000 26.400000 17.380000 202 198 194 0
35.860000 26.400000 17.600000 203 199 195 0
36.080000 26.400000 17.600000 204 200 196 0
36.300000 26.400000 17.820000 205 201 197 0
36.520000 26.400000 16.500000 204 199 198 0
36.740000 26.400000 16.500000 204 199 198 0
36.960000 26.400000 15.180000 204 200 196 0
37.180000 26.400000 15.180000 205 201 197 0
0.000000 26.620000 9.240000 199 201 182 0
0.220000 26.620000 10.560000 194 196 177 0
0.440000 26.620000 10.780000 201 180 156 0
0.660000 26.620000 10.780000 192 171 147 0
0.880000 26.620000 10.780000 193 157 126 0
1.100000 26.620000 10.780000 189 153 122 0
1.320000 26.620000 11.000000 195 158 127 0
1.540000 26.620000 12.320000 197 160 129 0
1.760000 26.620000 12.320000 199 162 131 0
1.980000 26.620000 12.320000 199 162 131 0
2.200000 26.620000 12.100000 198 161 130 0
2.420000 26.620000 14.300000 196 159 128 0
2.640000 26.620000 15.400000 196 159 128 0
2.860000 26.620000 16.720000 195 158 127 0
3.080000 26.620000 16.720000 195 158 127 0
3.300000 26.620000 16.720000 194 157 126 0
3.520000 26.620000 16.720000 194 157 126 0
3.740000 26.620000 16.720000 193 156 125 0
3.960000 26.620000 16.720000 192 155 123 0
4.180000 26.620000 16.940000 192 155 123 0
4.400000 26.620000 16.940000 193 156 124 0
4.620000 26.620000 16.940000 193 156 124 0
4.840000 26.620000 16.940000 193 156 125 0
5.060000 26.620000 16.940000 194 157 126 0
5.280000 26.620000 16.940000 194 157 126 0
5.500000 26.620000 16.940000 194 157 126 0
5.720000 26.620000 18.480000 194 157 125 0
5.940000 26.620000 18.480000 195 158 126 0
6.160000 26.620000 18.480000 198 158 127 0
6.380000 26.620000 18.480000 198 158 127 0
6.600000 26.620000 18.700000 198 158 128 0
6.820000 26.620000 18.700000 199 159 129 0
7.040000 26.620000 18.700000 199 159 128 0
7.260000 26.620000 17.380000 202 162 131 0
7.480000 26.620000 17.380000 206 170 133 0
7.700000 26.620000 18.920000 213 177 140 0
7.920000 26.620000 18.920000 218 181 147 0
8.140000 26.620000 18.920000 223 186 152 0
8.360000 26.620000 18.920000 226 189 157 0
8.580000 26.620000 19.140000 226 189 157 0
8.800000 26.620000 17.820000 226 189 157 0
9.020000 26.620000 17.820000 227 190 158 0
9.240000 26.620000 17.820000 228 191 159 0
9.460000 26.620000 18.920000 226 189 157 0
9.680000 26.620000 21.120000 227 190 156 0
9.900000 26.620000 22.220000 227 190 156 0
10.120000 26.620000 22.220000 228 191 159 0
10.340000 26.620000 22.220000 228 191 159 0
10.560000 26.620000 22.440000 228 191 159 0
10.780000 26.620000 22.440000 228 191 159 0
11.000000 26.620000 22.440000 229 189 158 0
11.220000 26.620000 22.660000 229 189 158 0
