ply
format ascii 1.0
element vertex 1097
property float x
property float y
property float z
property uchar red
property uchar green
property uchar blue
property uchar alpha
end_header
28.160000 10.560000 12.760000 124 131 111 0
28.380000 10.560000 11.440000 126 130 111 0
28.600000 10.560000 11.220000 126 130 111 0
28.820000 10.560000 9.900000 124 131 111 0
29.040000 10.560000 11.220000 124 131 111 0
29.260000 10.560000 11.220000 124 131 111 0
29.480000 10.560000 11.220000 124 131 111 0
29.700000 10.560000 9.900000 124 131 111 0
29.920000 10.560000 10.120000 125 132 112 0
30.140000 10.560000 9.900000 126 130 110 0
30.360000 10.560000 11.220000 126 130 110 0
30.580000 10.560000 11.220000 125 132 111 0
30.800000 10.560000 11.440000 126 133 112 0
31.020000 10.560000 11.440000 125 132 111 0
31.240000 10.560000 11.220000 125 132 111 0
31.460000 10.560000 11.220000 126 133 112 0
31.680000 10.560000 11.220000 125 132 111 0
31.900000 10.560000 11.220000 127 131 111 0
32.120000 10.560000 12.540000 127 131 111 0
32.340000 10.560000 12.760000 125 132 111 0
32.560000 10.560000 11.440000 126 133 112 0
32.780000 10.560000 10.340000 125 132 111 0
33.000000 10.560000 10.560000 123 130 109 0
33.220000 10.560000 10.560000 124 131 110 0
33.440000 10.560000 9.240000 124 131 110 0
33.660000 10.560000 7.920000 123 130 109 0
33.880000 10.560000 6.600000 123 130 109 0
34.100000 10.560000 6.600000 122 129 108 0
34.320000 10.560000 6.380000 122 129 108 0
34.540000 10.560000 7.700000 121 128 107 0
34.760000 10.560000 9.020000 122 129 108 0
34.980000 10.560000 9.020000 122 129 108 0
35.200000 10.560000 9.020000 121 128 107 0
35.420000 10.560000 11.880000 121 128 107 0
35.640000 10.560000 16.060000 120 127 106 0
35.860000 10.560000 16.060000 120 127 106 0
36.080000 10.560000 16.060000 118 125 104 0
36.300000 10.560000 17.380000 118 125 104 0
36.520000 10.560000 18.700000 119 126 105 0
36.740000 10.560000 20.240000 119 126 105 0
36.960000 10.560000 20.240000 119 126 105 0
37.180000 10.560000 20.240000 119 126 105 0
0.000000 10.780000 9.680000 212 216 214 0
0.220000 10.780000 10.780000 212 216 214 0
0.440000 10.780000 11.440000 212 216 214 0
0.660000 10.780000 12.540000 212 216 214 0
0.880000 10.780000 12.540000 210 214 212 0
1.100000 10.780000 14.080000 211 215 213 0
1.320000 10.780000 14.080000 211 215 213 0
1.540000 10.780000 14.080000 210 214 212 0
1.760000 10.780000 15.620000 210 214 212 0
1.980000 10.780000 15.620000 211 215 213 0
2.200000 10.780000 15.620000 209 213 211 0
2.420000 10.780000 15.620000 209 213 211 0
2.640000 10.780000 15.620000 212 216 214 0
2.860000 10.780000 15.840000 213 217 215 0
3.080000 10.780000 15.840000 210 214 212 0
3.300000 10.780000 15.840000 211 215 213 0
3.520000 10.780000 15.840000 210 214 212 0
3.740000 10.780000 16.060000 208 212 210 0
3.960000 10.780000 16.060000 210 214 212 0
4.180000 10.780000 16.060000 211 215 213 0
4.400000 10.780000 16.060000 208 212 210 0
4.620000 10.780000 16.060000 208 212 208 0
4.840000 10.780000 16.280000 210 214 210 0
5.060000 10.780000 17.600000 207 213 210 0
5.280000 10.780000 17.820000 208 214 211 0
5.500000 10.780000 17.820000 210 216 213 0
5.720000 10.780000 17.820000 210 216 213 0
5.940000 10.780000 17.820000 207 213 208 0
6.160000 10.780000 18.920000 211 217 212 0
6.380000 10.780000 19.800000 211 217 212 0
6.600000 10.780000 20.900000 206 212 207 0
6.820000 10.780000 20.900000 208 214 211 0
7.040000 10.780000 20.900000 208 214 211 0
7.260000 10.780000 20.900000 207 213 208 0
7.480000 10.780000 20.900000 213 219 214 0
7.700000 10.780000 22.440000 213 219 214 0
7.920000 10.780000 22.440000 207 213 208 0
8.140000 10.780000 22.660000 207 213 208 0
8.360000 10.780000 22.660000 207 213 208 0
8.580000 10.780000 22.660000 206 212 207 0
8.800000 10.780000 22.660000 211 217 212 0
9.020000 10.780000 22.880000 216 222 219 0
9.240000 10.780000 22.880000 217 223 220 0
9.460000 10.780000 22.880000 213 219 214 0
9.680000 10.780000 22.880000 208 214 209 0
9.900000 10.780000 24.420000 207 213 208 0
10.120000 10.780000 24.420000 206 212 207 0
10.340000 10.780000 24.420000 207 223 218 0
10.560000 10.780000 24.640000 214 230 225 0
10.780000 10.780000 24.640000 205 211 206 0
11.000000 10.780000 24.640000 209 215 210 0
11.220000 10.780000 26.180000 210 216 211 0
11.440000 10.780000 26.180000 207 213 208 0
11.660000 10.780000 26.180000 209 215 210 0
11.880000 10.780000 27.280000 212 218 213 0
12.100000 10.780000 27.940000 208 214 209 0
12.320000 10.780000 29.040000 208 214 209 0
12.540000 10.780000 29.260000 209 218 212 0
12.760000 10.780000 29.260000 204 213 207 0
12.980000 10.780000 29.260000 206 215 209 0
13.200000 10.780000 29.260000 208 217 211 0
13.420000 10.780000 29.480000 207 216 210 0
13.640000 10.780000 29.480000 209 218 212 0
13.860000 10.780000 29.480000 206 215 209 0
14.080000 10.780000 29.480000 206 215 209 0
14.300000 10.780000 31.020000 206 215 209 0
14.520000 10.780000 31.020000 207 216 210 0
14.740000 10.780000 31.020000 208 217 211 0
14.960000 10.780000 31.240000 203 212 206 0
15.180000 10.780000 31.240000 205 214 206 0
15.400000 10.780000 32.560000 203 212 204 0
15.620000 10.780000 32.780000 203 212 204 0
15.840000 10.780000 32.780000 204 213 205 0
16.060000 10.780000 32.780000 215 224 218 0
16.280000 10.780000 33.000000 209 218 212 0
16.500000 10.780000 33.000000 215 224 218 0
16.720000 10.780000 33.000000 201 210 204 0
16.940000 10.780000 33.000000 204 213 205 0
17.160000 10.780000 34.540000 203 212 204 0
17.380000 10.780000 35.640000 210 221 212 0
17.600000 10.780000 37.620000 211 222 213 0
17.820000 10.780000 37.400000 209 220 211 0
18.040000 10.780000 37.400000 200 211 202 0
18.260000 10.780000 38.940000 202 213 204 0
18.480000 10.780000 38.940000 197 208 199 0
18.700000 10.780000 38.940000 204 214 208 0
18.920000 10.780000 39.160000 211 221 215 0
19.140000 10.780000 40.480000 201 211 205 0
19.360000 10.780000 40.480000 195 205 199 0
19.580000 10.780000 40.700000 192 204 197 0
19.800000 10.780000 40.700000 190 202 195 0
20.020000 10.780000 40.700000 186 201 193 0
20.240000 10.780000 40.700000 181 196 188 0
20.460000 10.780000 31.020000 171 178 165 0
20.680000 10.780000 10.340000 157 164 151 0
20.900000 10.780000 0.880000 151 157 142 0
21.120000 10.780000 2.200000 144 150 135 0
21.340000 10.780000 3.740000 144 147 131 0
21.560000 10.780000 3.740000 140 143 127 0
21.780000 10.780000 3.960000 137 140 124 0
22.000000 10.780000 5.280000 136 139 123 0
22.220000 10.780000 6.600000 132 138 121 0
22.440000 10.780000 6.820000 131 137 120 0
22.660000 10.780000 8.140000 132 135 119 0
22.880000 10.780000 8.140000 130 133 117 0
23.100000 10.780000 8.140000 130 137 117 0
23.320000 10.780000 8.140000 129 136 116 0
23.540000 10.780000 9.460000 128 134 117 0
23.760000 10.780000 9.460000 127 133 116 0
23.980000 10.780000 9.460000 128 135 115 0
24.200000 10.780000 11.000000 127 134 114 0
24.420000 10.780000 11.000000 128 131 115 0
24.640000 10.780000 11.000000 128 131 115 0
24.860000 10.780000 11.000000 127 134 114 0
25.080000 10.780000 11.880000 126 133 113 0
25.300000 10.780000 12.760000 125 131 114 0
25.520000 10.780000 12.540000 126 132 115 0
25.740000 10.780000 12.540000 126 133 113 0
25.960000 10.780000 12.540000 125 132 112 0
26.180000 10.780000 12.540000 126 130 111 0
26.400000 10.780000 11.220000 126 130 111 0
26.620000 10.780000 11.220000 125 132 112 0
26.840000 10.780000 12.540000 124 131 111 0
27.060000 10.780000 12.540000 124 131 111 0
27.280000 10.780000 12.540000 125 132 112 0
27.500000 10.780000 12.540000 124 131 111 0
27.720000 10.780000 12.760000 124 131 111 0
27.940000 10.780000 12.760000 127 131 112 0
28.160000 10.780000 12.760000 127 131 112 0
28.380000 10.780000 11.220000 124 131 111 0
28.600000 10.780000 11.220000 125 132 112 0
28.820000 10.780000 11.220000 125 129 110 0
29.040000 10.780000 11.220000 125 129 110 0
29.260000 10.780000 11.220000 124 131 110 0
29.480000 10.780000 11.220000 124 131 110 0
29.700000 10.780000 9.900000 126 130 111 0
29.920000 10.780000 10.120000 126 130 111 0
30.140000 10.780000 9.900000 125 132 111 0
30.360000 10.780000 11.220000 125 132 111 0
30.580000 10.780000 11.220000 126 130 110 0
30.800000 10.780000 11.440000 127 131 111 0
31.020000 10.780000 11.440000 126 133 112 0
31.240000 10.780000 11.440000 125 132 111 0
31.460000 10.780000 11.440000 126 130 110 0
31.680000 10.780000 11.440000 128 132 112 0
31.900000 10.780000 11.220000 125 132 111 0
32.120000 10.780000 12.540000 125 132 111 0
32.340000 10.780000 12.760000 128 132 112 0
32.560000 10.780000 11.440000 127 131 111 0
32.780000 10.780000 10.340000 125 132 111 0
33.000000 10.780000 10.560000 124 131 110 0
33.220000 10.780000 10.560000 126 130 110 0
33.440000 10.780000 9.240000 126 130 110 0
33.660000 10.780000 7.920000 124 131 110 0
33.880000 10.780000 7.920000 122 129 108 0
34.100000 10.780000 6.600000 122 129 108 0
34.320000 10.780000 6.380000 121 128 107 0
34.540000 10.780000 7.700000 121 128 107 0
34.760000 10.780000 9.020000 120 127 106 0
34.980000 10.780000 9.020000 121 128 107 0
35.200000 10.780000 9.020000 121 128 107 0
35.420000 10.780000 10.560000 120 127 106 0
35.640000 10.780000 16.060000 119 126 105 0
35.860000 10.780000 16.060000 120 127 106 0
36.080000 10.780000 16.060000 119 126 105 0
36.300000 10.780000 17.380000 120 127 106 0
36.520000 10.780000 18.700000 119 126 105 0
36.740000 10.780000 20.240000 120 127 106 0
36.960000 10.780000 20.240000 118 125 104 0
37.180000 10.780000 20.240000 118 125 104 0
0.000000 11.000000 9.680000 209 213 211 0
0.220000 11.000000 10.780000 212 216 214 0
0.440000 11.000000 11.440000 213 217 215 0
0.660000 11.000000 12.540000 214 218 216 0
0.880000 11.000000 12.540000 211 215 213 0
1.100000 11.000000 14.080000 210 214 212 0
1.320000 11.000000 14.080000 211 215 213 0
1.540000 11.000000 14.080000 211 215 213 0
1.760000 11.000000 15.620000 210 214 212 0
1.980000 11.000000 15.620000 211 215 213 0
2.200000 11.000000 15.620000 211 215 213 0
2.420000 11.000000 15.620000 209 213 211 0
2.640000 11.000000 15.620000 211 215 213 0
2.860000 11.000000 15.840000 211 215 213 0
3.080000 11.000000 15.840000 210 214 212 0
3.300000 11.000000 15.840000 209 213 211 0
3.520000 11.000000 15.840000 210 214 212 0
3.740000 11.000000 16.060000 208 212 210 0
3.960000 11.000000 16.060000 209 213 211 0
4.180000 11.000000 16.060000 210 214 212 0
4.400000 11.000000 16.060000 209 213 211 0
4.620000 11.000000 16.060000 208 212 208 0
4.840000 11.000000 16.280000 207 211 207 0
5.060000 11.000000 17.600000 208 214 211 0
5.280000 11.000000 17.820000 206 212 209 0
5.500000 11.000000 17.820000 206 212 209 0
5.720000 11.000000 17.820000 208 214 211 0
5.940000 11.000000 17.820000 210 216 211 0
6.160000 11.000000 18.920000 208 214 209 0
6.380000 11.000000 19.800000 212 218 213 0
6.600000 11.000000 20.900000 208 214 209 0
6.820000 11.000000 20.900000 206 212 209 0
7.040000 11.000000 20.900000 207 213 210 0
7.260000 11.000000 20.900000 208 214 209 0
7.480000 11.000000 20.900000 209 215 210 0
7.700000 11.000000 22.440000 220 226 221 0
7.920000 11.000000 22.440000 209 215 210 0
8.140000 11.000000 22.660000 206 212 207 0
8.360000 11.000000 22.660000 207 213 208 0
8.580000 11.000000 22.660000 207 213 208 0
8.800000 11.000000 22.660000 206 212 207 0
9.020000 11.000000 22.880000 210 216 213 0
9.240000 11.000000 22.880000 214 220 217 0
9.460000 11.000000 22.880000 208 214 209 0
9.680000 11.000000 24.420000 207 213 208 0
9.900000 11.000000 24.420000 208 214 209 0
10.120000 11.000000 24.420000 207 213 208 0
10.340000 11.000000 24.420000 201 217 212 0
10.560000 11.000000 24.640000 219 235 230 0
10.780000 11.000000 24.640000 208 214 209 0
11.000000 11.000000 24.640000 208 214 209 0
11.220000 11.000000 24.640000 208 214 209 0
11.440000 11.000000 26.180000 209 215 210 0
11.660000 11.000000 26.180000 206 212 207 0
11.880000 11.000000 27.280000 210 216 211 0
12.100000 11.000000 27.940000 210 216 211 0
12.320000 11.000000 29.040000 208 214 209 0
12.540000 11.000000 29.260000 205 214 208 0
12.760000 11.000000 29.260000 205 214 208 0
12.980000 11.000000 29.260000 205 214 208 0
13.200000 11.000000 29.260000 206 215 209 0
13.420000 11.000000 29.480000 210 219 213 0
13.640000 11.000000 29.480000 210 219 213 0
13.860000 11.000000 29.480000 205 214 208 0
14.080000 11.000000 29.480000 208 217 211 0
14.300000 11.000000 31.020000 207 216 210 0
14.520000 11.000000 31.020000 204 213 207 0
14.740000 11.000000 31.020000 205 214 208 0
14.960000 11.000000 31.240000 211 220 214 0
15.180000 11.000000 31.240000 200 209 201 0
15.400000 11.000000 32.560000 203 212 204 0
15.620000 11.000000 32.780000 203 212 204 0
15.840000 11.000000 32.780000 203 212 204 0
16.060000 11.000000 32.780000 206 215 209 0
16.280000 11.000000 33.000000 208 217 211 0
16.500000 11.000000 33.000000 219 228 222 0
16.720000 11.000000 33.000000 211 220 214 0
16.940000 11.000000 33.000000 201 210 202 0
17.160000 11.000000 34.540000 204 213 205 0
17.380000 11.000000 35.640000 201 212 203 0
17.600000 11.000000 37.620000 209 220 211 0
17.820000 11.000000 37.400000 211 222 213 0
18.040000 11.000000 37.400000 202 213 204 0
18.260000 11.000000 38.940000 201 212 203 0
18.480000 11.000000 38.940000 202 213 204 0
18.700000 11.000000 38.940000 198 208 202 0
18.920000 11.000000 40.480000 198 208 202 0
19.140000 11.000000 40.480000 198 208 202 0
19.360000 11.000000 40.480000 196 206 200 0
19.580000 11.000000 40.700000 192 204 197 0
19.800000 11.000000 40.700000 191 203 196 0
20.020000 11.000000 40.700000 185 200 192 0
20.240000 11.000000 40.700000 181 196 188 0
20.460000 11.000000 31.020000 176 183 170 0
20.680000 11.000000 9.020000 159 166 153 0
20.900000 11.000000 0.880000 152 158 143 0
21.120000 11.000000 2.200000 145 151 136 0
21.340000 11.000000 3.740000 143 146 130 0
21.560000 11.000000 3.740000 141 144 128 0
21.780000 11.000000 3.960000 136 139 123 0
22.000000 11.000000 5.280000 136 139 123 0
22.220000 11.000000 6.600000 132 138 121 0
22.440000 11.000000 6.820000 131 137 120 0
22.660000 11.000000 8.140000 132 135 119 0
22.880000 11.000000 8.140000 132 135 119 0
23.100000 11.000000 8.140000 129 136 116 0
23.320000 11.000000 8.140000 128 135 115 0
23.540000 11.000000 9.460000 128 134 117 0
23.760000 11.000000 9.460000 128 134 117 0
23.980000 11.000000 9.460000 127 134 114 0
24.200000 11.000000 11.000000 126 133 113 0
24.420000 11.000000 11.000000 127 130 114 0
24.640000 11.000000 12.100000 128 131 115 0
24.860000 11.000000 11.880000 126 133 113 0
25.080000 11.000000 12.980000 125 132 112 0
25.300000 11.000000 13.860000 126 132 115 0
25.520000 11.000000 12.540000 125 131 114 0
25.740000 11.000000 12.540000 125 132 112 0
25.960000 11.000000 12.540000 125 132 112 0
26.180000 11.000000 12.540000 126 130 111 0
26.400000 11.000000 12.760000 127 131 112 0
26.620000 11.000000 12.760000 125 132 112 0
26.840000 11.000000 12.760000 125 132 112 0
27.060000 11.000000 12.540000 124 131 111 0
27.280000 11.000000 12.540000 124 131 111 0
27.500000 11.000000 12.540000 125 132 112 0
27.720000 11.000000 12.760000 125 132 112 0
27.940000 11.000000 12.540000 127 131 112 0
28.160000 11.000000 11.220000 126 130 111 0
28.380000 11.000000 11.220000 125 132 112 0
28.600000 11.000000 11.220000 125 132 112 0
28.820000 11.000000 11.220000 127 131 112 0
29.040000 11.000000 11.220000 127 131 112 0
29.260000 11.000000 11.220000 125 132 111 0
29.480000 11.000000 11.220000 125 132 111 0
29.700000 11.000000 9.900000 127 131 112 0
29.920000 11.000000 10.120000 127 131 112 0
30.140000 11.000000 9.900000 125 132 111 0
30.360000 11.000000 11.220000 125 132 111 0
30.580000 11.000000 11.220000 126 130 110 0
30.800000 11.000000 11.440000 128 132 112 0
31.020000 11.000000 11.440000 126 133 112 0
31.240000 11.000000 11.440000 125 132 111 0
31.460000 11.000000 11.440000 127 131 111 0
31.680000 11.000000 11.440000 128 132 112 0
31.900000 11.000000 11.220000 126 133 112 0
32.120000 11.000000 12.540000 125 132 111 0
32.340000 11.000000 12.760000 127 131 111 0
32.560000 11.000000 11.440000 129 133 113 0
32.780000 11.000000 11.660000 125 132 111 0
33.000000 11.000000 10.560000 124 131 110 0
33.220000 11.000000 10.560000 126 130 110 0
33.440000 11.000000 10.560000 126 130 110 0
33.660000 11.000000 9.240000 124 131 110 0
33.880000 11.000000 7.920000 124 131 110 0
34.100000 11.000000 6.600000 122 129 108 0
34.320000 11.000000 6.380000 123 130 109 0
34.540000 11.000000 7.700000 122 129 108 0
34.760000 11.000000 9.020000 121 128 107 0
34.980000 11.000000 9.020000 121 128 107 0
35.200000 11.000000 9.020000 121 128 107 0
35.420000 11.000000 11.880000 120 127 106 0
35.640000 11.000000 16.060000 120 127 106 0
35.860000 11.000000 16.060000 120 127 106 0
36.080000 11.000000 16.060000 119 126 105 0
36.300000 11.000000 17.380000 119 126 105 0
36.520000 11.000000 18.700000 119 126 105 0
36.740000 11.000000 20.240000 119 126 105 0
36.960000 11.000000 20.240000 118 125 104 0
37.180000 11.000000 20.240000 118 125 104 0
0.000000 11.220000 9.680000 211 215 213 0
0.220000 11.220000 10.780000 212 216 214 0
0.440000 11.220000 11.440000 212 216 214 0
0.660000 11.220000 12.540000 212 216 214 0
0.880000 11.220000 12.540000 213 217 215 0
1.100000 11.220000 14.080000 209 213 211 0
1.320000 11.220000 14.080000 209 213 211 0
1.540000 11.220000 14.080000 210 214 212 0
1.760000 11.220000 15.620000 211 215 213 0
1.980000 11.220000 15.620000 211 215 213 0
2.200000 11.220000 15.620000 210 214 212 0
2.420000 11.220000 15.620000 211 215 213 0
2.640000 11.220000 15.620000 209 213 211 0
2.860000 11.220000 15.840000 210 214 212 0
3.080000 11.220000 15.840000 208 212 210 0
3.300000 11.220000 15.840000 209 213 211 0
3.520000 11.220000 15.840000 210 214 212 0
3.740000 11.220000 16.060000 211 215 213 0
3.960000 11.220000 16.060000 208 212 210 0
4.180000 11.220000 16.060000 209 213 211 0
4.400000 11.220000 16.060000 209 213 211 0
4.620000 11.220000 16.060000 223 227 225 0
4.840000 11.220000 16.280000 208 212 210 0
5.060000 11.220000 17.600000 208 212 210 0
5.280000 11.220000 17.820000 208 212 210 0
5.500000 11.220000 17.820000 207 213 210 0
5.720000 11.220000 17.820000 208 214 211 0
5.940000 11.220000 17.820000 210 216 213 0
6.160000 11.220000 18.920000 208 214 211 0
6.380000 11.220000 19.800000 208 214 211 0
6.600000 11.220000 20.900000 212 218 215 0
6.820000 11.220000 20.900000 209 215 212 0
7.040000 11.220000 20.900000 206 212 209 0
7.260000 11.220000 20.900000 209 215 212 0
7.480000 11.220000 20.900000 208 214 211 0
7.700000 11.220000 22.440000 209 215 212 0
7.920000 11.220000 22.440000 211 217 214 0
8.140000 11.220000 22.660000 207 213 210 0
8.360000 11.220000 22.660000 206 212 209 0
8.580000 11.220000 22.660000 208 214 209 0
8.800000 11.220000 22.660000 208 214 209 0
9.020000 11.220000 22.880000 207 213 208 0
9.240000 11.220000 22.880000 209 215 210 0
9.460000 11.220000 22.880000 210 216 213 0
9.680000 11.220000 24.420000 208 214 211 0
9.900000 11.220000 24.420000 207 213 208 0
10.120000 11.220000 24.420000 207 213 208 0
10.340000 11.220000 24.420000 206 212 207 0
10.560000 11.220000 24.640000 209 215 210 0
10.780000 11.220000 24.640000 215 223 220 0
11.000000 11.220000 24.640000 211 219 216 0
11.220000 11.220000 24.640000 208 214 209 0
11.440000 11.220000 24.860000 211 217 212 0
11.660000 11.220000 26.180000 214 223 217 0
11.880000 11.220000 27.280000 204 213 207 0
12.100000 11.220000 27.940000 210 219 213 0
12.320000 11.220000 29.040000 208 217 211 0
12.540000 11.220000 29.260000 205 214 208 0
12.760000 11.220000 29.260000 205 214 208 0
12.980000 11.220000 29.260000 205 214 208 0
13.200000 11.220000 29.260000 204 213 207 0
13.420000 11.220000 29.480000 206 215 209 0
13.640000 11.220000 29.480000 208 217 211 0
13.860000 11.220000 29.480000 207 216 210 0
14.080000 11.220000 31.020000 204 213 207 0
14.300000 11.220000 31.020000 205 214 208 0
14.520000 11.220000 31.020000 206 215 209 0
14.740000 11.220000 31.020000 207 216 210 0
14.960000 11.220000 31.240000 229 238 232 0
15.180000 11.220000 31.240000 208 218 212 0
15.400000 11.220000 32.560000 203 213 207 0
15.620000 11.220000 32.780000 203 213 207 0
15.840000 11.220000 32.780000 204 214 208 0
16.060000 11.220000 32.780000 205 214 208 0
16.280000 11.220000 33.000000 205 214 208 0
16.500000 11.220000 33.000000 211 220 214 0
16.720000 11.220000 33.000000 225 234 228 0
16.940000 11.220000 33.000000 203 213 207 0
17.160000 11.220000 34.540000 213 223 217 0
17.380000 11.220000 35.640000 200 210 204 0
17.600000 11.220000 37.620000 201 211 205 0
17.820000 11.220000 37.400000 202 214 207 0
18.040000 11.220000 38.940000 208 220 213 0
18.260000 11.220000 38.940000 201 211 205 0
18.480000 11.220000 38.940000 201 211 205 0
18.700000 11.220000 40.480000 201 211 205 0
18.920000 11.220000 40.480000 199 209 203 0
19.140000 11.220000 40.480000 203 213 207 0
19.360000 11.220000 40.480000 198 208 202 0
19.580000 11.220000 40.700000 196 206 200 0
19.800000 11.220000 40.700000 194 204 198 0
20.020000 11.220000 40.700000 188 203 195 0
20.240000 11.220000 40.700000 179 194 186 0
20.460000 11.220000 29.700000 175 185 171 0
20.680000 11.220000 9.020000 157 167 153 0
20.900000 11.220000 0.880000 153 156 142 0
21.120000 11.220000 2.200000 147 150 136 0
21.340000 11.220000 3.740000 141 147 130 0
21.560000 11.220000 3.740000 138 144 127 0
21.780000 11.220000 3.960000 136 142 125 0
22.000000 11.220000 5.280000 134 140 123 0
22.220000 11.220000 6.600000 133 139 122 0
22.440000 11.220000 6.820000 131 137 120 0
22.660000 11.220000 8.140000 131 137 120 0
22.880000 11.220000 8.140000 130 136 119 0
23.100000 11.220000 8.140000 129 135 118 0
23.320000 11.220000 8.140000 128 134 117 0
23.540000 11.220000 9.460000 127 133 116 0
23.760000 11.220000 9.460000 128 134 117 0
23.980000 11.220000 9.460000 127 133 116 0
24.200000 11.220000 11.000000 126 132 115 0
24.420000 11.220000 12.100000 126 133 113 0
24.640000 11.220000 12.980000 126 133 113 0
24.860000 11.220000 12.760000 127 133 116 0
25.080000 11.220000 12.760000 126 132 115 0
25.300000 11.220000 13.860000 126 133 113 0
25.520000 11.220000 12.540000 126 133 113 0
25.740000 11.220000 12.540000 124 131 111 0
25.960000 11.220000 12.540000 124 131 111 0
26.180000 11.220000 12.540000 124 131 111 0
26.400000 11.220000 12.760000 125 132 112 0
26.620000 11.220000 12.760000 124 131 111 0
26.840000 11.220000 12.760000 125 132 112 0
27.060000 11.220000 12.540000 124 131 111 0
27.280000 11.220000 12.540000 124 131 111 0
27.500000 11.220000 12.540000 123 130 110 0
27.720000 11.220000 12.540000 124 131 111 0
27.940000 11.220000 11.220000 124 131 111 0
28.160000 11.220000 11.220000 124 131 111 0
28.380000 11.220000 11.220000 125 132 112 0
28.600000 11.220000 11.220000 124 131 111 0
28.820000 11.220000 11.220000 125 132 112 0
29.040000 11.220000 11.220000 125 132 112 0
29.260000 11.220000 11.220000 124 131 110 0
29.480000 11.220000 11.220000 125 132 111 0
29.700000 11.220000 9.900000 125 132 111 0
29.920000 11.220000 10.120000 125 132 111 0
30.140000 11.220000 9.900000 124 131 110 0
30.360000 11.220000 11.220000 125 132 111 0
30.580000 11.220000 11.220000 126 133 112 0
30.800000 11.220000 11.440000 126 133 112 0
31.020000 11.220000 11.440000 125 132 111 0
31.240000 11.220000 11.440000 126 133 112 0
31.460000 11.220000 11.440000 126 133 112 0
31.680000 11.220000 11.440000 125 132 111 0
31.900000 11.220000 11.220000 125 132 111 0
32.120000 11.220000 12.760000 126 133 112 0
32.340000 11.220000 12.760000 125 132 111 0
32.560000 11.220000 11.440000 126 133 112 0
32.780000 11.220000 11.660000 125 132 111 0
33.000000 11.220000 10.560000 125 132 111 0
33.220000 11.220000 10.560000 124 131 110 0
33.440000 11.220000 10.560000 123 130 109 0
33.660000 11.220000 9.240000 124 131 110 0
33.880000 11.220000 7.920000 124 131 110 0
34.100000 11.220000 7.920000 123 130 109 0
34.320000 11.220000 7.920000 122 129 108 0
34.540000 11.220000 7.700000 122 129 108 0
34.760000 11.220000 9.020000 123 130 109 0
34.980000 11.220000 9.020000 121 128 107 0
35.200000 11.220000 9.020000 121 128 107 0
35.420000 11.220000 11.880000 121 128 107 0
35.640000 11.220000 16.060000 120 127 106 0
35.860000 11.220000 16.060000 120 127 106 0
36.080000 11.220000 16.060000 120 127 106 0
36.300000 11.220000 17.380000 119 126 105 0
36.520000 11.220000 18.700000 119 126 105 0
36.740000 11.220000 20.240000 120 127 106 0
36.960000 11.220000 20.240000 119 126 105 0
37.180000 11.220000 20.240000 118 125 104 0
0.000000 11.440000 9.680000 211 215 213 0
0.220000 11.440000 10.560000 211 215 213 0
0.440000 11.440000 11.440000 211 215 213 0
0.660000 11.440000 12.540000 212 216 214 0
0.880000 11.440000 12.540000 212 216 214 0
1.100000 11.440000 14.080000 212 216 214 0
1.320000 11.440000 14.080000 210 214 212 0
1.540000 11.440000 14.080000 210 214 212 0
1.760000 11.440000 15.620000 211 215 213 0
1.980000 11.440000 15.620000 213 217 215 0
2.200000 11.440000 15.620000 211 215 213 0
2.420000 11.440000 15.620000 210 214 212 0
2.640000 11.440000 15.620000 210 214 212 0
2.860000 11.440000 15.840000 209 213 211 0
3.080000 11.440000 15.840000 209 213 211 0
3.300000 11.440000 15.840000 209 213 211 0
3.520000 11.440000 15.840000 210 214 212 0
3.740000 11.440000 16.060000 210 214 212 0
3.960000 11.440000 16.060000 211 215 213 0
4.180000 11.440000 16.060000 207 211 209 0
4.400000 11.440000 16.060000 208 212 210 0
4.620000 11.440000 17.600000 214 218 216 0
4.840000 11.440000 17.600000 209 213 211 0
5.060000 11.440000 17.600000 209 213 211 0
5.280000 11.440000 17.820000 209 213 211 0
5.500000 11.440000 17.820000 207 213 210 0
5.720000 11.440000 17.820000 207 213 210 0
5.940000 11.440000 17.820000 207 213 210 0
6.160000 11.440000 18.920000 208 214 211 0
6.380000 11.440000 19.800000 207 213 210 0
6.600000 11.440000 20.900000 207 213 210 0
6.820000 11.440000 20.900000 208 214 211 0
7.040000 11.440000 20.900000 206 212 209 0
7.260000 11.440000 20.900000 207 213 210 0
7.480000 11.440000 21.120000 209 215 212 0
7.700000 11.440000 22.440000 207 213 210 0
7.920000 11.440000 22.440000 208 214 211 0
8.140000 11.440000 22.660000 209 215 212 0
8.360000 11.440000 22.660000 207 213 210 0
8.580000 11.440000 22.660000 207 213 208 0
8.800000 11.440000 22.660000 207 213 208 0
9.020000 11.440000 22.880000 207 213 208 0
9.240000 11.440000 22.880000 207 213 208 0
9.460000 11.440000 22.880000 209 215 212 0
9.680000 11.440000 24.420000 210 216 213 0
9.900000 11.440000 24.420000 206 212 207 0
10.120000 11.440000 24.420000 206 212 207 0
10.340000 11.440000 24.420000 207 213 208 0
10.560000 11.440000 24.640000 207 213 208 0
10.780000 11.440000 24.640000 210 218 215 0
11.000000 11.440000 24.640000 220 228 225 0
11.220000 11.440000 24.640000 209 215 210 0
11.440000 11.440000 24.860000 208 214 209 0
11.660000 11.440000 26.180000 220 229 223 0
11.880000 11.440000 27.280000 209 218 212 0
12.100000 11.440000 27.940000 206 215 209 0
12.320000 11.440000 29.040000 208 217 211 0
12.540000 11.440000 29.260000 206 215 209 0
12.760000 11.440000 29.260000 206 215 209 0
12.980000 11.440000 29.260000 206 215 209 0
13.200000 11.440000 29.260000 205 214 208 0
13.420000 11.440000 29.480000 204 213 207 0
13.640000 11.440000 29.480000 206 215 209 0
13.860000 11.440000 29.480000 217 226 220 0
14.080000 11.440000 31.020000 216 225 219 0
14.300000 11.440000 31.020000 203 212 206 0
14.520000 11.440000 31.020000 208 217 211 0
14.740000 11.440000 31.020000 206 215 209 0
14.960000 11.440000 31.240000 212 221 215 0
15.180000 11.440000 31.240000 204 214 208 0
15.400000 11.440000 32.560000 206 216 210 0
15.620000 11.440000 32.780000 206 216 210 0
15.840000 11.440000 32.780000 206 216 210 0
16.060000 11.440000 32.780000 206 215 209 0
16.280000 11.440000 33.000000 204 213 207 0
16.500000 11.440000 33.000000 205 214 208 0
16.720000 11.440000 33.000000 213 222 216 0
16.940000 11.440000 33.000000 204 214 208 0
17.160000 11.440000 33.220000 201 211 205 0
17.380000 11.440000 35.640000 201 211 205 0
17.600000 11.440000 37.620000 200 210 204 0
17.820000 11.440000 38.720000 201 213 206 0
18.040000 11.440000 38.720000 213 225 218 0
18.260000 11.440000 38.940000 204 214 208 0
18.480000 11.440000 40.260000 199 209 203 0
18.700000 11.440000 40.480000 204 214 208 0
18.920000 11.440000 40.480000 200 210 204 0
19.140000 11.440000 40.480000 197 207 201 0
19.360000 11.440000 40.480000 197 207 201 0
19.580000 11.440000 40.700000 196 206 200 0
19.800000 11.440000 40.700000 195 205 199 0
20.020000 11.440000 40.700000 188 203 195 0
20.240000 11.440000 40.700000 183 198 190 0
20.460000 11.440000 32.560000 173 183 169 0
20.680000 11.440000 14.520000 159 169 155 0
20.900000 11.440000 2.200000 152 155 141 0
21.120000 11.440000 2.200000 147 150 136 0
21.340000 11.440000 3.740000 141 147 130 0
21.560000 11.440000 3.740000 139 145 128 0
21.780000 11.440000 3.960000 135 141 124 0
22.000000 11.440000 5.280000 134 140 123 0
22.220000 11.440000 6.600000 133 139 122 0
22.440000 11.440000 8.140000 132 138 121 0
22.660000 11.440000 8.140000 131 137 120 0
22.880000 11.440000 8.140000 129 135 118 0
23.100000 11.440000 8.140000 129 135 118 0
23.320000 11.440000 8.140000 129 135 118 0
23.540000 11.440000 9.460000 128 134 117 0
23.760000 11.440000 9.460000 127 133 116 0
23.980000 11.440000 9.680000 126 132 115 0
24.200000 11.440000 10.780000 126 132 115 0
24.420000 11.440000 12.980000 126 133 113 0
24.640000 11.440000 13.860000 126 133 113 0
24.860000 11.440000 12.760000 126 132 115 0
25.080000 11.440000 12.980000 125 131 114 0
25.300000 11.440000 12.980000 125 132 112 0
25.520000 11.440000 12.540000 125 132 112 0
25.740000 11.440000 12.540000 125 132 112 0
25.960000 11.440000 12.540000 125 132 112 0
26.180000 11.440000 12.760000 125 132 112 0
26.400000 11.440000 12.760000 124 131 111 0
26.620000 11.440000 14.080000 125 132 112 0
26.840000 11.440000 14.080000 125 132 112 0
27.060000 11.440000 14.080000 123 130 110 0
27.280000 11.440000 13.860000 124 131 111 0
27.500000 11.440000 12.540000 125 132 112 0
27.720000 11.440000 12.540000 124 131 111 0
27.940000 11.440000 11.220000 124 131 111 0
28.160000 11.440000 11.220000 124 131 111 0
28.380000 11.440000 11.220000 125 132 112 0
28.600000 11.440000 11.220000 125 132 112 0
28.820000 11.440000 11.220000 124 131 111 0
29.040000 11.440000 11.220000 125 132 112 0
29.260000 11.440000 11.220000 125 132 111 0
29.480000 11.440000 11.440000 125 132 111 0
29.700000 11.440000 11.440000 125 132 111 0
29.920000 11.440000 10.120000 124 131 110 0
30.140000 11.440000 9.900000 125 132 111 0
30.360000 11.440000 11.220000 124 131 110 0
30.580000 11.440000 11.220000 125 132 111 0
30.800000 11.440000 11.220000 126 133 112 0
31.020000 11.440000 11.440000 126 133 112 0
31.240000 11.440000 11.440000 125 132 111 0
31.460000 11.440000 11.440000 126 133 112 0
31.680000 11.440000 11.440000 126 133 112 0
31.900000 11.440000 11.440000 126 133 112 0
32.120000 11.440000 11.440000 126 133 112 0
32.340000 11.440000 11.440000 125 132 111 0
32.560000 11.440000 11.440000 126 133 112 0
32.780000 11.440000 11.660000 126 133 112 0
33.000000 11.440000 10.560000 125 132 111 0
33.220000 11.440000 10.780000 123 130 109 0
33.440000 11.440000 10.780000 124 131 110 0
33.660000 11.440000 9.240000 125 132 111 0
33.880000 11.440000 7.920000 123 130 109 0
34.100000 11.440000 7.920000 124 131 110 0
34.320000 11.440000 7.700000 122 129 108 0
34.540000 11.440000 7.700000 121 128 107 0
34.760000 11.440000 9.020000 122 129 108 0
34.980000 11.440000 9.020000 121 128 107 0
35.200000 11.440000 9.020000 121 128 107 0
35.420000 11.440000 11.880000 120 127 106 0
35.640000 11.440000 16.060000 120 127 106 0
35.860000 11.440000 16.060000 119 126 105 0
36.080000 11.440000 16.060000 120 127 106 0
36.300000 11.440000 17.380000 118 125 104 0
36.520000 11.440000 18.700000 119 126 105 0
36.740000 11.440000 20.240000 119 126 105 0
36.960000 11.440000 20.240000 119 126 105 0
37.180000 11.440000 20.240000 119 126 105 0
0.000000 11.660000 9.680000 210 213 213 0
0.220000 11.660000 10.560000 210 215 214 0
0.440000 11.660000 11.440000 210 215 214 0
0.660000 11.660000 12.540000 212 215 215 0
0.880000 11.660000 12.540000 211 214 214 0
1.100000 11.660000 14.080000 209 214 213 0
1.320000 11.660000 14.080000 210 215 214 0
1.540000 11.660000 14.080000 208 213 212 0
1.760000 11.660000 15.620000 212 217 216 0
1.980000 11.660000 15.620000 213 224 223 0
2.200000 11.660000 15.620000 214 225 224 0
2.420000 11.660000 15.620000 208 213 212 0
2.640000 11.660000 15.620000 210 215 214 0
2.860000 11.660000 15.840000 208 213 212 0
3.080000 11.660000 15.840000 209 214 213 0
3.300000 11.660000 15.840000 210 215 214 0
3.520000 11.660000 15.840000 209 214 213 0
3.740000 11.660000 16.060000 213 218 217 0
3.960000 11.660000 16.060000 207 212 211 0
4.180000 11.660000 16.060000 209 214 213 0
4.400000 11.660000 17.600000 206 211 210 0
4.620000 11.660000 17.600000 206 211 210 0
4.840000 11.660000 17.600000 207 212 211 0
5.060000 11.660000 17.600000 209 219 216 0
5.280000 11.660000 17.820000 206 216 213 0
5.500000 11.660000 17.820000 208 214 211 0
5.720000 11.660000 17.820000 207 213 210 0
5.940000 11.660000 17.820000 206 212 209 0
6.160000 11.660000 18.920000 206 212 209 0
6.380000 11.660000 19.800000 208 214 211 0
6.600000 11.660000 20.900000 208 214 211 0
6.820000 11.660000 20.900000 207 212 211 0
7.040000 11.660000 20.900000 209 214 213 0
7.260000 11.660000 20.900000 205 213 210 0
7.480000 11.660000 21.120000 205 213 210 0
7.700000 11.660000 21.120000 206 212 209 0
7.920000 11.660000 22.440000 207 213 210 0
8.140000 11.660000 22.660000 208 214 211 0
8.360000 11.660000 22.660000 208 214 211 0
8.580000 11.660000 22.660000 212 218 215 0
8.800000 11.660000 22.660000 205 211 208 0
9.020000 11.660000 22.880000 205 213 210 0
9.240000 11.660000 22.880000 205 213 210 0
9.460000 11.660000 24.200000 207 213 210 0
9.680000 11.660000 24.420000 208 214 211 0
9.900000 11.660000 24.420000 208 214 211 0
10.120000 11.660000 24.420000 207 213 210 0
10.340000 11.660000 24.420000 205 213 210 0
10.560000 11.660000 24.640000 205 213 210 0
10.780000 11.660000 24.640000 205 213 210 0
11.000000 11.660000 24.640000 208 216 213 0
11.220000 11.660000 24.640000 222 227 226 0
11.440000 11.660000 24.860000 205 210 209 0
11.660000 11.660000 26.180000 207 215 212 0
11.880000 11.660000 27.280000 208 216 213 0
12.100000 11.660000 27.940000 205 214 208 0
12.320000 11.660000 29.040000 205 214 208 0
12.540000 11.660000 29.260000 208 216 213 0
12.760000 11.660000 29.260000 211 219 216 0
12.980000 11.660000 29.260000 212 220 217 0
13.200000 11.660000 29.260000 203 211 208 0
13.420000 11.660000 29.480000 204 212 209 0
13.640000 11.660000 29.480000 203 211 208 0
13.860000 11.660000 29.480000 207 217 213 0
14.080000 11.660000 31.020000 215 225 221 0
14.300000 11.660000 31.020000 203 212 206 0
14.520000 11.660000 31.020000 206 215 209 0
14.740000 11.660000 31.020000 208 218 214 0
14.960000 11.660000 31.240000 201 211 207 0
15.180000 11.660000 31.240000 202 212 208 0
15.400000 11.660000 32.560000 205 215 211 0
15.620000 11.660000 32.780000 207 216 210 0
15.840000 11.660000 32.780000 207 216 210 0
16.060000 11.660000 32.780000 206 216 210 0
16.280000 11.660000 33.000000 204 214 208 0
16.500000 11.660000 33.000000 205 215 211 0
16.720000 11.660000 33.000000 205 215 211 0
16.940000 11.660000 33.000000 202 212 208 0
17.160000 11.660000 33.220000 201 211 207 0
17.380000 11.660000 35.640000 200 210 204 0
17.600000 11.660000 37.620000 200 210 204 0
17.820000 11.660000 38.720000 199 209 203 0
18.040000 11.660000 38.720000 206 216 210 0
18.260000 11.660000 38.940000 203 213 209 0
18.480000 11.660000 40.260000 199 209 205 0
18.700000 11.660000 40.480000 200 210 206 0
18.920000 11.660000 40.480000 199 209 205 0
19.140000 11.660000 40.480000 196 206 200 0
19.360000 11.660000 40.480000 197 207 201 0
19.580000 11.660000 40.700000 196 206 200 0
19.800000 11.660000 40.700000 194 204 198 0
20.020000 11.660000 40.700000 185 201 193 0
20.240000 11.660000 40.700000 184 200 192 0
20.460000 11.660000 38.060000 175 184 174 0
20.680000 11.660000 25.520000 157 166 156 0
20.900000 11.660000 7.700000 153 159 144 0
21.120000 11.660000 2.200000 145 151 136 0
21.340000 11.660000 3.740000 141 147 130 0
21.560000 11.660000 5.280000 139 145 128 0
21.780000 11.660000 5.280000 136 142 125 0
22.000000 11.660000 5.280000 133 139 122 0
22.220000 11.660000 6.600000 133 139 122 0
22.440000 11.660000 6.820000 131 137 120 0
22.660000 11.660000 8.140000 131 137 120 0
22.880000 11.660000 8.140000 129 135 118 0
23.100000 11.660000 8.140000 128 134 117 0
23.320000 11.660000 8.140000 129 135 118 0
23.540000 11.660000 9.460000 128 134 117 0
23.760000 11.660000 9.460000 127 133 116 0
23.980000 11.660000 9.680000 126 132 115 0
24.200000 11.660000 10.780000 126 132 115 0
24.420000 11.660000 12.980000 126 132 115 0
24.640000 11.660000 14.080000 126 132 115 0
24.860000 11.660000 12.760000 124 132 114 0
25.080000 11.660000 12.100000 125 133 115 0
25.300000 11.660000 11.880000 125 131 114 0
25.520000 11.660000 12.760000 126 132 115 0
25.740000 11.660000 12.540000 125 131 114 0
25.960000 11.660000 12.540000 125 131 114 0
26.180000 11.660000 12.760000 125 132 112 0
26.400000 11.660000 12.760000 124 131 111 0
26.620000 11.660000 14.080000 125 132 112 0
26.840000 11.660000 14.080000 124 131 111 0
27.060000 11.660000 14.080000 125 132 112 0
27.280000 11.660000 13.860000 124 131 111 0
27.500000 11.660000 12.540000 124 131 111 0
27.720000 11.660000 12.540000 124 131 111 0
27.940000 11.660000 11.220000 124 131 111 0
28.160000 11.660000 11.220000 124 131 111 0
28.380000 11.660000 11.220000 124 131 111 0
28.600000 11.660000 11.220000 125 132 112 0
28.820000 11.660000 11.220000 125 132 112 0
29.040000 11.660000 11.220000 124 131 111 0
29.260000 11.660000 11.220000 124 131 111 0
29.480000 11.660000 11.440000 124 131 111 0
29.700000 11.660000 11.440000 124 131 111 0
29.920000 11.660000 10.120000 124 131 111 0
30.140000 11.660000 11.220000 125 132 112 0
30.360000 11.660000 11.220000 124 131 111 0
30.580000 11.660000 11.220000 124 131 111 0
30.800000 11.660000 11.220000 125 132 112 0
31.020000 11.660000 11.220000 125 132 112 0
31.240000 11.660000 11.440000 126 133 113 0
31.460000 11.660000 11.440000 126 133 113 0
31.680000 11.660000 11.440000 126 133 113 0
31.900000 11.660000 11.440000 126 133 112 0
32.120000 11.660000 11.440000 125 132 111 0
32.340000 11.660000 11.440000 125 132 111 0
32.560000 11.660000 11.440000 125 132 111 0
32.780000 11.660000 11.440000 125 132 111 0
33.000000 11.660000 11.660000 125 132 111 0
33.220000 11.660000 10.780000 125 132 111 0
33.440000 11.660000 10.780000 124 131 110 0
33.660000 11.660000 9.460000 123 130 109 0
33.880000 11.660000 9.460000 124 131 110 0
34.100000 11.660000 7.920000 124 131 111 0
34.320000 11.660000 7.700000 123 130 110 0
34.540000 11.660000 7.700000 122 129 108 0
34.760000 11.660000 9.020000 121 128 107 0
34.980000 11.660000 9.020000 121 128 107 0
35.200000 11.660000 9.020000 121 128 107 0
35.420000 11.660000 11.880000 121 128 108 0
35.640000 11.660000 14.520000 121 128 108 0
35.860000 11.660000 16.060000 119 126 106 0
36.080000 11.660000 16.060000 119 126 106 0
36.300000 11.660000 17.380000 120 127 106 0
36.520000 11.660000 18.700000 119 126 105 0
36.740000 11.660000 20.240000 119 126 105 0
36.960000 11.660000 20.240000 120 127 106 0
37.180000 11.660000 20.240000 119 126 106 0
0.000000 11.880000 9.680000 212 215 215 0
0.220000 11.880000 10.560000 208 213 212 0
0.440000 11.880000 11.440000 209 214 213 0
0.660000 11.880000 12.540000 212 215 215 0
0.880000 11.880000 12.540000 211 214 214 0
1.100000 11.880000 14.080000 209 214 213 0
1.320000 11.880000 14.080000 208 213 212 0
1.540000 11.880000 14.080000 209 214 213 0
1.760000 11.880000 15.620000 209 214 213 0
1.980000 11.880000 15.620000 210 221 220 0
2.200000 11.880000 15.620000 218 229 228 0
2.420000 11.880000 15.620000 210 215 214 0
2.640000 11.880000 15.620000 209 214 213 0
2.860000 11.880000 15.840000 209 214 213 0
3.080000 11.880000 15.840000 207 212 211 0
3.300000 11.880000 15.840000 207 212 211 0
3.520000 11.880000 15.840000 208 213 212 0
3.740000 11.880000 16.060000 226 231 230 0
3.960000 11.880000 16.060000 209 214 213 0
4.180000 11.880000 17.380000 208 213 212 0
4.400000 11.880000 17.600000 208 213 212 0
4.620000 11.880000 17.600000 206 211 210 0
4.840000 11.880000 17.600000 206 211 210 0
5.060000 11.880000 17.600000 208 218 215 0
5.280000 11.880000 17.820000 216 226 223 0
5.500000 11.880000 17.820000 205 211 208 0
5.720000 11.880000 17.820000 207 213 210 0
5.940000 11.880000 17.820000 207 213 210 0
6.160000 11.880000 18.920000 205 211 208 0
6.380000 11.880000 19.800000 206 212 209 0
6.600000 11.880000 20.900000 208 214 211 0
6.820000 11.880000 20.900000 206 211 210 0
7.040000 11.880000 20.900000 209 214 213 0
7.260000 11.880000 20.900000 208 216 213 0
7.480000 11.880000 21.120000 204 212 209 0
7.700000 11.880000 21.120000 206 212 209 0
7.920000 11.880000 21.120000 207 213 210 0
8.140000 11.880000 22.660000 207 213 210 0
8.360000 11.880000 22.660000 211 217 214 0
8.580000 11.880000 22.660000 218 224 221 0
8.800000 11.880000 22.660000 209 215 212 0
9.020000 11.880000 22.880000 204 212 209 0
9.240000 11.880000 22.880000 205 213 210 0
9.460000 11.880000 24.200000 207 213 210 0
9.680000 11.880000 24.420000 207 213 210 0
9.900000 11.880000 24.420000 209 215 212 0
10.120000 11.880000 24.420000 207 213 210 0
10.340000 11.880000 24.420000 205 213 210 0
10.560000 11.880000 24.640000 205 213 210 0
10.780000 11.880000 24.640000 206 214 211 0
11.000000 11.880000 24.640000 204 212 209 0
11.220000 11.880000 24.640000 216 221 220 0
11.440000 11.880000 24.860000 225 230 229 0
11.660000 11.880000 26.180000 201 209 206 0
11.880000 11.880000 27.280000 204 212 209 0
12.100000 11.880000 27.940000 204 213 207 0
12.320000 11.880000 29.040000 204 213 207 0
12.540000 11.880000 29.260000 205 213 210 0
12.760000 11.880000 29.260000 211 219 216 0
12.980000 11.880000 29.260000 219 227 224 0
13.200000 11.880000 29.260000 201 209 206 0
13.420000 11.880000 29.480000 202 210 207 0
13.640000 11.880000 29.480000 203 211 208 0
13.860000 11.880000 29.480000 201 211 207 0
14.080000 11.880000 29.480000 215 225 221 0
14.300000 11.880000 31.020000 214 223 217 0
14.520000 11.880000 31.020000 201 210 204 0
14.740000 11.880000 31.020000 202 212 208 0
14.960000 11.880000 31.240000 204 214 210 0
15.180000 11.880000 31.240000 201 211 207 0
15.400000 11.880000 32.560000 202 212 208 0
15.620000 11.880000 32.780000 206 215 209 0
15.840000 11.880000 32.780000 205 214 208 0
16.060000 11.880000 32.780000 204 214 208 0
16.280000 11.880000 33.000000 203 213 207 0
16.500000 11.880000 33.000000 204 214 210 0
16.720000 11.880000 33.000000 202 212 208 0
16.940000 11.880000 33.000000 202 212 208 0
17.160000 11.880000 34.540000 200 210 206 0
17.380000 11.880000 35.640000 199 209 203 0
17.600000 11.880000 37.620000 199 209 203 0
17.820000 11.880000 38.720000 201 211 205 0
18.040000 11.880000 38.720000 199 209 203 0
18.260000 11.880000 38.940000 200 210 206 0
18.480000 11.880000 40.260000 199 209 205 0
18.700000 11.880000 40.480000 199 209 205 0
18.920000 11.880000 40.480000 195 205 201 0
19.140000 11.880000 40.480000 195 205 199 0
19.360000 11.880000 40.480000 194 204 198 0
19.580000 11.880000 40.700000 194 204 198 0
19.800000 11.880000 40.700000 194 204 198 0
20.020000 11.880000 40.700000 184 200 192 0
20.240000 11.880000 40.700000 178 194 186 0
20.460000 11.880000 40.700000 174 183 173 0
20.680000 11.880000 31.240000 159 168 158 0
20.900000 11.880000 10.560000 152 158 143 0
21.120000 11.880000 2.200000 144 150 135 0
21.340000 11.880000 3.740000 140 146 129 0
21.560000 11.880000 5.280000 138 144 127 0
21.780000 11.880000 5.280000 135 141 124 0
22.000000 11.880000 5.280000 133 139 122 0
22.220000 11.880000 6.600000 131 137 120 0
22.440000 11.880000 6.820000 130 136 119 0
22.660000 11.880000 8.140000 130 136 119 0
22.880000 11.880000 8.140000 128 134 117 0
23.100000 11.880000 8.140000 128 134 117 0
23.320000 11.880000 8.140000 127 133 116 0
23.540000 11.880000 9.460000 127 133 116 0
23.760000 11.880000 9.680000 126 132 115 0
23.980000 11.880000 9.680000 126 132 115 0
24.200000 11.880000 11.000000 126 132 115 0
24.420000 11.880000 11.880000 125 131 114 0
24.640000 11.880000 12.760000 125 131 114 0
24.860000 11.880000 12.760000 124 132 114 0
25.080000 11.880000 11.880000 124 132 114 0
25.300000 11.880000 12.100000 125 131 114 0
25.520000 11.880000 12.760000 124 130 113 0
25.740000 11.880000 12.540000 124 130 113 0
25.960000 11.880000 12.760000 124 130 113 0
26.180000 11.880000 12.760000 124 131 111 0
26.400000 11.880000 12.760000 124 131 111 0
26.620000 11.880000 14.300000 124 131 111 0
26.840000 11.880000 14.080000 124 131 111 0
27.060000 11.880000 14.080000 124 131 111 0
27.280000 11.880000 13.860000 123 130 110 0
27.500000 11.880000 12.540000 123 130 110 0
27.720000 11.880000 12.540000 124 131 111 0
27.940000 11.880000 11.220000 124 131 111 0
28.160000 11.880000 11.220000 124 131 111 0
28.380000 11.880000 11.220000 124 131 111 0
28.600000 11.880000 11.220000 125 132 112 0
28.820000 11.880000 11.220000 124 131 111 0
29.040000 11.880000 11.220000 124 131 111 0
29.260000 11.880000 11.220000 124 131 111 0
29.480000 11.880000 11.220000 124 131 111 0
29.700000 11.880000 11.440000 124 131 111 0
29.920000 11.880000 11.440000 125 132 112 0
30.140000 11.880000 11.220000 124 131 111 0
30.360000 11.880000 11.220000 124 131 111 0
30.580000 11.880000 11.220000 125 132 112 0
30.800000 11.880000 11.220000 125 132 112 0
31.020000 11.880000 11.220000 124 131 111 0
31.240000 11.880000 11.440000 125 132 112 0
31.460000 11.880000 11.440000 125 132 112 0
31.680000 11.880000 11.440000 126 133 113 0
31.900000 11.880000 11.440000 125 132 111 0
32.120000 11.880000 11.440000 125 132 111 0
32.340000 11.880000 11.440000 124 131 110 0
32.560000 11.880000 11.660000 125 132 111 0
32.780000 11.880000 11.440000 124 131 110 0
33.000000 11.880000 11.440000 124 131 110 0
33.220000 11.880000 10.780000 124 131 110 0
33.440000 11.880000 9.460000 124 131 110 0
33.660000 11.880000 9.460000 123 130 109 0
33.880000 11.880000 8.140000 123 130 109 0
34.100000 11.880000 7.920000 124 131 111 0
34.320000 11.880000 7.700000 123 130 110 0
34.540000 11.880000 7.700000 122 129 108 0
34.760000 11.880000 9.020000 121 128 107 0
34.980000 11.880000 9.020000 121 128 107 0
35.200000 11.880000 9.020000 121 128 107 0
35.420000 11.880000 11.880000 121 128 108 0
35.640000 11.880000 14.520000 121 128 108 0
35.860000 11.880000 16.060000 120 127 107 0
36.080000 11.880000 16.060000 120 127 107 0
36.300000 11.880000 17.380000 119 126 105 0
36.520000 11.880000 18.700000 120 127 106 0
36.740000 11.880000 20.240000 119 126 105 0
36.960000 11.880000 20.240000 119 126 105 0
37.180000 11.880000 20.240000 119 126 106 0
0.000000 12.100000 9.680000 211 214 214 0
0.220000 12.100000 10.560000 209 214 213 0
0.440000 12.100000 11.440000 208 213 212 0
0.660000 12.100000 12.540000 211 214 214 0
0.880000 12.100000 12.540000 214 217 217 0
1.100000 12.100000 14.080000 209 214 213 0
1.320000 12.100000 14.080000 207 212 211 0
1.540000 12.100000 14.080000 208 213 212 0
1.760000 12.100000 15.620000 208 213 212 0
1.980000 12.100000 15.620000 208 212 210 0
2.200000 12.100000 15.620000 213 217 215 0
2.420000 12.100000 15.620000 212 217 216 0
2.640000 12.100000 15.620000 210 215 214 0
2.860000 12.100000 15.840000 209 214 213 0
3.080000 12.100000 15.840000 210 215 214 0
3.300000 12.100000 15.840000 206 212 209 0
3.520000 12.100000 15.840000 207 213 210 0
3.740000 12.100000 16.060000 218 223 222 0
3.960000 12.100000 16.060000 214 219 218 0
4.180000 12.100000 17.380000 207 213 210 0
4.400000 12.100000 17.600000 207 213 210 0
4.620000 12.100000 17.600000 208 214 211 0
4.840000 12.100000 17.600000 206 212 209 0
5.060000 12.100000 17.600000 206 212 209 0
5.280000 12.100000 17.820000 212 218 215 0
5.500000 12.100000 17.820000 207 213 210 0
5.720000 12.100000 17.820000 206 212 209 0
5.940000 12.100000 17.820000 206 212 209 0
6.160000 12.100000 18.920000 206 212 209 0
6.380000 12.100000 19.800000 206 212 209 0
6.600000 12.100000 20.680000 208 214 211 0
6.820000 12.100000 20.900000 210 216 213 0
7.040000 12.100000 20.900000 207 213 210 0
7.260000 12.100000 20.900000 214 220 217 0
7.480000 12.100000 20.900000 210 216 213 0
