ply
format ascii 1.0
element vertex 1110
property float x
property float y
property float z
property uchar red
property uchar green
property uchar blue
property uchar alpha
end_header
36.740000 22.660000 8.690000 137 141 114 0
36.960000 22.660000 9.460000 139 143 116 0
37.180000 22.660000 10.120000 138 142 114 0
0.000000 22.880000 8.030000 190 185 176 0
0.220000 22.880000 7.260000 190 183 172 0
0.440000 22.880000 6.600000 190 183 172 0
0.660000 22.880000 5.940000 192 187 178 0
0.880000 22.880000 5.940000 195 190 181 0
1.100000 22.880000 5.280000 197 193 185 0
1.320000 22.880000 5.390000 200 196 188 0
1.540000 22.880000 4.730000 202 202 199 0
1.760000 22.880000 4.730000 206 206 203 0
1.980000 22.880000 4.730000 206 207 204 0
2.200000 22.880000 4.840000 207 208 205 0
2.420000 22.880000 5.500000 208 209 206 0
2.640000 22.880000 6.050000 210 211 208 0
2.860000 22.880000 7.150000 212 213 210 0
3.080000 22.880000 6.930000 211 212 209 0
3.300000 22.880000 6.930000 211 212 209 0
3.520000 22.880000 7.040000 212 213 210 0
3.740000 22.880000 7.040000 210 214 210 0
3.960000 22.880000 7.040000 209 213 209 0
4.180000 22.880000 7.040000 212 213 210 0
4.400000 22.880000 7.810000 212 213 210 0
4.620000 22.880000 7.810000 212 213 210 0
4.840000 22.880000 7.810000 212 213 210 0
5.060000 22.880000 7.920000 213 214 211 0
5.280000 22.880000 7.920000 213 214 211 0
5.500000 22.880000 7.920000 211 215 211 0
5.720000 22.880000 7.920000 212 216 212 0
5.940000 22.880000 8.030000 215 219 215 0
6.160000 22.880000 8.030000 213 217 213 0
6.380000 22.880000 8.030000 209 213 207 0
6.600000 22.880000 8.030000 211 215 209 0
6.820000 22.880000 8.140000 211 215 211 0
7.040000 22.880000 8.140000 211 215 211 0
7.260000 22.880000 8.140000 211 215 209 0
7.480000 22.880000 8.910000 212 216 210 0
7.700000 22.880000 8.910000 211 215 209 0
7.920000 22.880000 8.910000 211 215 209 0
8.140000 22.880000 8.910000 212 216 210 0
8.360000 22.880000 9.460000 212 216 210 0
8.580000 22.880000 9.900000 211 215 209 0
8.800000 22.880000 10.450000 211 215 209 0
9.020000 22.880000 10.450000 211 215 209 0
9.240000 22.880000 10.450000 211 215 209 0
9.460000 22.880000 10.450000 211 215 209 0
9.680000 22.880000 10.560000 211 215 209 0
9.900000 22.880000 10.560000 211 215 209 0
10.120000 22.880000 10.560000 212 216 210 0
10.340000 22.880000 11.330000 212 216 210 0
10.560000 22.880000 11.330000 211 215 209 0
10.780000 22.880000 11.330000 211 215 209 0
11.000000 22.880000 11.330000 210 214 208 0
11.220000 22.880000 11.440000 211 215 209 0
11.440000 22.880000 11.440000 212 216 210 0
11.660000 22.880000 11.440000 211 215 209 0
11.880000 22.880000 11.440000 211 215 209 0
12.100000 22.880000 12.210000 210 214 208 0
12.320000 22.880000 12.210000 210 214 208 0
12.540000 22.880000 12.210000 210 214 208 0
12.760000 22.880000 12.320000 211 215 209 0
12.980000 22.880000 12.320000 210 214 208 0
13.200000 22.880000 12.320000 209 213 207 0
13.420000 22.880000 13.090000 209 213 207 0
13.640000 22.880000 13.090000 208 212 206 0
13.860000 22.880000 13.640000 208 212 206 0
14.080000 22.880000 13.970000 208 212 206 0
14.300000 22.880000 14.520000 208 214 207 0
14.520000 22.880000 14.520000 207 213 206 0
14.740000 22.880000 14.630000 208 214 207 0
14.960000 22.880000 14.630000 207 213 206 0
15.180000 22.880000 14.630000 207 213 206 0
15.400000 22.880000 14.740000 207 213 206 0
15.620000 22.880000 14.740000 206 212 205 0
15.840000 22.880000 15.400000 206 212 205 0
16.060000 22.880000 15.510000 205 211 204 0
16.280000 22.880000 15.510000 204 210 203 0
16.500000 22.880000 15.510000 203 209 202 0
16.720000 22.880000 15.510000 202 208 201 0
16.940000 22.880000 15.620000 200 206 199 0
17.160000 22.880000 16.390000 199 205 198 0
17.380000 22.880000 17.710000 198 204 197 0
17.600000 22.880000 18.810000 203 209 202 0
17.820000 22.880000 19.360000 207 213 206 0
18.040000 22.880000 20.130000 208 214 207 0
18.260000 22.880000 15.290000 205 214 206 0
18.480000 22.880000 4.950000 204 213 205 0
18.700000 22.880000 4.950000 203 212 204 0
18.920000 22.880000 15.400000 204 213 205 0
19.140000 22.880000 20.240000 206 212 205 0
19.360000 22.880000 19.580000 205 211 204 0
19.580000 22.880000 19.580000 201 210 202 0
19.800000 22.880000 20.240000 200 209 201 0
20.020000 22.880000 20.350000 200 209 201 0
20.240000 22.880000 20.350000 201 210 202 0
20.460000 22.880000 16.940000 200 209 201 0
20.680000 22.880000 7.260000 195 204 196 0
20.900000 22.880000 1.100000 189 196 184 0
21.340000 22.880000 0.440000 172 176 157 0
21.560000 22.880000 0.440000 161 165 146 0
22.220000 22.880000 0.550000 150 153 131 0
22.440000 22.880000 1.980000 148 151 129 0
22.660000 22.880000 3.410000 146 149 127 0
22.880000 22.880000 4.730000 144 147 125 0
23.100000 22.880000 5.500000 144 147 123 0
23.320000 22.880000 4.840000 145 148 124 0
23.540000 22.880000 4.620000 148 153 130 0
23.760000 22.880000 4.510000 151 156 133 0
23.980000 22.880000 3.740000 153 160 139 0
24.200000 22.880000 3.190000 154 161 140 0
24.420000 22.880000 2.420000 155 163 143 0
24.640000 22.880000 2.530000 154 162 142 0
24.860000 22.880000 2.530000 157 161 141 0
25.080000 22.880000 2.530000 155 159 139 0
25.300000 22.880000 2.640000 152 157 134 0
25.520000 22.880000 3.300000 148 153 130 0
25.740000 22.880000 3.410000 147 150 128 0
25.960000 22.880000 3.410000 145 148 126 0
26.180000 22.880000 3.410000 143 146 124 0
26.400000 22.880000 3.410000 142 145 123 0
26.620000 22.880000 4.070000 140 145 120 0
26.840000 22.880000 4.070000 139 144 119 0
27.060000 22.880000 3.960000 138 143 118 0
27.280000 22.880000 4.730000 137 142 117 0
27.500000 22.880000 4.620000 138 143 118 0
27.720000 22.880000 4.620000 137 142 117 0
27.940000 22.880000 5.280000 137 142 117 0
28.160000 22.880000 5.280000 136 141 116 0
28.380000 22.880000 5.390000 137 142 115 0
28.600000 22.880000 5.390000 135 140 113 0
28.820000 22.880000 4.730000 135 140 115 0
29.040000 22.880000 4.070000 135 140 115 0
29.260000 22.880000 3.960000 135 140 115 0
29.480000 22.880000 3.300000 135 140 115 0
29.700000 22.880000 2.640000 135 140 115 0
29.920000 22.880000 2.640000 135 140 115 0
30.140000 22.880000 2.640000 135 140 113 0
30.360000 22.880000 2.640000 135 140 113 0
30.580000 22.880000 3.190000 135 140 115 0
30.800000 22.880000 3.630000 135 140 115 0
31.020000 22.880000 2.970000 134 139 114 0
31.240000 22.880000 2.530000 136 141 116 0
31.460000 22.880000 2.640000 135 140 113 0
31.680000 22.880000 3.190000 136 141 114 0
31.900000 22.880000 3.190000 135 140 113 0
32.120000 22.880000 3.850000 135 140 113 0
32.340000 22.880000 4.620000 134 139 112 0
32.560000 22.880000 4.620000 135 140 113 0
32.780000 22.880000 5.390000 135 140 113 0
33.000000 22.880000 5.940000 134 139 112 0
33.220000 22.880000 6.600000 135 140 113 0
33.440000 22.880000 6.050000 135 140 113 0
33.660000 22.880000 5.280000 134 139 112 0
33.880000 22.880000 5.060000 135 140 113 0
34.100000 22.880000 4.400000 135 140 113 0
34.320000 22.880000 4.400000 134 139 112 0
34.540000 22.880000 4.400000 135 140 113 0
34.760000 22.880000 5.170000 135 140 113 0
34.980000 22.880000 4.510000 137 141 114 0
35.200000 22.880000 4.510000 137 141 114 0
35.420000 22.880000 5.830000 137 141 114 0
35.640000 22.880000 6.600000 137 141 114 0
35.860000 22.880000 6.600000 137 142 115 0
36.080000 22.880000 7.260000 136 141 114 0
36.300000 22.880000 8.030000 137 141 114 0
36.520000 22.880000 8.690000 137 141 114 0
36.740000 22.880000 8.690000 137 141 114 0
36.960000 22.880000 9.460000 137 141 114 0
37.180000 22.880000 10.120000 138 142 114 0
0.000000 23.100000 8.030000 194 187 176 0
0.220000 23.100000 8.030000 190 183 172 0
0.440000 23.100000 6.600000 191 184 173 0
0.660000 23.100000 5.940000 193 188 177 0
0.880000 23.100000 5.940000 196 191 180 0
1.100000 23.100000 5.280000 196 192 186 0
1.320000 23.100000 5.390000 200 196 190 0
1.540000 23.100000 4.730000 202 202 197 0
1.760000 23.100000 4.730000 206 206 201 0
1.980000 23.100000 4.730000 207 207 204 0
2.200000 23.100000 4.840000 209 209 206 0
2.420000 23.100000 5.500000 209 209 206 0
2.640000 23.100000 6.050000 211 211 208 0
2.860000 23.100000 7.150000 211 212 209 0
3.080000 23.100000 6.930000 211 212 209 0
3.300000 23.100000 6.930000 210 211 208 0
3.520000 23.100000 7.040000 213 214 211 0
3.740000 23.100000 7.040000 214 215 212 0
3.960000 23.100000 7.040000 212 213 210 0
4.180000 23.100000 7.040000 211 213 207 0
4.400000 23.100000 7.810000 212 214 208 0
4.620000 23.100000 7.810000 213 214 211 0
4.840000 23.100000 7.810000 213 214 211 0
5.060000 23.100000 7.920000 212 214 208 0
5.280000 23.100000 7.920000 212 214 208 0
5.500000 23.100000 7.920000 213 214 211 0
5.720000 23.100000 7.920000 213 214 211 0
5.940000 23.100000 8.030000 216 218 212 0
6.160000 23.100000 8.030000 220 222 216 0
6.380000 23.100000 8.030000 214 216 210 0
6.600000 23.100000 8.030000 213 215 209 0
6.820000 23.100000 8.140000 214 216 210 0
7.040000 23.100000 8.140000 214 216 210 0
7.260000 23.100000 8.140000 214 216 210 0
7.480000 23.100000 8.140000 218 220 214 0
7.700000 23.100000 8.910000 216 218 212 0
7.920000 23.100000 8.910000 213 215 209 0
8.140000 23.100000 8.910000 213 215 209 0
8.360000 23.100000 9.460000 214 216 210 0
8.580000 23.100000 9.900000 213 215 209 0
8.800000 23.100000 10.450000 213 215 209 0
9.020000 23.100000 10.450000 216 220 214 0
9.240000 23.100000 10.450000 214 218 212 0
9.460000 23.100000 10.450000 213 215 209 0
9.680000 23.100000 10.560000 213 215 209 0
9.900000 23.100000 10.560000 214 216 210 0
10.120000 23.100000 10.560000 213 215 209 0
10.340000 23.100000 11.330000 211 215 209 0
10.560000 23.100000 11.330000 213 217 211 0
10.780000 23.100000 11.330000 211 216 207 0
11.000000 23.100000 11.330000 210 215 206 0
11.220000 23.100000 11.440000 213 215 207 0
11.440000 23.100000 11.440000 214 216 208 0
11.660000 23.100000 11.440000 213 215 209 0
11.880000 23.100000 11.440000 213 215 209 0
12.100000 23.100000 12.210000 211 215 209 0
12.320000 23.100000 12.210000 210 214 208 0
12.540000 23.100000 12.210000 210 214 208 0
12.760000 23.100000 12.320000 209 213 207 0
12.980000 23.100000 12.320000 209 213 207 0
13.200000 23.100000 13.090000 209 213 207 0
13.420000 23.100000 13.090000 208 212 206 0
13.640000 23.100000 13.090000 209 213 207 0
13.860000 23.100000 13.640000 208 213 204 0
14.080000 23.100000 13.970000 209 214 205 0
14.300000 23.100000 14.520000 209 213 207 0
14.520000 23.100000 14.520000 209 213 207 0
14.740000 23.100000 14.630000 208 213 204 0
14.960000 23.100000 14.630000 209 214 205 0
15.180000 23.100000 14.630000 208 213 204 0
15.400000 23.100000 14.740000 207 212 203 0
15.620000 23.100000 14.740000 207 212 203 0
15.840000 23.100000 15.400000 206 211 202 0
16.060000 23.100000 15.510000 204 210 203 0
16.280000 23.100000 15.510000 204 210 203 0
16.500000 23.100000 15.510000 203 209 202 0
16.720000 23.100000 15.510000 202 208 201 0
16.940000 23.100000 15.620000 201 208 198 0
17.160000 23.100000 16.390000 199 206 196 0
17.380000 23.100000 17.710000 201 206 197 0
17.600000 23.100000 18.810000 207 212 203 0
17.820000 23.100000 20.020000 209 215 208 0
18.040000 23.100000 20.130000 209 215 208 0
18.260000 23.100000 15.290000 207 214 204 0
18.480000 23.100000 4.950000 206 213 203 0
18.700000 23.100000 4.950000 205 212 202 0
18.920000 23.100000 15.400000 206 213 203 0
19.140000 23.100000 20.240000 205 212 202 0
19.360000 23.100000 19.580000 205 212 202 0
19.580000 23.100000 19.580000 205 211 204 0
19.800000 23.100000 20.240000 202 208 201 0
20.020000 23.100000 20.350000 202 208 201 0
20.240000 23.100000 20.350000 201 207 200 0
20.460000 23.100000 16.940000 197 206 198 0
20.680000 23.100000 7.260000 193 202 194 0
20.900000 23.100000 1.100000 190 200 187 0
21.560000 23.100000 0.440000 163 167 147 0
22.220000 23.100000 0.550000 150 153 131 0
22.440000 23.100000 1.980000 148 151 129 0
22.660000 23.100000 3.410000 147 148 125 0
22.880000 23.100000 4.730000 145 146 123 0
23.100000 23.100000 5.500000 144 145 122 0
23.320000 23.100000 4.730000 145 146 123 0
23.540000 23.100000 4.620000 148 151 129 0
23.760000 23.100000 4.510000 153 156 134 0
23.980000 23.100000 3.740000 154 159 136 0
24.200000 23.100000 3.190000 156 161 138 0
24.420000 23.100000 2.420000 157 164 143 0
24.640000 23.100000 2.530000 156 163 142 0
24.860000 23.100000 2.530000 157 161 141 0
25.080000 23.100000 2.530000 154 158 138 0
25.300000 23.100000 2.640000 152 157 134 0
25.520000 23.100000 3.300000 148 153 130 0
25.740000 23.100000 3.410000 147 150 126 0
25.960000 23.100000 3.410000 145 148 124 0
26.180000 23.100000 2.640000 143 146 122 0
26.400000 23.100000 3.410000 142 145 121 0
26.620000 23.100000 4.070000 141 144 120 0
26.840000 23.100000 4.070000 139 142 118 0
27.060000 23.100000 3.960000 137 142 117 0
27.280000 23.100000 3.960000 138 143 118 0
27.500000 23.100000 4.620000 137 140 116 0
27.720000 23.100000 4.620000 139 142 118 0
27.940000 23.100000 5.280000 137 140 116 0
28.160000 23.100000 5.280000 137 140 116 0
28.380000 23.100000 5.390000 137 140 116 0
28.600000 23.100000 5.390000 137 140 116 0
28.820000 23.100000 4.730000 135 140 115 0
29.040000 23.100000 4.070000 134 139 114 0
29.260000 23.100000 4.070000 136 139 115 0
29.480000 23.100000 3.300000 136 139 115 0
29.700000 23.100000 2.530000 136 139 115 0
29.920000 23.100000 2.420000 136 139 115 0
30.140000 23.100000 2.530000 136 140 113 0
30.360000 23.100000 2.530000 136 140 113 0
30.580000 23.100000 2.970000 135 140 113 0
30.800000 23.100000 3.520000 136 141 114 0
31.020000 23.100000 2.970000 134 139 112 0
31.240000 23.100000 2.640000 134 139 112 0
31.460000 23.100000 2.530000 136 140 113 0
31.680000 23.100000 3.080000 136 140 113 0
31.900000 23.100000 3.630000 135 140 113 0
32.120000 23.100000 4.400000 135 140 113 0
32.340000 23.100000 5.060000 135 140 113 0
32.560000 23.100000 5.830000 134 139 112 0
32.780000 23.100000 5.830000 134 139 112 0
33.000000 23.100000 6.490000 135 140 113 0
33.220000 23.100000 6.600000 135 139 112 0
33.440000 23.100000 5.940000 135 139 112 0
33.660000 23.100000 5.280000 134 139 112 0
33.880000 23.100000 5.170000 134 139 112 0
34.100000 23.100000 4.400000 135 139 112 0
34.320000 23.100000 4.510000 136 140 113 0
34.540000 23.100000 5.170000 135 139 112 0
34.760000 23.100000 5.170000 135 139 112 0
34.980000 23.100000 4.510000 135 139 112 0
35.200000 23.100000 4.510000 136 140 113 0
35.420000 23.100000 5.170000 135 140 113 0
35.640000 23.100000 6.600000 135 140 113 0
35.860000 23.100000 6.600000 137 141 114 0
36.080000 23.100000 7.260000 137 141 114 0
36.300000 23.100000 8.030000 136 140 113 0
36.520000 23.100000 8.690000 137 141 114 0
36.740000 23.100000 8.690000 137 141 113 0
36.960000 23.100000 9.460000 138 142 114 0
37.180000 23.100000 10.120000 137 141 113 0
0.000000 23.320000 8.030000 194 187 176 0
0.220000 23.320000 8.030000 190 183 172 0
0.440000 23.320000 6.600000 189 182 171 0
0.660000 23.320000 5.940000 192 187 176 0
0.880000 23.320000 5.940000 194 189 178 0
1.100000 23.320000 6.050000 196 192 186 0
1.320000 23.320000 5.390000 200 196 190 0
1.540000 23.320000 4.730000 202 202 197 0
1.760000 23.320000 4.730000 206 206 201 0
1.980000 23.320000 4.730000 207 207 204 0
2.200000 23.320000 4.840000 208 208 205 0
2.420000 23.320000 5.500000 210 210 207 0
2.640000 23.320000 6.050000 210 210 207 0
2.860000 23.320000 7.150000 210 211 208 0
3.080000 23.320000 6.930000 209 210 207 0
3.300000 23.320000 6.930000 212 213 210 0
3.520000 23.320000 7.040000 213 214 211 0
3.740000 23.320000 7.040000 213 214 211 0
3.960000 23.320000 7.040000 212 213 210 0
4.180000 23.320000 7.040000 212 214 208 0
4.400000 23.320000 7.810000 210 212 206 0
4.620000 23.320000 7.810000 214 215 212 0
4.840000 23.320000 7.810000 214 215 212 0
5.060000 23.320000 7.920000 212 214 208 0
5.280000 23.320000 7.920000 212 214 208 0
5.500000 23.320000 7.920000 213 214 211 0
5.720000 23.320000 7.920000 213 214 211 0
5.940000 23.320000 8.030000 214 216 210 0
6.160000 23.320000 8.030000 216 218 212 0
6.380000 23.320000 8.030000 215 217 211 0
6.600000 23.320000 8.030000 213 215 209 0
6.820000 23.320000 8.140000 213 215 209 0
7.040000 23.320000 8.140000 214 216 210 0
7.260000 23.320000 8.140000 216 218 212 0
7.480000 23.320000 8.140000 216 218 212 0
7.700000 23.320000 8.910000 217 219 213 0
7.920000 23.320000 8.910000 214 216 210 0
8.140000 23.320000 8.910000 215 217 211 0
8.360000 23.320000 9.460000 213 215 209 0
8.580000 23.320000 9.900000 213 215 209 0
8.800000 23.320000 10.450000 213 215 209 0
9.020000 23.320000 10.450000 213 217 211 0
9.240000 23.320000 10.450000 214 218 212 0
9.460000 23.320000 10.450000 213 215 209 0
9.680000 23.320000 10.560000 212 214 208 0
9.900000 23.320000 10.560000 213 215 209 0
10.120000 23.320000 10.560000 213 215 209 0
10.340000 23.320000 11.330000 210 214 208 0
10.560000 23.320000 11.330000 211 215 209 0
10.780000 23.320000 11.330000 211 216 207 0
11.000000 23.320000 11.330000 211 216 207 0
11.220000 23.320000 11.440000 213 215 207 0
11.440000 23.320000 11.440000 212 214 206 0
11.660000 23.320000 11.440000 212 214 208 0
11.880000 23.320000 11.440000 212 214 208 0
12.100000 23.320000 11.550000 212 216 210 0
12.320000 23.320000 12.210000 212 216 210 0
12.540000 23.320000 12.210000 210 214 208 0
12.760000 23.320000 12.320000 210 214 208 0
12.980000 23.320000 12.320000 209 213 207 0
13.200000 23.320000 13.090000 208 212 206 0
13.420000 23.320000 13.090000 209 213 207 0
13.640000 23.320000 13.090000 209 213 207 0
13.860000 23.320000 13.640000 209 214 205 0
14.080000 23.320000 13.970000 209 214 205 0
14.300000 23.320000 14.520000 208 212 206 0
14.520000 23.320000 14.520000 209 213 207 0
14.740000 23.320000 14.630000 208 213 204 0
14.960000 23.320000 14.630000 208 213 204 0
15.180000 23.320000 14.630000 209 214 205 0
15.400000 23.320000 14.740000 207 212 203 0
15.620000 23.320000 14.740000 206 211 202 0
15.840000 23.320000 15.400000 206 211 202 0
16.060000 23.320000 15.510000 204 210 203 0
16.280000 23.320000 15.510000 203 209 202 0
16.500000 23.320000 15.510000 203 209 202 0
16.720000 23.320000 15.510000 201 207 200 0
16.940000 23.320000 15.620000 201 208 198 0
17.160000 23.320000 16.390000 200 207 197 0
17.380000 23.320000 17.710000 200 205 196 0
17.600000 23.320000 18.810000 207 212 203 0
17.820000 23.320000 20.020000 210 216 209 0
18.040000 23.320000 20.130000 209 215 208 0
18.260000 23.320000 15.290000 205 212 202 0
18.480000 23.320000 4.950000 206 213 203 0
18.700000 23.320000 4.950000 206 213 203 0
18.920000 23.320000 15.400000 206 213 203 0
19.140000 23.320000 20.240000 205 212 202 0
19.360000 23.320000 19.580000 205 212 202 0
19.580000 23.320000 19.580000 209 215 208 0
19.800000 23.320000 20.240000 204 210 203 0
20.020000 23.320000 20.350000 201 207 200 0
20.240000 23.320000 20.350000 201 207 200 0
20.460000 23.320000 19.690000 197 206 198 0
20.680000 23.320000 12.760000 193 202 194 0
20.900000 23.320000 3.850000 191 201 188 0
21.560000 23.320000 0.440000 164 168 148 0
22.220000 23.320000 0.550000 150 153 131 0
22.440000 23.320000 1.980000 148 151 129 0
22.660000 23.320000 3.410000 147 148 125 0
22.880000 23.320000 4.730000 145 146 123 0
23.100000 23.320000 5.500000 145 146 123 0
23.320000 23.320000 4.730000 144 145 122 0
23.540000 23.320000 4.620000 148 151 129 0
23.760000 23.320000 4.400000 153 156 134 0
23.980000 23.320000 3.740000 155 160 137 0
24.200000 23.320000 3.190000 156 161 138 0
24.420000 23.320000 2.420000 156 163 142 0
24.640000 23.320000 2.530000 156 163 142 0
24.860000 23.320000 2.530000 157 161 141 0
25.080000 23.320000 2.530000 155 159 139 0
25.300000 23.320000 2.640000 151 156 133 0
25.520000 23.320000 3.300000 147 152 129 0
25.740000 23.320000 3.410000 146 149 125 0
25.960000 23.320000 3.410000 144 147 123 0
26.180000 23.320000 2.640000 142 145 121 0
26.400000 23.320000 3.410000 141 144 120 0
26.620000 23.320000 3.410000 140 143 119 0
26.840000 23.320000 4.070000 139 142 118 0
27.060000 23.320000 3.960000 137 142 117 0
27.280000 23.320000 4.620000 138 143 118 0
27.500000 23.320000 4.620000 138 141 117 0
27.720000 23.320000 4.620000 137 140 116 0
27.940000 23.320000 5.390000 137 140 116 0
28.160000 23.320000 5.280000 137 140 116 0
28.380000 23.320000 5.390000 136 139 115 0
28.600000 23.320000 5.390000 136 139 115 0
28.820000 23.320000 4.730000 135 140 115 0
29.040000 23.320000 4.070000 135 140 115 0
29.260000 23.320000 3.300000 135 138 114 0
29.480000 23.320000 2.640000 136 139 115 0
29.700000 23.320000 2.530000 136 139 115 0
29.920000 23.320000 3.080000 136 139 115 0
30.140000 23.320000 2.530000 136 140 113 0
30.360000 23.320000 3.190000 136 140 113 0
30.580000 23.320000 3.630000 135 140 113 0
30.800000 23.320000 2.970000 135 140 113 0
31.020000 23.320000 2.530000 134 139 112 0
31.240000 23.320000 2.640000 134 139 112 0
31.460000 23.320000 3.190000 135 139 112 0
31.680000 23.320000 3.630000 135 139 112 0
31.900000 23.320000 4.180000 133 138 111 0
32.120000 23.320000 4.950000 134 139 112 0
32.340000 23.320000 4.840000 135 140 113 0
32.560000 23.320000 5.610000 134 139 112 0
32.780000 23.320000 6.380000 134 139 112 0
33.000000 23.320000 6.380000 134 139 112 0
33.220000 23.320000 6.490000 135 139 112 0
33.440000 23.320000 5.940000 135 139 112 0
33.660000 23.320000 5.280000 134 139 112 0
33.880000 23.320000 4.510000 134 139 112 0
34.100000 23.320000 4.510000 136 140 113 0
34.320000 23.320000 4.510000 135 139 112 0
34.540000 23.320000 5.170000 135 139 112 0
34.760000 23.320000 5.170000 135 139 112 0
34.980000 23.320000 4.510000 135 139 112 0
35.200000 23.320000 4.510000 136 140 113 0
35.420000 23.320000 5.170000 134 139 112 0
35.640000 23.320000 6.600000 135 140 113 0
35.860000 23.320000 6.600000 136 140 113 0
36.080000 23.320000 7.260000 135 139 112 0
36.300000 23.320000 8.030000 136 140 113 0
36.520000 23.320000 8.690000 136 140 113 0
36.740000 23.320000 8.690000 137 141 113 0
36.960000 23.320000 9.460000 137 141 113 0
37.180000 23.320000 10.120000 138 142 114 0
0.000000 23.540000 8.030000 193 185 177 0
0.220000 23.540000 8.030000 190 182 174 0
0.440000 23.540000 6.600000 191 183 175 0
0.660000 23.540000 5.940000 195 187 179 0
0.880000 23.540000 5.940000 197 189 181 0
1.100000 23.540000 6.050000 196 192 184 0
1.320000 23.540000 5.390000 201 197 189 0
1.540000 23.540000 4.730000 202 202 197 0
1.760000 23.540000 4.730000 206 206 201 0
1.980000 23.540000 4.730000 207 208 205 0
2.200000 23.540000 4.840000 207 208 205 0
2.420000 23.540000 5.500000 209 210 207 0
2.640000 23.540000 6.050000 210 211 208 0
2.860000 23.540000 7.150000 210 212 206 0
3.080000 23.540000 6.930000 210 212 206 0
3.300000 23.540000 6.930000 211 212 209 0
3.520000 23.540000 7.040000 212 213 210 0
3.740000 23.540000 7.040000 213 215 209 0
3.960000 23.540000 7.040000 212 214 208 0
4.180000 23.540000 7.040000 211 213 207 0
4.400000 23.540000 7.810000 211 213 207 0
4.620000 23.540000 7.810000 212 214 208 0
4.840000 23.540000 7.810000 212 214 208 0
5.060000 23.540000 7.920000 213 214 211 0
5.280000 23.540000 7.920000 214 215 212 0
5.500000 23.540000 7.920000 212 214 208 0
5.720000 23.540000 7.920000 213 215 209 0
5.940000 23.540000 8.030000 214 216 210 0
6.160000 23.540000 8.030000 214 216 210 0
6.380000 23.540000 8.030000 216 218 212 0
6.600000 23.540000 8.030000 215 217 211 0
6.820000 23.540000 8.140000 214 216 210 0
7.040000 23.540000 8.140000 214 216 210 0
7.260000 23.540000 8.140000 216 218 212 0
7.480000 23.540000 8.140000 215 217 211 0
7.700000 23.540000 8.910000 213 217 211 0
7.920000 23.540000 8.910000 213 217 211 0
8.140000 23.540000 8.910000 213 217 211 0
8.360000 23.540000 9.460000 212 216 210 0
8.580000 23.540000 9.900000 211 215 209 0
8.800000 23.540000 10.450000 212 216 210 0
9.020000 23.540000 10.450000 211 215 209 0
9.240000 23.540000 10.450000 212 216 210 0
9.460000 23.540000 10.450000 213 217 211 0
9.680000 23.540000 10.560000 211 215 209 0
9.900000 23.540000 10.560000 211 215 209 0
10.120000 23.540000 10.560000 211 215 209 0
10.340000 23.540000 11.330000 210 214 208 0
10.560000 23.540000 11.330000 211 215 209 0
10.780000 23.540000 11.330000 212 216 210 0
11.000000 23.540000 11.330000 211 215 209 0
11.220000 23.540000 11.440000 210 214 208 0
11.440000 23.540000 11.440000 210 214 208 0
11.660000 23.540000 11.440000 210 214 208 0
11.880000 23.540000 11.440000 210 214 208 0
12.100000 23.540000 11.550000 211 216 207 0
12.320000 23.540000 12.210000 212 217 208 0
12.540000 23.540000 12.210000 211 216 207 0
12.760000 23.540000 12.320000 210 215 206 0
12.980000 23.540000 12.320000 209 213 207 0
13.200000 23.540000 12.320000 209 213 207 0
13.420000 23.540000 13.090000 210 215 206 0
13.640000 23.540000 13.090000 210 215 206 0
13.860000 23.540000 13.640000 209 214 205 0
14.080000 23.540000 13.970000 209 214 205 0
14.300000 23.540000 14.520000 208 215 205 0
14.520000 23.540000 14.520000 208 215 205 0
14.740000 23.540000 14.630000 208 214 207 0
14.960000 23.540000 14.630000 209 215 208 0
15.180000 23.540000 14.630000 210 216 209 0
15.400000 23.540000 14.740000 208 214 207 0
15.620000 23.540000 14.740000 206 213 203 0
15.840000 23.540000 15.400000 205 212 202 0
16.060000 23.540000 15.510000 205 212 202 0
16.280000 23.540000 15.510000 204 211 201 0
16.500000 23.540000 15.510000 203 209 202 0
16.720000 23.540000 15.510000 202 208 201 0
16.940000 23.540000 15.620000 198 207 199 0
17.160000 23.540000 16.390000 197 206 198 0
17.380000 23.540000 17.710000 199 206 196 0
17.600000 23.540000 18.810000 204 211 201 0
17.820000 23.540000 19.360000 206 213 203 0
18.040000 23.540000 20.130000 207 214 204 0
18.260000 23.540000 15.290000 206 212 205 0
18.480000 23.540000 5.610000 206 212 205 0
18.700000 23.540000 4.950000 207 214 204 0
18.920000 23.540000 15.400000 207 214 204 0
19.140000 23.540000 20.240000 207 214 204 0
19.360000 23.540000 20.240000 205 212 202 0
19.580000 23.540000 19.580000 205 214 204 0
19.800000 23.540000 20.240000 211 220 210 0
20.020000 23.540000 20.350000 205 212 202 0
20.240000 23.540000 20.350000 201 208 198 0
20.460000 23.540000 21.010000 198 207 199 0
20.680000 23.540000 15.510000 194 203 195 0
20.900000 23.540000 5.170000 191 201 188 0
22.220000 23.540000 0.550000 151 154 132 0
22.440000 23.540000 1.980000 148 151 129 0
22.660000 23.540000 3.410000 146 149 127 0
22.880000 23.540000 4.730000 145 148 126 0
23.100000 23.540000 5.500000 144 147 125 0
23.320000 23.540000 4.730000 144 147 125 0
23.540000 23.540000 4.620000 147 150 128 0
23.760000 23.540000 4.400000 152 155 133 0
23.980000 23.540000 3.740000 155 160 137 0
24.200000 23.540000 3.190000 157 162 139 0
24.420000 23.540000 2.420000 157 164 141 0
24.640000 23.540000 2.530000 157 164 141 0
24.860000 23.540000 2.530000 158 162 142 0
25.080000 23.540000 2.530000 155 159 139 0
25.300000 23.540000 2.640000 152 155 133 0
25.520000 23.540000 3.300000 149 152 130 0
25.740000 23.540000 3.410000 145 150 125 0
25.960000 23.540000 3.410000 144 149 124 0
26.180000 23.540000 2.640000 143 146 122 0
26.400000 23.540000 3.410000 141 144 120 0
26.620000 23.540000 3.410000 139 144 117 0
26.840000 23.540000 4.070000 138 143 116 0
27.060000 23.540000 3.960000 137 142 117 0
27.280000 23.540000 4.620000 137 142 117 0
27.500000 23.540000 4.620000 136 141 114 0
27.720000 23.540000 4.620000 136 141 114 0
27.940000 23.540000 5.390000 136 141 114 0
28.160000 23.540000 5.390000 135 140 113 0
28.380000 23.540000 5.390000 135 140 113 0
28.600000 23.540000 5.390000 135 140 113 0
28.820000 23.540000 4.730000 136 141 116 0
29.040000 23.540000 4.070000 135 140 115 0
29.260000 23.540000 3.300000 135 140 113 0
29.480000 23.540000 2.640000 134 139 112 0
29.700000 23.540000 2.530000 134 139 112 0
29.920000 23.540000 2.530000 134 139 112 0
30.140000 23.540000 2.530000 135 140 113 0
30.360000 23.540000 3.190000 134 139 112 0
30.580000 23.540000 3.080000 134 139 112 0
30.800000 23.540000 2.530000 136 141 114 0
31.020000 23.540000 2.640000 134 139 112 0
31.240000 23.540000 2.640000 134 139 112 0
31.460000 23.540000 3.740000 134 139 112 0
31.680000 23.540000 4.180000 133 138 111 0
31.900000 23.540000 4.180000 133 138 111 0
32.120000 23.540000 4.950000 135 140 113 0
32.340000 23.540000 4.950000 134 139 112 0
32.560000 23.540000 5.610000 134 139 112 0
32.780000 23.540000 5.610000 134 139 112 0
33.000000 23.540000 6.380000 134 139 112 0
33.220000 23.540000 5.720000 135 139 112 0
33.440000 23.540000 5.940000 135 139 112 0
33.660000 23.540000 5.280000 134 139 112 0
33.880000 23.540000 4.620000 134 139 112 0
34.100000 23.540000 4.510000 134 139 112 0
34.320000 23.540000 4.510000 134 139 112 0
34.540000 23.540000 5.170000 133 138 111 0
34.760000 23.540000 5.170000 134 139 112 0
34.980000 23.540000 4.510000 135 139 112 0
35.200000 23.540000 4.510000 135 139 112 0
35.420000 23.540000 5.170000 135 139 112 0
35.640000 23.540000 6.600000 136 140 113 0
35.860000 23.540000 6.600000 135 141 112 0
36.080000 23.540000 7.260000 135 141 112 0
36.300000 23.540000 8.030000 135 139 111 0
36.520000 23.540000 8.690000 136 140 112 0
36.740000 23.540000 8.690000 137 141 113 0
36.960000 23.540000 9.460000 137 141 113 0
37.180000 23.540000 10.120000 137 141 113 0
0.000000 23.760000 8.030000 194 186 178 0
0.220000 23.760000 8.030000 190 182 174 0
0.440000 23.760000 6.600000 192 184 176 0
0.660000 23.760000 5.940000 195 187 179 0
0.880000 23.760000 5.940000 198 190 182 0
1.100000 23.760000 6.050000 196 192 184 0
1.320000 23.760000 5.390000 202 198 190 0
1.540000 23.760000 5.390000 203 203 198 0
1.760000 23.760000 4.730000 206 206 201 0
1.980000 23.760000 4.730000 207 208 205 0
2.200000 23.760000 4.730000 208 209 206 0
2.420000 23.760000 5.500000 210 211 208 0
2.640000 23.760000 6.050000 210 211 208 0
2.860000 23.760000 6.380000 212 214 208 0
3.080000 23.760000 6.930000 211 213 207 0
3.300000 23.760000 6.930000 211 212 209 0
3.520000 23.760000 7.040000 213 214 211 0
3.740000 23.760000 7.040000 214 216 210 0
3.960000 23.760000 7.040000 212 214 208 0
4.180000 23.760000 7.040000 212 214 208 0
4.400000 23.760000 7.810000 211 213 207 0
4.620000 23.760000 7.810000 212 214 208 0
4.840000 23.760000 7.810000 211 213 207 0
5.060000 23.760000 7.920000 212 213 210 0
5.280000 23.760000 7.920000 214 215 212 0
5.500000 23.760000 7.920000 213 215 209 0
5.720000 23.760000 7.920000 213 215 209 0
5.940000 23.760000 8.030000 214 216 210 0
6.160000 23.760000 8.030000 214 216 210 0
6.380000 23.760000 8.030000 215 217 211 0
6.600000 23.760000 8.030000 216 218 212 0
6.820000 23.760000 8.140000 213 215 209 0
7.040000 23.760000 8.140000 213 215 209 0
7.260000 23.760000 8.140000 215 217 211 0
7.480000 23.760000 8.140000 216 218 212 0
7.700000 23.760000 8.910000 212 216 210 0
7.920000 23.760000 8.910000 212 216 210 0
8.140000 23.760000 8.910000 211 215 209 0
8.360000 23.760000 9.460000 212 216 210 0
8.580000 23.760000 9.900000 212 216 210 0
8.800000 23.760000 10.450000 212 216 210 0
9.020000 23.760000 10.450000 213 217 211 0
9.240000 23.760000 10.450000 212 216 210 0
9.460000 23.760000 10.450000 212 216 210 0
9.680000 23.760000 10.560000 212 216 210 0
9.900000 23.760000 10.560000 211 215 209 0
10.120000 23.760000 10.560000 211 215 209 0
10.340000 23.760000 11.330000 212 216 210 0
10.560000 23.760000 11.330000 211 215 209 0
10.780000 23.760000 11.330000 212 216 210 0
11.000000 23.760000 11.330000 212 216 210 0
11.220000 23.760000 11.440000 211 215 209 0
11.440000 23.760000 11.440000 210 214 208 0
11.660000 23.760000 11.440000 211 215 209 0
11.880000 23.760000 11.440000 210 214 208 0
12.100000 23.760000 11.550000 210 215 206 0
12.320000 23.760000 12.210000 210 215 206 0
12.540000 23.760000 12.210000 212 217 208 0
12.760000 23.760000 12.320000 211 216 207 0
12.980000 23.760000 12.320000 210 214 208 0
13.200000 23.760000 12.320000 210 214 208 0
13.420000 23.760000 13.090000 209 214 205 0
13.640000 23.760000 13.090000 209 214 205 0
13.860000 23.760000 13.640000 209 214 205 0
14.080000 23.760000 13.970000 209 214 205 0
14.300000 23.760000 14.520000 208 215 205 0
14.520000 23.760000 14.520000 208 215 205 0
14.740000 23.760000 14.630000 208 214 207 0
14.960000 23.760000 14.630000 208 214 207 0
15.180000 23.760000 14.630000 208 214 207 0
15.400000 23.760000 14.740000 208 214 207 0
15.620000 23.760000 14.740000 207 214 204 0
15.840000 23.760000 15.400000 206 213 203 0
16.060000 23.760000 15.510000 205 212 202 0
16.280000 23.760000 15.510000 204 211 201 0
16.500000 23.760000 15.510000 203 209 202 0
16.720000 23.760000 15.510000 202 208 201 0
16.940000 23.760000 15.620000 199 208 200 0
17.160000 23.760000 16.390000 198 207 199 0
17.380000 23.760000 17.710000 199 206 196 0
17.600000 23.760000 18.810000 204 211 201 0
17.820000 23.760000 20.020000 210 217 207 0
18.040000 23.760000 20.130000 209 216 206 0
18.260000 23.760000 15.950000 207 213 206 0
18.480000 23.760000 5.610000 208 214 207 0
18.700000 23.760000 4.950000 208 215 205 0
18.920000 23.760000 15.400000 209 216 206 0
19.140000 23.760000 20.240000 207 214 204 0
19.360000 23.760000 20.240000 206 213 203 0
19.580000 23.760000 19.580000 202 211 201 0
19.800000 23.760000 20.240000 204 213 203 0
20.020000 23.760000 20.350000 206 213 203 0
20.240000 23.760000 20.350000 201 208 198 0
20.460000 23.760000 20.350000 198 207 199 0
20.680000 23.760000 15.510000 196 205 197 0
20.900000 23.760000 4.510000 192 202 189 0
22.220000 23.760000 0.550000 151 154 132 0
22.440000 23.760000 1.980000 147 150 128 0
22.660000 23.760000 3.410000 146 149 127 0
22.880000 23.760000 4.730000 144 147 125 0
23.100000 23.760000 5.500000 144 147 125 0
23.320000 23.760000 4.730000 145 148 126 0
23.540000 23.760000 4.620000 148 151 129 0
23.760000 23.760000 4.400000 152 155 133 0
23.980000 23.760000 3.740000 155 160 137 0
24.200000 23.760000 3.190000 157 162 139 0
24.420000 23.760000 2.420000 158 165 142 0
24.640000 23.760000 2.530000 157 164 141 0
24.860000 23.760000 2.530000 158 162 142 0
25.080000 23.760000 2.530000 156 160 140 0
25.300000 23.760000 2.640000 154 157 135 0
25.520000 23.760000 3.300000 150 153 131 0
25.740000 23.760000 3.410000 145 150 125 0
25.960000 23.760000 3.410000 144 149 124 0
26.180000 23.760000 2.640000 143 146 122 0
26.400000 23.760000 3.410000 142 145 121 0
26.620000 23.760000 3.410000 139 144 117 0
26.840000 23.760000 4.070000 138 143 116 0
27.060000 23.760000 3.960000 138 143 118 0
27.280000 23.760000 4.620000 137 142 117 0
27.500000 23.760000 4.620000 137 142 115 0
27.720000 23.760000 4.620000 136 141 114 0
27.940000 23.760000 5.390000 135 140 113 0
28.160000 23.760000 5.390000 135 140 113 0
28.380000 23.760000 5.390000 135 140 113 0
28.600000 23.760000 5.390000 135 140 113 0
28.820000 23.760000 4.730000 135 140 115 0
29.040000 23.760000 4.070000 135 140 115 0
29.260000 23.760000 3.960000 136 141 114 0
29.480000 23.760000 3.300000 135 140 113 0
29.700000 23.760000 2.640000 134 139 112 0
29.920000 23.760000 2.640000 135 140 113 0
30.140000 23.760000 2.640000 135 140 113 0
30.360000 23.760000 2.640000 134 139 112 0
30.580000 23.760000 2.640000 135 140 113 0
30.800000 23.760000 1.980000 135 140 113 0
31.020000 23.760000 1.980000 134 139 112 0
31.240000 23.760000 2.530000 134 139 112 0
31.460000 23.760000 3.630000 134 139 112 0
31.680000 23.760000 4.180000 134 139 112 0
31.900000 23.760000 4.290000 134 139 112 0
32.120000 23.760000 4.400000 133 138 111 0
32.340000 23.760000 4.510000 134 139 112 0
32.560000 23.760000 5.060000 134 139 112 0
32.780000 23.760000 4.950000 134 139 112 0
33.000000 23.760000 5.610000 133 138 111 0
33.220000 23.760000 5.720000 136 140 113 0
33.440000 23.760000 5.170000 135 139 112 0
33.660000 23.760000 5.280000 134 139 112 0
33.880000 23.760000 4.620000 134 139 112 0
34.100000 23.760000 4.510000 133 138 111 0
34.320000 23.760000 5.170000 133 138 111 0
34.540000 23.760000 5.170000 133 138 111 0
34.760000 23.760000 5.170000 133 138 111 0
34.980000 23.760000 4.510000 135 139 112 0
35.200000 23.760000 4.510000 135 139 112 0
35.420000 23.760000 5.170000 135 139 112 0
35.640000 23.760000 6.600000 135 139 112 0
35.860000 23.760000 6.600000 135 141 112 0
36.080000 23.760000 7.260000 134 140 111 0
36.300000 23.760000 8.030000 136 140 112 0
36.520000 23.760000 8.690000 136 140 112 0
36.740000 23.760000 9.350000 136 140 112 0
36.960000 23.760000 9.460000 136 140 112 0
37.180000 23.760000 10.120000 137 141 113 0
0.000000 23.980000 8.030000 193 185 177 0
0.220000 23.980000 8.030000 191 182 172 0
0.440000 23.980000 6.600000 192 183 173 0
0.660000 23.980000 5.940000 193 188 179 0
0.880000 23.980000 5.940000 197 192 183 0
1.100000 23.980000 6.050000 198 194 188 0
1.320000 23.980000 5.390000 201 197 191 0
1.540000 23.980000 5.390000 202 202 197 0
1.760000 23.980000 4.730000 205 205 200 0
1.980000 23.980000 4.730000 208 209 206 0
2.200000 23.980000 4.730000 208 209 206 0
2.420000 23.980000 5.500000 211 212 209 0
2.640000 23.980000 6.050000 211 212 209 0
2.860000 23.980000 6.380000 213 214 211 0
3.080000 23.980000 6.930000 210 211 208 0
3.300000 23.980000 6.930000 211 212 209 0
3.520000 23.980000 7.040000 212 213 210 0
3.740000 23.980000 7.040000 214 215 212 0
3.960000 23.980000 7.040000 215 216 213 0
4.180000 23.980000 7.040000 213 214 211 0
4.400000 23.980000 7.810000 212 213 210 0
4.620000 23.980000 7.810000 211 215 211 0
4.840000 23.980000 7.810000 209 213 209 0
5.060000 23.980000 7.920000 210 214 210 0
5.280000 23.980000 7.920000 212 216 212 0
5.500000 23.980000 7.920000 214 218 214 0
5.720000 23.980000 7.920000 211 215 211 0
5.940000 23.980000 8.030000 214 216 210 0
6.160000 23.980000 8.030000 213 215 209 0
6.380000 23.980000 8.030000 211 215 211 0
6.600000 23.980000 8.030000 213 217 213 0
6.820000 23.980000 8.140000 213 217 211 0
7.040000 23.980000 8.140000 212 216 210 0
7.260000 23.980000 8.140000 213 217 211 0
7.480000 23.980000 8.910000 213 217 211 0
7.700000 23.980000 8.910000 212 216 210 0
7.920000 23.980000 8.910000 211 215 209 0
8.140000 23.980000 8.910000 210 214 208 0
8.360000 23.980000 9.460000 212 216 210 0
8.580000 23.980000 9.900000 214 218 212 0
8.800000 23.980000 10.450000 212 216 210 0
9.020000 23.980000 10.450000 214 218 212 0
9.240000 23.980000 10.450000 212 216 210 0
9.460000 23.980000 10.450000 211 215 209 0
9.680000 23.980000 10.560000 212 216 210 0
9.900000 23.980000 10.560000 211 215 209 0
10.120000 23.980000 10.560000 210 214 208 0
10.340000 23.980000 11.330000 211 215 209 0
10.560000 23.980000 11.330000 211 215 209 0
10.780000 23.980000 11.330000 211 215 209 0
11.000000 23.980000 11.330000 211 215 209 0
11.220000 23.980000 11.440000 210 214 208 0
11.440000 23.980000 11.440000 209 213 207 0
11.660000 23.980000 11.440000 210 214 208 0
11.880000 23.980000 11.440000 211 215 209 0
12.100000 23.980000 11.550000 212 216 210 0
12.320000 23.980000 12.210000 210 214 208 0
12.540000 23.980000 12.210000 211 215 209 0
12.760000 23.980000 12.320000 210 214 208 0
12.980000 23.980000 12.320000 209 213 207 0
13.200000 23.980000 12.320000 210 214 208 0
13.420000 23.980000 13.090000 209 213 207 0
13.640000 23.980000 13.090000 209 213 207 0
13.860000 23.980000 13.640000 208 215 205 0
14.080000 23.980000 13.970000 209 216 206 0
14.300000 23.980000 14.520000 208 215 205 0
14.520000 23.980000 14.520000 208 215 205 0
14.740000 23.980000 14.630000 208 215 205 0
14.960000 23.980000 14.630000 208 215 205 0
15.180000 23.980000 14.630000 207 213 206 0
15.400000 23.980000 14.740000 207 213 206 0
15.620000 23.980000 14.740000 207 214 204 0
15.840000 23.980000 15.400000 206 213 203 0
16.060000 23.980000 15.510000 205 212 202 0
16.280000 23.980000 15.510000 205 212 202 0
16.500000 23.980000 15.510000 204 211 201 0
16.720000 23.980000 15.510000 203 210 200 0
16.940000 23.980000 15.620000 201 207 200 0
17.160000 23.980000 16.390000 199 205 198 0
17.380000 23.980000 17.710000 199 206 196 0
17.600000 23.980000 18.810000 203 210 200 0
17.820000 23.980000 20.020000 207 213 206 0
18.040000 23.980000 20.130000 207 213 206 0
18.260000 23.980000 15.950000 206 215 205 0
18.480000 23.980000 5.610000 208 217 207 0
18.700000 23.980000 5.610000 208 214 207 0
18.920000 23.980000 15.400000 207 213 206 0
19.140000 23.980000 20.900000 206 213 203 0
19.360000 23.980000 20.240000 206 213 203 0
19.580000 23.980000 20.240000 203 212 202 0
19.800000 23.980000 20.240000 202 211 201 0
20.020000 23.980000 20.350000 202 211 201 0
20.240000 23.980000 20.350000 201 210 200 0
20.460000 23.980000 20.350000 199 208 200 0
20.680000 23.980000 15.510000 195 204 196 0
20.900000 23.980000 4.510000 189 202 190 0
21.780000 23.980000 1.210000 159 162 140 0
22.000000 23.980000 2.530000 153 156 134 0
22.220000 23.980000 1.870000 150 153 131 0
22.440000 23.980000 1.210000 149 152 130 0
22.660000 23.980000 3.410000 147 148 127 0
22.880000 23.980000 4.730000 145 146 125 0
23.100000 23.980000 5.500000 143 146 124 0
23.320000 23.980000 4.730000 145 148 126 0
23.540000 23.980000 4.620000 148 153 130 0
23.760000 23.980000 4.510000 152 157 134 0
23.980000 23.980000 3.850000 153 160 139 0
24.200000 23.980000 3.190000 156 163 142 0
24.420000 23.980000 2.420000 157 166 144 0
24.640000 23.980000 2.530000 156 165 143 0
24.860000 23.980000 2.530000 156 163 142 0
25.080000 23.980000 2.530000 154 161 140 0
25.300000 23.980000 3.300000 152 157 134 0
25.520000 23.980000 3.300000 148 153 130 0
25.740000 23.980000 3.300000 146 149 125 0
25.960000 23.980000 3.410000 145 148 124 0
26.180000 23.980000 2.640000 143 146 122 0
26.400000 23.980000 3.410000 141 144 120 0
26.620000 23.980000 3.410000 139 144 119 0
26.840000 23.980000 4.070000 138 143 118 0
27.060000 23.980000 3.960000 138 143 118 0
27.280000 23.980000 4.620000 137 142 117 0
27.500000 23.980000 4.620000 136 141 116 0
27.720000 23.980000 4.620000 136 141 116 0
27.940000 23.980000 5.390000 135 140 115 0
28.160000 23.980000 5.390000 136 141 116 0
28.380000 23.980000 5.390000 135 140 115 0
28.600000 23.980000 5.390000 136 141 116 0
28.820000 23.980000 4.730000 135 140 115 0
29.040000 23.980000 4.730000 135 140 115 0
29.260000 23.980000 3.960000 135 140 113 0
29.480000 23.980000 3.300000 135 140 113 0
29.700000 23.980000 2.640000 134 139 112 0
29.920000 23.980000 1.980000 134 139 112 0
30.140000 23.980000 2.090000 135 140 115 0
30.360000 23.980000 2.090000 134 139 114 0
30.580000 23.980000 1.980000 134 139 114 0
30.800000 23.980000 2.640000 134 139 114 0
31.020000 23.980000 2.530000 133 138 113 0
31.240000 23.980000 3.190000 133 138 113 0
31.460000 23.980000 3.630000 134 139 112 0
31.680000 23.980000 4.180000 134 139 112 0
31.900000 23.980000 4.290000 134 139 112 0
32.120000 23.980000 3.850000 134 139 112 0
32.340000 23.980000 3.850000 134 139 112 0
32.560000 23.980000 4.290000 133 138 111 0
32.780000 23.980000 4.950000 134 139 112 0
33.000000 23.980000 4.950000 134 139 112 0
33.220000 23.980000 5.060000 134 139 112 0
33.440000 23.980000 5.170000 134 139 112 0
33.660000 23.980000 5.280000 134 139 112 0
33.880000 23.980000 5.280000 134 139 112 0
34.100000 23.980000 5.280000 133 138 111 0
34.320000 23.980000 5.170000 133 138 111 0
34.540000 23.980000 5.170000 133 138 111 0
34.760000 23.980000 5.170000 134 139 112 0
34.980000 23.980000 4.510000 134 139 112 0
35.200000 23.980000 4.510000 134 139 112 0
35.420000 23.980000 5.170000 135 141 112 0
35.640000 23.980000 6.600000 134 140 111 0
35.860000 23.980000 6.600000 135 140 113 0
36.080000 23.980000 7.260000 135 140 113 0
36.300000 23.980000 8.030000 136 140 112 0
36.520000 23.980000 8.690000 136 140 112 0
36.740000 23.980000 9.350000 135 139 111 0
36.960000 23.980000 9.460000 136 140 112 0
37.180000 23.980000 10.120000 135 141 112 0
0.000000 24.200000 8.030000 194 186 178 0
0.220000 24.200000 8.030000 191 182 172 0
0.440000 24.200000 6.600000 192 183 173 0
0.660000 24.200000 5.940000 193 188 179 0
0.880000 24.200000 5.940000 196 191 182 0
1.100000 24.200000 6.050000 198 194 188 0
1.320000 24.200000 5.390000 200 196 190 0
1.540000 24.200000 5.390000 202 202 197 0
1.760000 24.200000 4.730000 206 206 201 0
1.980000 24.200000 4.730000 207 208 205 0
2.200000 24.200000 4.730000 209 210 207 0
2.420000 24.200000 5.500000 211 212 209 0
2.640000 24.200000 6.050000 212 213 210 0
2.860000 24.200000 6.380000 213 214 211 0
3.080000 24.200000 6.930000 211 212 209 0
3.300000 24.200000 6.930000 210 211 208 0
3.520000 24.200000 7.040000 212 213 210 0
3.740000 24.200000 7.040000 214 215 212 0
3.960000 24.200000 7.040000 213 214 211 0
4.180000 24.200000 7.040000 214 215 212 0
4.400000 24.200000 7.810000 212 213 210 0
4.620000 24.200000 7.810000 211 215 211 0
4.840000 24.200000 7.810000 211 215 211 0
5.060000 24.200000 7.920000 210 214 210 0
5.280000 24.200000 7.920000 211 215 211 0
5.500000 24.200000 7.920000 215 219 215 0
5.720000 24.200000 7.920000 214 218 214 0
5.940000 24.200000 8.030000 214 216 210 0
6.160000 24.200000 8.030000 213 215 209 0
6.380000 24.200000 8.030000 212 216 212 0
6.600000 24.200000 8.030000 211 215 211 0
6.820000 24.200000 8.140000 212 216 210 0
7.040000 24.200000 8.140000 212 216 210 0
7.260000 24.200000 8.140000 213 217 211 0
7.480000 24.200000 8.910000 210 214 208 0
7.700000 24.200000 8.910000 211 215 209 0
7.920000 24.200000 8.910000 210 214 208 0
8.140000 24.200000 8.910000 211 215 209 0
8.360000 24.200000 9.460000 210 214 208 0
8.580000 24.200000 9.900000 213 217 211 0
8.800000 24.200000 10.450000 213 217 211 0
9.020000 24.200000 10.450000 212 216 210 0
9.240000 24.200000 10.450000 213 217 211 0
9.460000 24.200000 10.450000 212 216 210 0
9.680000 24.200000 10.560000 211 215 209 0
9.900000 24.200000 10.560000 210 214 208 0
10.120000 24.200000 10.560000 210 214 208 0
10.340000 24.200000 11.330000 210 214 208 0
10.560000 24.200000 11.330000 211 215 209 0
10.780000 24.200000 11.330000 212 216 210 0
11.000000 24.200000 11.330000 211 215 209 0
11.220000 24.200000 11.440000 209 213 207 0
11.440000 24.200000 11.440000 209 213 207 0
11.660000 24.200000 11.440000 210 214 208 0
11.880000 24.200000 11.440000 211 215 209 0
12.100000 24.200000 11.550000 211 215 209 0
12.320000 24.200000 12.210000 210 214 208 0
12.540000 24.200000 12.210000 210 214 208 0
12.760000 24.200000 12.320000 210 214 208 0
12.980000 24.200000 12.320000 209 213 207 0
13.200000 24.200000 12.320000 210 214 208 0
13.420000 24.200000 13.090000 211 215 209 0
13.640000 24.200000 13.090000 212 216 210 0
13.860000 24.200000 13.640000 209 216 206 0
14.080000 24.200000 13.970000 209 216 206 0
14.300000 24.200000 14.520000 209 216 206 0
14.520000 24.200000 14.520000 208 215 205 0
14.740000 24.200000 14.630000 208 215 205 0
14.960000 24.200000 14.630000 208 215 205 0
15.180000 24.200000 14.630000 207 213 206 0
15.400000 24.200000 14.740000 207 213 206 0
15.620000 24.200000 14.740000 206 213 203 0
15.840000 24.200000 15.400000 206 213 203 0
16.060000 24.200000 15.510000 205 212 202 0
16.280000 24.200000 15.510000 205 212 202 0
16.500000 24.200000 15.510000 204 211 201 0
16.720000 24.200000 15.510000 202 209 199 0
16.940000 24.200000 15.620000 202 208 201 0
17.160000 24.200000 16.390000 200 206 199 0
17.380000 24.200000 17.710000 198 205 195 0
17.600000 24.200000 18.810000 214 221 211 0
17.820000 24.200000 20.020000 208 214 207 0
18.040000 24.200000 20.130000 208 214 207 0
18.260000 24.200000 15.950000 207 216 206 0
18.480000 24.200000 5.610000 208 217 207 0
18.700000 24.200000 5.610000 208 214 207 0
18.920000 24.200000 16.060000 206 212 205 0
19.140000 24.200000 20.900000 205 212 202 0
19.360000 24.200000 20.240000 204 211 201 0
19.580000 24.200000 20.240000 204 213 203 0
19.800000 24.200000 19.580000 202 211 201 0
20.020000 24.200000 20.350000 201 210 200 0
20.240000 24.200000 20.350000 200 209 199 0
20.460000 24.200000 20.350000 200 209 201 0
20.680000 24.200000 16.940000 195 204 196 0
20.900000 24.200000 8.690000 189 202 190 0
21.120000 24.200000 3.190000 182 195 183 0
21.340000 24.200000 1.100000 176 183 162 0
21.560000 24.200000 1.100000 162 169 148 0
21.780000 24.200000 6.050000 159 162 140 0
22.000000 24.200000 8.800000 154 157 135 0
22.220000 24.200000 3.960000 151 154 132 0
22.440000 24.200000 1.210000 148 151 129 0
22.660000 24.200000 3.410000 148 149 128 0
22.880000 24.200000 4.730000 145 146 125 0
23.100000 24.200000 5.500000 143 146 124 0
23.320000 24.200000 4.730000 144 147 125 0
23.540000 24.200000 4.730000 147 152 129 0
23.760000 24.200000 3.960000 152 157 134 0
23.980000 24.200000 3.300000 152 159 138 0
24.200000 24.200000 3.190000 155 162 141 0
