ply
format ascii 1.0
element vertex 1112
property float x
property float y
property float z
property uchar red
property uchar green
property uchar blue
property uchar alpha
end_header
32.120000 11.440000 5.500000 193 159 127 0
32.340000 11.440000 5.500000 195 160 127 0
32.560000 11.440000 6.050000 195 160 127 0
32.780000 11.440000 7.040000 194 159 126 0
33.000000 11.440000 7.590000 192 157 124 0
33.220000 11.440000 7.700000 192 157 124 0
33.440000 11.440000 7.700000 192 157 124 0
33.660000 11.440000 7.700000 193 157 126 0
33.880000 11.440000 7.700000 193 157 126 0
34.100000 11.440000 8.360000 193 158 125 0
34.320000 11.440000 8.360000 193 158 125 0
34.540000 11.440000 8.470000 194 159 126 0
34.760000 11.440000 8.470000 193 158 125 0
34.980000 11.440000 7.810000 194 159 126 0
35.200000 11.440000 7.810000 195 160 127 0
35.420000 11.440000 7.810000 194 158 127 0
35.640000 11.440000 7.810000 194 158 127 0
35.860000 11.440000 8.580000 196 159 127 0
36.080000 11.440000 8.580000 195 158 126 0
36.300000 11.440000 8.580000 195 160 127 0
36.520000 11.440000 8.580000 196 161 128 0
36.740000 11.440000 7.920000 198 161 130 0
36.960000 11.440000 8.580000 197 160 129 0
37.180000 11.440000 8.690000 197 160 129 0
0.000000 11.660000 5.830000 120 127 106 0
0.220000 11.660000 5.830000 119 126 106 0
0.440000 11.660000 5.830000 118 125 105 0
0.660000 11.660000 6.490000 119 126 106 0
0.880000 11.660000 7.150000 119 126 106 0
1.100000 11.660000 8.470000 118 125 104 0
1.320000 11.660000 8.470000 119 126 105 0
1.540000 11.660000 7.150000 117 126 104 0
1.760000 11.660000 5.060000 117 126 104 0
1.980000 11.660000 3.630000 119 126 106 0
2.200000 11.660000 2.860000 119 126 106 0
2.420000 11.660000 4.180000 119 126 106 0
2.640000 11.660000 7.590000 119 126 106 0
2.860000 11.660000 14.630000 120 127 106 0
3.080000 11.660000 18.700000 120 127 106 0
3.300000 11.660000 15.950000 120 129 107 0
3.520000 11.660000 12.540000 124 133 111 0
3.740000 11.660000 16.060000 135 147 128 0
3.960000 11.660000 19.580000 150 162 143 0
4.180000 11.660000 19.580000 158 175 154 0
4.400000 11.660000 19.690000 163 180 159 0
4.620000 11.660000 19.030000 166 180 158 0
4.840000 11.660000 19.030000 167 181 159 0
5.060000 11.660000 19.030000 169 183 163 0
5.280000 11.660000 19.030000 170 184 164 0
5.500000 11.660000 19.030000 173 185 166 0
5.720000 11.660000 19.140000 174 186 167 0
5.940000 11.660000 19.140000 176 190 170 0
6.160000 11.660000 19.140000 176 190 170 0
6.380000 11.660000 19.140000 177 191 171 0
6.600000 11.660000 19.140000 177 191 171 0
6.820000 11.660000 19.250000 179 193 173 0
7.040000 11.660000 19.250000 181 195 175 0
7.260000 11.660000 19.250000 182 194 175 0
7.480000 11.660000 19.250000 182 194 175 0
7.700000 11.660000 19.250000 181 195 175 0
7.920000 11.660000 19.800000 181 195 175 0
8.140000 11.660000 20.900000 181 195 175 0
8.360000 11.660000 21.450000 182 196 176 0
8.580000 11.660000 21.450000 183 197 177 0
8.800000 11.660000 20.900000 183 197 177 0
9.020000 11.660000 16.060000 183 197 177 0
9.240000 11.660000 7.040000 184 198 178 0
9.460000 11.660000 4.400000 183 197 177 0
9.680000 11.660000 7.810000 183 197 177 0
9.900000 11.660000 9.240000 182 196 176 0
10.120000 11.660000 9.240000 182 196 176 0
10.340000 11.660000 9.240000 182 196 176 0
10.560000 11.660000 8.580000 183 197 177 0
10.780000 11.660000 7.260000 183 197 177 0
11.000000 11.660000 5.170000 183 197 177 0
11.220000 11.660000 1.760000 183 197 177 0
11.440000 11.660000 0.440000 182 196 176 0
11.660000 11.660000 1.100000 183 195 176 0
11.880000 11.660000 0.440000 183 195 176 0
12.320000 11.660000 3.960000 181 195 175 0
12.540000 11.660000 14.300000 181 195 175 0
12.760000 11.660000 19.140000 180 194 174 0
12.980000 11.660000 19.250000 180 194 174 0
13.200000 11.660000 18.590000 181 195 175 0
13.420000 11.660000 18.590000 182 194 175 0
13.640000 11.660000 18.590000 184 196 177 0
13.860000 11.660000 19.140000 183 197 177 0
14.080000 11.660000 20.240000 182 196 176 0
14.300000 11.660000 20.790000 183 197 179 0
14.520000 11.660000 21.450000 184 198 180 0
14.740000 11.660000 21.450000 185 199 181 0
14.960000 11.660000 20.130000 185 199 181 0
15.180000 11.660000 13.200000 186 198 181 0
15.400000 11.660000 4.290000 186 198 181 0
15.620000 11.660000 0.220000 185 199 179 0
15.840000 11.660000 0.220000 185 199 179 0
16.060000 11.660000 0.220000 185 197 178 0
16.280000 11.660000 0.880000 187 199 180 0
16.500000 11.660000 0.880000 186 200 182 0
16.720000 11.660000 0.990000 185 199 181 0
16.940000 11.660000 0.990000 187 199 182 0
17.160000 11.660000 0.990000 186 198 181 0
17.380000 11.660000 0.330000 186 198 181 0
17.600000 11.660000 0.330000 186 198 181 0
17.820000 11.660000 0.330000 185 199 181 0
18.040000 11.660000 0.330000 185 199 181 0
18.260000 11.660000 0.330000 184 198 180 0
18.480000 11.660000 0.330000 185 199 181 0
18.700000 11.660000 0.440000 186 198 181 0
18.920000 11.660000 1.100000 187 199 182 0
19.140000 11.660000 1.100000 188 200 185 0
19.360000 11.660000 1.100000 188 200 185 0
19.580000 11.660000 1.100000 188 200 183 0
19.800000 11.660000 1.210000 188 200 183 0
20.020000 11.660000 1.210000 188 200 185 0
20.240000 11.660000 1.210000 188 200 185 0
20.460000 11.660000 1.210000 189 201 184 0
20.680000 11.660000 1.210000 188 200 183 0
20.900000 11.660000 1.210000 189 201 186 0
21.120000 11.660000 1.210000 188 200 185 0
21.340000 11.660000 1.210000 188 200 183 0
21.560000 11.660000 1.320000 188 200 183 0
21.780000 11.660000 1.320000 189 201 184 0
22.000000 11.660000 1.980000 188 200 183 0
22.220000 11.660000 1.980000 188 200 185 0
22.440000 11.660000 1.980000 188 200 185 0
22.660000 11.660000 2.090000 189 201 186 0
22.880000 11.660000 1.980000 188 200 185 0
23.100000 11.660000 2.530000 188 200 183 0
23.320000 11.660000 2.860000 188 200 183 0
23.540000 11.660000 3.520000 188 200 185 0
23.760000 11.660000 3.520000 189 201 186 0
23.980000 11.660000 3.520000 188 200 185 0
24.200000 11.660000 3.520000 189 201 186 0
24.420000 11.660000 3.520000 189 201 186 0
24.640000 11.660000 4.290000 188 200 185 0
24.860000 11.660000 4.290000 190 200 184 0
25.080000 11.660000 4.290000 190 200 184 0
25.300000 11.660000 3.630000 190 200 186 0
25.520000 11.660000 3.630000 190 200 186 0
25.740000 11.660000 3.630000 190 200 186 0
25.960000 11.660000 3.630000 190 200 186 0
26.180000 11.660000 4.400000 191 201 187 0
26.400000 11.660000 4.400000 191 201 187 0
26.620000 11.660000 4.400000 191 201 185 0
26.840000 11.660000 4.400000 190 200 184 0
27.060000 11.660000 4.400000 190 200 186 0
27.280000 11.660000 4.400000 190 200 186 0
27.500000 11.660000 4.400000 189 199 183 0
27.720000 11.660000 4.510000 189 199 183 0
27.940000 11.660000 4.510000 190 200 186 0
28.160000 11.660000 4.510000 190 200 186 0
28.380000 11.660000 5.170000 191 201 187 0
28.600000 11.660000 5.280000 191 201 187 0
28.820000 11.660000 5.280000 191 201 187 0
29.040000 11.660000 5.280000 191 201 187 0
29.260000 11.660000 5.940000 193 201 185 0
29.480000 11.660000 6.050000 192 200 184 0
29.700000 11.660000 6.050000 191 201 187 0
29.920000 11.660000 6.050000 191 201 187 0
30.140000 11.660000 5.390000 191 201 187 0
30.360000 11.660000 5.390000 190 200 186 0
30.580000 11.660000 5.390000 192 200 184 0
30.800000 11.660000 5.390000 194 202 186 0
31.020000 11.660000 6.160000 194 201 181 0
31.240000 11.660000 6.160000 187 194 174 0
31.460000 11.660000 6.160000 198 180 153 0
31.680000 11.660000 6.160000 190 172 145 0
31.900000 11.660000 6.160000 190 158 128 0
32.120000 11.660000 5.500000 190 158 128 0
32.340000 11.660000 5.500000 193 159 127 0
32.560000 11.660000 6.050000 194 160 128 0
32.780000 11.660000 7.040000 193 157 126 0
33.000000 11.660000 7.590000 192 156 125 0
33.220000 11.660000 7.700000 192 156 125 0
33.440000 11.660000 7.700000 191 155 124 0
33.660000 11.660000 7.700000 191 157 125 0
33.880000 11.660000 7.700000 192 158 126 0
34.100000 11.660000 8.360000 193 157 126 0
34.320000 11.660000 8.360000 193 157 126 0
34.540000 11.660000 8.470000 194 158 127 0
34.760000 11.660000 8.470000 194 158 127 0
34.980000 11.660000 7.810000 193 157 126 0
35.200000 11.660000 7.810000 194 158 127 0
35.420000 11.660000 7.810000 191 157 125 0
35.640000 11.660000 7.810000 191 157 125 0
35.860000 11.660000 8.580000 193 157 126 0
36.080000 11.660000 8.580000 193 157 126 0
36.300000 11.660000 8.580000 194 158 127 0
36.520000 11.660000 8.580000 195 159 128 0
36.740000 11.660000 7.920000 196 160 129 0
36.960000 11.660000 8.580000 196 160 129 0
37.180000 11.660000 8.690000 196 160 129 0
0.000000 11.880000 5.830000 119 126 105 0
0.220000 11.880000 5.830000 119 126 106 0
0.440000 11.880000 5.830000 119 126 106 0
0.660000 11.880000 6.490000 119 126 106 0
0.880000 11.880000 7.150000 120 127 107 0
1.100000 11.880000 8.470000 119 126 105 0
1.320000 11.880000 8.470000 119 126 105 0
1.540000 11.880000 7.150000 118 127 105 0
1.760000 11.880000 5.060000 117 126 104 0
1.980000 11.880000 3.630000 119 126 106 0
2.200000 11.880000 2.860000 118 125 105 0
2.420000 11.880000 4.180000 119 126 106 0
2.640000 11.880000 7.590000 119 126 106 0
2.860000 11.880000 14.630000 120 127 106 0
3.080000 11.880000 18.700000 120 127 106 0
3.300000 11.880000 14.630000 120 129 107 0
3.520000 11.880000 9.790000 126 135 113 0
3.740000 11.880000 14.740000 135 147 128 0
3.960000 11.880000 19.580000 146 158 139 0
4.180000 11.880000 19.580000 157 174 153 0
4.400000 11.880000 19.690000 161 178 157 0
4.620000 11.880000 19.030000 165 179 157 0
4.840000 11.880000 19.030000 166 180 158 0
5.060000 11.880000 19.030000 169 183 163 0
5.280000 11.880000 19.030000 170 184 164 0
5.500000 11.880000 19.030000 172 184 165 0
5.720000 11.880000 19.140000 174 186 167 0
5.940000 11.880000 19.140000 175 189 169 0
6.160000 11.880000 19.140000 175 189 169 0
6.380000 11.880000 19.140000 177 191 171 0
6.600000 11.880000 19.140000 178 192 172 0
6.820000 11.880000 19.250000 179 193 173 0
7.040000 11.880000 19.250000 180 194 174 0
7.260000 11.880000 19.250000 181 193 174 0
7.480000 11.880000 19.250000 182 194 175 0
7.700000 11.880000 19.250000 181 195 175 0
7.920000 11.880000 19.800000 181 195 175 0
8.140000 11.880000 20.900000 180 194 174 0
8.360000 11.880000 21.450000 181 195 175 0
8.580000 11.880000 21.450000 182 196 176 0
8.800000 11.880000 20.900000 183 197 177 0
9.020000 11.880000 16.060000 183 197 177 0
9.240000 11.880000 7.040000 184 198 178 0
9.460000 11.880000 4.400000 182 196 176 0
9.680000 11.880000 7.810000 181 195 175 0
9.900000 11.880000 9.240000 182 196 176 0
10.120000 11.880000 9.240000 182 196 176 0
10.340000 11.880000 9.240000 183 197 177 0
10.560000 11.880000 8.580000 182 196 176 0
10.780000 11.880000 7.260000 181 195 175 0
11.000000 11.880000 4.510000 182 196 176 0
11.220000 11.880000 1.760000 182 196 176 0
11.440000 11.880000 0.440000 182 196 176 0
11.660000 11.880000 1.100000 182 194 175 0
11.880000 11.880000 1.100000 183 195 176 0
12.320000 11.880000 4.620000 181 195 175 0
12.540000 11.880000 14.300000 181 195 175 0
12.760000 11.880000 19.250000 180 194 174 0
12.980000 11.880000 19.250000 180 194 174 0
13.200000 11.880000 18.590000 180 194 174 0
13.420000 11.880000 18.590000 183 195 176 0
13.640000 11.880000 18.590000 183 195 176 0
13.860000 11.880000 19.140000 181 195 175 0
14.080000 11.880000 20.240000 181 195 175 0
14.300000 11.880000 20.790000 181 195 177 0
14.520000 11.880000 21.450000 182 196 178 0
14.740000 11.880000 21.450000 184 198 180 0
14.960000 11.880000 21.560000 185 199 181 0
15.180000 11.880000 16.060000 186 198 181 0
15.400000 11.880000 4.950000 186 198 181 0
15.620000 11.880000 0.220000 185 199 179 0
15.840000 11.880000 0.220000 184 198 178 0
16.060000 11.880000 0.220000 185 197 178 0
16.280000 11.880000 0.220000 186 198 179 0
16.500000 11.880000 0.880000 185 199 181 0
16.720000 11.880000 0.990000 184 198 180 0
16.940000 11.880000 0.990000 185 197 180 0
17.160000 11.880000 0.330000 185 197 180 0
17.380000 11.880000 0.330000 186 198 181 0
17.600000 11.880000 0.330000 186 198 181 0
17.820000 11.880000 0.330000 183 197 179 0
18.040000 11.880000 0.330000 183 197 179 0
18.260000 11.880000 0.330000 184 198 180 0
18.480000 11.880000 0.330000 183 197 179 0
18.700000 11.880000 0.440000 185 197 180 0
18.920000 11.880000 1.100000 187 199 182 0
19.140000 11.880000 1.100000 187 199 184 0
19.360000 11.880000 1.100000 187 199 184 0
19.580000 11.880000 1.100000 188 200 183 0
19.800000 11.880000 1.210000 187 199 182 0
20.020000 11.880000 1.210000 187 199 184 0
20.240000 11.880000 1.210000 187 199 184 0
20.460000 11.880000 1.210000 187 199 182 0
20.680000 11.880000 1.210000 188 200 183 0
20.900000 11.880000 1.210000 188 200 185 0
21.120000 11.880000 1.210000 188 200 185 0
21.340000 11.880000 1.210000 186 198 181 0
21.560000 11.880000 1.320000 187 199 182 0
21.780000 11.880000 1.320000 187 199 182 0
22.000000 11.880000 1.980000 187 199 182 0
22.220000 11.880000 1.980000 186 198 183 0
22.440000 11.880000 1.980000 187 199 184 0
22.660000 11.880000 2.090000 187 199 184 0
22.880000 11.880000 1.870000 188 200 185 0
23.100000 11.880000 2.970000 188 200 183 0
23.320000 11.880000 2.860000 188 200 183 0
23.540000 11.880000 3.520000 187 199 184 0
23.760000 11.880000 3.520000 187 199 184 0
23.980000 11.880000 3.520000 187 199 184 0
24.200000 11.880000 3.520000 188 200 185 0
24.420000 11.880000 3.520000 188 200 185 0
24.640000 11.880000 4.290000 187 199 184 0
24.860000 11.880000 4.290000 189 199 183 0
25.080000 11.880000 4.290000 189 199 183 0
25.300000 11.880000 3.630000 189 199 185 0
25.520000 11.880000 3.630000 190 200 186 0
25.740000 11.880000 3.630000 190 200 186 0
25.960000 11.880000 3.630000 190 200 186 0
26.180000 11.880000 4.400000 189 199 185 0
26.400000 11.880000 4.400000 189 199 185 0
26.620000 11.880000 4.400000 189 199 183 0
26.840000 11.880000 4.400000 189 199 183 0
27.060000 11.880000 4.400000 189 199 185 0
27.280000 11.880000 4.400000 189 199 185 0
27.500000 11.880000 4.400000 188 198 182 0
27.720000 11.880000 4.510000 187 197 181 0
27.940000 11.880000 4.510000 188 198 184 0
28.160000 11.880000 5.170000 188 198 184 0
28.380000 11.880000 5.170000 189 199 185 0
28.600000 11.880000 5.280000 190 200 186 0
28.820000 11.880000 5.280000 189 199 185 0
29.040000 11.880000 5.280000 190 200 186 0
29.260000 11.880000 5.940000 192 200 184 0
29.480000 11.880000 6.050000 192 200 184 0
29.700000 11.880000 6.050000 190 200 186 0
29.920000 11.880000 6.050000 190 200 186 0
30.140000 11.880000 5.390000 190 200 186 0
30.360000 11.880000 5.390000 190 200 186 0
30.580000 11.880000 5.390000 192 200 184 0
30.800000 11.880000 5.390000 192 200 184 0
31.020000 11.880000 6.160000 193 200 180 0
31.240000 11.880000 6.160000 187 194 174 0
31.460000 11.880000 6.160000 196 178 151 0
31.680000 11.880000 6.160000 187 169 142 0
31.900000 11.880000 5.500000 190 158 128 0
32.120000 11.880000 5.500000 189 157 127 0
32.340000 11.880000 5.500000 193 159 127 0
32.560000 11.880000 6.050000 194 160 128 0
32.780000 11.880000 7.040000 193 157 126 0
33.000000 11.880000 7.590000 190 154 123 0
33.220000 11.880000 7.700000 191 155 124 0
33.440000 11.880000 7.700000 190 154 123 0
33.660000 11.880000 7.700000 189 155 123 0
33.880000 11.880000 7.700000 191 157 125 0
34.100000 11.880000 8.360000 193 157 126 0
34.320000 11.880000 8.360000 193 157 126 0
34.540000 11.880000 8.470000 193 157 126 0
34.760000 11.880000 8.470000 193 157 126 0
34.980000 11.880000 7.810000 193 157 126 0
35.200000 11.880000 7.810000 192 156 125 0
35.420000 11.880000 7.810000 192 158 126 0
35.640000 11.880000 7.810000 191 157 125 0
35.860000 11.880000 8.580000 192 156 125 0
36.080000 11.880000 8.580000 192 156 125 0
36.300000 11.880000 8.580000 192 156 125 0
36.520000 11.880000 8.580000 193 157 126 0
36.740000 11.880000 7.920000 193 157 126 0
36.960000 11.880000 8.580000 194 158 127 0
37.180000 11.880000 8.690000 195 159 128 0
0.000000 12.100000 5.830000 119 126 105 0
0.220000 12.100000 5.830000 119 126 105 0
0.440000 12.100000 5.830000 119 126 105 0
0.660000 12.100000 6.490000 118 127 105 0
0.880000 12.100000 7.150000 118 127 105 0
1.100000 12.100000 8.470000 119 126 105 0
1.320000 12.100000 8.470000 119 126 105 0
1.540000 12.100000 7.150000 119 126 105 0
1.760000 12.100000 5.060000 118 125 104 0
1.980000 12.100000 3.630000 117 124 103 0
2.200000 12.100000 2.860000 118 125 104 0
2.420000 12.100000 3.520000 118 127 105 0
2.640000 12.100000 7.590000 118 127 105 0
2.860000 12.100000 14.630000 120 127 106 0
3.080000 12.100000 18.700000 121 128 107 0
3.300000 12.100000 14.630000 122 129 108 0
3.520000 12.100000 9.790000 126 133 112 0
3.740000 12.100000 14.740000 133 147 125 0
3.960000 12.100000 19.580000 145 159 137 0
4.180000 12.100000 19.580000 157 171 149 0
4.400000 12.100000 19.690000 162 176 154 0
4.620000 12.100000 19.030000 165 179 157 0
4.840000 12.100000 19.030000 167 181 159 0
5.060000 12.100000 19.030000 167 181 161 0
5.280000 12.100000 19.030000 170 184 164 0
5.500000 12.100000 19.030000 171 185 165 0
5.720000 12.100000 19.140000 174 188 168 0
5.940000 12.100000 19.140000 175 189 167 0
6.160000 12.100000 19.140000 175 189 167 0
6.380000 12.100000 19.140000 176 190 170 0
6.600000 12.100000 19.140000 177 191 171 0
6.820000 12.100000 19.250000 178 192 172 0
7.040000 12.100000 19.250000 179 193 173 0
7.260000 12.100000 19.250000 179 193 173 0
7.480000 12.100000 19.250000 180 194 174 0
7.700000 12.100000 19.250000 180 194 172 0
7.920000 12.100000 19.800000 180 194 172 0
8.140000 12.100000 20.900000 181 195 175 0
8.360000 12.100000 21.450000 180 194 174 0
8.580000 12.100000 20.790000 182 196 176 0
8.800000 12.100000 20.900000 182 196 176 0
9.020000 12.100000 16.060000 183 197 177 0
9.240000 12.100000 7.150000 183 197 177 0
9.460000 12.100000 4.400000 183 196 174 0
9.680000 12.100000 7.810000 183 196 174 0
9.900000 12.100000 9.240000 182 196 176 0
10.120000 12.100000 9.240000 182 196 176 0
10.340000 12.100000 9.240000 182 196 176 0
10.560000 12.100000 8.580000 182 196 176 0
10.780000 12.100000 7.260000 183 196 174 0
11.000000 12.100000 4.510000 182 195 173 0
11.220000 12.100000 1.760000 182 195 173 0
11.440000 12.100000 0.440000 183 196 174 0
11.660000 12.100000 1.100000 183 195 176 0
11.880000 12.100000 1.100000 183 195 176 0
12.320000 12.100000 4.620000 182 196 176 0
12.540000 12.100000 14.300000 182 194 175 0
12.760000 12.100000 19.250000 182 194 175 0
12.980000 12.100000 19.250000 182 194 175 0
13.200000 12.100000 19.250000 183 195 176 0
13.420000 12.100000 18.590000 183 195 176 0
13.640000 12.100000 18.590000 182 194 175 0
13.860000 12.100000 19.140000 183 195 176 0
14.080000 12.100000 20.240000 182 194 175 0
14.300000 12.100000 20.790000 182 194 175 0
14.520000 12.100000 20.790000 183 195 176 0
14.740000 12.100000 20.790000 185 197 178 0
14.960000 12.100000 20.790000 186 198 179 0
15.180000 12.100000 16.060000 186 198 179 0
15.400000 12.100000 4.950000 186 198 179 0
15.620000 12.100000 0.220000 185 197 178 0
15.840000 12.100000 0.220000 185 197 178 0
16.060000 12.100000 0.220000 186 198 179 0
16.280000 12.100000 0.220000 186 198 179 0
16.500000 12.100000 0.220000 184 196 177 0
16.720000 12.100000 0.990000 184 196 177 0
16.940000 12.100000 0.990000 185 197 178 0
17.160000 12.100000 0.330000 185 197 178 0
17.380000 12.100000 0.330000 185 197 178 0
17.600000 12.100000 0.330000 186 198 179 0
17.820000 12.100000 0.330000 185 197 178 0
18.040000 12.100000 0.330000 184 196 177 0
18.260000 12.100000 0.330000 184 196 177 0
18.480000 12.100000 0.330000 185 197 178 0
18.700000 12.100000 0.440000 185 197 180 0
18.920000 12.100000 1.100000 187 199 182 0
19.140000 12.100000 1.100000 189 199 183 0
19.360000 12.100000 1.100000 189 199 183 0
19.580000 12.100000 1.100000 188 200 183 0
19.800000 12.100000 1.210000 188 200 183 0
20.020000 12.100000 1.210000 187 199 182 0
20.240000 12.100000 1.210000 188 200 183 0
20.460000 12.100000 1.210000 189 199 183 0
20.680000 12.100000 1.210000 189 199 183 0
20.900000 12.100000 1.210000 189 199 183 0
21.120000 12.100000 1.210000 189 199 183 0
21.340000 12.100000 1.210000 189 199 183 0
21.560000 12.100000 1.320000 188 198 182 0
21.780000 12.100000 1.320000 187 199 182 0
22.000000 12.100000 1.980000 187 199 182 0
22.220000 12.100000 1.980000 187 197 181 0
22.440000 12.100000 1.980000 188 198 182 0
22.660000 12.100000 2.090000 188 198 182 0
22.880000 12.100000 2.530000 189 199 183 0
23.100000 12.100000 2.970000 189 199 183 0
23.320000 12.100000 3.520000 189 199 183 0
23.540000 12.100000 3.520000 189 199 183 0
23.760000 12.100000 3.520000 189 199 183 0
23.980000 12.100000 3.520000 188 198 182 0
24.200000 12.100000 3.520000 189 199 183 0
24.420000 12.100000 3.520000 189 199 183 0
24.640000 12.100000 4.290000 189 199 183 0
24.860000 12.100000 4.290000 189 199 183 0
25.080000 12.100000 3.630000 189 199 183 0
25.300000 12.100000 3.630000 189 199 183 0
25.520000 12.100000 3.630000 190 200 184 0
25.740000 12.100000 3.630000 191 199 183 0
25.960000 12.100000 3.630000 192 200 184 0
26.180000 12.100000 4.400000 193 201 185 0
26.400000 12.100000 4.400000 191 199 183 0
26.620000 12.100000 4.400000 189 199 185 0
26.840000 12.100000 5.060000 189 199 185 0
27.060000 12.100000 4.400000 188 198 184 0
27.280000 12.100000 4.400000 188 198 184 0
27.500000 12.100000 5.170000 189 197 181 0
27.720000 12.100000 5.170000 188 196 180 0
27.940000 12.100000 5.170000 186 196 183 0
28.160000 12.100000 5.170000 185 195 182 0
28.380000 12.100000 5.170000 190 197 184 0
28.600000 12.100000 5.280000 190 197 184 0
28.820000 12.100000 5.280000 191 199 183 0
29.040000 12.100000 5.940000 191 199 183 0
29.260000 12.100000 5.940000 191 199 183 0
29.480000 12.100000 6.050000 192 200 184 0
29.700000 12.100000 6.050000 193 200 187 0
29.920000 12.100000 6.050000 192 199 186 0
30.140000 12.100000 6.050000 192 199 186 0
30.360000 12.100000 5.390000 193 200 187 0
30.580000 12.100000 5.390000 193 201 185 0
30.800000 12.100000 5.390000 192 200 184 0
31.020000 12.100000 6.160000 195 198 182 0
31.240000 12.100000 6.160000 191 194 178 0
31.460000 12.100000 6.160000 199 181 156 0
31.680000 12.100000 6.160000 190 172 147 0
31.900000 12.100000 5.500000 193 159 127 0
32.120000 12.100000 5.500000 192 158 126 0
32.340000 12.100000 5.500000 192 158 125 0
32.560000 12.100000 6.050000 193 159 126 0
32.780000 12.100000 7.040000 194 158 127 0
33.000000 12.100000 7.590000 190 154 123 0
33.220000 12.100000 7.700000 190 155 122 0
33.440000 12.100000 7.700000 190 155 122 0
33.660000 12.100000 7.700000 191 157 125 0
33.880000 12.100000 7.700000 193 159 127 0
34.100000 12.100000 8.360000 194 159 126 0
34.320000 12.100000 8.360000 193 158 125 0
34.540000 12.100000 8.470000 193 157 126 0
34.760000 12.100000 8.470000 193 157 126 0
34.980000 12.100000 7.810000 193 158 125 0
35.200000 12.100000 7.810000 194 159 126 0
35.420000 12.100000 7.810000 193 157 126 0
35.640000 12.100000 7.810000 192 156 125 0
35.860000 12.100000 8.580000 192 157 124 0
36.080000 12.100000 8.580000 192 157 124 0
36.300000 12.100000 8.580000 192 156 125 0
36.520000 12.100000 8.580000 193 157 126 0
36.740000 12.100000 7.920000 193 158 125 0
36.960000 12.100000 8.580000 193 158 125 0
37.180000 12.100000 8.690000 194 158 127 0
0.000000 12.320000 6.490000 119 126 105 0
0.220000 12.320000 5.830000 119 126 105 0
0.440000 12.320000 5.830000 119 126 105 0
0.660000 12.320000 6.490000 118 127 105 0
0.880000 12.320000 7.150000 118 127 105 0
1.100000 12.320000 8.470000 118 125 104 0
1.320000 12.320000 8.470000 119 126 105 0
1.540000 12.320000 7.150000 119 126 105 0
1.760000 12.320000 5.060000 118 125 104 0
1.980000 12.320000 3.630000 118 125 104 0
2.200000 12.320000 2.860000 119 126 105 0
2.420000 12.320000 3.520000 118 127 105 0
2.640000 12.320000 7.590000 119 128 106 0
2.860000 12.320000 14.630000 120 127 106 0
3.080000 12.320000 18.700000 121 128 107 0
3.300000 12.320000 14.630000 122 129 108 0
3.520000 12.320000 9.790000 126 133 112 0
3.740000 12.320000 14.740000 132 146 124 0
3.960000 12.320000 19.580000 145 159 137 0
4.180000 12.320000 19.580000 159 173 151 0
4.400000 12.320000 19.690000 163 177 155 0
4.620000 12.320000 19.030000 165 179 157 0
4.840000 12.320000 19.030000 168 182 160 0
5.060000 12.320000 19.030000 169 183 163 0
5.280000 12.320000 19.030000 169 183 163 0
5.500000 12.320000 19.030000 172 186 166 0
5.720000 12.320000 19.140000 173 187 167 0
5.940000 12.320000 19.140000 174 188 166 0
6.160000 12.320000 19.140000 175 189 167 0
6.380000 12.320000 19.140000 177 191 171 0
6.600000 12.320000 19.140000 177 191 171 0
6.820000 12.320000 19.250000 177 191 171 0
7.040000 12.320000 19.250000 177 191 171 0
7.260000 12.320000 19.250000 179 193 173 0
7.480000 12.320000 19.250000 180 194 174 0
7.700000 12.320000 19.360000 181 195 173 0
7.920000 12.320000 19.800000 181 195 173 0
8.140000 12.320000 20.900000 181 195 175 0
8.360000 12.320000 21.450000 181 195 175 0
8.580000 12.320000 20.790000 182 196 176 0
8.800000 12.320000 19.470000 183 197 177 0
9.020000 12.320000 13.310000 183 197 177 0
9.240000 12.320000 5.720000 183 197 177 0
9.460000 12.320000 5.060000 183 196 174 0
9.680000 12.320000 7.810000 183 196 174 0
9.900000 12.320000 9.240000 182 196 176 0
10.120000 12.320000 9.240000 182 196 176 0
10.340000 12.320000 9.240000 183 197 177 0
10.560000 12.320000 8.580000 181 195 175 0
10.780000 12.320000 7.260000 183 196 174 0
11.000000 12.320000 4.510000 183 196 174 0
11.220000 12.320000 1.760000 184 197 175 0
11.440000 12.320000 1.100000 184 197 175 0
11.660000 12.320000 1.100000 184 196 177 0
11.880000 12.320000 1.100000 184 196 177 0
12.320000 12.320000 4.620000 182 196 176 0
12.540000 12.320000 14.300000 184 196 177 0
12.760000 12.320000 19.250000 185 197 178 0
12.980000 12.320000 19.250000 184 196 177 0
13.200000 12.320000 19.250000 184 196 177 0
13.420000 12.320000 18.590000 184 196 177 0
13.640000 12.320000 18.590000 184 196 177 0
13.860000 12.320000 19.140000 183 195 176 0
14.080000 12.320000 19.580000 183 195 176 0
14.300000 12.320000 20.790000 183 195 176 0
14.520000 12.320000 20.790000 184 196 177 0
14.740000 12.320000 20.790000 185 197 178 0
14.960000 12.320000 20.790000 186 198 179 0
15.180000 12.320000 15.290000 187 199 180 0
15.400000 12.320000 4.950000 187 199 180 0
15.620000 12.320000 0.220000 187 199 180 0
15.840000 12.320000 0.220000 187 199 180 0
16.060000 12.320000 0.220000 187 199 180 0
16.280000 12.320000 0.220000 185 197 178 0
16.500000 12.320000 0.220000 184 196 177 0
16.720000 12.320000 0.220000 185 197 178 0
16.940000 12.320000 0.220000 186 198 179 0
17.160000 12.320000 0.330000 186 198 179 0
17.380000 12.320000 0.330000 186 198 179 0
17.600000 12.320000 0.330000 185 197 178 0
17.820000 12.320000 0.330000 186 198 179 0
18.040000 12.320000 0.330000 185 197 178 0
18.260000 12.320000 0.330000 186 198 179 0
18.480000 12.320000 0.330000 186 198 179 0
18.700000 12.320000 0.440000 186 198 181 0
18.920000 12.320000 1.100000 188 200 183 0
19.140000 12.320000 1.100000 188 198 182 0
19.360000 12.320000 1.100000 189 199 183 0
19.580000 12.320000 1.100000 188 200 183 0
19.800000 12.320000 1.210000 188 200 183 0
20.020000 12.320000 1.210000 188 200 183 0
20.240000 12.320000 1.210000 188 200 183 0
20.460000 12.320000 1.210000 190 200 184 0
20.680000 12.320000 1.210000 189 199 183 0
20.900000 12.320000 1.210000 189 199 183 0
21.120000 12.320000 1.210000 190 200 184 0
21.340000 12.320000 1.210000 189 199 183 0
21.560000 12.320000 1.320000 189 199 183 0
21.780000 12.320000 1.320000 189 201 184 0
22.000000 12.320000 1.980000 188 200 183 0
22.220000 12.320000 1.980000 190 200 184 0
22.440000 12.320000 1.980000 189 199 183 0
22.660000 12.320000 2.090000 190 200 184 0
22.880000 12.320000 2.530000 190 200 184 0
23.100000 12.320000 2.970000 190 200 184 0
23.320000 12.320000 3.520000 189 199 183 0
23.540000 12.320000 3.520000 189 199 183 0
23.760000 12.320000 3.520000 189 199 183 0
23.980000 12.320000 3.520000 189 199 183 0
24.200000 12.320000 3.520000 189 199 183 0
24.420000 12.320000 3.520000 190 200 184 0
24.640000 12.320000 4.290000 190 200 184 0
24.860000 12.320000 4.290000 189 199 183 0
25.080000 12.320000 3.630000 189 199 183 0
25.300000 12.320000 3.630000 190 200 184 0
25.520000 12.320000 3.630000 190 200 184 0
25.740000 12.320000 3.630000 192 200 184 0
25.960000 12.320000 4.400000 193 201 185 0
26.180000 12.320000 4.400000 193 201 185 0
26.400000 12.320000 4.400000 192 200 184 0
26.620000 12.320000 4.400000 190 200 186 0
26.840000 12.320000 5.060000 190 200 186 0
27.060000 12.320000 5.170000 190 200 186 0
27.280000 12.320000 5.170000 188 198 184 0
27.500000 12.320000 5.170000 188 196 180 0
27.720000 12.320000 5.170000 186 194 178 0
27.940000 12.320000 5.170000 184 194 181 0
28.160000 12.320000 5.170000 182 192 179 0
28.380000 12.320000 5.170000 187 194 181 0
28.600000 12.320000 5.280000 189 196 183 0
28.820000 12.320000 5.280000 191 199 183 0
29.040000 12.320000 5.940000 192 200 184 0
29.260000 12.320000 5.940000 192 200 184 0
29.480000 12.320000 6.050000 193 201 185 0
29.700000 12.320000 6.050000 193 200 187 0
29.920000 12.320000 6.050000 193 200 187 0
30.140000 12.320000 6.050000 193 200 187 0
30.360000 12.320000 5.390000 193 200 187 0
30.580000 12.320000 5.390000 194 202 186 0
30.800000 12.320000 6.050000 193 201 185 0
31.020000 12.320000 6.160000 196 199 183 0
31.240000 12.320000 6.160000 190 193 177 0
31.460000 12.320000 6.160000 199 181 156 0
31.680000 12.320000 6.160000 190 172 147 0
31.900000 12.320000 5.500000 195 161 129 0
32.120000 12.320000 5.500000 192 158 126 0
32.340000 12.320000 5.500000 193 159 126 0
32.560000 12.320000 6.050000 194 160 127 0
32.780000 12.320000 7.040000 195 159 128 0
33.000000 12.320000 7.590000 193 157 126 0
33.220000 12.320000 7.700000 192 157 124 0
33.440000 12.320000 7.700000 194 159 126 0
33.660000 12.320000 7.700000 193 159 127 0
33.880000 12.320000 7.700000 195 161 129 0
34.100000 12.320000 8.360000 196 161 128 0
34.320000 12.320000 8.360000 195 160 127 0
34.540000 12.320000 8.470000 194 158 127 0
34.760000 12.320000 8.470000 194 158 127 0
34.980000 12.320000 7.810000 195 160 127 0
35.200000 12.320000 7.810000 194 159 126 0
35.420000 12.320000 7.810000 194 158 127 0
35.640000 12.320000 7.810000 194 158 127 0
35.860000 12.320000 8.580000 193 158 125 0
36.080000 12.320000 8.580000 193 158 125 0
36.300000 12.320000 8.580000 193 157 126 0
36.520000 12.320000 8.580000 194 158 127 0
36.740000 12.320000 7.920000 194 159 126 0
36.960000 12.320000 7.920000 194 159 126 0
37.180000 12.320000 8.690000 195 159 128 0
0.000000 12.540000 6.490000 120 127 106 0
0.220000 12.540000 5.830000 120 127 106 0
0.440000 12.540000 5.830000 119 126 105 0
0.660000 12.540000 6.490000 120 127 106 0
0.880000 12.540000 7.150000 120 127 106 0
1.100000 12.540000 8.470000 120 127 106 0
1.320000 12.540000 8.470000 120 127 106 0
1.540000 12.540000 6.490000 119 126 105 0
1.760000 12.540000 4.400000 119 126 105 0
1.980000 12.540000 3.630000 118 125 104 0
2.200000 12.540000 2.860000 119 126 105 0
2.420000 12.540000 4.180000 120 127 106 0
2.640000 12.540000 7.700000 121 128 107 0
2.860000 12.540000 14.630000 120 127 106 0
3.080000 12.540000 18.700000 120 127 106 0
3.300000 12.540000 14.630000 121 128 107 0
3.520000 12.540000 9.790000 125 132 111 0
3.740000 12.540000 14.740000 133 146 124 0
3.960000 12.540000 19.580000 146 159 137 0
4.180000 12.540000 19.580000 160 173 151 0
4.400000 12.540000 19.690000 165 178 156 0
4.620000 12.540000 19.030000 168 181 158 0
4.840000 12.540000 19.030000 167 180 157 0
5.060000 12.540000 19.030000 170 181 160 0
5.280000 12.540000 19.030000 170 181 160 0
5.500000 12.540000 19.030000 171 184 162 0
5.720000 12.540000 19.140000 173 186 164 0
5.940000 12.540000 19.140000 175 188 166 0
6.160000 12.540000 19.140000 177 190 168 0
6.380000 12.540000 19.140000 178 191 169 0
6.600000 12.540000 19.140000 179 192 170 0
6.820000 12.540000 19.250000 178 191 169 0
7.040000 12.540000 19.250000 180 193 171 0
7.260000 12.540000 19.250000 180 193 171 0
7.480000 12.540000 19.250000 182 195 173 0
7.700000 12.540000 19.360000 181 194 172 0
7.920000 12.540000 19.800000 182 195 173 0
8.140000 12.540000 20.900000 183 196 174 0
8.360000 12.540000 21.450000 183 196 174 0
8.580000 12.540000 20.790000 182 195 173 0
8.800000 12.540000 16.720000 183 196 174 0
9.020000 12.540000 8.470000 184 197 175 0
9.240000 12.540000 3.630000 183 196 174 0
9.460000 12.540000 5.060000 183 196 174 0
9.680000 12.540000 7.810000 184 197 175 0
9.900000 12.540000 9.900000 184 197 175 0
10.120000 12.540000 9.240000 184 197 175 0
10.340000 12.540000 9.240000 184 197 175 0
10.560000 12.540000 8.580000 183 196 174 0
10.780000 12.540000 6.600000 183 196 174 0
11.000000 12.540000 4.510000 183 196 174 0
11.220000 12.540000 1.760000 184 196 177 0
11.440000 12.540000 1.100000 184 196 177 0
11.660000 12.540000 1.100000 183 196 174 0
11.880000 12.540000 1.100000 184 197 175 0
12.320000 12.540000 4.620000 183 196 174 0
12.540000 12.540000 14.300000 184 196 177 0
12.760000 12.540000 19.250000 184 196 177 0
12.980000 12.540000 19.250000 185 197 178 0
13.200000 12.540000 19.250000 184 196 177 0
13.420000 12.540000 18.590000 184 196 177 0
13.640000 12.540000 18.590000 184 196 177 0
13.860000 12.540000 19.140000 184 196 177 0
14.080000 12.540000 19.580000 184 196 177 0
14.300000 12.540000 20.790000 184 196 177 0
14.520000 12.540000 20.790000 184 196 177 0
14.740000 12.540000 20.790000 186 198 179 0
14.960000 12.540000 20.790000 186 198 179 0
15.180000 12.540000 16.720000 187 199 180 0
15.400000 12.540000 7.700000 187 199 180 0
15.620000 12.540000 1.540000 188 200 181 0
15.840000 12.540000 0.220000 189 201 182 0
16.060000 12.540000 0.220000 188 200 181 0
16.280000 12.540000 0.220000 187 199 180 0
16.500000 12.540000 0.220000 185 197 178 0
16.720000 12.540000 0.220000 185 197 178 0
16.940000 12.540000 0.220000 185 197 178 0
17.160000 12.540000 0.330000 185 197 178 0
17.380000 12.540000 0.330000 187 198 179 0
17.600000 12.540000 0.330000 187 198 179 0
17.820000 12.540000 0.330000 187 198 179 0
18.040000 12.540000 0.330000 187 198 179 0
18.260000 12.540000 0.330000 187 199 180 0
18.480000 12.540000 0.330000 187 199 180 0
18.700000 12.540000 0.440000 188 198 182 0
18.920000 12.540000 1.100000 189 199 183 0
19.140000 12.540000 1.100000 189 200 181 0
19.360000 12.540000 1.100000 189 200 181 0
19.580000 12.540000 1.100000 189 199 183 0
19.800000 12.540000 1.210000 189 199 183 0
20.020000 12.540000 1.210000 189 199 183 0
20.240000 12.540000 1.210000 189 199 183 0
20.460000 12.540000 1.210000 190 200 184 0
20.680000 12.540000 1.210000 189 199 183 0
20.900000 12.540000 1.210000 189 199 183 0
21.120000 12.540000 1.210000 190 200 184 0
21.340000 12.540000 1.210000 190 200 184 0
21.560000 12.540000 1.320000 190 200 184 0
21.780000 12.540000 1.320000 190 200 184 0
22.000000 12.540000 1.980000 190 200 184 0
22.220000 12.540000 1.980000 190 200 184 0
22.440000 12.540000 1.980000 190 200 184 0
22.660000 12.540000 2.090000 189 199 183 0
22.880000 12.540000 2.530000 190 200 184 0
23.100000 12.540000 2.970000 192 200 184 0
23.320000 12.540000 3.520000 191 199 183 0
23.540000 12.540000 3.520000 189 199 183 0
23.760000 12.540000 3.520000 190 200 184 0
23.980000 12.540000 3.520000 189 199 183 0
24.200000 12.540000 3.520000 190 200 184 0
24.420000 12.540000 3.520000 189 199 183 0
24.640000 12.540000 4.290000 189 199 183 0
24.860000 12.540000 4.290000 191 199 183 0
25.080000 12.540000 3.630000 192 200 184 0
25.300000 12.540000 3.630000 190 200 184 0
25.520000 12.540000 3.630000 190 200 184 0
25.740000 12.540000 3.630000 192 200 184 0
25.960000 12.540000 4.400000 193 201 185 0
26.180000 12.540000 4.400000 192 200 184 0
26.400000 12.540000 4.400000 192 200 184 0
26.620000 12.540000 4.400000 192 200 184 0
26.840000 12.540000 5.060000 193 201 185 0
27.060000 12.540000 5.170000 191 199 183 0
27.280000 12.540000 5.170000 191 199 183 0
27.500000 12.540000 5.170000 187 195 179 0
27.720000 12.540000 5.170000 184 192 176 0
27.940000 12.540000 5.170000 181 191 178 0
28.160000 12.540000 5.170000 181 191 178 0
28.380000 12.540000 5.170000 185 193 177 0
28.600000 12.540000 5.280000 188 196 180 0
28.820000 12.540000 5.280000 191 199 183 0
29.040000 12.540000 5.940000 191 199 183 0
29.260000 12.540000 5.940000 194 200 185 0
29.480000 12.540000 6.050000 194 200 185 0
29.700000 12.540000 6.050000 193 201 185 0
29.920000 12.540000 6.050000 194 202 186 0
30.140000 12.540000 6.050000 194 200 185 0
30.360000 12.540000 5.390000 195 201 186 0
30.580000 12.540000 5.390000 195 201 186 0
30.800000 12.540000 6.050000 195 201 186 0
31.020000 12.540000 6.160000 195 201 184 0
31.240000 12.540000 6.160000 189 195 178 0
31.460000 12.540000 6.160000 202 181 155 0
31.680000 12.540000 6.160000 193 172 146 0
31.900000 12.540000 5.500000 194 160 128 0
32.120000 12.540000 5.500000 193 159 127 0
32.340000 12.540000 5.500000 194 159 126 0
32.560000 12.540000 6.050000 195 160 127 0
32.780000 12.540000 7.040000 195 160 127 0
33.000000 12.540000 7.590000 194 159 126 0
33.220000 12.540000 7.700000 194 159 126 0
33.440000 12.540000 7.700000 195 160 127 0
33.660000 12.540000 7.700000 195 159 128 0
33.880000 12.540000 7.700000 195 159 128 0
34.100000 12.540000 8.360000 195 160 127 0
34.320000 12.540000 8.360000 196 161 128 0
34.540000 12.540000 8.470000 196 161 128 0
34.760000 12.540000 8.470000 196 161 128 0
34.980000 12.540000 7.810000 196 159 127 0
35.200000 12.540000 7.810000 197 160 128 0
35.420000 12.540000 7.810000 194 159 126 0
35.640000 12.540000 7.810000 194 159 126 0
35.860000 12.540000 8.580000 194 159 126 0
36.080000 12.540000 8.580000 194 159 126 0
36.300000 12.540000 8.580000 193 157 126 0
36.520000 12.540000 8.580000 193 157 126 0
36.740000 12.540000 7.920000 195 158 126 0
36.960000 12.540000 7.920000 195 158 126 0
37.180000 12.540000 8.690000 195 158 126 0
0.000000 12.760000 6.490000 120 127 106 0
0.220000 12.760000 5.830000 119 126 105 0
0.440000 12.760000 5.830000 119 126 105 0
0.660000 12.760000 6.490000 119 126 105 0
0.880000 12.760000 7.150000 119 126 105 0
1.100000 12.760000 8.470000 119 126 105 0
1.320000 12.760000 8.470000 120 127 106 0
1.540000 12.760000 6.490000 119 126 105 0
1.760000 12.760000 4.400000 119 126 105 0
1.980000 12.760000 3.630000 119 126 105 0
2.200000 12.760000 2.860000 120 127 106 0
2.420000 12.760000 4.180000 121 128 107 0
2.640000 12.760000 7.700000 120 127 106 0
2.860000 12.760000 14.630000 121 128 107 0
3.080000 12.760000 18.700000 119 126 105 0
3.300000 12.760000 14.630000 122 129 108 0
3.520000 12.760000 9.790000 125 132 111 0
3.740000 12.760000 14.740000 135 148 126 0
3.960000 12.760000 19.580000 145 158 136 0
4.180000 12.760000 19.580000 161 174 152 0
4.400000 12.760000 19.690000 164 177 155 0
4.620000 12.760000 19.030000 168 181 158 0
4.840000 12.760000 19.030000 167 180 157 0
5.060000 12.760000 19.030000 170 181 160 0
5.280000 12.760000 19.030000 170 181 160 0
5.500000 12.760000 19.030000 172 185 163 0
5.720000 12.760000 19.140000 175 188 166 0
5.940000 12.760000 19.140000 176 189 167 0
6.160000 12.760000 18.480000 178 191 169 0
6.380000 12.760000 19.140000 178 191 169 0
6.600000 12.760000 19.140000 179 192 170 0
6.820000 12.760000 19.250000 181 194 172 0
7.040000 12.760000 19.250000 180 193 171 0
7.260000 12.760000 19.250000 181 194 172 0
7.480000 12.760000 19.250000 181 194 172 0
7.700000 12.760000 19.360000 182 195 173 0
7.920000 12.760000 19.800000 182 195 173 0
8.140000 12.760000 20.900000 182 195 173 0
8.360000 12.760000 21.450000 183 196 174 0
8.580000 12.760000 21.560000 184 197 175 0
8.800000 12.760000 15.290000 184 197 175 0
9.020000 12.760000 5.720000 184 197 175 0
9.240000 12.760000 2.310000 184 197 175 0
9.460000 12.760000 5.060000 184 197 175 0
9.680000 12.760000 8.580000 184 197 175 0
9.900000 12.760000 9.900000 184 197 175 0
10.120000 12.760000 9.900000 184 197 175 0
10.340000 12.760000 9.240000 184 197 175 0
10.560000 12.760000 8.580000 184 197 175 0
10.780000 12.760000 6.600000 184 197 175 0
11.000000 12.760000 3.850000 183 196 174 0
11.220000 12.760000 1.760000 184 196 177 0
11.440000 12.760000 1.100000 184 196 177 0
11.660000 12.760000 1.100000 183 196 174 0
11.880000 12.760000 1.100000 183 196 174 0
12.320000 12.760000 4.620000 184 197 175 0
12.540000 12.760000 14.300000 184 196 177 0
12.760000 12.760000 19.250000 185 197 178 0
12.980000 12.760000 19.250000 185 197 178 0
13.200000 12.760000 19.250000 184 196 177 0
13.420000 12.760000 18.590000 184 196 177 0
13.640000 12.760000 18.590000 184 196 177 0
13.860000 12.760000 19.140000 185 197 178 0
14.080000 12.760000 19.580000 184 196 177 0
14.300000 12.760000 20.790000 185 197 178 0
14.520000 12.760000 20.790000 185 197 178 0
14.740000 12.760000 20.790000 186 198 179 0
14.960000 12.760000 20.790000 187 199 180 0
15.180000 12.760000 19.470000 187 199 180 0
15.400000 12.760000 13.310000 188 200 181 0
15.620000 12.760000 3.630000 188 200 181 0
15.840000 12.760000 0.220000 189 201 182 0
16.060000 12.760000 0.220000 188 200 181 0
16.280000 12.760000 0.220000 187 199 180 0
16.500000 12.760000 0.220000 184 196 177 0
16.720000 12.760000 0.220000 184 196 177 0
16.940000 12.760000 0.220000 185 197 178 0
17.160000 12.760000 0.330000 186 198 179 0
17.380000 12.760000 0.330000 187 198 179 0
17.600000 12.760000 0.330000 188 199 180 0
17.820000 12.760000 0.330000 187 198 179 0
18.040000 12.760000 0.330000 188 199 180 0
18.260000 12.760000 0.330000 187 199 180 0
18.480000 12.760000 0.330000 187 199 180 0
18.700000 12.760000 0.440000 188 198 182 0
18.920000 12.760000 1.100000 189 199 183 0
19.140000 12.760000 1.100000 189 200 181 0
19.360000 12.760000 1.100000 189 200 181 0
19.580000 12.760000 1.100000 189 199 183 0
19.800000 12.760000 1.210000 189 199 183 0
20.020000 12.760000 1.210000 190 200 184 0
20.240000 12.760000 1.210000 190 200 184 0
20.460000 12.760000 1.210000 190 200 184 0
20.680000 12.760000 1.210000 189 199 183 0
20.900000 12.760000 1.210000 189 199 183 0
21.120000 12.760000 1.210000 190 200 184 0
21.340000 12.760000 1.210000 189 199 183 0
21.560000 12.760000 1.320000 190 200 184 0
21.780000 12.760000 1.320000 190 200 184 0
22.000000 12.760000 1.980000 190 200 184 0
22.220000 12.760000 1.980000 190 200 184 0
22.440000 12.760000 1.980000 190 200 184 0
22.660000 12.760000 2.090000 191 201 185 0
22.880000 12.760000 1.870000 190 200 184 0
23.100000 12.760000 2.970000 192 200 184 0
23.320000 12.760000 3.520000 191 199 183 0
23.540000 12.760000 3.520000 190 200 184 0
23.760000 12.760000 3.520000 190 200 184 0
23.980000 12.760000 3.520000 190 200 184 0
24.200000 12.760000 3.520000 190 200 184 0
24.420000 12.760000 3.520000 190 200 184 0
24.640000 12.760000 4.290000 189 199 183 0
24.860000 12.760000 3.630000 192 200 184 0
25.080000 12.760000 3.630000 192 200 184 0
25.300000 12.760000 3.630000 190 200 184 0
25.520000 12.760000 3.630000 191 201 185 0
25.740000 12.760000 3.630000 193 201 185 0
25.960000 12.760000 4.400000 193 201 185 0
26.180000 12.760000 4.400000 191 199 183 0
26.400000 12.760000 4.400000 192 200 184 0
26.620000 12.760000 4.400000 192 200 184 0
26.840000 12.760000 5.060000 193 201 185 0
27.060000 12.760000 5.170000 192 200 184 0
27.280000 12.760000 5.170000 192 200 184 0
27.500000 12.760000 5.170000 187 195 179 0
27.720000 12.760000 5.170000 184 192 176 0
27.940000 12.760000 5.170000 181 191 178 0
28.160000 12.760000 5.170000 180 190 177 0
28.380000 12.760000 5.170000 185 193 177 0
28.600000 12.760000 5.280000 187 195 179 0
28.820000 12.760000 5.280000 192 200 184 0
29.040000 12.760000 5.940000 192 200 184 0
29.260000 12.760000 5.940000 194 200 185 0
29.480000 12.760000 6.050000 195 201 186 0
29.700000 12.760000 6.050000 193 201 185 0
29.920000 12.760000 6.050000 194 202 186 0
30.140000 12.760000 6.050000 194 200 185 0
30.360000 12.760000 6.050000 195 201 186 0
30.580000 12.760000 5.390000 195 201 186 0
30.800000 12.760000 6.050000 194 200 185 0
31.020000 12.760000 6.160000 195 201 184 0
31.240000 12.760000 6.160000 191 197 180 0
31.460000 12.760000 6.160000 203 182 156 0
31.680000 12.760000 6.160000 195 174 148 0
31.900000 12.760000 5.500000 195 161 129 0
32.120000 12.760000 5.500000 193 159 127 0
32.340000 12.760000 5.500000 195 160 127 0
32.560000 12.760000 6.050000 195 160 127 0
32.780000 12.760000 7.040000 195 160 127 0
33.000000 12.760000 7.590000 194 159 126 0
33.220000 12.760000 7.700000 194 159 126 0
33.440000 12.760000 7.700000 194 159 126 0
33.660000 12.760000 7.700000 195 159 128 0
33.880000 12.760000 7.700000 195 159 128 0
34.100000 12.760000 8.360000 196 161 128 0
34.320000 12.760000 8.360000 197 162 129 0
34.540000 12.760000 8.470000 196 161 128 0
34.760000 12.760000 8.470000 195 160 127 0
34.980000 12.760000 7.810000 197 160 128 0
35.200000 12.760000 7.810000 197 160 128 0
35.420000 12.760000 7.810000 195 160 127 0
35.640000 12.760000 7.810000 194 159 126 0
35.860000 12.760000 8.580000 193 158 125 0
36.080000 12.760000 8.580000 193 158 125 0
36.300000 12.760000 8.580000 194 158 127 0
36.520000 12.760000 7.920000 194 158 127 0
36.740000 12.760000 7.920000 195 158 126 0
36.960000 12.760000 7.920000 195 158 126 0
37.180000 12.760000 8.690000 195 158 126 0
0.000000 12.980000 6.490000 120 127 106 0
0.220000 12.980000 5.830000 120 127 106 0
0.440000 12.980000 5.830000 120 127 106 0
0.660000 12.980000 6.490000 120 127 106 0
0.880000 12.980000 7.150000 119 126 105 0
1.100000 12.980000 8.470000 119 126 105 0
1.320000 12.980000 8.470000 120 127 106 0
1.540000 12.980000 7.150000 119 126 105 0
1.760000 12.980000 5.060000 118 125 104 0
1.980000 12.980000 3.630000 118 127 105 0
2.200000 12.980000 2.860000 118 127 105 0
2.420000 12.980000 4.180000 120 127 106 0
2.640000 12.980000 8.360000 119 126 105 0
2.860000 12.980000 14.630000 121 128 107 0
3.080000 12.980000 18.700000 121 128 107 0
3.300000 12.980000 13.970000 121 128 107 0
3.520000 12.980000 9.790000 125 132 111 0
3.740000 12.980000 14.740000 134 147 125 0
3.960000 12.980000 19.580000 144 157 135 0
4.180000 12.980000 19.580000 158 173 149 0
4.400000 12.980000 19.690000 165 180 156 0
4.620000 12.980000 19.030000 168 181 159 0
4.840000 12.980000 19.030000 169 182 160 0
5.060000 12.980000 19.030000 169 182 160 0
5.280000 12.980000 19.030000 168 181 159 0
5.500000 12.980000 19.140000 170 184 164 0
5.720000 12.980000 19.140000 174 188 168 0
5.940000 12.980000 19.140000 175 188 166 0
6.160000 12.980000 19.140000 177 190 168 0
6.380000 12.980000 19.140000 179 192 170 0
6.600000 12.980000 19.140000 179 192 170 0
6.820000 12.980000 19.250000 180 193 171 0
7.040000 12.980000 19.250000 180 193 171 0
7.260000 12.980000 19.250000 180 194 172 0
7.480000 12.980000 19.250000 181 195 173 0
7.700000 12.980000 19.360000 181 193 174 0
7.920000 12.980000 19.800000 182 194 175 0
8.140000 12.980000 20.900000 183 195 176 0
8.360000 12.980000 21.450000 183 195 176 0
8.580000 12.980000 21.560000 183 196 174 0
8.800000 12.980000 16.060000 184 197 175 0
9.020000 12.980000 5.720000 183 195 176 0
9.240000 12.980000 2.310000 184 196 177 0
9.460000 12.980000 5.060000 184 196 177 0
9.680000 12.980000 8.580000 183 195 176 0
9.900000 12.980000 9.900000 184 197 175 0
10.120000 12.980000 9.900000 183 196 174 0
10.340000 12.980000 9.240000 184 196 177 0
10.560000 12.980000 8.580000 184 196 177 0
10.780000 12.980000 6.600000 184 197 175 0
11.000000 12.980000 3.850000 184 197 175 0
11.220000 12.980000 1.760000 184 196 177 0
11.440000 12.980000 1.100000 183 195 176 0
11.660000 12.980000 1.100000 183 195 176 0
11.880000 12.980000 1.100000 183 195 176 0
12.100000 12.980000 1.210000 183 195 176 0
12.320000 12.980000 7.370000 184 196 177 0
12.540000 12.980000 15.730000 184 196 177 0
12.760000 12.980000 19.250000 185 197 178 0
12.980000 12.980000 19.250000 185 197 178 0
13.200000 12.980000 19.250000 185 197 178 0
13.420000 12.980000 18.590000 185 197 178 0
13.640000 12.980000 18.590000 185 197 178 0
13.860000 12.980000 19.140000 185 197 178 0
14.080000 12.980000 19.580000 185 197 178 0
14.300000 12.980000 20.790000 185 197 178 0
14.520000 12.980000 20.790000 186 198 179 0
14.740000 12.980000 20.790000 186 198 179 0
14.960000 12.980000 20.790000 186 198 179 0
15.180000 12.980000 20.900000 187 199 180 0
15.400000 12.980000 16.060000 187 199 180 0
15.620000 12.980000 5.060000 188 200 181 0
15.840000 12.980000 0.220000 188 200 181 0
16.060000 12.980000 0.220000 187 199 180 0
