ply
format ascii 1.0
element vertex 1105
property float x
property float y
property float z
property uchar red
property uchar green
property uchar blue
property uchar alpha
end_header
31.240000 30.580000 12.320000 196 199 177 0
31.460000 30.580000 12.320000 195 198 176 0
31.680000 30.580000 12.320000 196 199 177 0
31.900000 30.580000 12.100000 200 183 152 0
32.120000 30.580000 14.080000 195 178 147 0
32.340000 30.580000 13.860000 202 166 129 0
32.560000 30.580000 15.180000 193 157 120 0
32.780000 30.580000 15.400000 196 157 121 0
33.000000 30.580000 15.400000 196 157 121 0
33.220000 30.580000 15.400000 196 157 121 0
33.440000 30.580000 15.400000 197 158 122 0
33.660000 30.580000 15.400000 196 157 121 0
33.880000 30.580000 15.400000 195 156 120 0
34.100000 30.580000 15.620000 195 156 120 0
34.320000 30.580000 15.620000 195 156 120 0
34.540000 30.580000 15.620000 195 156 120 0
34.760000 30.580000 15.620000 196 157 121 0
34.980000 30.580000 15.620000 196 157 121 0
35.200000 30.580000 15.620000 196 157 121 0
35.420000 30.580000 15.620000 196 157 121 0
35.640000 30.580000 15.840000 196 157 121 0
35.860000 30.580000 15.840000 196 157 121 0
36.080000 30.580000 15.840000 195 156 120 0
36.300000 30.580000 15.840000 196 157 121 0
36.520000 30.580000 15.840000 196 157 121 0
36.740000 30.580000 15.840000 197 158 122 0
36.960000 30.580000 15.840000 198 159 123 0
37.180000 30.580000 16.060000 198 157 122 0
0.000000 30.800000 11.660000 133 139 110 0
0.220000 30.800000 11.660000 133 139 110 0
0.440000 30.800000 10.340000 134 140 111 0
0.660000 30.800000 10.120000 133 139 110 0
0.880000 30.800000 8.800000 133 139 110 0
1.100000 30.800000 10.120000 135 139 111 0
1.320000 30.800000 10.120000 136 140 112 0
1.540000 30.800000 11.660000 136 142 113 0
1.760000 30.800000 12.980000 135 141 112 0
1.980000 30.800000 11.880000 135 141 112 0
2.200000 30.800000 9.020000 135 141 112 0
2.420000 30.800000 9.020000 136 140 112 0
2.640000 30.800000 9.240000 135 139 111 0
2.860000 30.800000 7.700000 132 136 108 0
3.080000 30.800000 5.060000 131 135 107 0
3.300000 30.800000 3.520000 131 135 107 0
3.520000 30.800000 2.200000 132 136 108 0
4.400000 30.800000 10.560000 141 145 117 0
4.620000 30.800000 31.240000 145 153 124 0
4.840000 30.800000 40.920000 156 164 135 0
5.060000 30.800000 40.920000 161 169 141 0
5.280000 30.800000 41.140000 163 171 143 0
5.500000 30.800000 39.600000 166 174 146 0
5.720000 30.800000 39.820000 169 177 149 0
5.940000 30.800000 38.280000 170 180 151 0
6.160000 30.800000 35.640000 174 184 155 0
6.380000 30.800000 37.180000 175 185 156 0
6.600000 30.800000 38.500000 178 188 159 0
6.820000 30.800000 37.180000 179 188 162 0
7.040000 30.800000 36.960000 181 190 164 0
7.260000 30.800000 25.300000 179 187 159 0
7.480000 30.800000 8.360000 175 183 155 0
7.700000 30.800000 0.220000 173 181 153 0
7.920000 30.800000 1.540000 172 180 152 0
8.140000 30.800000 4.400000 177 187 158 0
8.360000 30.800000 7.260000 182 192 163 0
8.580000 30.800000 10.120000 185 194 168 0
8.800000 30.800000 14.300000 187 196 170 0
9.020000 30.800000 17.160000 187 196 170 0
9.240000 30.800000 18.480000 188 197 171 0
9.460000 30.800000 17.160000 188 197 171 0
9.680000 30.800000 15.840000 188 197 171 0
9.900000 30.800000 14.520000 188 197 171 0
10.120000 30.800000 11.660000 189 198 172 0
10.340000 30.800000 7.700000 187 199 172 0
10.560000 30.800000 3.520000 187 199 172 0
10.780000 30.800000 3.520000 189 198 172 0
11.000000 30.800000 3.520000 188 197 171 0
11.220000 30.800000 11.880000 188 197 171 0
11.440000 30.800000 29.920000 189 198 172 0
11.660000 30.800000 38.280000 189 198 172 0
11.880000 30.800000 38.280000 188 197 171 0
12.100000 30.800000 38.500000 189 198 172 0
12.320000 30.800000 38.500000 190 199 173 0
12.540000 30.800000 38.500000 189 198 172 0
12.760000 30.800000 38.500000 189 198 172 0
12.980000 30.800000 38.720000 189 198 172 0
13.200000 30.800000 38.280000 189 198 172 0
13.420000 30.800000 40.480000 189 198 172 0
13.640000 30.800000 31.900000 191 200 174 0
13.860000 30.800000 11.220000 191 200 176 0
14.080000 30.800000 0.220000 190 199 175 0
14.300000 30.800000 0.220000 191 200 174 0
14.520000 30.800000 0.220000 189 198 172 0
14.740000 30.800000 0.220000 190 199 173 0
14.960000 30.800000 0.440000 189 198 172 0
15.180000 30.800000 0.440000 189 198 172 0
15.400000 30.800000 1.760000 190 199 173 0
15.620000 30.800000 1.760000 190 199 175 0
15.840000 30.800000 1.760000 189 198 174 0
16.060000 30.800000 1.980000 189 198 174 0
16.280000 30.800000 1.980000 189 198 174 0
16.500000 30.800000 1.980000 189 198 172 0
16.720000 30.800000 1.980000 190 199 173 0
16.940000 30.800000 1.980000 190 199 173 0
17.160000 30.800000 1.980000 189 198 172 0
17.380000 30.800000 1.980000 190 199 175 0
17.600000 30.800000 2.200000 190 199 175 0
17.820000 30.800000 2.200000 191 200 176 0
18.040000 30.800000 2.200000 191 200 176 0
18.260000 30.800000 2.200000 190 199 175 0
18.480000 30.800000 2.200000 190 199 175 0
18.700000 30.800000 2.200000 190 198 172 0
18.920000 30.800000 2.200000 191 199 173 0
19.140000 30.800000 2.420000 190 199 175 0
19.360000 30.800000 2.420000 189 198 174 0
19.580000 30.800000 2.420000 190 199 175 0
19.800000 30.800000 2.420000 190 199 175 0
20.020000 30.800000 2.420000 191 199 173 0
20.240000 30.800000 2.420000 191 199 173 0
20.460000 30.800000 2.420000 191 199 173 0
20.680000 30.800000 2.420000 191 199 173 0
20.900000 30.800000 2.640000 191 198 175 0
21.120000 30.800000 3.960000 191 198 175 0
21.340000 30.800000 3.960000 192 199 176 0
21.560000 30.800000 3.960000 191 198 175 0
21.780000 30.800000 3.960000 191 199 173 0
22.000000 30.800000 4.180000 192 200 174 0
22.220000 30.800000 3.740000 192 199 176 0
22.440000 30.800000 5.940000 192 199 176 0
22.660000 30.800000 7.040000 192 199 176 0
22.880000 30.800000 7.040000 193 200 177 0
23.100000 30.800000 7.040000 192 199 176 0
23.320000 30.800000 7.040000 192 199 176 0
23.540000 30.800000 7.040000 192 199 176 0
23.760000 30.800000 7.040000 193 200 177 0
23.980000 30.800000 7.040000 192 199 176 0
24.200000 30.800000 7.260000 192 199 176 0
24.420000 30.800000 7.260000 193 198 175 0
24.640000 30.800000 7.260000 193 198 175 0
24.860000 30.800000 7.260000 194 199 176 0
25.080000 30.800000 7.260000 194 199 176 0
25.300000 30.800000 7.260000 193 198 175 0
25.520000 30.800000 7.260000 194 199 176 0
25.740000 30.800000 8.800000 194 199 176 0
25.960000 30.800000 8.800000 194 199 176 0
26.180000 30.800000 8.800000 195 200 177 0
26.400000 30.800000 8.800000 195 200 177 0
26.620000 30.800000 8.800000 194 199 176 0
26.840000 30.800000 9.020000 194 199 176 0
27.060000 30.800000 9.020000 194 199 176 0
27.280000 30.800000 9.020000 194 199 176 0
27.500000 30.800000 9.020000 194 199 176 0
27.720000 30.800000 9.020000 195 200 177 0
27.940000 30.800000 10.560000 195 200 177 0
28.160000 30.800000 10.560000 196 201 178 0
28.380000 30.800000 10.560000 196 201 178 0
28.600000 30.800000 10.560000 195 200 177 0
28.820000 30.800000 10.560000 195 200 177 0
29.040000 30.800000 10.560000 196 201 178 0
29.260000 30.800000 10.560000 196 199 177 0
29.480000 30.800000 10.780000 196 199 177 0
29.700000 30.800000 10.780000 196 199 177 0
29.920000 30.800000 10.780000 196 199 177 0
30.140000 30.800000 10.780000 196 200 180 0
30.360000 30.800000 12.100000 195 199 179 0
30.580000 30.800000 12.320000 195 200 177 0
30.800000 30.800000 12.320000 195 200 177 0
31.020000 30.800000 12.320000 195 198 176 0
31.240000 30.800000 12.320000 196 199 177 0
31.460000 30.800000 12.320000 196 199 177 0
31.680000 30.800000 12.320000 195 198 176 0
31.900000 30.800000 12.100000 200 183 152 0
32.120000 30.800000 14.080000 194 177 146 0
32.340000 30.800000 13.860000 200 164 127 0
32.560000 30.800000 15.180000 193 157 120 0
32.780000 30.800000 15.400000 196 157 121 0
33.000000 30.800000 15.400000 196 157 121 0
33.220000 30.800000 15.400000 197 158 122 0
33.440000 30.800000 15.400000 196 157 121 0
33.660000 30.800000 15.400000 196 157 121 0
33.880000 30.800000 15.400000 195 156 120 0
34.100000 30.800000 15.620000 196 157 121 0
34.320000 30.800000 15.620000 196 157 121 0
34.540000 30.800000 15.620000 195 156 120 0
34.760000 30.800000 15.620000 195 156 120 0
34.980000 30.800000 15.620000 196 157 121 0
35.200000 30.800000 15.620000 196 157 121 0
35.420000 30.800000 15.620000 195 156 120 0
35.640000 30.800000 15.840000 196 157 121 0
35.860000 30.800000 15.840000 195 156 120 0
36.080000 30.800000 15.840000 196 157 121 0
36.300000 30.800000 15.840000 197 158 122 0
36.520000 30.800000 15.840000 196 157 121 0
36.740000 30.800000 15.840000 196 157 121 0
36.960000 30.800000 15.840000 197 158 122 0
37.180000 30.800000 16.060000 198 157 122 0
0.000000 31.020000 11.660000 134 140 111 0
0.220000 31.020000 11.660000 134 140 111 0
0.440000 31.020000 10.340000 134 140 111 0
0.660000 31.020000 10.120000 134 140 111 0
0.880000 31.020000 8.800000 134 140 111 0
1.100000 31.020000 10.120000 135 139 111 0
1.320000 31.020000 10.120000 136 140 112 0
1.540000 31.020000 11.660000 135 141 112 0
1.760000 31.020000 12.980000 135 141 112 0
1.980000 31.020000 11.880000 135 141 112 0
2.200000 31.020000 10.560000 135 141 112 0
2.420000 31.020000 9.240000 135 141 112 0
2.640000 31.020000 9.020000 133 139 110 0
2.860000 31.020000 7.700000 133 137 109 0
3.080000 31.020000 5.060000 131 135 107 0
3.300000 31.020000 5.060000 132 136 106 0
3.520000 31.020000 2.200000 132 136 106 0
4.400000 31.020000 10.560000 138 144 115 0
4.620000 31.020000 31.240000 148 153 126 0
4.840000 31.020000 40.920000 157 162 135 0
5.060000 31.020000 40.920000 161 169 143 0
5.280000 31.020000 41.140000 163 171 145 0
5.500000 31.020000 41.140000 165 175 146 0
5.720000 31.020000 39.820000 168 178 149 0
5.940000 31.020000 39.820000 170 180 151 0
6.160000 31.020000 39.820000 172 182 153 0
6.380000 31.020000 38.500000 175 184 158 0
6.600000 31.020000 38.500000 177 186 160 0
6.820000 31.020000 37.180000 180 189 163 0
7.040000 31.020000 31.460000 180 189 163 0
7.260000 31.020000 16.940000 176 184 156 0
7.480000 31.020000 8.360000 170 178 150 0
7.700000 31.020000 4.400000 173 167 140 0
7.920000 31.020000 3.080000 174 168 141 0
8.140000 31.020000 5.720000 170 178 152 0
8.360000 31.020000 8.580000 178 186 160 0
8.580000 31.020000 11.440000 183 195 168 0
8.800000 31.020000 14.300000 183 195 168 0
9.020000 31.020000 17.160000 186 195 169 0
9.240000 31.020000 18.480000 187 196 170 0
9.460000 31.020000 17.160000 188 197 171 0
9.680000 31.020000 15.840000 188 197 171 0
9.900000 31.020000 14.520000 188 197 171 0
10.120000 31.020000 11.660000 188 197 171 0
10.340000 31.020000 7.700000 188 197 171 0
10.560000 31.020000 3.520000 188 197 171 0
10.780000 31.020000 3.520000 189 198 172 0
11.000000 31.020000 3.520000 189 198 172 0
11.220000 31.020000 11.880000 189 198 172 0
11.440000 31.020000 29.920000 189 198 172 0
11.660000 31.020000 38.280000 189 198 172 0
11.880000 31.020000 38.280000 189 198 172 0
12.100000 31.020000 38.500000 189 198 172 0
12.320000 31.020000 38.500000 190 199 173 0
12.540000 31.020000 38.500000 189 198 174 0
12.760000 31.020000 38.500000 190 199 175 0
12.980000 31.020000 38.720000 189 198 172 0
13.200000 31.020000 38.280000 189 198 172 0
13.420000 31.020000 40.480000 190 199 173 0
13.640000 31.020000 31.900000 190 199 173 0
13.860000 31.020000 11.220000 191 200 176 0
14.080000 31.020000 0.220000 191 200 176 0
14.300000 31.020000 0.220000 191 200 176 0
14.520000 31.020000 0.220000 191 200 176 0
14.740000 31.020000 0.220000 190 199 173 0
14.960000 31.020000 0.440000 191 200 174 0
15.180000 31.020000 0.440000 190 199 173 0
15.400000 31.020000 1.760000 189 198 172 0
15.620000 31.020000 1.760000 191 200 176 0
15.840000 31.020000 1.760000 190 199 175 0
16.060000 31.020000 1.980000 189 198 174 0
16.280000 31.020000 1.980000 189 198 174 0
16.500000 31.020000 1.980000 190 199 175 0
16.720000 31.020000 1.980000 190 199 175 0
16.940000 31.020000 1.980000 190 199 175 0
17.160000 31.020000 1.980000 189 198 174 0
17.380000 31.020000 1.980000 189 198 174 0
17.600000 31.020000 2.200000 191 200 176 0
17.820000 31.020000 2.200000 191 200 176 0
18.040000 31.020000 2.200000 191 200 176 0
18.260000 31.020000 2.200000 190 199 175 0
18.480000 31.020000 2.200000 189 198 174 0
18.700000 31.020000 2.200000 190 197 174 0
18.920000 31.020000 2.200000 191 198 175 0
19.140000 31.020000 2.420000 190 199 175 0
19.360000 31.020000 2.420000 189 198 174 0
19.580000 31.020000 2.420000 190 199 175 0
19.800000 31.020000 2.420000 189 198 174 0
20.020000 31.020000 2.420000 190 199 175 0
20.240000 31.020000 2.420000 190 199 175 0
20.460000 31.020000 2.420000 191 198 175 0
20.680000 31.020000 2.420000 192 199 176 0
20.900000 31.020000 2.640000 190 199 175 0
21.120000 31.020000 3.960000 189 198 174 0
21.340000 31.020000 3.960000 192 199 176 0
21.560000 31.020000 3.960000 190 197 174 0
21.780000 31.020000 3.960000 190 199 173 0
22.000000 31.020000 4.180000 190 199 173 0
22.220000 31.020000 5.060000 192 199 176 0
22.440000 31.020000 5.940000 192 199 176 0
22.660000 31.020000 7.040000 192 199 176 0
22.880000 31.020000 7.040000 192 199 176 0
23.100000 31.020000 7.040000 191 198 175 0
23.320000 31.020000 7.040000 192 199 176 0
23.540000 31.020000 7.040000 192 199 176 0
23.760000 31.020000 7.040000 192 199 176 0
23.980000 31.020000 7.040000 192 199 176 0
24.200000 31.020000 7.260000 192 199 176 0
24.420000 31.020000 7.260000 192 199 176 0
24.640000 31.020000 7.260000 192 199 176 0
24.860000 31.020000 7.260000 192 199 176 0
25.080000 31.020000 7.260000 192 199 176 0
25.300000 31.020000 7.260000 192 199 176 0
25.520000 31.020000 7.260000 192 199 176 0
25.740000 31.020000 8.800000 194 199 176 0
25.960000 31.020000 8.800000 194 199 176 0
26.180000 31.020000 8.800000 195 200 177 0
26.400000 31.020000 8.800000 195 200 177 0
26.620000 31.020000 8.800000 195 200 177 0
26.840000 31.020000 9.020000 194 199 176 0
27.060000 31.020000 9.020000 194 199 176 0
27.280000 31.020000 9.020000 193 198 175 0
27.500000 31.020000 9.020000 194 199 176 0
27.720000 31.020000 9.020000 194 199 176 0
27.940000 31.020000 10.560000 195 200 177 0
28.160000 31.020000 10.560000 196 201 178 0
28.380000 31.020000 10.560000 196 200 180 0
28.600000 31.020000 10.560000 195 199 179 0
28.820000 31.020000 10.560000 195 200 177 0
29.040000 31.020000 10.560000 196 201 178 0
29.260000 31.020000 10.560000 195 200 177 0
29.480000 31.020000 10.780000 195 200 177 0
29.700000 31.020000 10.780000 195 200 177 0
29.920000 31.020000 10.780000 195 200 177 0
30.140000 31.020000 12.100000 195 199 179 0
30.360000 31.020000 12.100000 195 199 179 0
30.580000 31.020000 12.320000 196 201 178 0
30.800000 31.020000 12.320000 195 200 177 0
31.020000 31.020000 12.320000 195 200 177 0
31.240000 31.020000 12.320000 195 200 177 0
31.460000 31.020000 12.320000 196 199 175 0
31.680000 31.020000 12.320000 194 197 173 0
31.900000 31.020000 12.100000 200 183 152 0
32.120000 31.020000 14.080000 194 177 146 0
32.340000 31.020000 13.860000 200 164 127 0
32.560000 31.020000 15.180000 194 158 121 0
32.780000 31.020000 15.400000 196 157 119 0
33.000000 31.020000 15.400000 196 157 119 0
33.220000 31.020000 15.400000 197 158 122 0
33.440000 31.020000 15.400000 196 157 121 0
33.660000 31.020000 15.400000 195 156 120 0
33.880000 31.020000 15.400000 196 157 121 0
34.100000 31.020000 15.620000 194 158 121 0
34.320000 31.020000 15.620000 194 158 121 0
34.540000 31.020000 15.620000 196 157 121 0
34.760000 31.020000 15.620000 196 157 121 0
34.980000 31.020000 15.620000 196 157 121 0
35.200000 31.020000 15.620000 196 157 121 0
35.420000 31.020000 15.620000 196 157 121 0
35.640000 31.020000 15.840000 195 156 120 0
35.860000 31.020000 15.840000 196 157 121 0
36.080000 31.020000 15.840000 197 158 122 0
36.300000 31.020000 17.160000 196 157 121 0
36.520000 31.020000 15.840000 196 157 121 0
36.740000 31.020000 15.840000 197 158 122 0
36.960000 31.020000 15.840000 197 158 122 0
37.180000 31.020000 16.060000 198 157 122 0
0.000000 31.240000 11.660000 133 139 110 0
0.220000 31.240000 10.120000 134 140 111 0
0.440000 31.240000 10.340000 134 140 111 0
0.660000 31.240000 8.800000 134 140 111 0
0.880000 31.240000 8.800000 134 140 111 0
1.100000 31.240000 10.120000 135 139 111 0
1.320000 31.240000 10.120000 136 140 112 0
1.540000 31.240000 11.660000 135 141 112 0
1.760000 31.240000 12.980000 136 142 113 0
1.980000 31.240000 11.880000 135 141 112 0
2.200000 31.240000 10.560000 135 141 112 0
2.420000 31.240000 9.240000 135 141 112 0
2.640000 31.240000 9.020000 134 140 111 0
2.860000 31.240000 7.700000 132 136 108 0
3.080000 31.240000 5.060000 132 136 108 0
3.300000 31.240000 5.060000 132 136 106 0
3.520000 31.240000 3.520000 132 136 106 0
3.740000 31.240000 0.880000 132 138 109 0
4.400000 31.240000 10.560000 139 145 116 0
4.620000 31.240000 31.240000 149 154 127 0
4.840000 31.240000 40.920000 157 162 135 0
5.060000 31.240000 40.920000 162 170 144 0
5.280000 31.240000 38.280000 165 173 147 0
5.500000 31.240000 35.640000 165 175 146 0
5.720000 31.240000 38.280000 167 177 148 0
5.940000 31.240000 38.280000 170 180 151 0
6.160000 31.240000 34.320000 173 183 154 0
6.380000 31.240000 35.640000 176 185 159 0
6.600000 31.240000 38.500000 177 186 160 0
6.820000 31.240000 37.180000 180 189 163 0
7.040000 31.240000 28.600000 179 188 162 0
7.260000 31.240000 18.260000 176 184 156 0
7.480000 31.240000 16.720000 167 175 147 0
7.700000 31.240000 9.900000 167 161 134 0
7.920000 31.240000 3.080000 166 160 133 0
8.140000 31.240000 5.720000 166 174 148 0
8.360000 31.240000 8.580000 176 184 158 0
8.580000 31.240000 11.440000 182 194 167 0
8.800000 31.240000 14.300000 183 195 168 0
9.020000 31.240000 17.160000 186 195 169 0
9.240000 31.240000 17.160000 187 196 170 0
9.460000 31.240000 17.160000 188 197 171 0
9.680000 31.240000 15.840000 188 197 171 0
9.900000 31.240000 14.520000 187 196 170 0
10.120000 31.240000 11.660000 187 196 170 0
10.340000 31.240000 7.700000 188 197 171 0
10.560000 31.240000 4.840000 188 197 171 0
10.780000 31.240000 3.520000 188 197 171 0
11.000000 31.240000 3.520000 188 197 171 0
11.220000 31.240000 11.880000 189 198 172 0
11.440000 31.240000 29.920000 189 198 172 0
11.660000 31.240000 38.280000 189 198 172 0
11.880000 31.240000 38.280000 190 199 173 0
12.100000 31.240000 38.500000 189 198 172 0
12.320000 31.240000 38.500000 190 199 173 0
12.540000 31.240000 38.500000 190 199 175 0
12.760000 31.240000 38.500000 190 199 175 0
12.980000 31.240000 38.720000 190 199 173 0
13.200000 31.240000 38.280000 190 199 173 0
13.420000 31.240000 40.480000 190 199 173 0
13.640000 31.240000 31.900000 190 199 173 0
13.860000 31.240000 11.220000 191 200 176 0
14.080000 31.240000 0.220000 192 201 177 0
14.300000 31.240000 0.220000 191 200 176 0
14.520000 31.240000 0.220000 190 199 175 0
14.740000 31.240000 0.220000 191 200 174 0
14.960000 31.240000 0.440000 191 200 174 0
15.180000 31.240000 0.440000 190 199 173 0
15.400000 31.240000 1.760000 190 199 173 0
15.620000 31.240000 1.760000 190 199 175 0
15.840000 31.240000 1.760000 190 199 175 0
16.060000 31.240000 1.980000 190 199 175 0
16.280000 31.240000 1.980000 189 198 174 0
16.500000 31.240000 1.980000 190 199 175 0
16.720000 31.240000 1.980000 190 199 175 0
16.940000 31.240000 1.980000 190 199 175 0
17.160000 31.240000 1.980000 189 198 174 0
17.380000 31.240000 1.980000 190 199 175 0
17.600000 31.240000 2.200000 189 198 174 0
17.820000 31.240000 2.200000 191 200 176 0
18.040000 31.240000 2.200000 190 199 175 0
18.260000 31.240000 2.200000 189 198 174 0
18.480000 31.240000 2.200000 190 199 175 0
18.700000 31.240000 2.200000 191 198 175 0
18.920000 31.240000 2.200000 191 198 175 0
19.140000 31.240000 3.740000 190 199 175 0
19.360000 31.240000 3.740000 191 200 176 0
19.580000 31.240000 3.740000 190 199 175 0
19.800000 31.240000 2.420000 190 199 175 0
20.020000 31.240000 2.420000 189 198 174 0
20.240000 31.240000 2.420000 190 199 175 0
20.460000 31.240000 2.420000 191 198 175 0
20.680000 31.240000 2.420000 192 199 176 0
20.900000 31.240000 2.640000 191 200 176 0
21.120000 31.240000 3.960000 191 200 176 0
21.340000 31.240000 3.960000 191 198 175 0
21.560000 31.240000 3.960000 191 198 175 0
21.780000 31.240000 3.960000 190 199 173 0
22.000000 31.240000 4.180000 190 199 173 0
22.220000 31.240000 5.060000 192 199 176 0
22.440000 31.240000 5.940000 192 199 176 0
22.660000 31.240000 7.040000 192 199 176 0
22.880000 31.240000 7.040000 192 199 176 0
23.100000 31.240000 7.040000 192 199 176 0
23.320000 31.240000 7.040000 192 199 176 0
23.540000 31.240000 7.040000 193 200 177 0
23.760000 31.240000 7.040000 192 199 176 0
23.980000 31.240000 7.040000 192 199 176 0
24.200000 31.240000 7.260000 192 199 176 0
24.420000 31.240000 7.260000 193 200 177 0
24.640000 31.240000 7.260000 192 199 176 0
24.860000 31.240000 7.260000 192 199 176 0
25.080000 31.240000 7.260000 192 199 176 0
25.300000 31.240000 7.260000 192 199 176 0
25.520000 31.240000 8.800000 192 199 176 0
25.740000 31.240000 8.800000 194 199 176 0
25.960000 31.240000 8.800000 195 200 177 0
26.180000 31.240000 8.800000 195 200 177 0
26.400000 31.240000 8.800000 195 200 177 0
26.620000 31.240000 8.800000 195 200 177 0
26.840000 31.240000 9.020000 193 198 175 0
27.060000 31.240000 9.020000 194 199 176 0
27.280000 31.240000 9.020000 195 200 177 0
27.500000 31.240000 9.020000 194 199 176 0
27.720000 31.240000 9.020000 194 199 176 0
27.940000 31.240000 10.560000 195 200 177 0
28.160000 31.240000 10.560000 195 200 177 0
28.380000 31.240000 10.560000 196 200 180 0
28.600000 31.240000 10.560000 195 199 179 0
28.820000 31.240000 10.560000 195 200 177 0
29.040000 31.240000 10.560000 196 201 178 0
29.260000 31.240000 10.560000 196 201 178 0
29.480000 31.240000 10.780000 195 200 177 0
29.700000 31.240000 10.780000 196 201 178 0
29.920000 31.240000 10.780000 195 200 177 0
30.140000 31.240000 12.100000 195 199 179 0
30.360000 31.240000 12.100000 195 199 179 0
30.580000 31.240000 12.320000 195 200 177 0
30.800000 31.240000 12.320000 196 201 178 0
31.020000 31.240000 12.320000 195 200 177 0
31.240000 31.240000 12.320000 195 200 177 0
31.460000 31.240000 12.320000 195 198 174 0
31.680000 31.240000 12.320000 195 198 174 0
31.900000 31.240000 12.100000 203 186 155 0
32.120000 31.240000 14.080000 194 177 146 0
32.340000 31.240000 13.860000 200 164 127 0
32.560000 31.240000 15.180000 193 157 120 0
32.780000 31.240000 15.400000 196 157 119 0
33.000000 31.240000 15.400000 196 157 119 0
33.220000 31.240000 15.400000 197 158 122 0
33.440000 31.240000 15.400000 197 158 122 0
33.660000 31.240000 15.400000 195 156 120 0
33.880000 31.240000 15.400000 197 158 122 0
34.100000 31.240000 15.620000 195 159 122 0
34.320000 31.240000 15.620000 194 158 121 0
34.540000 31.240000 15.620000 196 157 121 0
34.760000 31.240000 15.620000 195 156 120 0
34.980000 31.240000 15.620000 196 157 121 0
35.200000 31.240000 15.620000 196 157 121 0
35.420000 31.240000 15.620000 197 158 122 0
35.640000 31.240000 15.840000 196 157 121 0
35.860000 31.240000 15.840000 196 157 121 0
36.080000 31.240000 17.160000 197 158 122 0
36.300000 31.240000 17.160000 198 159 123 0
36.520000 31.240000 15.840000 197 158 122 0
36.740000 31.240000 15.840000 197 158 122 0
36.960000 31.240000 15.840000 198 159 123 0
37.180000 31.240000 16.060000 198 157 122 0
0.000000 31.460000 11.660000 132 138 109 0
0.220000 31.460000 10.120000 133 139 110 0
0.440000 31.460000 10.340000 134 140 111 0
0.660000 31.460000 8.800000 134 140 111 0
0.880000 31.460000 8.800000 134 140 111 0
1.100000 31.460000 10.120000 135 141 112 0
1.320000 31.460000 10.120000 134 140 111 0
1.540000 31.460000 11.660000 135 141 112 0
1.760000 31.460000 12.980000 136 142 113 0
1.980000 31.460000 11.880000 135 141 112 0
2.200000 31.460000 10.560000 136 142 113 0
2.420000 31.460000 9.240000 135 141 112 0
2.640000 31.460000 9.240000 134 140 111 0
2.860000 31.460000 7.700000 131 135 107 0
3.080000 31.460000 5.060000 132 136 108 0
3.300000 31.460000 5.060000 131 137 106 0
3.520000 31.460000 3.520000 131 137 106 0
3.740000 31.460000 0.880000 132 138 109 0
4.400000 31.460000 10.560000 138 144 115 0
4.620000 31.460000 31.240000 148 156 128 0
4.840000 31.460000 40.920000 155 163 135 0
5.060000 31.460000 40.920000 161 169 141 0
5.280000 31.460000 32.780000 164 172 144 0
5.500000 31.460000 24.420000 165 175 145 0
5.720000 31.460000 32.780000 167 177 147 0
5.940000 31.460000 32.780000 171 181 152 0
6.160000 31.460000 24.640000 173 183 154 0
6.380000 31.460000 31.680000 175 185 156 0
6.600000 31.460000 38.500000 178 188 159 0
6.820000 31.460000 38.720000 179 188 162 0
7.040000 31.460000 31.460000 180 189 163 0
7.260000 31.460000 25.300000 178 188 158 0
7.480000 31.460000 25.080000 167 177 147 0
7.700000 31.460000 12.540000 162 170 141 0
7.920000 31.460000 3.080000 159 167 138 0
8.140000 31.460000 5.720000 167 177 148 0
8.360000 31.460000 8.580000 175 185 156 0
8.580000 31.460000 11.440000 183 192 166 0
8.800000 31.460000 14.300000 185 194 168 0
9.020000 31.460000 17.160000 185 194 168 0
9.240000 31.460000 17.160000 186 195 169 0
9.460000 31.460000 17.160000 187 196 170 0
9.680000 31.460000 15.840000 188 197 171 0
9.900000 31.460000 14.520000 188 197 171 0
10.120000 31.460000 11.660000 188 197 171 0
10.340000 31.460000 7.700000 188 197 171 0
10.560000 31.460000 4.840000 189 198 172 0
10.780000 31.460000 5.060000 189 198 172 0
11.000000 31.460000 3.520000 189 198 172 0
11.220000 31.460000 11.880000 189 198 172 0
11.440000 31.460000 29.920000 189 198 172 0
11.660000 31.460000 38.280000 189 198 174 0
11.880000 31.460000 38.280000 190 199 175 0
12.100000 31.460000 38.500000 189 198 172 0
12.320000 31.460000 38.500000 190 199 173 0
12.540000 31.460000 38.500000 189 198 172 0
12.760000 31.460000 38.500000 190 199 173 0
12.980000 31.460000 38.720000 190 199 173 0
13.200000 31.460000 38.280000 191 200 174 0
13.420000 31.460000 40.480000 191 200 176 0
13.640000 31.460000 31.900000 191 200 176 0
13.860000 31.460000 11.220000 192 201 175 0
14.080000 31.460000 0.220000 191 200 174 0
14.300000 31.460000 0.220000 190 199 173 0
14.520000 31.460000 0.220000 191 200 174 0
14.740000 31.460000 0.220000 191 200 174 0
14.960000 31.460000 0.440000 189 198 172 0
15.180000 31.460000 0.440000 190 199 175 0
15.400000 31.460000 1.760000 189 198 174 0
15.620000 31.460000 1.760000 190 199 173 0
15.840000 31.460000 1.760000 190 199 173 0
16.060000 31.460000 1.980000 190 199 175 0
16.280000 31.460000 1.980000 190 199 175 0
16.500000 31.460000 1.980000 190 199 175 0
16.720000 31.460000 1.980000 191 200 176 0
16.940000 31.460000 1.980000 191 198 175 0
17.160000 31.460000 1.980000 191 198 175 0
17.380000 31.460000 1.980000 189 198 174 0
17.600000 31.460000 2.200000 189 198 174 0
17.820000 31.460000 2.200000 189 198 174 0
18.040000 31.460000 2.200000 189 198 174 0
18.260000 31.460000 2.200000 189 198 174 0
18.480000 31.460000 2.200000 190 199 175 0
18.700000 31.460000 2.200000 191 198 175 0
18.920000 31.460000 3.740000 190 197 174 0
19.140000 31.460000 3.740000 191 198 175 0
19.360000 31.460000 3.740000 191 198 175 0
19.580000 31.460000 3.740000 191 198 175 0
19.800000 31.460000 2.420000 192 199 176 0
20.020000 31.460000 2.420000 191 198 175 0
20.240000 31.460000 2.420000 191 198 175 0
20.460000 31.460000 2.420000 192 199 176 0
20.680000 31.460000 2.420000 192 199 176 0
20.900000 31.460000 2.640000 192 199 176 0
21.120000 31.460000 3.960000 191 198 175 0
21.340000 31.460000 3.960000 191 198 175 0
21.560000 31.460000 3.960000 191 198 175 0
21.780000 31.460000 3.960000 191 198 175 0
22.000000 31.460000 4.180000 192 199 176 0
22.220000 31.460000 5.060000 192 199 176 0
22.440000 31.460000 5.940000 192 199 176 0
22.660000 31.460000 7.040000 192 199 176 0
22.880000 31.460000 7.040000 192 199 176 0
23.100000 31.460000 7.040000 192 199 176 0
23.320000 31.460000 7.040000 193 200 177 0
23.540000 31.460000 7.040000 193 200 177 0
23.760000 31.460000 7.040000 192 199 176 0
23.980000 31.460000 7.040000 192 199 176 0
24.200000 31.460000 7.260000 193 200 177 0
24.420000 31.460000 7.260000 194 199 176 0
24.640000 31.460000 7.260000 193 198 175 0
24.860000 31.460000 7.260000 194 199 176 0
25.080000 31.460000 7.260000 194 199 176 0
25.300000 31.460000 7.260000 194 199 176 0
25.520000 31.460000 8.800000 195 200 177 0
25.740000 31.460000 8.800000 195 200 177 0
25.960000 31.460000 8.800000 194 199 176 0
26.180000 31.460000 8.800000 195 200 177 0
26.400000 31.460000 8.800000 195 200 177 0
26.620000 31.460000 8.800000 194 199 176 0
26.840000 31.460000 9.020000 194 199 176 0
27.060000 31.460000 9.020000 195 200 177 0
27.280000 31.460000 9.020000 195 200 177 0
27.500000 31.460000 9.020000 195 200 177 0
27.720000 31.460000 9.020000 195 200 177 0
27.940000 31.460000 10.560000 196 201 178 0
28.160000 31.460000 10.560000 196 201 178 0
28.380000 31.460000 10.560000 196 201 178 0
28.600000 31.460000 10.560000 195 200 177 0
28.820000 31.460000 10.560000 195 200 177 0
29.040000 31.460000 10.560000 196 201 178 0
29.260000 31.460000 10.560000 195 200 177 0
29.480000 31.460000 10.780000 195 200 177 0
29.700000 31.460000 10.780000 196 199 177 0
29.920000 31.460000 10.780000 196 199 177 0
30.140000 31.460000 12.100000 195 200 177 0
30.360000 31.460000 12.100000 196 201 178 0
30.580000 31.460000 12.320000 197 199 180 0
30.800000 31.460000 12.320000 197 199 180 0
31.020000 31.460000 12.320000 196 199 177 0
31.240000 31.460000 12.320000 196 199 177 0
31.460000 31.460000 12.320000 196 199 177 0
31.680000 31.460000 12.320000 194 197 175 0
31.900000 31.460000 12.100000 203 185 156 0
32.120000 31.460000 14.080000 195 177 148 0
32.340000 31.460000 13.860000 201 165 128 0
32.560000 31.460000 15.180000 194 158 121 0
32.780000 31.460000 15.400000 196 157 121 0
33.000000 31.460000 15.400000 196 157 121 0
33.220000 31.460000 15.400000 197 158 122 0
33.440000 31.460000 15.400000 197 158 122 0
33.660000 31.460000 15.400000 197 158 122 0
33.880000 31.460000 15.400000 197 158 122 0
34.100000 31.460000 15.620000 197 158 122 0
34.320000 31.460000 15.620000 197 158 122 0
34.540000 31.460000 15.620000 196 157 121 0
34.760000 31.460000 15.620000 196 157 121 0
34.980000 31.460000 15.620000 197 158 122 0
35.200000 31.460000 15.620000 197 158 122 0
35.420000 31.460000 15.620000 196 157 121 0
35.640000 31.460000 15.840000 197 158 122 0
35.860000 31.460000 15.840000 197 158 122 0
36.080000 31.460000 17.160000 197 158 122 0
36.300000 31.460000 17.160000 197 158 122 0
36.520000 31.460000 15.840000 197 158 122 0
36.740000 31.460000 15.840000 198 157 122 0
36.960000 31.460000 15.840000 199 158 123 0
37.180000 31.460000 16.060000 199 158 123 0
0.000000 31.680000 11.660000 133 139 110 0
0.220000 31.680000 11.660000 133 139 110 0
0.440000 31.680000 10.120000 133 139 110 0
0.660000 31.680000 8.800000 134 140 111 0
0.880000 31.680000 8.800000 133 139 110 0
1.100000 31.680000 10.120000 134 140 111 0
1.320000 31.680000 10.120000 135 141 112 0
1.540000 31.680000 11.660000 135 141 112 0
1.760000 31.680000 12.980000 136 142 113 0
1.980000 31.680000 11.880000 135 141 112 0
2.200000 31.680000 10.560000 136 142 113 0
2.420000 31.680000 9.240000 135 141 112 0
2.640000 31.680000 9.240000 133 139 110 0
2.860000 31.680000 7.700000 133 137 109 0
3.080000 31.680000 5.060000 131 135 107 0
3.300000 31.680000 5.060000 130 136 105 0
3.520000 31.680000 3.520000 132 138 107 0
3.740000 31.680000 0.880000 132 138 109 0
4.400000 31.680000 10.560000 137 143 114 0
4.620000 31.680000 28.600000 147 155 127 0
4.840000 31.680000 35.420000 154 162 134 0
5.060000 31.680000 38.280000 161 169 141 0
5.280000 31.680000 29.920000 164 172 144 0
5.500000 31.680000 18.920000 166 176 146 0
5.720000 31.680000 30.140000 167 177 147 0
5.940000 31.680000 30.140000 170 180 151 0
6.160000 31.680000 19.140000 173 183 154 0
6.380000 31.680000 28.820000 175 185 156 0
6.600000 31.680000 38.500000 177 187 158 0
6.820000 31.680000 38.720000 180 189 163 0
7.040000 31.680000 36.960000 180 189 163 0
7.260000 31.680000 36.300000 179 189 159 0
7.480000 31.680000 29.040000 173 183 153 0
7.700000 31.680000 11.220000 169 177 148 0
7.920000 31.680000 3.080000 168 176 147 0
8.140000 31.680000 5.940000 171 181 152 0
8.360000 31.680000 8.580000 180 190 161 0
8.580000 31.680000 11.440000 186 195 169 0
8.800000 31.680000 14.300000 186 195 169 0
9.020000 31.680000 17.160000 187 196 170 0
9.240000 31.680000 17.160000 187 196 170 0
9.460000 31.680000 17.160000 187 196 170 0
9.680000 31.680000 15.840000 188 197 171 0
9.900000 31.680000 14.520000 187 196 170 0
10.120000 31.680000 11.660000 188 197 171 0
10.340000 31.680000 7.700000 189 198 172 0
10.560000 31.680000 4.840000 190 199 173 0
10.780000 31.680000 5.060000 189 198 172 0
11.000000 31.680000 5.060000 189 198 172 0
11.220000 31.680000 11.880000 189 198 172 0
11.440000 31.680000 29.920000 189 198 172 0
11.660000 31.680000 38.280000 189 198 174 0
11.880000 31.680000 38.280000 188 197 173 0
12.100000 31.680000 38.500000 190 199 173 0
12.320000 31.680000 38.500000 190 199 173 0
12.540000 31.680000 38.500000 190 199 173 0
12.760000 31.680000 38.500000 190 199 173 0
12.980000 31.680000 37.180000 190 199 173 0
13.200000 31.680000 38.280000 191 200 174 0
13.420000 31.680000 40.480000 191 200 176 0
13.640000 31.680000 31.900000 190 199 175 0
13.860000 31.680000 11.220000 191 200 174 0
14.080000 31.680000 0.220000 190 199 173 0
14.300000 31.680000 0.220000 191 200 174 0
14.520000 31.680000 0.220000 191 200 174 0
14.740000 31.680000 0.220000 190 199 173 0
14.960000 31.680000 0.440000 190 199 173 0
15.180000 31.680000 0.440000 191 200 176 0
15.400000 31.680000 1.760000 191 200 176 0
15.620000 31.680000 1.760000 190 199 173 0
15.840000 31.680000 1.760000 190 199 173 0
16.060000 31.680000 1.980000 190 199 175 0
16.280000 31.680000 1.980000 190 199 175 0
16.500000 31.680000 1.980000 191 200 176 0
16.720000 31.680000 1.980000 191 200 176 0
16.940000 31.680000 1.980000 191 198 175 0
17.160000 31.680000 1.980000 191 198 175 0
17.380000 31.680000 1.980000 190 199 175 0
17.600000 31.680000 2.200000 189 198 174 0
17.820000 31.680000 2.200000 189 198 174 0
18.040000 31.680000 2.200000 189 198 174 0
18.260000 31.680000 2.200000 189 198 174 0
18.480000 31.680000 2.200000 189 198 174 0
18.700000 31.680000 2.200000 191 198 175 0
18.920000 31.680000 3.740000 191 198 175 0
19.140000 31.680000 3.740000 191 198 175 0
19.360000 31.680000 3.740000 192 199 176 0
19.580000 31.680000 3.740000 191 198 175 0
19.800000 31.680000 3.740000 191 198 175 0
20.020000 31.680000 2.420000 191 198 175 0
20.240000 31.680000 2.420000 192 199 176 0
20.460000 31.680000 2.420000 192 199 176 0
20.680000 31.680000 2.420000 192 199 176 0
20.900000 31.680000 2.640000 192 199 176 0
21.120000 31.680000 3.960000 192 199 176 0
21.340000 31.680000 3.960000 191 198 175 0
21.560000 31.680000 3.960000 191 198 175 0
21.780000 31.680000 3.960000 191 198 175 0
22.000000 31.680000 4.180000 192 199 176 0
22.220000 31.680000 5.060000 191 198 175 0
22.440000 31.680000 5.940000 192 199 176 0
22.660000 31.680000 7.040000 191 198 175 0
22.880000 31.680000 7.040000 192 199 176 0
23.100000 31.680000 7.040000 192 199 176 0
23.320000 31.680000 7.040000 193 200 177 0
23.540000 31.680000 7.040000 193 200 177 0
23.760000 31.680000 7.040000 192 199 176 0
23.980000 31.680000 7.040000 192 199 176 0
24.200000 31.680000 7.260000 192 199 176 0
24.420000 31.680000 7.260000 194 199 176 0
24.640000 31.680000 7.260000 193 198 175 0
24.860000 31.680000 7.260000 194 199 176 0
25.080000 31.680000 7.260000 193 198 175 0
25.300000 31.680000 7.260000 194 199 176 0
25.520000 31.680000 8.800000 194 199 176 0
25.740000 31.680000 8.800000 194 199 176 0
25.960000 31.680000 8.800000 195 200 177 0
26.180000 31.680000 8.800000 195 200 177 0
26.400000 31.680000 8.800000 196 201 178 0
26.620000 31.680000 8.800000 195 200 177 0
26.840000 31.680000 9.020000 195 200 177 0
27.060000 31.680000 9.020000 195 200 177 0
27.280000 31.680000 9.020000 195 200 177 0
27.500000 31.680000 9.020000 196 201 178 0
27.720000 31.680000 9.020000 195 200 177 0
27.940000 31.680000 10.560000 196 201 178 0
28.160000 31.680000 10.560000 196 201 178 0
28.380000 31.680000 10.560000 195 200 177 0
28.600000 31.680000 11.880000 195 200 177 0
28.820000 31.680000 11.880000 195 200 177 0
29.040000 31.680000 12.100000 195 200 177 0
29.260000 31.680000 10.560000 196 201 178 0
29.480000 31.680000 10.780000 195 200 177 0
29.700000 31.680000 10.780000 196 199 177 0
29.920000 31.680000 10.780000 196 199 177 0
30.140000 31.680000 12.100000 195 200 177 0
30.360000 31.680000 12.100000 195 200 177 0
30.580000 31.680000 12.320000 196 198 179 0
30.800000 31.680000 12.320000 197 199 180 0
31.020000 31.680000 12.320000 196 199 177 0
31.240000 31.680000 12.320000 196 199 177 0
31.460000 31.680000 12.320000 195 198 176 0
31.680000 31.680000 12.320000 195 198 176 0
31.900000 31.680000 12.100000 201 183 154 0
32.120000 31.680000 14.080000 195 177 148 0
32.340000 31.680000 13.860000 201 165 128 0
32.560000 31.680000 15.180000 194 158 121 0
32.780000 31.680000 15.400000 196 157 121 0
33.000000 31.680000 15.400000 196 157 121 0
33.220000 31.680000 15.400000 196 157 121 0
33.440000 31.680000 15.400000 197 158 122 0
33.660000 31.680000 15.400000 196 157 121 0
33.880000 31.680000 15.400000 197 158 122 0
34.100000 31.680000 15.620000 196 157 121 0
34.320000 31.680000 15.620000 197 158 122 0
34.540000 31.680000 15.620000 197 158 122 0
34.760000 31.680000 15.620000 197 158 122 0
34.980000 31.680000 15.620000 197 158 122 0
35.200000 31.680000 15.620000 197 158 122 0
35.420000 31.680000 15.620000 197 158 122 0
35.640000 31.680000 15.840000 196 157 121 0
35.860000 31.680000 15.840000 197 158 122 0
36.080000 31.680000 17.160000 197 158 122 0
36.300000 31.680000 17.160000 197 158 122 0
36.520000 31.680000 15.840000 197 158 122 0
36.740000 31.680000 15.840000 199 158 123 0
36.960000 31.680000 15.840000 198 157 122 0
37.180000 31.680000 16.060000 197 156 121 0
0.000000 31.900000 11.660000 134 140 111 0
0.220000 31.900000 11.660000 134 138 110 0
0.440000 31.900000 10.120000 135 139 111 0
0.660000 31.900000 8.800000 134 140 111 0
0.880000 31.900000 8.800000 135 141 112 0
1.100000 31.900000 10.120000 134 140 111 0
1.320000 31.900000 10.120000 135 141 112 0
1.540000 31.900000 11.660000 136 140 112 0
1.760000 31.900000 11.660000 136 140 112 0
1.980000 31.900000 11.880000 137 141 113 0
2.200000 31.900000 10.560000 137 141 113 0
2.420000 31.900000 9.020000 135 141 112 0
2.640000 31.900000 9.240000 133 139 110 0
2.860000 31.900000 7.700000 131 135 107 0
3.080000 31.900000 5.060000 130 134 106 0
3.300000 31.900000 5.060000 131 135 107 0
3.520000 31.900000 3.520000 132 136 108 0
3.740000 31.900000 0.880000 133 137 109 0
4.400000 31.900000 10.560000 137 143 112 0
4.620000 31.900000 23.100000 143 151 122 0
4.840000 31.900000 24.420000 155 163 134 0
5.060000 31.900000 32.780000 159 169 140 0
5.280000 31.900000 29.920000 163 173 144 0
5.500000 31.900000 18.920000 165 175 146 0
5.720000 31.900000 30.140000 168 178 149 0
5.940000 31.900000 30.140000 169 179 150 0
6.160000 31.900000 16.280000 173 183 154 0
6.380000 31.900000 24.640000 176 186 157 0
6.600000 31.900000 35.860000 177 187 158 0
6.820000 31.900000 38.720000 176 188 161 0
7.040000 31.900000 39.820000 177 189 162 0
7.260000 31.900000 39.160000 179 189 160 0
7.480000 31.900000 26.400000 179 189 160 0
7.700000 31.900000 8.360000 176 186 157 0
7.920000 31.900000 1.540000 177 187 158 0
8.140000 31.900000 4.400000 177 186 160 0
8.360000 31.900000 7.260000 183 192 166 0
8.580000 31.900000 11.440000 185 194 168 0
8.800000 31.900000 14.300000 187 196 170 0
9.020000 31.900000 17.160000 188 197 171 0
9.240000 31.900000 18.480000 187 196 170 0
9.460000 31.900000 17.160000 187 196 170 0
9.680000 31.900000 15.840000 187 196 170 0
9.900000 31.900000 15.840000 187 196 170 0
10.120000 31.900000 11.660000 188 197 171 0
10.340000 31.900000 7.700000 188 197 171 0
10.560000 31.900000 4.840000 188 197 171 0
10.780000 31.900000 5.060000 188 197 171 0
11.000000 31.900000 5.060000 187 196 170 0
11.220000 31.900000 11.880000 189 198 172 0
11.440000 31.900000 29.920000 189 198 172 0
11.660000 31.900000 38.280000 188 197 171 0
11.880000 31.900000 36.960000 189 198 172 0
12.100000 31.900000 38.500000 189 198 174 0
12.320000 31.900000 38.500000 190 199 175 0
12.540000 31.900000 38.500000 189 198 172 0
12.760000 31.900000 38.500000 190 199 173 0
12.980000 31.900000 38.500000 189 198 172 0
13.200000 31.900000 39.600000 190 199 173 0
13.420000 31.900000 41.800000 190 199 173 0
13.640000 31.900000 31.900000 190 199 173 0
13.860000 31.900000 11.220000 190 199 175 0
14.080000 31.900000 0.220000 191 200 176 0
14.300000 31.900000 0.220000 191 200 176 0
14.520000 31.900000 0.220000 190 199 175 0
14.740000 31.900000 0.220000 190 199 175 0
14.960000 31.900000 0.440000 190 199 175 0
15.180000 31.900000 0.440000 191 200 174 0
15.400000 31.900000 1.760000 190 199 173 0
15.620000 31.900000 1.760000 190 199 175 0
15.840000 31.900000 1.760000 190 199 175 0
16.060000 31.900000 1.980000 190 199 175 0
16.280000 31.900000 1.980000 190 199 175 0
16.500000 31.900000 1.980000 190 199 173 0
16.720000 31.900000 1.980000 190 199 173 0
16.940000 31.900000 1.980000 190 199 175 0
17.160000 31.900000 1.980000 190 199 175 0
17.380000 31.900000 1.980000 189 198 174 0
17.600000 31.900000 2.200000 189 198 174 0
17.820000 31.900000 2.200000 188 197 173 0
18.040000 31.900000 0.880000 189 198 174 0
18.260000 31.900000 0.880000 189 198 174 0
18.480000 31.900000 2.200000 188 197 173 0
18.700000 31.900000 2.200000 190 197 174 0
18.920000 31.900000 3.740000 191 198 175 0
19.140000 31.900000 3.740000 191 198 175 0
19.360000 31.900000 3.740000 192 199 176 0
19.580000 31.900000 3.740000 192 199 176 0
19.800000 31.900000 3.740000 191 198 175 0
20.020000 31.900000 3.740000 192 199 176 0
20.240000 31.900000 2.420000 191 198 175 0
20.460000 31.900000 2.420000 192 199 176 0
20.680000 31.900000 2.420000 192 199 176 0
20.900000 31.900000 2.640000 192 199 176 0
21.120000 31.900000 2.640000 191 198 175 0
21.340000 31.900000 3.960000 192 199 176 0
21.560000 31.900000 3.960000 190 197 174 0
21.780000 31.900000 3.960000 191 198 175 0
22.000000 31.900000 4.180000 191 198 175 0
22.220000 31.900000 5.060000 191 198 175 0
22.440000 31.900000 5.940000 192 199 176 0
22.660000 31.900000 7.040000 193 200 177 0
22.880000 31.900000 7.040000 193 200 177 0
23.100000 31.900000 7.040000 192 199 176 0
23.320000 31.900000 7.040000 192 199 176 0
23.540000 31.900000 7.040000 195 200 177 0
23.760000 31.900000 7.040000 194 199 176 0
23.980000 31.900000 7.040000 194 199 176 0
24.200000 31.900000 7.260000 195 200 177 0
24.420000 31.900000 7.260000 194 199 176 0
24.640000 31.900000 7.260000 193 198 175 0
24.860000 31.900000 7.260000 191 198 175 0
25.080000 31.900000 7.260000 191 198 175 0
25.300000 31.900000 7.260000 194 199 176 0
25.520000 31.900000 8.800000 194 199 176 0
25.740000 31.900000 8.800000 195 200 177 0
25.960000 31.900000 8.800000 194 199 176 0
26.180000 31.900000 8.800000 195 200 177 0
26.400000 31.900000 8.800000 195 200 177 0
26.620000 31.900000 8.800000 196 201 178 0
26.840000 31.900000 9.020000 195 200 177 0
27.060000 31.900000 9.020000 196 201 178 0
27.280000 31.900000 9.020000 195 200 177 0
27.500000 31.900000 9.020000 195 200 177 0
27.720000 31.900000 10.560000 196 201 178 0
27.940000 31.900000 10.560000 197 200 178 0
28.160000 31.900000 10.560000 196 199 177 0
28.380000 31.900000 10.560000 195 200 177 0
28.600000 31.900000 11.880000 195 200 177 0
28.820000 31.900000 11.880000 197 200 178 0
29.040000 31.900000 12.100000 196 199 177 0
29.260000 31.900000 10.560000 197 200 178 0
29.480000 31.900000 10.780000 196 199 177 0
29.700000 31.900000 10.780000 196 199 177 0
29.920000 31.900000 10.780000 196 199 177 0
30.140000 31.900000 12.100000 195 200 177 0
30.360000 31.900000 12.100000 195 200 177 0
30.580000 31.900000 12.320000 196 199 177 0
30.800000 31.900000 12.320000 196 199 177 0
31.020000 31.900000 12.320000 196 199 177 0
31.240000 31.900000 12.320000 195 198 176 0
31.460000 31.900000 12.320000 196 197 176 0
31.680000 31.900000 12.320000 197 198 177 0
31.900000 31.900000 12.100000 203 185 156 0
32.120000 31.900000 14.080000 194 176 147 0
32.340000 31.900000 13.860000 200 164 127 0
32.560000 31.900000 15.180000 194 158 121 0
32.780000 31.900000 15.400000 195 156 120 0
33.000000 31.900000 15.400000 195 156 120 0
33.220000 31.900000 15.400000 196 157 121 0
33.440000 31.900000 15.400000 196 157 121 0
33.660000 31.900000 15.400000 196 157 121 0
33.880000 31.900000 15.400000 196 157 121 0
34.100000 31.900000 15.620000 197 158 122 0
34.320000 31.900000 15.620000 196 157 121 0
34.540000 31.900000 15.620000 196 157 121 0
34.760000 31.900000 15.620000 197 158 122 0
34.980000 31.900000 15.620000 196 157 121 0
35.200000 31.900000 15.620000 197 158 122 0
35.420000 31.900000 15.620000 198 157 122 0
35.640000 31.900000 15.840000 198 157 122 0
35.860000 31.900000 15.840000 197 158 122 0
36.080000 31.900000 17.160000 197 158 122 0
36.300000 31.900000 17.160000 196 157 121 0
36.520000 31.900000 15.840000 197 158 122 0
36.740000 31.900000 15.840000 197 158 122 0
36.960000 31.900000 15.840000 197 158 122 0
37.180000 31.900000 16.060000 197 156 121 0
0.000000 32.120000 11.660000 133 139 110 0
0.220000 32.120000 11.660000 134 138 110 0
0.440000 32.120000 10.120000 134 138 110 0
0.660000 32.120000 8.800000 134 140 111 0
0.880000 32.120000 8.800000 134 140 111 0
1.100000 32.120000 10.120000 134 140 111 0
1.320000 32.120000 10.120000 135 141 112 0
1.540000 32.120000 11.660000 136 140 112 0
1.760000 32.120000 11.660000 136 140 112 0
1.980000 32.120000 11.880000 136 140 112 0
2.200000 32.120000 10.560000 137 141 113 0
2.420000 32.120000 9.020000 135 141 112 0
2.640000 32.120000 9.240000 134 140 111 0
2.860000 32.120000 7.700000 133 137 109 0
3.080000 32.120000 5.060000 130 134 106 0
3.300000 32.120000 5.060000 131 135 107 0
3.520000 32.120000 3.520000 132 136 108 0
3.740000 32.120000 0.880000 132 136 108 0
4.400000 32.120000 10.560000 136 142 111 0
4.620000 32.120000 20.240000 143 151 122 0
4.840000 32.120000 18.920000 153 161 132 0
5.060000 32.120000 29.920000 160 170 141 0
5.280000 32.120000 29.920000 163 173 144 0
5.500000 32.120000 18.920000 164 174 145 0
5.720000 32.120000 30.140000 167 177 148 0
5.940000 32.120000 30.140000 169 179 150 0
6.160000 32.120000 12.100000 172 182 153 0
6.380000 32.120000 13.640000 175 185 156 0
6.600000 32.120000 31.680000 177 187 158 0
6.820000 32.120000 38.720000 176 188 161 0
7.040000 32.120000 39.820000 177 189 162 0
7.260000 32.120000 33.660000 179 189 160 0
7.480000 32.120000 16.720000 180 190 161 0
7.700000 32.120000 2.860000 181 191 162 0
7.920000 32.120000 1.540000 182 192 163 0
8.140000 32.120000 3.080000 182 191 165 0
8.360000 32.120000 5.940000 185 194 168 0
8.580000 32.120000 11.440000 186 195 169 0
8.800000 32.120000 14.300000 186 195 169 0
9.020000 32.120000 17.160000 187 196 170 0
9.240000 32.120000 18.480000 187 196 170 0
9.460000 32.120000 17.160000 188 197 171 0
9.680000 32.120000 15.840000 187 196 170 0
9.900000 32.120000 15.840000 188 197 171 0
10.120000 32.120000 13.200000 188 197 171 0
10.340000 32.120000 9.020000 188 197 171 0
10.560000 32.120000 6.380000 188 197 171 0
10.780000 32.120000 6.380000 188 197 171 0
11.000000 32.120000 5.060000 186 195 169 0
11.220000 32.120000 11.880000 187 196 170 0
11.440000 32.120000 28.600000 188 197 171 0
11.660000 32.120000 36.960000 189 198 172 0
11.880000 32.120000 36.960000 189 198 172 0
12.100000 32.120000 36.960000 189 198 174 0
12.320000 32.120000 38.500000 188 197 173 0
12.540000 32.120000 38.500000 189 198 172 0
12.760000 32.120000 38.720000 189 198 172 0
12.980000 32.120000 38.500000 189 198 172 0
13.200000 32.120000 39.160000 189 198 172 0
13.420000 32.120000 41.580000 190 199 173 0
13.640000 32.120000 34.540000 190 199 173 0
13.860000 32.120000 16.720000 191 200 176 0
14.080000 32.120000 2.860000 191 200 176 0
14.300000 32.120000 0.220000 191 200 176 0
14.520000 32.120000 0.220000 190 199 175 0
14.740000 32.120000 0.220000 190 199 175 0
14.960000 32.120000 0.440000 191 200 176 0
15.180000 32.120000 0.440000 191 200 174 0
15.400000 32.120000 1.760000 190 199 173 0
15.620000 32.120000 1.760000 190 199 175 0
15.840000 32.120000 1.760000 191 200 176 0
