ply
format ascii 1.0
element vertex 1096
property float x
property float y
property float z
property uchar red
property uchar green
property uchar blue
property uchar alpha
end_header
27.940000 30.580000 9.240000 220 175 149 0
28.160000 30.580000 29.920000 220 175 151 0
28.380000 30.580000 39.820000 220 175 151 0
28.600000 30.580000 39.820000 220 175 151 0
28.820000 30.580000 39.820000 221 176 152 0
29.040000 30.580000 39.820000 220 175 151 0
29.260000 30.580000 40.040000 220 175 151 0
29.480000 30.580000 39.820000 221 176 152 0
29.700000 30.580000 32.560000 219 174 150 0
29.920000 30.580000 15.620000 220 175 151 0
30.140000 30.580000 2.860000 220 175 151 0
30.360000 30.580000 0.220000 221 175 154 0
30.580000 30.580000 1.760000 219 173 152 0
30.800000 30.580000 0.440000 219 173 152 0
31.020000 30.580000 0.440000 219 173 152 0
31.240000 30.580000 1.760000 217 171 150 0
31.460000 30.580000 1.980000 218 172 151 0
31.680000 30.580000 0.660000 214 170 152 0
31.900000 30.580000 1.980000 209 165 147 0
32.120000 30.580000 3.520000 204 160 146 0
32.340000 30.580000 11.880000 201 157 143 0
32.560000 30.580000 29.920000 198 154 140 0
32.780000 30.580000 36.960000 200 156 142 0
33.000000 30.580000 24.420000 201 157 141 0
33.220000 30.580000 6.600000 203 159 143 0
33.440000 30.580000 9.460000 205 161 143 0
33.660000 30.580000 28.820000 205 161 143 0
33.880000 30.580000 38.500000 208 164 146 0
34.100000 30.580000 38.280000 208 164 146 0
34.320000 30.580000 40.480000 212 166 146 0
34.540000 30.580000 41.580000 214 168 148 0
34.760000 30.580000 38.940000 216 170 150 0
34.980000 30.580000 36.080000 218 172 152 0
35.200000 30.580000 33.440000 216 172 154 0
35.420000 30.580000 23.760000 215 171 153 0
35.640000 30.580000 18.480000 213 168 160 0
35.860000 30.580000 28.160000 206 161 153 0
36.080000 30.580000 37.840000 205 161 155 0
36.300000 30.580000 31.020000 208 164 158 0
36.520000 30.580000 10.340000 211 173 159 0
36.740000 30.580000 1.980000 221 183 169 0
36.960000 30.580000 1.980000 226 187 169 0
37.180000 30.580000 2.200000 228 189 171 0
0.000000 30.800000 10.780000 195 200 177 0
0.220000 30.800000 10.780000 195 200 177 0
0.440000 30.800000 10.780000 195 198 176 0
0.660000 30.800000 11.000000 196 199 177 0
0.880000 30.800000 11.000000 196 199 177 0
1.100000 30.800000 11.000000 195 198 176 0
1.320000 30.800000 10.780000 200 183 152 0
1.540000 30.800000 12.980000 194 177 146 0
1.760000 30.800000 13.860000 200 164 127 0
1.980000 30.800000 13.860000 193 157 120 0
2.200000 30.800000 13.860000 196 157 121 0
2.420000 30.800000 15.400000 196 157 121 0
2.640000 30.800000 15.400000 197 158 122 0
2.860000 30.800000 15.400000 196 157 121 0
3.080000 30.800000 15.400000 196 157 121 0
3.300000 30.800000 15.400000 195 156 120 0
3.520000 30.800000 15.400000 196 157 121 0
3.740000 30.800000 15.620000 196 157 121 0
3.960000 30.800000 15.620000 195 156 120 0
4.180000 30.800000 15.620000 195 156 120 0
4.400000 30.800000 15.620000 196 157 121 0
4.620000 30.800000 15.620000 196 157 121 0
4.840000 30.800000 15.620000 195 156 120 0
5.060000 30.800000 15.620000 196 157 121 0
5.280000 30.800000 15.840000 195 156 120 0
5.500000 30.800000 15.840000 196 157 121 0
5.720000 30.800000 15.840000 197 158 122 0
5.940000 30.800000 15.840000 196 157 121 0
6.160000 30.800000 15.840000 196 157 121 0
6.380000 30.800000 15.840000 197 158 122 0
6.600000 30.800000 16.060000 198 157 122 0
6.820000 30.800000 16.060000 198 157 122 0
7.040000 30.800000 16.060000 199 158 123 0
7.260000 30.800000 17.380000 198 157 122 0
7.480000 30.800000 17.380000 199 158 123 0
7.700000 30.800000 17.600000 199 158 123 0
7.920000 30.800000 17.600000 198 157 122 0
8.140000 30.800000 17.600000 197 156 121 0
8.360000 30.800000 17.600000 196 155 120 0
8.580000 30.800000 17.600000 198 157 122 0
8.800000 30.800000 17.600000 198 157 122 0
9.020000 30.800000 17.600000 198 157 122 0
9.240000 30.800000 17.820000 198 157 122 0
9.460000 30.800000 17.820000 197 156 121 0
9.680000 30.800000 17.820000 198 157 122 0
9.900000 30.800000 17.820000 197 156 121 0
10.120000 30.800000 17.820000 198 157 122 0
10.340000 30.800000 17.820000 198 157 122 0
10.560000 30.800000 17.820000 200 156 122 0
10.780000 30.800000 18.920000 200 156 122 0
11.000000 30.800000 21.120000 198 157 124 0
11.220000 30.800000 20.900000 199 158 125 0
11.440000 30.800000 20.900000 198 157 124 0
11.660000 30.800000 20.900000 199 158 125 0
11.880000 30.800000 20.900000 201 160 127 0
12.100000 30.800000 20.900000 201 160 127 0
12.320000 30.800000 20.900000 204 160 128 0
12.540000 30.800000 20.900000 203 159 127 0
12.760000 30.800000 21.120000 201 160 127 0
12.980000 30.800000 21.120000 201 160 127 0
13.200000 30.800000 21.120000 201 160 127 0
13.420000 30.800000 21.120000 201 160 127 0
13.640000 30.800000 21.120000 204 160 128 0
13.860000 30.800000 21.120000 201 157 125 0
14.080000 30.800000 21.120000 202 158 126 0
14.300000 30.800000 21.340000 201 157 125 0
14.520000 30.800000 21.340000 201 157 127 0
14.740000 30.800000 21.340000 202 158 128 0
14.960000 30.800000 21.340000 202 158 128 0
15.180000 30.800000 21.340000 202 158 128 0
15.400000 30.800000 21.340000 202 158 128 0
15.620000 30.800000 21.560000 202 158 128 0
15.840000 30.800000 21.560000 202 158 128 0
16.060000 30.800000 21.560000 202 158 128 0
16.280000 30.800000 21.560000 202 158 128 0
16.500000 30.800000 21.560000 202 158 128 0
16.720000 30.800000 21.560000 201 157 127 0
16.940000 30.800000 21.560000 202 158 128 0
17.160000 30.800000 23.100000 201 157 127 0
17.380000 30.800000 23.100000 201 157 127 0
17.600000 30.800000 23.100000 201 157 127 0
17.820000 30.800000 23.100000 202 158 128 0
18.040000 30.800000 24.640000 202 158 128 0
18.260000 30.800000 24.640000 202 158 128 0
18.480000 30.800000 24.640000 204 159 131 0
18.700000 30.800000 24.640000 203 158 130 0
18.920000 30.800000 26.180000 203 159 129 0
19.140000 30.800000 26.180000 205 161 131 0
19.360000 30.800000 26.180000 204 160 130 0
19.580000 30.800000 26.180000 205 161 131 0
19.800000 30.800000 27.280000 207 162 134 0
20.020000 30.800000 27.940000 209 164 136 0
20.240000 30.800000 29.040000 212 168 136 0
20.460000 30.800000 30.580000 217 173 141 0
20.680000 30.800000 30.580000 220 179 148 0
20.900000 30.800000 32.120000 226 185 154 0
21.120000 30.800000 32.340000 232 188 158 0
21.340000 30.800000 33.880000 233 189 159 0
21.560000 30.800000 33.880000 235 191 161 0
21.780000 30.800000 34.100000 235 191 161 0
22.000000 30.800000 34.100000 235 190 162 0
22.220000 30.800000 34.320000 236 191 163 0
22.440000 30.800000 33.000000 234 193 162 0
22.660000 30.800000 34.540000 235 194 163 0
22.880000 30.800000 34.320000 235 194 163 0
23.100000 30.800000 36.740000 236 195 164 0
23.320000 30.800000 37.620000 237 195 166 0
23.540000 30.800000 38.940000 237 195 166 0
23.760000 30.800000 40.260000 232 185 160 0
23.980000 30.800000 31.900000 223 176 151 0
24.200000 30.800000 11.220000 217 156 130 0
24.420000 30.800000 11.220000 210 149 123 0
24.640000 30.800000 20.900000 202 154 129 0
24.860000 30.800000 9.900000 207 159 134 0
25.080000 30.800000 0.440000 211 164 139 0
25.300000 30.800000 0.440000 220 173 148 0
25.520000 30.800000 5.940000 221 174 151 0
25.740000 30.800000 21.340000 220 173 150 0
25.960000 30.800000 25.520000 219 172 147 0
26.180000 30.800000 20.020000 220 173 148 0
26.400000 30.800000 31.020000 219 172 149 0
26.620000 30.800000 40.700000 219 172 149 0
26.840000 30.800000 40.700000 218 173 147 0
27.060000 30.800000 40.920000 219 174 148 0
27.280000 30.800000 29.920000 220 173 150 0
27.500000 30.800000 9.020000 219 172 149 0
27.940000 30.800000 6.380000 219 174 148 0
28.160000 30.800000 24.420000 219 174 150 0
28.380000 30.800000 38.280000 219 174 150 0
28.600000 30.800000 39.820000 220 175 151 0
28.820000 30.800000 39.820000 221 176 152 0
29.040000 30.800000 39.820000 222 177 153 0
29.260000 30.800000 39.820000 221 176 152 0
29.480000 30.800000 40.040000 221 176 152 0
29.700000 30.800000 38.280000 221 176 152 0
29.920000 30.800000 26.620000 219 174 150 0
30.140000 30.800000 8.360000 220 175 151 0
30.360000 30.800000 0.220000 220 174 153 0
30.580000 30.800000 0.220000 219 173 152 0
30.800000 30.800000 1.760000 218 172 151 0
31.020000 30.800000 1.760000 217 171 150 0
31.240000 30.800000 1.760000 216 170 149 0
31.460000 30.800000 4.620000 211 165 144 0
31.680000 30.800000 7.480000 202 158 140 0
31.900000 30.800000 14.520000 196 152 134 0
32.120000 30.800000 20.020000 195 151 137 0
32.340000 30.800000 21.560000 198 154 140 0
32.560000 30.800000 31.240000 199 155 141 0
32.780000 30.800000 39.600000 201 157 143 0
33.000000 30.800000 29.920000 202 158 142 0
33.220000 30.800000 9.240000 204 160 144 0
33.440000 30.800000 9.460000 206 162 144 0
33.660000 30.800000 28.820000 207 163 145 0
33.880000 30.800000 40.040000 209 165 147 0
34.100000 30.800000 38.280000 209 165 147 0
34.320000 30.800000 39.160000 214 168 148 0
34.540000 30.800000 40.260000 215 169 149 0
34.760000 30.800000 41.580000 218 172 152 0
34.980000 30.800000 41.580000 218 172 152 0
35.200000 30.800000 38.940000 216 172 154 0
35.420000 30.800000 26.620000 213 169 151 0
35.640000 30.800000 10.120000 205 160 152 0
35.860000 30.800000 15.620000 193 148 140 0
36.080000 30.800000 32.340000 185 141 135 0
36.300000 30.800000 29.480000 185 141 135 0
36.520000 30.800000 10.340000 191 153 139 0
36.740000 30.800000 0.660000 203 165 151 0
36.960000 30.800000 0.660000 214 175 157 0
37.180000 30.800000 0.660000 222 183 165 0
0.000000 31.020000 10.780000 196 201 178 0
0.220000 31.020000 10.780000 195 200 177 0
0.440000 31.020000 10.780000 195 200 177 0
0.660000 31.020000 11.000000 195 200 177 0
0.880000 31.020000 11.000000 196 199 175 0
1.100000 31.020000 11.000000 194 197 173 0
1.320000 31.020000 10.560000 200 183 152 0
1.540000 31.020000 12.760000 194 177 146 0
1.760000 31.020000 13.860000 200 164 127 0
1.980000 31.020000 13.860000 194 158 121 0
2.200000 31.020000 13.860000 196 157 119 0
2.420000 31.020000 15.400000 196 157 119 0
2.640000 31.020000 15.400000 197 158 122 0
2.860000 31.020000 15.400000 196 157 121 0
3.080000 31.020000 15.400000 195 156 120 0
3.300000 31.020000 15.400000 196 157 121 0
3.520000 31.020000 15.400000 194 158 121 0
3.740000 31.020000 15.620000 194 158 121 0
3.960000 31.020000 15.620000 196 157 121 0
4.180000 31.020000 15.620000 196 157 121 0
4.400000 31.020000 15.620000 196 157 121 0
4.620000 31.020000 15.620000 196 157 121 0
4.840000 31.020000 15.620000 196 157 121 0
5.060000 31.020000 15.620000 195 156 120 0
5.280000 31.020000 15.840000 196 157 121 0
5.500000 31.020000 15.840000 197 158 122 0
5.720000 31.020000 15.840000 196 157 121 0
5.940000 31.020000 15.840000 196 157 121 0
6.160000 31.020000 15.840000 197 158 122 0
6.380000 31.020000 15.840000 197 158 122 0
6.600000 31.020000 16.060000 198 157 122 0
6.820000 31.020000 16.060000 198 157 122 0
7.040000 31.020000 16.060000 197 158 122 0
7.260000 31.020000 17.380000 198 159 123 0
7.480000 31.020000 17.380000 197 158 122 0
7.700000 31.020000 17.600000 197 158 122 0
7.920000 31.020000 17.600000 199 158 123 0
8.140000 31.020000 17.600000 198 157 122 0
8.360000 31.020000 17.600000 197 156 121 0
8.580000 31.020000 17.600000 198 157 122 0
8.800000 31.020000 17.600000 199 158 123 0
9.020000 31.020000 17.600000 199 158 123 0
9.240000 31.020000 17.820000 198 157 122 0
9.460000 31.020000 17.820000 198 157 122 0
9.680000 31.020000 17.820000 198 157 124 0
9.900000 31.020000 17.820000 198 157 124 0
10.120000 31.020000 17.820000 199 158 125 0
10.340000 31.020000 17.820000 198 157 124 0
10.560000 31.020000 17.820000 198 157 124 0
10.780000 31.020000 18.920000 197 156 123 0
11.000000 31.020000 21.120000 197 156 123 0
11.220000 31.020000 20.900000 197 156 123 0
11.440000 31.020000 20.900000 199 158 125 0
11.660000 31.020000 20.900000 199 158 125 0
11.880000 31.020000 20.900000 200 159 126 0
12.100000 31.020000 20.900000 200 159 126 0
12.320000 31.020000 20.900000 201 160 127 0
12.540000 31.020000 20.900000 201 160 127 0
12.760000 31.020000 21.120000 201 160 129 0
12.980000 31.020000 21.120000 201 160 129 0
13.200000 31.020000 21.120000 201 160 129 0
13.420000 31.020000 21.120000 202 161 130 0
13.640000 31.020000 21.120000 201 160 129 0
13.860000 31.020000 21.120000 201 160 129 0
14.080000 31.020000 21.120000 201 160 129 0
14.300000 31.020000 21.340000 200 159 128 0
14.520000 31.020000 21.340000 201 160 129 0
14.740000 31.020000 21.340000 200 159 128 0
14.960000 31.020000 21.340000 200 159 128 0
15.180000 31.020000 21.340000 200 159 128 0
15.400000 31.020000 21.340000 201 160 129 0
15.620000 31.020000 21.560000 201 160 129 0
15.840000 31.020000 21.560000 201 160 129 0
16.060000 31.020000 21.560000 201 160 129 0
16.280000 31.020000 21.560000 203 159 129 0
16.500000 31.020000 21.560000 202 158 128 0
16.720000 31.020000 21.560000 201 160 129 0
16.940000 31.020000 21.560000 200 159 128 0
17.160000 31.020000 23.100000 200 159 128 0
17.380000 31.020000 23.100000 200 159 128 0
17.600000 31.020000 23.100000 202 158 128 0
17.820000 31.020000 24.640000 202 158 128 0
18.040000 31.020000 24.640000 202 158 128 0
18.260000 31.020000 24.640000 203 159 129 0
18.480000 31.020000 24.640000 201 159 130 0
18.700000 31.020000 24.640000 201 159 130 0
18.920000 31.020000 26.180000 201 160 129 0
19.140000 31.020000 26.180000 202 161 130 0
19.360000 31.020000 26.180000 205 161 131 0
19.580000 31.020000 26.180000 205 161 131 0
19.800000 31.020000 27.280000 207 163 133 0
20.020000 31.020000 27.940000 208 164 134 0
20.240000 31.020000 29.040000 213 169 137 0
20.460000 31.020000 30.580000 218 174 142 0
20.680000 31.020000 30.580000 222 178 148 0
20.900000 31.020000 32.120000 228 184 154 0
21.120000 31.020000 32.340000 231 186 158 0
21.340000 31.020000 33.880000 234 189 161 0
21.560000 31.020000 33.880000 236 191 163 0
21.780000 31.020000 34.100000 235 190 162 0
22.000000 31.020000 34.100000 234 192 163 0
22.220000 31.020000 34.320000 234 192 163 0
22.440000 31.020000 34.320000 237 193 163 0
22.660000 31.020000 34.540000 237 193 163 0
22.880000 31.020000 34.320000 236 194 167 0
23.100000 31.020000 36.520000 237 195 168 0
23.320000 31.020000 38.940000 237 197 169 0
23.540000 31.020000 38.940000 236 196 168 0
23.760000 31.020000 40.260000 232 187 159 0
23.980000 31.020000 33.440000 221 176 148 0
24.200000 31.020000 16.720000 213 161 135 0
24.420000 31.020000 12.760000 206 154 128 0
24.640000 31.020000 23.760000 205 154 130 0
24.860000 31.020000 15.620000 210 159 135 0
25.080000 31.020000 3.080000 213 166 141 0
25.300000 31.020000 0.440000 219 172 147 0
25.520000 31.020000 7.260000 219 174 148 0
25.740000 31.020000 25.300000 220 175 149 0
25.960000 31.020000 28.160000 220 173 148 0
26.180000 31.020000 20.020000 218 171 146 0
26.400000 31.020000 31.020000 218 171 148 0
26.620000 31.020000 40.700000 218 171 148 0
26.840000 31.020000 40.700000 219 172 147 0
27.060000 31.020000 40.920000 219 172 147 0
27.280000 31.020000 29.700000 218 173 147 0
27.500000 31.020000 9.020000 219 174 148 0
27.940000 31.020000 2.200000 220 173 148 0
28.160000 31.020000 14.740000 219 174 150 0
28.380000 31.020000 32.780000 219 174 150 0
28.600000 31.020000 39.820000 221 174 151 0
28.820000 31.020000 39.820000 220 173 150 0
29.040000 31.020000 39.820000 220 175 151 0
29.260000 31.020000 39.820000 221 176 152 0
29.480000 31.020000 40.040000 221 174 151 0
29.700000 31.020000 39.820000 220 173 150 0
29.920000 31.020000 31.020000 219 174 150 0
30.140000 31.020000 14.080000 218 173 149 0
30.360000 31.020000 5.720000 217 171 150 0
30.580000 31.020000 3.080000 217 171 150 0
30.800000 31.020000 1.760000 216 170 149 0
31.020000 31.020000 1.760000 213 167 146 0
31.240000 31.020000 1.760000 210 160 148 0
31.460000 31.020000 8.800000 201 151 139 0
31.680000 31.020000 23.980000 193 146 133 0
31.900000 31.020000 33.880000 194 147 134 0
32.120000 31.020000 35.200000 195 151 133 0
32.340000 31.020000 35.420000 198 154 136 0
32.560000 31.020000 36.740000 203 157 136 0
32.780000 31.020000 39.600000 208 162 141 0
33.000000 31.020000 29.920000 208 165 143 0
33.220000 31.020000 9.240000 210 167 145 0
33.440000 31.020000 9.460000 213 170 149 0
33.660000 31.020000 30.140000 215 172 151 0
33.880000 31.020000 40.040000 215 172 151 0
34.100000 31.020000 38.500000 216 173 152 0
34.320000 31.020000 38.280000 217 174 153 0
34.540000 31.020000 38.940000 217 174 153 0
34.760000 31.020000 40.260000 220 177 155 0
34.980000 31.020000 41.580000 219 176 154 0
35.200000 31.020000 41.800000 217 173 155 0
35.420000 31.020000 33.440000 211 167 149 0
35.640000 31.020000 15.620000 199 150 141 0
35.860000 31.020000 12.980000 183 134 125 0
36.080000 31.020000 31.020000 158 123 125 0
36.300000 31.020000 32.340000 153 118 120 0
36.520000 31.020000 17.160000 161 131 128 0
36.740000 31.020000 10.340000 174 144 141 0
36.960000 31.020000 7.700000 196 156 144 0
37.180000 31.020000 6.160000 210 170 158 0
0.000000 31.240000 10.780000 195 200 177 0
0.220000 31.240000 10.780000 196 201 178 0
0.440000 31.240000 10.780000 195 200 177 0
0.660000 31.240000 11.000000 195 200 177 0
0.880000 31.240000 11.000000 195 198 174 0
1.100000 31.240000 11.000000 195 198 174 0
1.320000 31.240000 10.560000 203 186 155 0
1.540000 31.240000 12.760000 194 177 146 0
1.760000 31.240000 13.860000 200 164 127 0
1.980000 31.240000 13.860000 193 157 120 0
2.200000 31.240000 13.860000 196 157 119 0
2.420000 31.240000 15.400000 196 157 119 0
2.640000 31.240000 15.400000 197 158 122 0
2.860000 31.240000 15.400000 197 158 122 0
3.080000 31.240000 15.400000 195 156 120 0
3.300000 31.240000 15.400000 197 158 122 0
3.520000 31.240000 15.620000 195 159 122 0
3.740000 31.240000 15.620000 194 158 121 0
3.960000 31.240000 15.620000 196 157 121 0
4.180000 31.240000 15.620000 195 156 120 0
4.400000 31.240000 15.620000 196 157 121 0
4.620000 31.240000 15.620000 196 157 121 0
4.840000 31.240000 15.620000 197 158 122 0
5.060000 31.240000 15.620000 196 157 121 0
5.280000 31.240000 15.840000 196 157 121 0
5.500000 31.240000 15.840000 197 158 122 0
5.720000 31.240000 15.840000 198 159 123 0
5.940000 31.240000 15.840000 197 158 122 0
6.160000 31.240000 15.840000 197 158 122 0
6.380000 31.240000 15.840000 198 159 123 0
6.600000 31.240000 16.060000 198 157 122 0
6.820000 31.240000 16.060000 197 156 121 0
7.040000 31.240000 16.060000 196 157 121 0
7.260000 31.240000 17.380000 197 158 122 0
7.480000 31.240000 17.380000 196 157 121 0
7.700000 31.240000 17.600000 197 158 122 0
7.920000 31.240000 17.600000 198 157 122 0
8.140000 31.240000 17.600000 198 157 122 0
8.360000 31.240000 17.600000 198 157 122 0
8.580000 31.240000 17.600000 198 157 122 0
8.800000 31.240000 17.600000 198 157 122 0
9.020000 31.240000 17.600000 198 157 122 0
9.240000 31.240000 17.820000 198 157 122 0
9.460000 31.240000 17.820000 198 157 122 0
9.680000 31.240000 17.820000 198 157 124 0
9.900000 31.240000 17.820000 200 159 126 0
10.120000 31.240000 17.820000 200 159 126 0
10.340000 31.240000 17.820000 198 157 124 0
10.560000 31.240000 17.820000 198 157 124 0
10.780000 31.240000 18.920000 196 155 122 0
11.000000 31.240000 21.120000 196 155 122 0
11.220000 31.240000 20.900000 196 155 122 0
11.440000 31.240000 20.900000 198 157 124 0
11.660000 31.240000 20.900000 198 157 124 0
11.880000 31.240000 20.900000 198 157 124 0
12.100000 31.240000 20.900000 199 158 125 0
12.320000 31.240000 20.900000 200 159 126 0
12.540000 31.240000 20.900000 201 160 127 0
12.760000 31.240000 21.120000 201 160 129 0
12.980000 31.240000 21.120000 202 161 130 0
13.200000 31.240000 21.120000 202 161 130 0
13.420000 31.240000 21.120000 202 161 130 0
13.640000 31.240000 21.120000 202 161 130 0
13.860000 31.240000 21.120000 202 161 130 0
14.080000 31.240000 21.120000 202 161 130 0
14.300000 31.240000 21.340000 202 161 130 0
14.520000 31.240000 21.340000 202 161 130 0
14.740000 31.240000 21.340000 203 162 131 0
14.960000 31.240000 21.340000 202 161 130 0
15.180000 31.240000 21.340000 202 161 130 0
15.400000 31.240000 21.340000 203 162 131 0
15.620000 31.240000 21.560000 203 162 131 0
15.840000 31.240000 21.560000 202 161 130 0
16.060000 31.240000 21.560000 201 160 129 0
16.280000 31.240000 21.560000 203 159 129 0
16.500000 31.240000 21.560000 204 160 130 0
16.720000 31.240000 21.560000 202 161 130 0
16.940000 31.240000 21.560000 201 160 129 0
17.160000 31.240000 23.100000 201 160 129 0
17.380000 31.240000 23.100000 200 159 128 0
17.600000 31.240000 23.100000 203 159 129 0
17.820000 31.240000 24.640000 203 159 129 0
18.040000 31.240000 24.640000 202 158 128 0
18.260000 31.240000 24.640000 203 159 129 0
18.480000 31.240000 24.640000 201 159 130 0
18.700000 31.240000 24.640000 202 160 131 0
18.920000 31.240000 26.180000 201 160 129 0
19.140000 31.240000 26.180000 202 161 130 0
19.360000 31.240000 26.180000 205 161 131 0
19.580000 31.240000 26.180000 207 163 133 0
19.800000 31.240000 27.280000 207 163 133 0
20.020000 31.240000 27.940000 211 167 137 0
20.240000 31.240000 30.580000 215 171 139 0
20.460000 31.240000 30.580000 221 177 145 0
20.680000 31.240000 30.580000 222 178 148 0
20.900000 31.240000 32.120000 228 184 154 0
21.120000 31.240000 32.340000 231 186 158 0
21.340000 31.240000 33.880000 233 188 160 0
21.560000 31.240000 33.880000 235 190 162 0
21.780000 31.240000 34.100000 236 191 163 0
22.000000 31.240000 34.320000 234 192 163 0
22.220000 31.240000 34.320000 236 194 165 0
22.440000 31.240000 34.320000 238 194 164 0
22.660000 31.240000 34.540000 238 194 164 0
22.880000 31.240000 35.640000 237 195 168 0
23.100000 31.240000 37.620000 238 196 169 0
23.320000 31.240000 38.720000 238 198 170 0
23.540000 31.240000 38.940000 237 197 169 0
23.760000 31.240000 40.260000 235 190 162 0
23.980000 31.240000 38.940000 224 179 151 0
24.200000 31.240000 26.620000 217 165 139 0
24.420000 31.240000 18.260000 209 157 131 0
24.640000 31.240000 27.940000 207 156 132 0
24.860000 31.240000 27.940000 212 161 137 0
25.080000 31.240000 12.760000 215 168 143 0
25.300000 31.240000 1.760000 219 172 147 0
25.520000 31.240000 10.120000 218 173 147 0
25.740000 31.240000 30.800000 219 174 148 0
25.960000 31.240000 31.020000 219 172 147 0
26.180000 31.240000 17.160000 218 171 146 0
26.400000 31.240000 25.520000 217 170 147 0
26.620000 31.240000 38.060000 217 170 147 0
26.840000 31.240000 40.700000 218 171 146 0
27.060000 31.240000 40.920000 219 172 147 0
27.280000 31.240000 29.700000 218 173 147 0
27.500000 31.240000 9.020000 219 174 148 0
28.160000 31.240000 9.240000 219 174 150 0
28.380000 31.240000 30.140000 219 174 150 0
28.600000 31.240000 39.820000 219 172 149 0
28.820000 31.240000 39.820000 219 172 149 0
29.040000 31.240000 39.820000 219 174 150 0
29.260000 31.240000 38.500000 220 175 151 0
29.480000 31.240000 40.040000 220 173 150 0
29.700000 31.240000 40.040000 220 173 150 0
29.920000 31.240000 32.560000 218 173 149 0
30.140000 31.240000 23.760000 217 172 148 0
30.360000 31.240000 19.580000 217 171 150 0
30.580000 31.240000 8.580000 216 170 149 0
30.800000 31.240000 1.760000 216 170 149 0
31.020000 31.240000 1.760000 210 164 143 0
31.240000 31.240000 1.760000 201 151 139 0
31.460000 31.240000 11.440000 195 145 133 0
31.680000 31.240000 32.340000 193 146 133 0
31.900000 31.240000 40.700000 194 147 134 0
32.120000 31.240000 40.700000 199 155 137 0
32.340000 31.240000 40.920000 205 161 143 0
32.560000 31.240000 39.600000 213 167 146 0
32.780000 31.240000 39.600000 218 172 151 0
33.000000 31.240000 29.920000 217 174 152 0
33.220000 31.240000 9.240000 220 177 155 0
33.440000 31.240000 9.240000 220 177 156 0
33.660000 31.240000 30.140000 221 178 157 0
33.880000 31.240000 39.820000 224 181 160 0
34.100000 31.240000 38.500000 224 181 160 0
34.320000 31.240000 38.280000 225 182 161 0
34.540000 31.240000 39.160000 225 182 161 0
34.760000 31.240000 40.260000 226 183 161 0
34.980000 31.240000 40.260000 225 182 160 0
35.200000 31.240000 40.260000 222 178 160 0
35.420000 31.240000 38.940000 216 172 154 0
35.640000 31.240000 27.940000 202 153 144 0
35.860000 31.240000 23.980000 185 136 127 0
36.080000 31.240000 32.340000 151 116 118 0
36.300000 31.240000 36.520000 132 97 99 0
36.520000 31.240000 29.700000 132 102 99 0
36.740000 31.240000 22.660000 149 119 116 0
36.960000 31.240000 15.840000 178 138 126 0
37.180000 31.240000 10.340000 195 155 143 0
0.000000 31.460000 10.780000 197 199 180 0
0.220000 31.460000 10.780000 197 199 180 0
0.440000 31.460000 10.780000 196 199 177 0
0.660000 31.460000 11.000000 196 199 177 0
0.880000 31.460000 11.000000 196 199 177 0
1.100000 31.460000 11.000000 194 197 175 0
1.320000 31.460000 10.780000 203 185 156 0
1.540000 31.460000 12.760000 195 177 148 0
1.760000 31.460000 13.860000 201 165 128 0
1.980000 31.460000 13.860000 194 158 121 0
2.200000 31.460000 13.860000 196 157 121 0
2.420000 31.460000 15.400000 196 157 121 0
2.640000 31.460000 15.400000 197 158 122 0
2.860000 31.460000 15.400000 197 158 122 0
3.080000 31.460000 15.400000 197 158 122 0
3.300000 31.460000 15.400000 197 158 122 0
3.520000 31.460000 15.620000 197 158 122 0
3.740000 31.460000 15.620000 197 158 122 0
3.960000 31.460000 15.620000 196 157 121 0
4.180000 31.460000 15.620000 196 157 121 0
4.400000 31.460000 15.620000 197 158 122 0
4.620000 31.460000 15.620000 197 158 122 0
4.840000 31.460000 15.620000 196 157 121 0
5.060000 31.460000 15.620000 197 158 122 0
5.280000 31.460000 15.840000 197 158 122 0
5.500000 31.460000 15.840000 197 158 122 0
5.720000 31.460000 15.840000 197 158 122 0
5.940000 31.460000 15.840000 197 158 122 0
6.160000 31.460000 15.840000 198 157 122 0
6.380000 31.460000 15.840000 199 158 123 0
6.600000 31.460000 16.060000 199 158 123 0
6.820000 31.460000 16.060000 197 156 121 0
7.040000 31.460000 16.060000 198 157 122 0
7.260000 31.460000 17.380000 198 157 122 0
7.480000 31.460000 17.380000 198 157 122 0
7.700000 31.460000 17.600000 198 157 122 0
7.920000 31.460000 17.600000 197 156 121 0
8.140000 31.460000 17.600000 198 157 122 0
8.360000 31.460000 17.600000 198 157 122 0
8.580000 31.460000 17.600000 197 156 121 0
8.800000 31.460000 17.600000 198 157 122 0
9.020000 31.460000 17.600000 198 157 122 0
9.240000 31.460000 17.820000 198 157 122 0
9.460000 31.460000 17.820000 198 157 122 0
9.680000 31.460000 17.820000 199 158 125 0
9.900000 31.460000 17.820000 199 158 125 0
10.120000 31.460000 17.820000 201 157 123 0
10.340000 31.460000 17.820000 200 156 122 0
10.560000 31.460000 17.820000 197 156 121 0
10.780000 31.460000 18.920000 197 156 121 0
11.000000 31.460000 21.120000 197 156 121 0
11.220000 31.460000 20.900000 197 156 121 0
11.440000 31.460000 20.900000 197 156 123 0
11.660000 31.460000 20.900000 198 157 124 0
11.880000 31.460000 20.900000 201 157 125 0
12.100000 31.460000 20.900000 201 157 125 0
12.320000 31.460000 20.900000 200 159 126 0
12.540000 31.460000 20.900000 200 159 126 0
12.760000 31.460000 21.120000 201 160 127 0
12.980000 31.460000 21.120000 201 160 127 0
13.200000 31.460000 21.120000 203 159 129 0
13.420000 31.460000 21.120000 204 160 130 0
13.640000 31.460000 21.120000 202 161 130 0
13.860000 31.460000 21.120000 203 162 131 0
14.080000 31.460000 21.120000 202 161 128 0
14.300000 31.460000 22.660000 202 161 128 0
14.520000 31.460000 21.340000 202 161 130 0
14.740000 31.460000 21.340000 202 161 130 0
14.960000 31.460000 21.340000 204 163 132 0
15.180000 31.460000 21.340000 204 163 132 0
15.400000 31.460000 21.340000 205 164 133 0
15.620000 31.460000 21.560000 204 163 132 0
15.840000 31.460000 21.560000 204 163 132 0
16.060000 31.460000 21.560000 202 161 130 0
16.280000 31.460000 21.560000 202 161 130 0
16.500000 31.460000 21.560000 203 162 131 0
16.720000 31.460000 21.560000 203 159 129 0
16.940000 31.460000 21.560000 204 160 130 0
17.160000 31.460000 23.100000 201 160 129 0
17.380000 31.460000 23.100000 201 160 129 0
17.600000 31.460000 23.100000 203 159 129 0
17.820000 31.460000 24.640000 202 158 128 0
18.040000 31.460000 24.640000 204 160 130 0
18.260000 31.460000 24.640000 204 160 130 0
18.480000 31.460000 24.640000 204 160 130 0
18.700000 31.460000 24.640000 204 160 130 0
18.920000 31.460000 24.860000 203 161 132 0
19.140000 31.460000 26.180000 204 162 133 0
19.360000 31.460000 26.180000 207 163 133 0
19.580000 31.460000 26.180000 207 163 133 0
19.800000 31.460000 27.280000 210 164 135 0
20.020000 31.460000 27.940000 213 167 138 0
20.240000 31.460000 30.580000 216 172 142 0
20.460000 31.460000 30.580000 221 177 147 0
20.680000 31.460000 30.800000 225 180 152 0
20.900000 31.460000 32.120000 230 185 157 0
21.120000 31.460000 32.340000 232 187 159 0
21.340000 31.460000 33.880000 234 189 161 0
21.560000 31.460000 33.880000 235 190 162 0
21.780000 31.460000 34.100000 236 191 163 0
22.000000 31.460000 34.320000 237 192 166 0
22.220000 31.460000 34.320000 238 193 167 0
22.440000 31.460000 34.540000 238 193 165 0
22.660000 31.460000 34.540000 238 193 165 0
22.880000 31.460000 35.640000 237 195 166 0
23.100000 31.460000 37.620000 239 197 168 0
23.320000 31.460000 38.720000 236 197 177 0
23.540000 31.460000 38.940000 236 197 177 0
23.760000 31.460000 40.260000 239 194 170 0
23.980000 31.460000 41.800000 226 181 157 0
24.200000 31.460000 34.760000 218 172 144 0
24.420000 31.460000 26.620000 209 163 135 0
24.640000 31.460000 33.440000 210 163 138 0
24.860000 31.460000 39.160000 210 163 138 0
25.080000 31.460000 27.940000 214 167 144 0
25.300000 31.460000 12.760000 217 170 147 0
25.520000 31.460000 12.980000 218 171 146 0
25.740000 31.460000 30.800000 218 171 146 0
25.960000 31.460000 31.020000 219 173 145 0
26.180000 31.460000 12.980000 217 171 143 0
26.400000 31.460000 12.980000 217 170 145 0
26.620000 31.460000 28.380000 217 170 145 0
26.840000 31.460000 38.060000 217 170 147 0
27.060000 31.460000 40.920000 218 171 148 0
27.280000 31.460000 32.560000 219 172 147 0
27.500000 31.460000 14.740000 219 172 147 0
27.720000 31.460000 2.200000 219 172 149 0
28.160000 31.460000 9.240000 218 171 148 0
28.380000 31.460000 30.140000 219 172 149 0
28.600000 31.460000 39.820000 217 172 148 0
28.820000 31.460000 39.820000 217 172 148 0
29.040000 31.460000 39.820000 219 172 147 0
29.260000 31.460000 38.500000 218 171 146 0
29.480000 31.460000 40.040000 218 171 148 0
29.700000 31.460000 40.040000 218 171 148 0
29.920000 31.460000 38.280000 218 171 148 0
30.140000 31.460000 36.300000 218 171 148 0
30.360000 31.460000 29.040000 217 171 150 0
30.580000 31.460000 11.220000 215 169 148 0
30.800000 31.460000 1.760000 214 166 151 0
31.020000 31.460000 1.760000 203 155 140 0
31.240000 31.460000 1.760000 197 148 136 0
31.460000 31.460000 11.440000 193 144 132 0
31.680000 31.460000 31.020000 192 146 126 0
31.900000 31.460000 40.700000 200 154 134 0
32.120000 31.460000 40.700000 208 162 141 0
32.340000 31.460000 40.920000 216 170 149 0
32.560000 31.460000 39.600000 218 172 152 0
32.780000 31.460000 39.600000 221 175 155 0
33.000000 31.460000 29.920000 221 176 152 0
33.220000 31.460000 10.560000 222 177 153 0
33.440000 31.460000 10.780000 221 178 156 0
33.660000 31.460000 30.140000 222 179 157 0
33.880000 31.460000 39.820000 226 180 159 0
34.100000 31.460000 38.500000 226 180 159 0
34.320000 31.460000 38.280000 227 181 160 0
34.540000 31.460000 39.160000 227 181 160 0
34.760000 31.460000 40.260000 226 183 161 0
34.980000 31.460000 40.260000 225 182 160 0
35.200000 31.460000 40.260000 225 182 161 0
35.420000 31.460000 40.480000 221 178 157 0
35.640000 31.460000 39.160000 211 164 149 0
35.860000 31.460000 36.300000 193 146 131 0
36.080000 31.460000 37.840000 173 128 117 0
36.300000 31.460000 37.840000 152 107 96 0
36.520000 31.460000 26.840000 138 96 93 0
36.740000 31.460000 15.840000 140 98 95 0
36.960000 31.460000 9.020000 157 118 108 0
37.180000 31.460000 6.160000 181 142 132 0
0.000000 31.680000 10.780000 196 198 179 0
0.220000 31.680000 10.780000 197 199 180 0
0.440000 31.680000 10.780000 196 199 177 0
0.660000 31.680000 11.000000 196 199 177 0
0.880000 31.680000 11.000000 195 198 176 0
1.100000 31.680000 11.000000 195 198 176 0
1.320000 31.680000 10.780000 201 183 154 0
1.540000 31.680000 12.760000 195 177 148 0
1.760000 31.680000 13.860000 201 165 128 0
1.980000 31.680000 13.860000 194 158 121 0
2.200000 31.680000 13.860000 196 157 121 0
2.420000 31.680000 15.400000 196 157 121 0
2.640000 31.680000 15.400000 196 157 121 0
2.860000 31.680000 15.400000 197 158 122 0
3.080000 31.680000 15.400000 196 157 121 0
3.300000 31.680000 15.400000 197 158 122 0
3.520000 31.680000 15.620000 196 157 121 0
3.740000 31.680000 15.620000 197 158 122 0
3.960000 31.680000 15.620000 197 158 122 0
4.180000 31.680000 15.620000 197 158 122 0
4.400000 31.680000 15.620000 197 158 122 0
4.620000 31.680000 15.620000 197 158 122 0
4.840000 31.680000 15.620000 197 158 122 0
5.060000 31.680000 15.620000 196 157 121 0
5.280000 31.680000 15.840000 197 158 122 0
5.500000 31.680000 15.840000 197 158 122 0
5.720000 31.680000 15.840000 197 158 122 0
5.940000 31.680000 15.840000 197 158 122 0
6.160000 31.680000 15.840000 199 158 123 0
6.380000 31.680000 15.840000 198 157 122 0
6.600000 31.680000 16.060000 197 156 121 0
6.820000 31.680000 16.060000 197 156 121 0
7.040000 31.680000 16.060000 196 155 120 0
7.260000 31.680000 17.380000 196 155 120 0
7.480000 31.680000 17.380000 196 155 120 0
7.700000 31.680000 17.600000 196 155 120 0
7.920000 31.680000 17.600000 197 156 121 0
8.140000 31.680000 17.600000 198 157 122 0
8.360000 31.680000 17.600000 197 156 121 0
8.580000 31.680000 17.600000 197 156 121 0
8.800000 31.680000 17.600000 197 156 121 0
9.020000 31.680000 17.600000 197 156 121 0
9.240000 31.680000 17.820000 198 157 122 0
9.460000 31.680000 17.820000 198 157 122 0
9.680000 31.680000 17.820000 199 158 125 0
9.900000 31.680000 17.820000 198 157 124 0
10.120000 31.680000 17.820000 199 155 121 0
10.340000 31.680000 17.820000 199 155 121 0
10.560000 31.680000 17.820000 197 156 121 0
10.780000 31.680000 18.920000 196 155 120 0
11.000000 31.680000 21.120000 196 155 120 0
11.220000 31.680000 20.900000 197 156 121 0
11.440000 31.680000 20.900000 198 157 124 0
11.660000 31.680000 20.900000 199 158 125 0
11.880000 31.680000 20.900000 201 157 125 0
12.100000 31.680000 20.900000 201 157 125 0
12.320000 31.680000 20.900000 200 159 126 0
12.540000 31.680000 20.900000 200 159 126 0
12.760000 31.680000 21.120000 200 159 126 0
12.980000 31.680000 21.120000 200 159 126 0
13.200000 31.680000 21.120000 203 159 129 0
13.420000 31.680000 21.120000 202 158 128 0
13.640000 31.680000 21.120000 200 159 128 0
13.860000 31.680000 21.120000 202 161 130 0
14.080000 31.680000 22.660000 201 160 127 0
14.300000 31.680000 22.660000 201 160 127 0
14.520000 31.680000 21.340000 203 162 131 0
14.740000 31.680000 21.340000 204 163 132 0
14.960000 31.680000 21.340000 204 163 132 0
15.180000 31.680000 21.340000 205 164 133 0
15.400000 31.680000 21.340000 205 164 133 0
15.620000 31.680000 21.560000 205 164 133 0
15.840000 31.680000 21.560000 205 164 133 0
16.060000 31.680000 21.560000 203 162 131 0
16.280000 31.680000 21.560000 203 162 131 0
16.500000 31.680000 21.560000 203 162 131 0
16.720000 31.680000 21.560000 205 161 131 0
16.940000 31.680000 21.780000 205 161 131 0
17.160000 31.680000 23.100000 202 161 130 0
17.380000 31.680000 23.100000 201 160 129 0
17.600000 31.680000 23.100000 203 159 129 0
17.820000 31.680000 24.640000 203 159 129 0
18.040000 31.680000 24.640000 203 159 129 0
18.260000 31.680000 24.640000 204 160 130 0
18.480000 31.680000 24.640000 204 160 130 0
18.700000 31.680000 24.640000 205 161 131 0
18.920000 31.680000 24.860000 202 160 131 0
19.140000 31.680000 26.180000 204 162 133 0
19.360000 31.680000 26.180000 207 163 133 0
19.580000 31.680000 26.180000 209 165 135 0
19.800000 31.680000 27.280000 212 166 137 0
20.020000 31.680000 29.480000 217 171 142 0
20.240000 31.680000 30.580000 221 177 147 0
20.460000 31.680000 30.580000 225 181 151 0
20.680000 31.680000 30.800000 228 183 155 0
20.900000 31.680000 32.120000 231 186 158 0
21.120000 31.680000 32.340000 233 188 160 0
21.340000 31.680000 32.340000 235 190 162 0
21.560000 31.680000 33.880000 235 190 162 0
21.780000 31.680000 34.100000 237 192 164 0
22.000000 31.680000 34.320000 237 192 166 0
22.220000 31.680000 33.000000 238 193 167 0
22.440000 31.680000 34.540000 238 193 165 0
22.660000 31.680000 34.320000 238 193 165 0
22.880000 31.680000 35.420000 237 195 166 0
23.100000 31.680000 37.620000 239 197 168 0
23.320000 31.680000 40.260000 236 197 177 0
23.540000 31.680000 40.260000 237 198 178 0
23.760000 31.680000 40.260000 238 193 169 0
23.980000 31.680000 41.800000 232 187 163 0
24.200000 31.680000 38.940000 226 180 152 0
24.420000 31.680000 36.300000 219 173 145 0
24.640000 31.680000 39.160000 216 169 144 0
24.860000 31.680000 41.800000 214 167 142 0
25.080000 31.680000 39.160000 215 168 145 0
25.300000 31.680000 28.160000 216 169 146 0
25.520000 31.680000 23.980000 217 170 145 0
25.740000 31.680000 33.660000 217 170 145 0
25.960000 31.680000 31.020000 216 170 142 0
26.180000 31.680000 10.340000 217 171 143 0
26.400000 31.680000 1.980000 217 170 145 0
26.620000 31.680000 11.660000 217 170 145 0
26.840000 31.680000 28.380000 218 171 148 0
27.060000 31.680000 38.060000 217 170 147 0
27.280000 31.680000 38.060000 218 171 146 0
27.500000 31.680000 25.740000 218 171 146 0
27.720000 31.680000 6.380000 218 171 148 0
28.160000 31.680000 9.240000 217 170 147 0
28.380000 31.680000 30.140000 218 171 148 0
28.600000 31.680000 39.820000 217 172 148 0
28.820000 31.680000 39.820000 217 172 148 0
29.040000 31.680000 39.820000 218 171 146 0
29.260000 31.680000 38.500000 219 172 147 0
29.480000 31.680000 38.500000 218 171 148 0
29.700000 31.680000 40.040000 217 170 147 0
29.920000 31.680000 41.140000 217 170 147 0
30.140000 31.680000 41.800000 215 168 145 0
30.360000 31.680000 31.900000 216 170 149 0
30.580000 31.680000 11.220000 214 168 147 0
30.800000 31.680000 1.540000 212 164 149 0
31.020000 31.680000 4.400000 201 153 138 0
31.240000 31.680000 5.940000 194 145 133 0
31.460000 31.680000 14.300000 192 143 131 0
31.680000 31.680000 29.480000 195 149 129 0
31.900000 31.680000 36.520000 207 161 141 0
32.120000 31.680000 38.060000 214 168 147 0
32.340000 31.680000 40.920000 218 172 151 0
32.560000 31.680000 39.600000 219 173 153 0
32.780000 31.680000 39.600000 221 175 155 0
33.000000 31.680000 29.920000 222 177 153 0
33.220000 31.680000 9.240000 223 178 154 0
33.440000 31.680000 9.240000 222 179 157 0
33.660000 31.680000 30.140000 223 180 158 0
33.880000 31.680000 39.820000 226 180 159 0
34.100000 31.680000 38.500000 226 180 159 0
34.320000 31.680000 38.280000 227 181 160 0
34.540000 31.680000 39.160000 227 181 160 0
34.760000 31.680000 40.260000 226 183 161 0
34.980000 31.680000 40.260000 227 184 162 0
35.200000 31.680000 40.260000 225 182 161 0
35.420000 31.680000 40.260000 223 180 159 0
35.640000 31.680000 40.480000 217 170 155 0
35.860000 31.680000 39.160000 206 159 144 0
36.080000 31.680000 33.660000 192 147 136 0
36.300000 31.680000 25.300000 180 135 124 0
36.520000 31.680000 12.980000 168 126 123 0
36.740000 31.680000 3.300000 165 123 120 0
36.960000 31.680000 1.980000 169 130 120 0
37.180000 31.680000 1.980000 182 143 133 0
0.000000 31.900000 10.780000 196 199 177 0
0.220000 31.900000 10.780000 196 199 177 0
0.440000 31.900000 10.780000 196 199 177 0
0.660000 31.900000 11.000000 195 198 176 0
0.880000 31.900000 11.000000 196 197 176 0
1.100000 31.900000 11.000000 197 198 177 0
1.320000 31.900000 10.780000 203 185 156 0
1.540000 31.900000 12.760000 194 176 147 0
1.760000 31.900000 13.860000 200 164 127 0
1.980000 31.900000 13.860000 194 158 121 0
2.200000 31.900000 13.860000 195 156 120 0
2.420000 31.900000 15.400000 195 156 120 0
2.640000 31.900000 15.400000 196 157 121 0
2.860000 31.900000 15.400000 196 157 121 0
3.080000 31.900000 15.400000 196 157 121 0
3.300000 31.900000 15.400000 196 157 121 0
3.520000 31.900000 15.620000 197 158 122 0
3.740000 31.900000 15.620000 196 157 121 0
3.960000 31.900000 15.620000 196 157 121 0
4.180000 31.900000 15.620000 197 158 122 0
4.400000 31.900000 15.620000 196 157 121 0
4.620000 31.900000 15.620000 197 158 122 0
4.840000 31.900000 15.620000 198 157 122 0
5.060000 31.900000 15.620000 198 157 122 0
5.280000 31.900000 15.840000 197 158 122 0
5.500000 31.900000 15.840000 197 158 122 0
5.720000 31.900000 15.840000 196 157 121 0
5.940000 31.900000 15.840000 197 158 122 0
6.160000 31.900000 15.840000 197 158 122 0
6.380000 31.900000 15.840000 197 158 122 0
6.600000 31.900000 16.060000 197 156 121 0
6.820000 31.900000 16.060000 195 154 119 0
7.040000 31.900000 16.060000 195 154 119 0
7.260000 31.900000 17.380000 196 155 120 0
7.480000 31.900000 17.380000 195 154 119 0
7.700000 31.900000 17.600000 196 155 120 0
7.920000 31.900000 17.600000 196 155 120 0
8.140000 31.900000 17.600000 195 154 119 0
8.360000 31.900000 17.600000 196 155 122 0
8.580000 31.900000 17.600000 195 154 121 0
8.800000 31.900000 17.600000 197 156 121 0
9.020000 31.900000 17.600000 196 155 120 0
9.240000 31.900000 17.820000 197 156 121 0
9.460000 31.900000 17.820000 198 157 122 0
9.680000 31.900000 17.820000 198 157 124 0
9.900000 31.900000 17.820000 199 158 125 0
10.120000 31.900000 17.820000 199 155 123 0
10.340000 31.900000 17.820000 198 154 122 0
10.560000 31.900000 17.820000 199 155 123 0
10.780000 31.900000 18.920000 198 154 122 0
11.000000 31.900000 21.120000 196 155 122 0
11.220000 31.900000 20.900000 197 156 123 0
11.440000 31.900000 20.900000 200 156 124 0
11.660000 31.900000 20.900000 200 156 124 0
11.880000 31.900000 20.900000 201 157 125 0
12.100000 31.900000 20.900000 201 157 125 0
12.320000 31.900000 20.900000 201 157 125 0
12.540000 31.900000 20.900000 201 157 125 0
12.760000 31.900000 21.120000 200 159 126 0
12.980000 31.900000 21.120000 200 159 126 0
13.200000 31.900000 21.120000 202 158 126 0
13.420000 31.900000 21.120000 201 157 125 0
13.640000 31.900000 21.120000 202 158 128 0
13.860000 31.900000 21.120000 201 157 127 0
14.080000 31.900000 22.660000 201 157 125 0
14.300000 31.900000 22.660000 203 159 127 0
14.520000 31.900000 21.340000 202 161 130 0
14.740000 31.900000 21.340000 203 162 131 0
14.960000 31.900000 21.340000 206 162 132 0
15.180000 31.900000 21.340000 206 162 132 0
15.400000 31.900000 21.340000 206 162 132 0
15.620000 31.900000 21.560000 206 162 132 0
15.840000 31.900000 21.560000 206 162 132 0
16.060000 31.900000 21.560000 206 162 132 0
16.280000 31.900000 21.560000 204 162 133 0
16.500000 31.900000 21.560000 204 162 133 0
16.720000 31.900000 21.560000 206 162 132 0
16.940000 31.900000 21.780000 205 161 131 0
17.160000 31.900000 23.100000 205 161 131 0
17.380000 31.900000 23.100000 204 160 130 0
17.600000 31.900000 23.100000 204 160 130 0
17.820000 31.900000 24.640000 205 161 131 0
18.040000 31.900000 24.640000 204 159 131 0
18.260000 31.900000 24.640000 204 159 131 0
18.480000 31.900000 24.640000 203 158 130 0
18.700000 31.900000 24.640000 204 159 131 0
18.920000 31.900000 24.860000 204 159 131 0
19.140000 31.900000 26.180000 206 161 133 0
19.360000 31.900000 26.180000 208 164 134 0
19.580000 31.900000 26.180000 210 166 136 0
19.800000 31.900000 27.280000 215 171 141 0
20.020000 31.900000 29.480000 220 176 146 0
20.240000 31.900000 30.580000 226 181 153 0
20.460000 31.900000 30.580000 228 183 155 0
20.680000 31.900000 30.800000 229 184 156 0
20.900000 31.900000 32.120000 231 186 158 0
21.120000 31.900000 32.340000 233 188 160 0
21.340000 31.900000 32.560000 234 189 161 0
21.560000 31.900000 33.880000 236 190 161 0
21.780000 31.900000 34.100000 237 191 162 0
22.000000 31.900000 34.320000 236 191 163 0
22.220000 31.900000 33.000000 237 192 164 0
22.440000 31.900000 34.540000 238 193 165 0
22.660000 31.900000 34.320000 238 193 165 0
22.880000 31.900000 36.520000 237 195 168 0
23.100000 31.900000 38.940000 239 197 170 0
23.320000 31.900000 40.260000 235 200 176 0
23.540000 31.900000 40.260000 236 201 177 0
23.760000 31.900000 41.580000 239 198 173 0
23.980000 31.900000 41.800000 234 193 168 0
24.200000 31.900000 41.800000 229 187 160 0
24.420000 31.900000 41.800000 224 182 155 0
24.640000 31.900000 41.800000 221 172 150 0
24.860000 31.900000 41.800000 218 169 147 0
25.080000 31.900000 41.800000 215 168 145 0
25.300000 31.900000 36.300000 215 168 145 0
25.520000 31.900000 30.800000 217 169 144 0
25.740000 31.900000 36.520000 217 169 144 0
25.960000 31.900000 33.660000 216 169 146 0
26.180000 31.900000 15.840000 216 169 146 0
26.400000 31.900000 1.980000 217 168 146 0
26.620000 31.900000 1.980000 218 169 147 0
26.840000 31.900000 11.660000 217 170 147 0
27.060000 31.900000 25.520000 218 171 148 0
27.280000 31.900000 29.920000 217 170 147 0
27.500000 31.900000 22.880000 217 170 147 0
27.720000 31.900000 6.380000 216 169 146 0
28.160000 31.900000 9.240000 216 169 146 0
28.380000 31.900000 30.140000 217 170 147 0
28.600000 31.900000 39.820000 217 170 147 0
28.820000 31.900000 39.820000 216 169 146 0
29.040000 31.900000 39.820000 216 169 146 0
29.260000 31.900000 38.500000 217 170 147 0
29.480000 31.900000 38.500000 217 170 147 0
29.700000 31.900000 40.040000 217 170 147 0
29.920000 31.900000 41.140000 215 169 148 0
30.140000 31.900000 41.800000 215 169 148 0
30.360000 31.900000 34.760000 215 168 147 0
30.580000 31.900000 16.720000 214 167 146 0
30.800000 31.900000 4.400000 211 161 147 0
31.020000 31.900000 8.580000 198 148 134 0
31.240000 31.900000 16.940000 193 144 132 0
31.460000 31.900000 17.160000 193 144 132 0
31.680000 31.900000 21.340000 198 152 131 0
31.900000 31.900000 28.160000 210 164 143 0
32.120000 31.900000 36.520000 214 168 147 0
32.340000 31.900000 40.920000 217 171 150 0
32.560000 31.900000 39.600000 218 172 151 0
32.780000 31.900000 39.600000 220 174 153 0
33.000000 31.900000 29.920000 220 174 153 0
33.220000 31.900000 9.240000 222 176 155 0
33.440000 31.900000 9.240000 222 176 156 0
33.660000 31.900000 30.140000 223 177 157 0
33.880000 31.900000 39.820000 225 179 158 0
34.100000 31.900000 38.500000 225 179 158 0
34.320000 31.900000 38.280000 225 179 159 0
34.540000 31.900000 39.160000 226 180 160 0
34.760000 31.900000 40.260000 226 180 160 0
34.980000 31.900000 40.260000 226 180 160 0
35.200000 31.900000 38.940000 223 180 159 0
35.420000 31.900000 36.300000 223 180 159 0
35.640000 31.900000 36.300000 224 178 158 0
35.860000 31.900000 27.940000 219 173 153 0
36.080000 31.900000 15.620000 208 165 144 0
36.300000 31.900000 8.800000 202 159 138 0
36.520000 31.900000 4.620000 196 152 134 0
36.740000 31.900000 1.980000 198 154 136 0
36.960000 31.900000 3.520000 193 150 136 0
37.180000 31.900000 3.520000 192 149 135 0
0.000000 32.120000 10.780000 195 198 176 0
0.220000 32.120000 10.780000 196 199 177 0
0.440000 32.120000 10.780000 196 199 177 0
0.660000 32.120000 11.000000 195 198 176 0
0.880000 32.120000 11.000000 196 197 176 0
1.100000 32.120000 11.000000 196 197 176 0
1.320000 32.120000 10.780000 202 184 155 0
1.540000 32.120000 12.760000 194 176 147 0
1.760000 32.120000 13.860000 200 164 127 0
1.980000 32.120000 13.860000 193 157 120 0
2.200000 32.120000 13.860000 195 156 120 0
2.420000 32.120000 15.400000 195 156 120 0
2.640000 32.120000 15.400000 196 157 121 0
2.860000 32.120000 15.400000 195 156 120 0
3.080000 32.120000 15.400000 196 157 121 0
3.300000 32.120000 15.400000 196 157 121 0
3.520000 32.120000 15.620000 196 157 121 0
3.740000 32.120000 15.620000 196 157 121 0
3.960000 32.120000 15.620000 195 156 120 0
4.180000 32.120000 15.620000 196 157 121 0
4.400000 32.120000 15.620000 196 157 121 0
4.620000 32.120000 15.620000 197 158 122 0
4.840000 32.120000 15.620000 197 156 121 0
5.060000 32.120000 15.620000 197 156 121 0
5.280000 32.120000 15.840000 197 158 122 0
5.500000 32.120000 15.840000 197 158 122 0
5.720000 32.120000 15.840000 196 157 121 0
5.940000 32.120000 15.840000 196 157 121 0
6.160000 32.120000 15.840000 196 157 121 0
6.380000 32.120000 15.840000 196 157 121 0
6.600000 32.120000 16.060000 197 156 121 0
6.820000 32.120000 16.060000 196 155 120 0
7.040000 32.120000 17.380000 195 154 119 0
7.260000 32.120000 17.380000 194 153 118 0
7.480000 32.120000 17.600000 194 153 118 0
7.700000 32.120000 17.600000 195 154 119 0
7.920000 32.120000 17.600000 196 155 120 0
8.140000 32.120000 17.600000 195 154 119 0
8.360000 32.120000 17.600000 195 154 121 0
8.580000 32.120000 17.600000 195 154 121 0
