ply
format ascii 1.0
element vertex 1105
property float x
property float y
property float z
property uchar red
property uchar green
property uchar blue
property uchar alpha
end_header
33.660000 17.160000 15.400000 198 154 150 0
33.880000 17.160000 10.560000 195 155 150 0
34.100000 17.160000 15.510000 196 156 151 0
34.320000 17.160000 16.170000 200 165 154 0
34.540000 17.160000 11.440000 207 172 161 0
34.760000 17.160000 8.690000 217 180 167 0
34.980000 17.160000 8.690000 221 184 171 0
35.200000 17.160000 10.120000 222 184 170 0
35.420000 17.160000 5.280000 222 184 170 0
36.300000 17.160000 4.070000 232 195 184 0
36.520000 17.160000 9.680000 233 196 185 0
36.740000 17.160000 4.620000 233 196 185 0
36.960000 17.160000 0.220000 234 197 186 0
37.180000 17.160000 0.770000 234 197 186 0
0.000000 17.380000 4.620000 196 202 187 0
0.220000 17.380000 4.730000 196 202 187 0
0.440000 17.380000 5.390000 197 203 188 0
0.660000 17.380000 5.390000 197 203 188 0
0.880000 17.380000 4.730000 201 193 169 0
1.100000 17.380000 4.730000 190 182 158 0
1.320000 17.380000 4.730000 200 166 134 0
1.540000 17.380000 5.500000 187 153 121 0
1.760000 17.380000 6.050000 187 153 121 0
1.980000 17.380000 7.040000 192 158 126 0
2.200000 17.380000 7.590000 195 159 128 0
2.420000 17.380000 7.590000 194 158 127 0
2.640000 17.380000 7.700000 195 160 127 0
2.860000 17.380000 7.700000 195 160 127 0
3.080000 17.380000 7.700000 195 159 128 0
3.300000 17.380000 7.700000 196 160 129 0
3.520000 17.380000 8.360000 196 161 128 0
3.740000 17.380000 8.470000 196 161 128 0
3.960000 17.380000 8.470000 195 159 128 0
4.180000 17.380000 8.470000 195 159 128 0
4.400000 17.380000 7.810000 196 159 127 0
4.620000 17.380000 7.810000 196 159 127 0
4.840000 17.380000 7.810000 195 160 127 0
5.060000 17.380000 7.810000 195 160 127 0
5.280000 17.380000 7.810000 194 158 127 0
5.500000 17.380000 8.580000 194 158 127 0
5.720000 17.380000 8.580000 196 159 127 0
5.940000 17.380000 8.580000 195 158 126 0
6.160000 17.380000 8.580000 194 157 125 0
6.380000 17.380000 8.580000 194 157 125 0
6.600000 17.380000 8.580000 194 157 125 0
6.820000 17.380000 8.690000 195 158 126 0
7.040000 17.380000 8.690000 196 159 127 0
7.260000 17.380000 8.690000 196 159 127 0
7.480000 17.380000 8.690000 196 159 127 0
7.700000 17.380000 8.690000 196 159 127 0
7.920000 17.380000 8.690000 196 159 127 0
8.140000 17.380000 8.800000 197 160 128 0
8.360000 17.380000 8.800000 196 159 127 0
8.580000 17.380000 8.800000 196 159 127 0
8.800000 17.380000 8.800000 197 160 129 0
9.020000 17.380000 8.800000 197 160 129 0
9.240000 17.380000 8.800000 197 160 129 0
9.460000 17.380000 8.800000 197 160 129 0
9.680000 17.380000 8.910000 199 159 129 0
9.900000 17.380000 8.910000 199 159 129 0
10.120000 17.380000 8.910000 199 159 129 0
10.340000 17.380000 8.910000 199 159 129 0
10.560000 17.380000 8.910000 199 159 129 0
10.780000 17.380000 8.910000 198 158 128 0
11.000000 17.380000 8.910000 198 158 128 0
11.220000 17.380000 9.460000 198 158 128 0
11.440000 17.380000 10.560000 198 158 128 0
11.660000 17.380000 10.450000 198 158 128 0
11.880000 17.380000 10.450000 199 159 129 0
12.100000 17.380000 10.450000 200 160 130 0
12.320000 17.380000 10.450000 200 160 130 0
12.540000 17.380000 10.450000 199 159 129 0
12.760000 17.380000 10.450000 200 160 130 0
12.980000 17.380000 10.450000 200 160 130 0
13.200000 17.380000 10.560000 200 160 130 0
13.420000 17.380000 10.560000 199 159 129 0
13.640000 17.380000 10.560000 201 161 133 0
13.860000 17.380000 10.560000 201 161 133 0
14.080000 17.380000 10.560000 200 160 132 0
14.300000 17.380000 10.560000 200 160 132 0
14.520000 17.380000 10.560000 200 160 132 0
14.740000 17.380000 10.670000 201 161 133 0
14.960000 17.380000 10.670000 201 161 133 0
15.180000 17.380000 10.670000 200 160 132 0
15.400000 17.380000 10.670000 202 162 134 0
15.620000 17.380000 10.670000 202 162 134 0
15.840000 17.380000 10.670000 203 163 135 0
16.060000 17.380000 10.780000 203 163 135 0
16.280000 17.380000 10.780000 204 163 138 0
16.500000 17.380000 10.780000 205 164 139 0
16.720000 17.380000 10.780000 205 165 137 0
16.940000 17.380000 10.780000 205 165 137 0
17.160000 17.380000 11.550000 204 163 138 0
17.380000 17.380000 11.550000 203 162 137 0
17.600000 17.380000 11.550000 204 163 138 0
17.820000 17.380000 12.210000 204 163 138 0
18.040000 17.380000 12.210000 205 164 139 0
18.260000 17.380000 11.550000 206 165 140 0
18.480000 17.380000 11.660000 207 167 139 0
18.700000 17.380000 11.660000 208 168 140 0
18.920000 17.380000 12.320000 208 165 141 0
19.140000 17.380000 12.320000 209 166 142 0
19.360000 17.380000 12.430000 209 166 142 0
19.580000 17.380000 12.430000 212 169 145 0
19.800000 17.380000 13.640000 215 174 149 0
20.020000 17.380000 13.970000 219 178 153 0
20.240000 17.380000 14.520000 220 182 158 0
20.460000 17.380000 14.630000 223 185 161 0
20.680000 17.380000 14.630000 225 186 164 0
20.900000 17.380000 14.630000 226 187 165 0
21.120000 17.380000 14.740000 226 187 165 0
21.340000 17.380000 14.740000 227 188 166 0
21.560000 17.380000 14.740000 227 189 165 0
21.780000 17.380000 14.850000 227 189 165 0
22.000000 17.380000 14.850000 225 188 165 0
22.220000 17.380000 15.620000 226 189 166 0
22.440000 17.380000 15.620000 228 194 177 0
22.660000 17.380000 16.390000 230 196 179 0
22.880000 17.380000 17.160000 232 201 191 0
23.100000 17.380000 18.590000 234 203 193 0
23.320000 17.380000 18.590000 238 205 191 0
23.540000 17.380000 13.750000 238 205 191 0
23.760000 17.380000 4.070000 237 201 182 0
24.200000 17.380000 5.720000 224 178 158 0
24.420000 17.380000 15.950000 213 167 147 0
24.640000 17.380000 20.790000 210 164 144 0
24.860000 17.380000 15.290000 206 160 140 0
25.080000 17.380000 5.720000 204 156 137 0
25.300000 17.380000 0.880000 198 150 131 0
25.520000 17.380000 0.220000 193 144 125 0
25.740000 17.380000 0.220000 189 140 121 0
25.960000 17.380000 0.220000 188 139 120 0
26.180000 17.380000 0.880000 190 141 122 0
26.400000 17.380000 6.270000 192 144 125 0
26.620000 17.380000 15.950000 198 150 131 0
26.840000 17.380000 20.790000 199 153 135 0
27.060000 17.380000 20.790000 200 154 136 0
27.280000 17.380000 20.900000 204 156 137 0
27.500000 17.380000 20.130000 204 156 137 0
27.720000 17.380000 18.810000 203 160 139 0
27.940000 17.380000 18.150000 204 161 140 0
28.160000 17.380000 18.150000 207 163 145 0
28.380000 17.380000 18.150000 208 164 146 0
28.600000 17.380000 18.150000 210 168 149 0
28.820000 17.380000 18.260000 211 169 150 0
29.040000 17.380000 18.920000 211 169 150 0
29.260000 17.380000 18.920000 212 170 151 0
29.480000 17.380000 18.920000 211 169 150 0
29.700000 17.380000 19.030000 211 169 150 0
29.920000 17.380000 19.690000 211 169 150 0
30.140000 17.380000 19.690000 211 169 150 0
30.360000 17.380000 19.800000 216 176 161 0
30.580000 17.380000 16.280000 218 178 163 0
30.800000 17.380000 12.210000 220 181 163 0
31.020000 17.380000 16.390000 223 184 166 0
31.240000 17.380000 19.800000 222 182 167 0
31.460000 17.380000 19.910000 220 180 165 0
31.680000 17.380000 19.910000 219 179 164 0
31.900000 17.380000 19.910000 220 180 165 0
32.120000 17.380000 19.910000 219 179 164 0
32.340000 17.380000 20.020000 219 179 164 0
32.560000 17.380000 16.390000 218 178 163 0
32.780000 17.380000 7.810000 216 176 161 0
33.000000 17.380000 1.430000 215 172 158 0
33.220000 17.380000 5.610000 207 164 150 0
33.440000 17.380000 16.060000 201 161 146 0
33.660000 17.380000 15.400000 200 160 145 0
33.880000 17.380000 9.240000 203 165 151 0
34.100000 17.380000 12.760000 206 168 154 0
34.320000 17.380000 14.080000 212 174 158 0
34.540000 17.380000 6.600000 221 183 167 0
34.760000 17.380000 2.420000 224 186 172 0
34.980000 17.380000 5.940000 223 185 171 0
35.200000 17.380000 10.120000 223 184 172 0
35.420000 17.380000 4.620000 223 184 172 0
36.300000 17.380000 4.070000 233 196 183 0
36.520000 17.380000 9.680000 235 196 184 0
36.740000 17.380000 4.620000 235 196 184 0
36.960000 17.380000 0.220000 235 196 186 0
37.180000 17.380000 0.660000 236 197 187 0
0.000000 17.600000 5.390000 196 202 187 0
0.220000 17.600000 5.390000 196 202 187 0
0.440000 17.600000 5.390000 197 203 188 0
0.660000 17.600000 5.390000 198 204 189 0
0.880000 17.600000 4.730000 201 193 169 0
1.100000 17.600000 4.730000 193 185 161 0
1.320000 17.600000 4.730000 201 167 135 0
1.540000 17.600000 5.500000 191 157 125 0
1.760000 17.600000 6.050000 190 156 124 0
1.980000 17.600000 7.040000 192 158 126 0
2.200000 17.600000 7.590000 194 158 127 0
2.420000 17.600000 7.590000 195 159 128 0
2.640000 17.600000 7.700000 195 160 127 0
2.860000 17.600000 7.700000 195 160 127 0
3.080000 17.600000 7.700000 195 159 128 0
3.300000 17.600000 7.700000 195 159 128 0
3.520000 17.600000 8.360000 197 162 129 0
3.740000 17.600000 8.470000 196 161 128 0
3.960000 17.600000 8.470000 195 159 128 0
4.180000 17.600000 8.470000 195 159 128 0
4.400000 17.600000 7.810000 196 159 127 0
4.620000 17.600000 7.810000 196 159 127 0
4.840000 17.600000 7.810000 196 161 128 0
5.060000 17.600000 7.810000 195 160 127 0
5.280000 17.600000 7.810000 194 158 127 0
5.500000 17.600000 8.580000 195 159 128 0
5.720000 17.600000 8.580000 195 158 126 0
5.940000 17.600000 8.580000 195 158 126 0
6.160000 17.600000 8.580000 195 158 126 0
6.380000 17.600000 8.580000 194 157 125 0
6.600000 17.600000 8.580000 194 157 125 0
6.820000 17.600000 8.690000 195 158 126 0
7.040000 17.600000 8.690000 195 158 126 0
7.260000 17.600000 8.690000 196 159 127 0
7.480000 17.600000 8.690000 197 160 128 0
7.700000 17.600000 8.690000 197 160 128 0
7.920000 17.600000 8.690000 196 159 127 0
8.140000 17.600000 8.800000 197 160 128 0
8.360000 17.600000 9.460000 196 159 127 0
8.580000 17.600000 8.800000 196 159 127 0
8.800000 17.600000 8.800000 196 159 128 0
9.020000 17.600000 8.800000 196 159 128 0
9.240000 17.600000 8.800000 196 159 128 0
9.460000 17.600000 8.800000 196 159 128 0
9.680000 17.600000 8.910000 198 158 128 0
9.900000 17.600000 8.910000 198 158 128 0
10.120000 17.600000 8.910000 199 159 129 0
10.340000 17.600000 8.910000 199 159 129 0
10.560000 17.600000 8.910000 199 159 129 0
10.780000 17.600000 8.910000 198 158 128 0
11.000000 17.600000 8.910000 199 159 129 0
11.220000 17.600000 9.460000 200 160 130 0
11.440000 17.600000 10.560000 199 159 129 0
11.660000 17.600000 10.450000 199 159 129 0
11.880000 17.600000 10.450000 200 160 130 0
12.100000 17.600000 10.450000 200 160 130 0
12.320000 17.600000 10.450000 200 160 130 0
12.540000 17.600000 10.450000 200 160 130 0
12.760000 17.600000 10.450000 200 160 130 0
12.980000 17.600000 10.450000 200 160 130 0
13.200000 17.600000 10.560000 200 160 130 0
13.420000 17.600000 10.560000 200 160 130 0
13.640000 17.600000 10.560000 199 159 131 0
13.860000 17.600000 10.560000 199 159 131 0
14.080000 17.600000 10.560000 200 160 132 0
14.300000 17.600000 10.560000 198 158 130 0
14.520000 17.600000 10.560000 200 160 132 0
14.740000 17.600000 10.670000 201 161 133 0
14.960000 17.600000 10.670000 200 160 132 0
15.180000 17.600000 10.010000 200 160 132 0
15.400000 17.600000 10.010000 201 161 133 0
15.620000 17.600000 10.010000 202 162 134 0
15.840000 17.600000 10.010000 203 163 135 0
16.060000 17.600000 10.780000 204 164 136 0
16.280000 17.600000 10.780000 204 163 138 0
16.500000 17.600000 10.780000 205 164 139 0
16.720000 17.600000 10.780000 205 165 137 0
16.940000 17.600000 10.780000 205 165 137 0
17.160000 17.600000 10.780000 204 163 138 0
17.380000 17.600000 11.550000 202 161 136 0
17.600000 17.600000 11.550000 200 159 134 0
17.820000 17.600000 12.210000 198 157 132 0
18.040000 17.600000 11.550000 200 159 134 0
18.260000 17.600000 11.550000 205 164 139 0
18.480000 17.600000 11.660000 206 166 138 0
18.700000 17.600000 11.660000 206 166 138 0
18.920000 17.600000 12.320000 207 164 140 0
19.140000 17.600000 12.320000 208 165 141 0
19.360000 17.600000 12.430000 209 166 142 0
19.580000 17.600000 12.430000 212 169 145 0
19.800000 17.600000 13.640000 215 174 149 0
20.020000 17.600000 13.970000 220 179 154 0
20.240000 17.600000 14.520000 220 182 158 0
20.460000 17.600000 14.630000 223 185 161 0
20.680000 17.600000 14.630000 225 186 164 0
20.900000 17.600000 14.630000 227 188 166 0
21.120000 17.600000 14.630000 227 188 166 0
21.340000 17.600000 14.740000 227 188 166 0
21.560000 17.600000 14.740000 227 189 165 0
21.780000 17.600000 14.850000 228 190 166 0
22.000000 17.600000 14.850000 225 188 165 0
22.220000 17.600000 15.620000 225 188 165 0
22.440000 17.600000 15.620000 227 193 176 0
22.660000 17.600000 16.390000 231 197 180 0
22.880000 17.600000 17.050000 232 201 191 0
23.100000 17.600000 18.480000 236 205 195 0
23.320000 17.600000 18.590000 240 207 193 0
23.540000 17.600000 13.750000 240 207 193 0
23.760000 17.600000 4.070000 237 201 182 0
24.200000 17.600000 5.720000 228 182 162 0
24.420000 17.600000 15.950000 213 167 147 0
24.640000 17.600000 20.790000 207 161 141 0
24.860000 17.600000 15.290000 204 158 138 0
25.080000 17.600000 5.720000 201 153 134 0
25.300000 17.600000 0.880000 196 148 129 0
25.520000 17.600000 0.220000 194 145 126 0
25.740000 17.600000 0.220000 190 141 122 0
25.960000 17.600000 0.220000 188 139 120 0
26.180000 17.600000 0.880000 189 140 121 0
26.400000 17.600000 5.610000 194 146 127 0
26.620000 17.600000 15.950000 198 150 131 0
26.840000 17.600000 20.790000 199 153 135 0
27.060000 17.600000 20.790000 201 155 137 0
27.280000 17.600000 20.900000 203 155 136 0
27.500000 17.600000 20.130000 205 157 138 0
27.720000 17.600000 18.810000 204 161 140 0
27.940000 17.600000 18.150000 206 163 142 0
28.160000 17.600000 18.150000 208 164 146 0
28.380000 17.600000 18.150000 210 166 148 0
28.600000 17.600000 18.150000 211 169 150 0
28.820000 17.600000 18.920000 212 170 151 0
29.040000 17.600000 18.920000 212 170 151 0
29.260000 17.600000 18.920000 213 171 152 0
29.480000 17.600000 18.920000 212 170 151 0
29.700000 17.600000 19.690000 212 170 151 0
29.920000 17.600000 19.690000 213 171 152 0
30.140000 17.600000 19.690000 213 171 152 0
30.360000 17.600000 20.460000 215 175 160 0
30.580000 17.600000 14.960000 218 178 163 0
30.800000 17.600000 10.120000 219 180 162 0
31.020000 17.600000 14.960000 220 181 163 0
31.240000 17.600000 19.800000 220 180 165 0
31.460000 17.600000 19.910000 220 180 165 0
31.680000 17.600000 19.910000 219 179 164 0
31.900000 17.600000 19.910000 219 179 164 0
32.120000 17.600000 19.910000 218 178 163 0
32.340000 17.600000 20.020000 218 178 163 0
32.560000 17.600000 14.960000 217 177 162 0
32.780000 17.600000 5.060000 215 175 160 0
33.220000 17.600000 4.180000 215 172 158 0
33.440000 17.600000 11.880000 215 175 160 0
33.660000 17.600000 11.990000 216 176 161 0
33.880000 17.600000 5.060000 216 178 164 0
34.100000 17.600000 7.920000 220 182 168 0
34.320000 17.600000 11.330000 224 186 170 0
34.540000 17.600000 5.170000 225 187 171 0
34.980000 17.600000 4.510000 225 187 173 0
35.200000 17.600000 10.120000 223 184 172 0
35.420000 17.600000 4.620000 223 184 172 0
36.300000 17.600000 4.070000 234 197 184 0
36.520000 17.600000 9.680000 236 197 185 0
36.740000 17.600000 4.730000 236 197 185 0
36.960000 17.600000 0.220000 236 197 187 0
37.180000 17.600000 0.770000 236 197 187 0
0.000000 17.820000 5.390000 195 201 186 0
0.220000 17.820000 5.390000 196 202 187 0
0.440000 17.820000 5.390000 199 202 188 0
0.660000 17.820000 5.390000 200 203 189 0
0.880000 17.820000 5.390000 203 192 169 0
1.100000 17.820000 4.730000 194 183 160 0
1.320000 17.820000 4.730000 201 167 137 0
1.540000 17.820000 5.500000 191 157 127 0
1.760000 17.820000 6.050000 188 154 122 0
1.980000 17.820000 7.040000 193 159 127 0
2.200000 17.820000 7.590000 196 160 129 0
2.420000 17.820000 7.590000 195 159 128 0
2.640000 17.820000 7.700000 197 160 129 0
2.860000 17.820000 7.700000 195 158 127 0
3.080000 17.820000 7.700000 196 160 129 0
3.300000 17.820000 7.700000 196 160 129 0
3.520000 17.820000 8.360000 195 160 127 0
3.740000 17.820000 8.470000 195 160 127 0
3.960000 17.820000 8.470000 196 159 128 0
4.180000 17.820000 8.470000 197 160 129 0
4.400000 17.820000 7.810000 196 159 128 0
4.620000 17.820000 7.810000 196 159 128 0
4.840000 17.820000 7.810000 194 158 127 0
5.060000 17.820000 7.810000 195 159 128 0
5.280000 17.820000 7.810000 196 159 128 0
5.500000 17.820000 8.580000 195 158 127 0
5.720000 17.820000 8.580000 196 159 128 0
5.940000 17.820000 8.580000 195 158 127 0
6.160000 17.820000 8.580000 195 158 127 0
6.380000 17.820000 8.580000 194 157 126 0
6.600000 17.820000 8.580000 194 157 126 0
6.820000 17.820000 8.690000 195 158 127 0
7.040000 17.820000 8.690000 195 158 127 0
7.260000 17.820000 8.690000 196 159 128 0
7.480000 17.820000 8.690000 197 160 129 0
7.700000 17.820000 8.690000 196 159 128 0
7.920000 17.820000 8.690000 198 158 128 0
8.140000 17.820000 8.800000 197 157 127 0
8.360000 17.820000 9.460000 198 158 128 0
8.580000 17.820000 9.460000 198 158 128 0
8.800000 17.820000 8.800000 198 158 128 0
9.020000 17.820000 8.800000 198 158 128 0
9.240000 17.820000 8.800000 199 159 129 0
9.460000 17.820000 8.800000 198 158 128 0
9.680000 17.820000 8.910000 200 160 130 0
9.900000 17.820000 8.910000 198 158 128 0
10.120000 17.820000 8.910000 200 160 130 0
10.340000 17.820000 8.910000 199 159 129 0
10.560000 17.820000 8.910000 200 160 130 0
10.780000 17.820000 8.910000 199 159 129 0
11.000000 17.820000 8.910000 199 159 131 0
11.220000 17.820000 9.460000 199 159 131 0
11.440000 17.820000 9.900000 199 159 129 0
11.660000 17.820000 10.450000 200 160 130 0
11.880000 17.820000 10.450000 200 160 130 0
12.100000 17.820000 10.450000 200 160 130 0
12.320000 17.820000 10.450000 200 160 130 0
12.540000 17.820000 10.450000 200 160 130 0
12.760000 17.820000 10.450000 200 160 132 0
12.980000 17.820000 10.450000 200 160 132 0
13.200000 17.820000 10.560000 200 160 130 0
13.420000 17.820000 10.560000 199 159 129 0
13.640000 17.820000 10.560000 198 156 129 0
13.860000 17.820000 10.560000 199 157 130 0
14.080000 17.820000 10.560000 199 157 130 0
14.300000 17.820000 10.560000 200 158 131 0
14.520000 17.820000 10.560000 200 159 134 0
14.740000 17.820000 10.670000 199 158 133 0
14.960000 17.820000 10.670000 201 159 132 0
15.180000 17.820000 10.010000 202 160 133 0
15.400000 17.820000 10.010000 202 162 134 0
15.620000 17.820000 10.010000 202 162 134 0
15.840000 17.820000 10.010000 203 163 135 0
16.060000 17.820000 10.780000 203 163 135 0
16.280000 17.820000 10.780000 204 163 138 0
16.500000 17.820000 10.780000 204 163 138 0
16.720000 17.820000 10.780000 206 165 140 0
16.940000 17.820000 10.780000 204 163 138 0
17.160000 17.820000 10.780000 207 158 138 0
17.380000 17.820000 10.890000 201 152 132 0
17.600000 17.820000 11.550000 195 148 127 0
17.820000 17.820000 11.550000 195 148 127 0
18.040000 17.820000 11.550000 196 155 130 0
18.260000 17.820000 11.550000 202 161 136 0
18.480000 17.820000 11.660000 205 164 139 0
18.700000 17.820000 11.660000 206 165 140 0
18.920000 17.820000 12.320000 206 165 140 0
19.140000 17.820000 12.320000 207 166 141 0
19.360000 17.820000 12.430000 209 168 143 0
19.580000 17.820000 13.090000 211 170 145 0
19.800000 17.820000 13.640000 215 174 151 0
20.020000 17.820000 13.970000 219 178 155 0
20.240000 17.820000 14.520000 221 182 160 0
20.460000 17.820000 14.630000 223 184 162 0
20.680000 17.820000 14.630000 225 186 164 0
20.900000 17.820000 14.630000 225 186 164 0
21.120000 17.820000 14.630000 226 187 165 0
21.340000 17.820000 14.740000 225 186 164 0
21.560000 17.820000 14.740000 228 187 164 0
21.780000 17.820000 14.850000 227 186 163 0
22.000000 17.820000 14.850000 225 186 164 0
22.220000 17.820000 15.620000 228 189 167 0
22.440000 17.820000 15.620000 226 192 177 0
22.660000 17.820000 16.390000 231 197 182 0
22.880000 17.820000 17.050000 231 201 186 0
23.100000 17.820000 17.820000 236 206 191 0
23.320000 17.820000 18.590000 238 208 195 0
23.540000 17.820000 15.180000 237 207 194 0
23.760000 17.820000 6.930000 239 203 184 0
23.980000 17.820000 1.210000 235 199 180 0
24.200000 17.820000 5.720000 225 181 163 0
24.420000 17.820000 15.950000 209 165 147 0
24.640000 17.820000 20.790000 207 161 143 0
24.860000 17.820000 15.290000 203 157 139 0
25.080000 17.820000 5.720000 203 154 135 0
25.300000 17.820000 0.880000 196 147 128 0
25.520000 17.820000 0.220000 195 145 129 0
25.740000 17.820000 0.220000 189 139 123 0
25.960000 17.820000 0.220000 188 140 121 0
26.180000 17.820000 0.770000 190 142 123 0
26.400000 17.820000 5.610000 194 146 127 0
26.620000 17.820000 15.950000 196 148 129 0
26.840000 17.820000 20.790000 199 151 132 0
27.060000 17.820000 20.790000 202 154 135 0
27.280000 17.820000 20.900000 203 156 135 0
27.500000 17.820000 20.130000 205 158 137 0
27.720000 17.820000 18.810000 207 161 141 0
27.940000 17.820000 18.150000 209 163 143 0
28.160000 17.820000 18.150000 208 164 146 0
28.380000 17.820000 18.150000 211 167 149 0
28.600000 17.820000 18.920000 213 169 151 0
28.820000 17.820000 18.920000 213 169 151 0
29.040000 17.820000 18.920000 214 172 153 0
29.260000 17.820000 19.690000 214 172 153 0
29.480000 17.820000 19.690000 214 170 152 0
29.700000 17.820000 19.690000 214 170 152 0
29.920000 17.820000 19.690000 213 171 154 0
30.140000 17.820000 19.690000 214 172 155 0
30.360000 17.820000 20.460000 214 172 155 0
30.580000 17.820000 14.960000 218 176 159 0
30.800000 17.820000 10.120000 220 178 161 0
31.020000 17.820000 14.960000 222 180 163 0
31.240000 17.820000 19.800000 220 181 163 0
31.460000 17.820000 19.910000 219 180 162 0
31.680000 17.820000 19.910000 217 178 160 0
31.900000 17.820000 19.910000 216 177 159 0
32.120000 17.820000 19.910000 220 176 160 0
32.340000 17.820000 20.020000 218 174 158 0
32.560000 17.820000 14.960000 216 174 157 0
32.780000 17.820000 5.060000 216 174 157 0
33.220000 17.820000 1.430000 218 175 161 0
33.440000 17.820000 3.630000 218 178 163 0
33.660000 17.820000 3.630000 220 180 165 0
33.880000 17.820000 1.650000 222 184 168 0
34.100000 17.820000 5.830000 223 185 169 0
34.320000 17.820000 10.670000 226 188 174 0
34.540000 17.820000 5.170000 227 189 175 0
34.760000 17.820000 1.100000 227 187 174 0
34.980000 17.820000 7.370000 226 186 173 0
35.200000 17.820000 12.870000 226 186 173 0
35.420000 17.820000 7.370000 225 185 172 0
35.640000 17.820000 1.210000 225 188 175 0
36.300000 17.820000 4.070000 235 198 185 0
36.520000 17.820000 9.680000 235 198 185 0
36.740000 17.820000 4.070000 235 198 185 0
37.180000 17.820000 0.220000 236 197 187 0
0.000000 18.040000 5.390000 196 202 187 0
0.220000 18.040000 5.390000 195 201 186 0
0.440000 18.040000 5.390000 197 200 186 0
0.660000 18.040000 5.390000 198 201 187 0
0.880000 18.040000 5.390000 203 192 169 0
1.100000 18.040000 4.730000 193 182 159 0
1.320000 18.040000 4.730000 202 168 138 0
1.540000 18.040000 5.500000 192 158 128 0
1.760000 18.040000 6.050000 191 157 125 0
1.980000 18.040000 7.040000 193 159 127 0
2.200000 18.040000 7.590000 197 161 130 0
2.420000 18.040000 7.590000 196 160 129 0
2.640000 18.040000 7.700000 196 159 128 0
2.860000 18.040000 7.700000 197 160 129 0
3.080000 18.040000 7.700000 195 159 128 0
3.300000 18.040000 7.700000 196 160 129 0
3.520000 18.040000 8.360000 196 161 128 0
3.740000 18.040000 8.470000 196 161 128 0
3.960000 18.040000 8.470000 197 160 129 0
4.180000 18.040000 8.470000 197 160 129 0
4.400000 18.040000 7.810000 196 159 128 0
4.620000 18.040000 7.810000 196 159 128 0
4.840000 18.040000 7.810000 195 159 128 0
5.060000 18.040000 7.810000 195 159 128 0
5.280000 18.040000 7.810000 196 159 128 0
5.500000 18.040000 7.810000 196 159 128 0
5.720000 18.040000 8.580000 196 159 128 0
5.940000 18.040000 8.580000 196 159 128 0
6.160000 18.040000 8.580000 195 158 127 0
6.380000 18.040000 8.580000 195 158 127 0
6.600000 18.040000 8.580000 195 158 127 0
6.820000 18.040000 8.690000 195 158 127 0
7.040000 18.040000 8.690000 195 158 127 0
7.260000 18.040000 8.690000 196 159 128 0
7.480000 18.040000 8.690000 197 160 129 0
7.700000 18.040000 8.690000 197 160 129 0
7.920000 18.040000 8.690000 198 158 128 0
8.140000 18.040000 8.800000 197 157 127 0
8.360000 18.040000 9.460000 197 157 127 0
8.580000 18.040000 9.460000 198 158 128 0
8.800000 18.040000 9.460000 197 157 127 0
9.020000 18.040000 9.460000 198 158 128 0
9.240000 18.040000 9.570000 198 158 128 0
9.460000 18.040000 8.800000 198 158 128 0
9.680000 18.040000 8.910000 199 159 129 0
9.900000 18.040000 8.910000 199 159 129 0
10.120000 18.040000 8.910000 199 159 129 0
10.340000 18.040000 8.910000 199 159 129 0
10.560000 18.040000 8.910000 199 159 129 0
10.780000 18.040000 8.910000 199 159 129 0
11.000000 18.040000 8.910000 199 159 131 0
11.220000 18.040000 9.460000 199 159 131 0
11.440000 18.040000 9.900000 200 160 130 0
11.660000 18.040000 10.450000 199 159 129 0
11.880000 18.040000 10.450000 199 159 129 0
12.100000 18.040000 10.450000 200 160 130 0
12.320000 18.040000 10.450000 200 160 130 0
12.540000 18.040000 10.450000 199 159 129 0
12.760000 18.040000 10.450000 200 160 132 0
12.980000 18.040000 10.450000 199 159 131 0
13.200000 18.040000 10.560000 199 159 129 0
13.420000 18.040000 10.560000 199 159 129 0
13.640000 18.040000 10.560000 199 157 130 0
13.860000 18.040000 10.560000 199 157 130 0
14.080000 18.040000 10.560000 200 158 131 0
14.300000 18.040000 10.560000 198 156 129 0
14.520000 18.040000 10.560000 199 158 133 0
14.740000 18.040000 10.670000 199 158 133 0
14.960000 18.040000 10.670000 201 159 132 0
15.180000 18.040000 10.010000 202 160 133 0
15.400000 18.040000 10.010000 201 161 133 0
15.620000 18.040000 10.010000 202 162 134 0
15.840000 18.040000 10.010000 203 163 135 0
16.060000 18.040000 10.780000 204 164 136 0
16.280000 18.040000 10.780000 204 163 138 0
16.500000 18.040000 10.780000 204 163 138 0
16.720000 18.040000 10.780000 204 163 138 0
16.940000 18.040000 10.780000 204 163 138 0
17.160000 18.040000 10.780000 200 151 131 0
17.380000 18.040000 10.890000 192 143 123 0
17.600000 18.040000 11.550000 186 139 118 0
17.820000 18.040000 11.550000 186 139 118 0
18.040000 18.040000 11.550000 189 148 123 0
18.260000 18.040000 11.550000 196 155 130 0
18.480000 18.040000 11.660000 204 163 138 0
18.700000 18.040000 12.320000 206 165 140 0
18.920000 18.040000 12.320000 206 165 140 0
19.140000 18.040000 12.320000 206 165 140 0
19.360000 18.040000 13.090000 209 168 143 0
19.580000 18.040000 13.090000 211 170 145 0
19.800000 18.040000 13.640000 217 176 153 0
20.020000 18.040000 13.970000 220 179 156 0
20.240000 18.040000 14.520000 221 182 160 0
20.460000 18.040000 14.630000 225 186 164 0
20.680000 18.040000 14.630000 226 187 165 0
20.900000 18.040000 14.630000 226 187 165 0
21.120000 18.040000 14.630000 226 187 165 0
21.340000 18.040000 14.740000 226 187 165 0
21.560000 18.040000 14.740000 228 187 164 0
21.780000 18.040000 14.850000 228 187 164 0
22.000000 18.040000 14.850000 225 186 164 0
22.220000 18.040000 15.620000 227 188 166 0
22.440000 18.040000 15.620000 229 195 180 0
22.660000 18.040000 16.390000 233 199 184 0
22.880000 18.040000 17.050000 232 202 187 0
23.100000 18.040000 17.820000 235 205 190 0
23.320000 18.040000 18.590000 237 207 194 0
23.540000 18.040000 17.930000 237 207 194 0
23.760000 18.040000 11.770000 239 203 184 0
23.980000 18.040000 3.300000 230 194 175 0
24.200000 18.040000 5.720000 222 178 160 0
24.420000 18.040000 15.950000 211 167 149 0
24.640000 18.040000 20.790000 207 161 143 0
24.860000 18.040000 16.720000 205 159 141 0
25.080000 18.040000 8.470000 202 153 134 0
25.300000 18.040000 2.310000 195 146 127 0
25.520000 18.040000 0.220000 192 142 126 0
25.740000 18.040000 0.220000 189 139 123 0
25.960000 18.040000 0.220000 187 139 120 0
26.180000 18.040000 0.770000 191 143 124 0
26.400000 18.040000 5.610000 194 146 127 0
26.620000 18.040000 15.950000 197 149 130 0
26.840000 18.040000 20.790000 199 151 132 0
27.060000 18.040000 20.790000 201 153 134 0
27.280000 18.040000 20.900000 203 156 135 0
27.500000 18.040000 20.130000 205 158 137 0
27.720000 18.040000 18.810000 205 159 139 0
27.940000 18.040000 18.150000 208 162 142 0
28.160000 18.040000 18.150000 208 164 146 0
28.380000 18.040000 18.150000 211 167 149 0
28.600000 18.040000 18.920000 212 168 150 0
28.820000 18.040000 18.920000 214 170 152 0
29.040000 18.040000 19.580000 215 173 154 0
29.260000 18.040000 19.690000 215 173 154 0
29.480000 18.040000 19.690000 214 170 152 0
29.700000 18.040000 19.690000 215 171 153 0
29.920000 18.040000 20.460000 214 172 155 0
30.140000 18.040000 20.460000 215 173 156 0
30.360000 18.040000 20.460000 215 173 156 0
30.580000 18.040000 15.620000 217 175 158 0
30.800000 18.040000 8.690000 218 176 159 0
31.020000 18.040000 12.210000 218 176 159 0
31.240000 18.040000 19.140000 217 178 160 0
31.460000 18.040000 19.910000 218 179 161 0
31.680000 18.040000 19.910000 217 178 160 0
31.900000 18.040000 19.910000 216 177 159 0
32.120000 18.040000 19.910000 217 173 157 0
32.340000 18.040000 20.020000 216 172 156 0
32.560000 18.040000 14.960000 214 172 155 0
32.780000 18.040000 5.060000 214 172 155 0
33.220000 18.040000 0.110000 217 174 160 0
33.440000 18.040000 0.110000 218 178 163 0
33.660000 18.040000 0.220000 221 181 166 0
33.880000 18.040000 0.220000 222 184 168 0
34.100000 18.040000 5.830000 225 187 171 0
34.320000 18.040000 10.670000 226 188 174 0
34.540000 18.040000 5.830000 226 188 174 0
34.760000 18.040000 3.850000 227 187 174 0
34.980000 18.040000 12.870000 226 186 173 0
35.200000 18.040000 17.710000 225 185 172 0
35.420000 18.040000 12.870000 226 186 173 0
35.640000 18.040000 3.300000 225 188 175 0
36.300000 18.040000 4.730000 234 197 184 0
36.520000 18.040000 9.680000 234 197 184 0
36.740000 18.040000 4.070000 234 197 184 0
37.180000 18.040000 0.330000 236 197 187 0
0.000000 18.260000 5.390000 196 202 187 0
0.220000 18.260000 5.390000 196 202 187 0
0.440000 18.260000 5.390000 196 202 187 0
0.660000 18.260000 5.390000 195 201 186 0
0.880000 18.260000 5.390000 203 192 170 0
1.100000 18.260000 4.730000 195 184 162 0
1.320000 18.260000 4.730000 205 171 141 0
1.540000 18.260000 5.500000 193 159 129 0
1.760000 18.260000 6.050000 194 158 127 0
1.980000 18.260000 7.040000 196 160 129 0
2.200000 18.260000 7.590000 197 161 130 0
2.420000 18.260000 7.590000 198 162 131 0
2.640000 18.260000 7.700000 199 162 130 0
2.860000 18.260000 7.700000 197 160 128 0
3.080000 18.260000 7.700000 196 162 130 0
3.300000 18.260000 7.700000 195 161 129 0
3.520000 18.260000 8.360000 196 160 129 0
3.740000 18.260000 8.470000 196 160 129 0
3.960000 18.260000 8.470000 197 160 129 0
4.180000 18.260000 8.470000 198 161 130 0
4.400000 18.260000 7.810000 196 159 127 0
4.620000 18.260000 7.810000 196 159 127 0
4.840000 18.260000 7.810000 197 160 129 0
5.060000 18.260000 7.810000 196 159 128 0
5.280000 18.260000 7.810000 196 159 128 0
5.500000 18.260000 7.810000 196 159 128 0
5.720000 18.260000 7.920000 196 159 127 0
5.940000 18.260000 8.580000 195 158 126 0
6.160000 18.260000 8.580000 195 158 126 0
6.380000 18.260000 8.580000 196 159 127 0
6.600000 18.260000 8.580000 194 157 126 0
6.820000 18.260000 8.690000 195 158 127 0
7.040000 18.260000 8.690000 196 159 128 0
7.260000 18.260000 8.690000 196 159 128 0
7.480000 18.260000 8.690000 199 159 129 0
7.700000 18.260000 8.690000 198 158 128 0
7.920000 18.260000 8.690000 198 158 127 0
8.140000 18.260000 8.800000 197 157 126 0
8.360000 18.260000 9.460000 198 158 128 0
8.580000 18.260000 9.460000 197 157 127 0
8.800000 18.260000 9.460000 197 157 127 0
9.020000 18.260000 9.460000 198 158 128 0
9.240000 18.260000 9.570000 197 157 127 0
9.460000 18.260000 8.800000 198 158 128 0
9.680000 18.260000 8.910000 198 158 128 0
9.900000 18.260000 8.910000 199 159 129 0
10.120000 18.260000 8.910000 198 158 128 0
10.340000 18.260000 8.910000 199 159 129 0
10.560000 18.260000 8.910000 199 159 129 0
10.780000 18.260000 8.910000 199 159 129 0
11.000000 18.260000 8.910000 200 160 130 0
11.220000 18.260000 9.460000 200 160 130 0
11.440000 18.260000 9.900000 200 160 130 0
11.660000 18.260000 10.450000 200 160 130 0
11.880000 18.260000 10.450000 199 159 129 0
12.100000 18.260000 10.450000 200 160 130 0
12.320000 18.260000 10.450000 199 159 131 0
12.540000 18.260000 10.450000 200 160 132 0
12.760000 18.260000 10.450000 198 158 128 0
12.980000 18.260000 10.450000 199 159 129 0
13.200000 18.260000 10.560000 201 159 130 0
13.420000 18.260000 10.560000 199 157 128 0
13.640000 18.260000 10.560000 199 157 130 0
13.860000 18.260000 10.560000 198 156 129 0
14.080000 18.260000 10.560000 198 158 130 0
14.300000 18.260000 10.560000 198 158 130 0
14.520000 18.260000 10.560000 199 159 131 0
14.740000 18.260000 10.670000 200 160 132 0
14.960000 18.260000 9.900000 201 159 132 0
15.180000 18.260000 10.010000 201 159 132 0
15.400000 18.260000 10.010000 201 161 133 0
15.620000 18.260000 10.010000 202 162 134 0
15.840000 18.260000 10.010000 203 161 134 0
16.060000 18.260000 10.780000 203 161 134 0
16.280000 18.260000 10.780000 204 164 136 0
16.500000 18.260000 10.780000 204 164 136 0
16.720000 18.260000 10.780000 205 163 136 0
16.940000 18.260000 10.120000 202 160 133 0
17.160000 18.260000 10.120000 198 144 127 0
17.380000 18.260000 10.890000 185 131 114 0
17.600000 18.260000 11.550000 173 124 112 0
17.820000 18.260000 11.550000 174 125 113 0
18.040000 18.260000 11.550000 181 138 114 0
18.260000 18.260000 11.550000 194 151 127 0
18.480000 18.260000 11.660000 203 162 137 0
18.700000 18.260000 12.320000 206 165 140 0
18.920000 18.260000 12.320000 207 165 138 0
19.140000 18.260000 13.090000 208 166 139 0
19.360000 18.260000 13.090000 211 168 144 0
19.580000 18.260000 13.090000 213 170 146 0
19.800000 18.260000 13.640000 214 176 152 0
20.020000 18.260000 13.970000 219 181 157 0
20.240000 18.260000 14.520000 222 183 161 0
20.460000 18.260000 14.630000 224 185 163 0
20.680000 18.260000 14.630000 224 185 163 0
20.900000 18.260000 14.630000 225 186 164 0
21.120000 18.260000 14.630000 227 186 164 0
21.340000 18.260000 14.740000 227 186 164 0
21.560000 18.260000 14.740000 226 185 162 0
21.780000 18.260000 14.850000 226 185 162 0
22.000000 18.260000 14.850000 224 187 166 0
22.220000 18.260000 15.620000 226 189 168 0
22.440000 18.260000 15.620000 227 193 176 0
22.660000 18.260000 16.390000 232 198 181 0
22.880000 18.260000 17.050000 233 203 188 0
23.100000 18.260000 17.820000 235 205 190 0
23.320000 18.260000 18.590000 239 206 194 0
23.540000 18.260000 18.590000 237 204 192 0
23.760000 18.260000 14.520000 236 198 180 0
23.980000 18.260000 4.620000 229 191 173 0
24.200000 18.260000 5.720000 223 179 161 0
24.420000 18.260000 15.950000 213 169 151 0
24.640000 18.260000 20.790000 209 163 145 0
24.860000 18.260000 19.470000 205 159 141 0
25.080000 18.260000 13.310000 202 154 137 0
25.300000 18.260000 5.060000 194 146 129 0
25.520000 18.260000 0.220000 191 141 125 0
25.740000 18.260000 0.220000 188 138 122 0
25.960000 18.260000 0.220000 187 139 124 0
26.180000 18.260000 0.770000 191 143 128 0
26.400000 18.260000 5.610000 194 146 129 0
26.620000 18.260000 15.950000 197 149 132 0
26.840000 18.260000 20.790000 199 151 134 0
27.060000 18.260000 20.790000 201 153 136 0
27.280000 18.260000 20.900000 202 154 135 0
27.500000 18.260000 20.130000 204 156 137 0
27.720000 18.260000 18.810000 205 159 139 0
27.940000 18.260000 18.150000 208 162 142 0
28.160000 18.260000 18.150000 209 166 145 0
28.380000 18.260000 18.150000 211 168 147 0
28.600000 18.260000 18.920000 213 169 151 0
28.820000 18.260000 19.580000 215 171 153 0
29.040000 18.260000 19.580000 214 172 155 0
29.260000 18.260000 20.350000 216 174 157 0
29.480000 18.260000 20.350000 216 172 154 0
29.700000 18.260000 20.350000 215 171 153 0
29.920000 18.260000 20.460000 215 173 154 0
30.140000 18.260000 20.460000 214 172 153 0
30.360000 18.260000 19.030000 215 171 155 0
30.580000 18.260000 12.870000 217 173 157 0
30.800000 18.260000 4.620000 216 174 157 0
31.020000 18.260000 7.370000 216 174 157 0
31.240000 18.260000 16.390000 219 175 157 0
31.460000 18.260000 19.910000 219 175 157 0
31.680000 18.260000 19.910000 217 175 158 0
31.900000 18.260000 19.910000 216 174 157 0
32.120000 18.260000 19.910000 214 170 154 0
32.340000 18.260000 20.020000 214 170 154 0
32.560000 18.260000 14.960000 214 170 154 0
32.780000 18.260000 5.060000 214 170 154 0
33.220000 18.260000 0.110000 217 175 158 0
33.440000 18.260000 0.110000 218 178 163 0
33.660000 18.260000 0.220000 221 181 166 0
33.880000 18.260000 0.220000 224 181 167 0
34.100000 18.260000 4.400000 226 183 169 0
34.320000 18.260000 7.920000 228 185 171 0
34.540000 18.260000 4.510000 228 185 171 0
34.760000 18.260000 5.170000 226 186 171 0
34.980000 18.260000 14.960000 226 186 171 0
35.200000 18.260000 20.460000 225 185 172 0
35.420000 18.260000 14.960000 226 186 173 0
35.640000 18.260000 4.620000 225 188 175 0
36.300000 18.260000 4.730000 234 197 184 0
36.520000 18.260000 9.680000 233 196 183 0
36.740000 18.260000 4.070000 234 197 184 0
37.180000 18.260000 0.330000 235 198 185 0
0.000000 18.480000 5.390000 195 201 186 0
0.220000 18.480000 5.390000 196 202 187 0
0.440000 18.480000 5.390000 195 201 186 0
0.660000 18.480000 5.390000 195 201 186 0
0.880000 18.480000 5.390000 202 191 169 0
1.100000 18.480000 4.730000 195 184 162 0
1.320000 18.480000 5.500000 203 169 139 0
1.540000 18.480000 5.500000 196 162 132 0
1.760000 18.480000 6.050000 195 159 128 0
1.980000 18.480000 7.040000 197 161 130 0
2.200000 18.480000 7.590000 199 163 132 0
2.420000 18.480000 7.590000 199 163 132 0
2.640000 18.480000 7.700000 199 162 130 0
2.860000 18.480000 7.700000 199 162 130 0
3.080000 18.480000 7.700000 197 163 131 0
3.300000 18.480000 7.700000 196 162 130 0
3.520000 18.480000 8.360000 198 162 131 0
3.740000 18.480000 8.470000 196 160 129 0
3.960000 18.480000 8.470000 198 161 130 0
4.180000 18.480000 8.470000 197 160 129 0
4.400000 18.480000 7.810000 197 160 128 0
4.620000 18.480000 7.810000 197 160 128 0
4.840000 18.480000 7.810000 196 159 128 0
5.060000 18.480000 7.810000 197 160 129 0
5.280000 18.480000 7.810000 196 159 128 0
5.500000 18.480000 7.810000 196 159 128 0
5.720000 18.480000 7.920000 196 159 127 0
5.940000 18.480000 7.920000 195 158 126 0
6.160000 18.480000 8.580000 196 159 127 0
6.380000 18.480000 8.580000 196 159 127 0
6.600000 18.480000 8.580000 196 159 128 0
6.820000 18.480000 8.690000 196 159 128 0
7.040000 18.480000 8.690000 197 160 129 0
7.260000 18.480000 8.690000 197 160 129 0
7.480000 18.480000 8.690000 199 159 129 0
7.700000 18.480000 8.690000 199 159 129 0
7.920000 18.480000 8.690000 197 157 126 0
8.140000 18.480000 8.800000 198 158 127 0
8.360000 18.480000 8.800000 198 158 128 0
8.580000 18.480000 9.460000 198 158 128 0
8.800000 18.480000 9.460000 198 158 128 0
9.020000 18.480000 9.460000 198 158 128 0
9.240000 18.480000 9.570000 198 158 128 0
9.460000 18.480000 8.800000 198 158 128 0
9.680000 18.480000 8.910000 198 158 128 0
9.900000 18.480000 8.910000 198 158 128 0
10.120000 18.480000 8.910000 198 158 128 0
10.340000 18.480000 8.910000 199 159 129 0
10.560000 18.480000 8.910000 199 159 129 0
10.780000 18.480000 8.910000 199 159 129 0
11.000000 18.480000 8.910000 200 160 130 0
11.220000 18.480000 9.460000 200 160 130 0
11.440000 18.480000 9.900000 201 161 131 0
11.660000 18.480000 10.450000 201 161 131 0
11.880000 18.480000 10.450000 200 160 130 0
12.100000 18.480000 10.450000 199 159 129 0
12.320000 18.480000 10.450000 199 159 131 0
12.540000 18.480000 10.450000 198 158 130 0
12.760000 18.480000 10.450000 198 158 128 0
12.980000 18.480000 10.450000 199 159 129 0
13.200000 18.480000 10.560000 200 158 129 0
13.420000 18.480000 10.560000 200 158 129 0
13.640000 18.480000 10.560000 198 156 129 0
13.860000 18.480000 10.560000 199 157 130 0
14.080000 18.480000 10.560000 198 158 130 0
14.300000 18.480000 10.560000 199 159 131 0
14.520000 18.480000 10.560000 199 159 131 0
14.740000 18.480000 10.670000 199 159 131 0
14.960000 18.480000 9.900000 201 159 132 0
15.180000 18.480000 10.010000 201 159 132 0
15.400000 18.480000 10.010000 200 160 132 0
15.620000 18.480000 10.010000 201 161 133 0
15.840000 18.480000 10.010000 203 161 134 0
16.060000 18.480000 10.780000 203 161 134 0
16.280000 18.480000 10.780000 203 163 135 0
16.500000 18.480000 10.780000 203 163 135 0
16.720000 18.480000 10.780000 204 162 135 0
16.940000 18.480000 10.120000 200 158 131 0
17.160000 18.480000 10.120000 194 140 123 0
17.380000 18.480000 10.890000 179 125 108 0
17.600000 18.480000 11.550000 164 115 103 0
17.820000 18.480000 11.550000 169 120 108 0
18.040000 18.480000 11.550000 180 137 113 0
18.260000 18.480000 12.320000 194 151 127 0
18.480000 18.480000 12.320000 202 161 136 0
18.700000 18.480000 12.320000 205 164 139 0
18.920000 18.480000 13.090000 208 166 139 0
19.140000 18.480000 13.090000 208 166 139 0
19.360000 18.480000 13.090000 211 168 144 0
19.580000 18.480000 13.090000 213 170 146 0
19.800000 18.480000 13.640000 215 177 153 0
20.020000 18.480000 13.970000 221 183 159 0
20.240000 18.480000 14.520000 222 183 161 0
20.460000 18.480000 14.630000 223 184 162 0
20.680000 18.480000 14.630000 224 185 163 0
20.900000 18.480000 14.630000 224 185 163 0
21.120000 18.480000 14.630000 226 185 163 0
21.340000 18.480000 14.740000 225 184 162 0
21.560000 18.480000 14.740000 225 184 161 0
21.780000 18.480000 14.850000 226 185 162 0
22.000000 18.480000 15.510000 224 187 166 0
22.220000 18.480000 15.620000 227 190 169 0
22.440000 18.480000 15.620000 227 193 176 0
22.660000 18.480000 16.390000 232 198 181 0
22.880000 18.480000 17.050000 233 203 188 0
23.100000 18.480000 17.820000 235 205 190 0
23.320000 18.480000 17.930000 238 205 193 0
23.540000 18.480000 18.590000 237 204 192 0
23.760000 18.480000 14.520000 236 198 180 0
23.980000 18.480000 4.620000 229 191 173 0
24.200000 18.480000 5.720000 223 179 161 0
24.420000 18.480000 15.950000 213 169 151 0
24.640000 18.480000 20.790000 210 164 146 0
24.860000 18.480000 20.790000 204 158 140 0
25.080000 18.480000 16.060000 202 154 137 0
25.300000 18.480000 5.720000 196 148 131 0
25.520000 18.480000 0.220000 190 140 124 0
25.740000 18.480000 0.220000 188 138 122 0
25.960000 18.480000 0.220000 186 138 123 0
26.180000 18.480000 0.770000 190 142 127 0
26.400000 18.480000 5.610000 193 145 128 0
26.620000 18.480000 15.950000 198 150 133 0
26.840000 18.480000 20.790000 200 152 135 0
27.060000 18.480000 20.790000 201 153 136 0
27.280000 18.480000 20.900000 203 155 136 0
27.500000 18.480000 20.130000 204 156 137 0
27.720000 18.480000 18.810000 206 160 140 0
27.940000 18.480000 18.150000 209 163 143 0
28.160000 18.480000 18.150000 211 168 147 0
28.380000 18.480000 18.920000 212 169 148 0
28.600000 18.480000 18.920000 214 170 152 0
28.820000 18.480000 19.580000 216 172 154 0
29.040000 18.480000 20.350000 215 173 156 0
29.260000 18.480000 20.350000 216 174 157 0
29.480000 18.480000 20.350000 216 172 154 0
29.700000 18.480000 20.350000 215 171 153 0
29.920000 18.480000 20.460000 215 173 154 0
30.140000 18.480000 20.460000 215 173 154 0
30.360000 18.480000 16.280000 215 171 155 0
30.580000 18.480000 7.370000 215 171 155 0
30.800000 18.480000 0.440000 214 172 155 0
31.020000 18.480000 4.620000 215 173 156 0
31.240000 18.480000 15.070000 217 173 155 0
31.460000 18.480000 19.910000 217 173 155 0
31.680000 18.480000 19.910000 216 174 157 0
31.900000 18.480000 19.910000 215 173 156 0
32.120000 18.480000 19.910000 214 170 154 0
32.340000 18.480000 20.020000 213 169 153 0
32.560000 18.480000 14.960000 213 169 153 0
32.780000 18.480000 5.060000 213 169 153 0
33.000000 18.480000 1.430000 215 173 156 0
33.220000 18.480000 2.860000 217 175 158 0
33.440000 18.480000 1.540000 217 177 162 0
33.660000 18.480000 0.220000 219 179 164 0
33.880000 18.480000 0.220000 223 180 166 0
34.100000 18.480000 3.080000 224 181 167 0
34.320000 18.480000 5.830000 225 182 168 0
34.540000 18.480000 3.080000 227 184 170 0
34.760000 18.480000 5.170000 226 186 171 0
34.980000 18.480000 14.960000 225 185 170 0
35.200000 18.480000 20.460000 224 184 171 0
35.420000 18.480000 14.960000 225 185 172 0
35.640000 18.480000 4.620000 224 187 174 0
36.300000 18.480000 4.730000 233 196 183 0
36.520000 18.480000 9.680000 233 196 183 0
36.740000 18.480000 4.070000 234 197 184 0
37.180000 18.480000 0.330000 235 198 185 0
0.000000 18.700000 5.390000 195 201 186 0
0.220000 18.700000 5.390000 195 201 186 0
0.440000 18.700000 5.390000 194 200 185 0
0.660000 18.700000 5.390000 194 200 185 0
0.880000 18.700000 5.390000 202 190 171 0
1.100000 18.700000 4.730000 197 185 166 0
1.320000 18.700000 5.500000 203 169 137 0
1.540000 18.700000 5.500000 196 162 130 0
1.760000 18.700000 6.050000 197 161 130 0
1.980000 18.700000 7.040000 198 162 131 0
2.200000 18.700000 7.590000 198 162 131 0
2.420000 18.700000 7.590000 199 163 132 0
2.640000 18.700000 7.700000 198 163 130 0
2.860000 18.700000 7.700000 199 164 131 0
3.080000 18.700000 7.700000 197 163 131 0
3.300000 18.700000 7.700000 198 164 132 0
3.520000 18.700000 8.360000 198 162 131 0
3.740000 18.700000 8.470000 198 162 131 0
3.960000 18.700000 8.470000 197 161 130 0
4.180000 18.700000 8.470000 197 161 130 0
4.400000 18.700000 7.810000 197 160 128 0
4.620000 18.700000 7.810000 197 160 128 0
4.840000 18.700000 7.810000 195 160 127 0
5.060000 18.700000 7.810000 196 161 128 0
5.280000 18.700000 7.810000 197 160 129 0
5.500000 18.700000 7.810000 196 159 128 0
5.720000 18.700000 7.920000 195 158 127 0
5.940000 18.700000 7.920000 195 158 127 0
6.160000 18.700000 7.920000 195 158 126 0
6.380000 18.700000 8.580000 196 159 127 0
6.600000 18.700000 8.580000 195 158 126 0
6.820000 18.700000 8.690000 197 160 128 0
7.040000 18.700000 8.690000 197 160 128 0
7.260000 18.700000 8.690000 197 160 128 0
7.480000 18.700000 8.690000 197 160 129 0
7.700000 18.700000 8.690000 196 159 128 0
7.920000 18.700000 8.690000 196 159 128 0
8.140000 18.700000 8.800000 196 159 128 0
8.360000 18.700000 8.800000 198 158 127 0
8.580000 18.700000 8.800000 198 158 127 0
8.800000 18.700000 9.460000 196 159 127 0
9.020000 18.700000 9.460000 197 160 128 0
9.240000 18.700000 9.570000 197 157 127 0
9.460000 18.700000 8.800000 198 158 128 0
9.680000 18.700000 8.910000 198 158 128 0
9.900000 18.700000 8.910000 198 158 128 0
10.120000 18.700000 8.910000 199 159 129 0
10.340000 18.700000 8.910000 199 159 129 0
10.560000 18.700000 8.910000 199 159 129 0
10.780000 18.700000 8.910000 199 159 129 0
11.000000 18.700000 8.910000 200 160 130 0
11.220000 18.700000 9.460000 201 161 131 0
11.440000 18.700000 9.900000 200 160 130 0
11.660000 18.700000 10.450000 200 160 130 0
11.880000 18.700000 10.450000 199 159 129 0
12.100000 18.700000 10.450000 198 158 128 0
12.320000 18.700000 10.450000 199 159 129 0
12.540000 18.700000 10.450000 199 159 129 0
12.760000 18.700000 10.450000 199 159 129 0
12.980000 18.700000 10.450000 199 159 129 0
13.200000 18.700000 10.560000 198 158 128 0
13.420000 18.700000 10.560000 198 158 128 0
13.640000 18.700000 10.560000 199 157 130 0
13.860000 18.700000 10.560000 199 157 130 0
14.080000 18.700000 10.560000 198 158 130 0
14.300000 18.700000 10.560000 198 158 130 0
14.520000 18.700000 10.560000 199 159 131 0
14.740000 18.700000 10.670000 199 159 131 0
14.960000 18.700000 10.670000 199 159 131 0
15.180000 18.700000 10.010000 199 159 131 0
15.400000 18.700000 10.010000 201 159 132 0
15.620000 18.700000 10.010000 201 159 132 0
15.840000 18.700000 10.670000 201 159 132 0
16.060000 18.700000 10.780000 202 160 133 0
16.280000 18.700000 10.780000 202 162 134 0
16.500000 18.700000 10.780000 202 162 134 0
16.720000 18.700000 10.780000 203 163 135 0
16.940000 18.700000 10.780000 200 160 132 0
17.160000 18.700000 10.890000 190 143 120 0
17.380000 18.700000 10.890000 178 131 108 0
17.600000 18.700000 11.550000 168 123 99 0
17.820000 18.700000 11.550000 171 126 102 0
18.040000 18.700000 12.210000 182 139 115 0
18.260000 18.700000 12.320000 195 152 128 0
18.480000 18.700000 12.320000 203 163 135 0
18.700000 18.700000 12.320000 205 165 137 0
18.920000 18.700000 13.090000 207 164 140 0
19.140000 18.700000 13.090000 209 166 142 0
19.360000 18.700000 13.090000 211 168 144 0
19.580000 18.700000 13.090000 213 170 146 0
19.800000 18.700000 13.640000 218 177 154 0
20.020000 18.700000 13.970000 222 181 158 0
20.240000 18.700000 14.520000 222 183 161 0
20.460000 18.700000 14.630000 224 185 163 0
20.680000 18.700000 14.630000 224 185 163 0
20.900000 18.700000 14.630000 223 184 162 0
