ply
format ascii 1.0
element vertex 1116
property float x
property float y
property float z
property uchar red
property uchar green
property uchar blue
property uchar alpha
end_header
36.740000 19.800000 8.030000 200 165 140 0
36.960000 19.800000 8.030000 199 164 139 0
37.180000 19.800000 8.030000 199 164 139 0
0.000000 20.020000 5.830000 128 132 112 0
0.220000 20.020000 5.060000 130 132 113 0
0.440000 20.020000 5.170000 130 132 113 0
0.660000 20.020000 5.060000 130 133 111 0
0.880000 20.020000 5.830000 131 134 112 0
1.100000 20.020000 6.490000 130 133 111 0
1.320000 20.020000 6.490000 130 133 111 0
1.540000 20.020000 5.830000 130 133 111 0
1.760000 20.020000 5.170000 130 133 111 0
1.980000 20.020000 5.060000 130 133 111 0
2.200000 20.020000 5.720000 130 133 111 0
2.420000 20.020000 5.720000 130 133 111 0
2.640000 20.020000 7.040000 130 133 111 0
2.860000 20.020000 7.150000 131 134 112 0
3.080000 20.020000 7.370000 131 134 112 0
3.300000 20.020000 7.370000 131 134 112 0
3.520000 20.020000 6.600000 132 135 113 0
3.740000 20.020000 5.280000 132 135 113 0
3.960000 20.020000 4.620000 132 135 113 0
4.180000 20.020000 4.620000 132 135 111 0
4.400000 20.020000 5.280000 133 136 112 0
4.620000 20.020000 4.620000 134 137 113 0
4.840000 20.020000 4.730000 134 137 113 0
5.060000 20.020000 4.620000 136 137 114 0
5.280000 20.020000 4.950000 137 138 115 0
5.500000 20.020000 5.610000 142 145 123 0
5.720000 20.020000 4.840000 152 155 133 0
5.940000 20.020000 4.950000 161 165 145 0
6.160000 20.020000 4.950000 166 170 150 0
6.380000 20.020000 4.950000 169 173 154 0
6.600000 20.020000 4.950000 172 176 157 0
6.820000 20.020000 4.950000 176 179 163 0
7.040000 20.020000 5.720000 178 181 165 0
7.260000 20.020000 5.720000 178 184 167 0
7.480000 20.020000 7.150000 178 184 167 0
7.700000 20.020000 7.810000 180 186 171 0
7.920000 20.020000 7.810000 181 187 172 0
8.140000 20.020000 7.920000 182 188 173 0
8.360000 20.020000 7.920000 184 190 175 0
8.580000 20.020000 7.920000 187 193 178 0
8.800000 20.020000 7.920000 188 194 179 0
9.020000 20.020000 7.920000 189 195 180 0
9.240000 20.020000 7.920000 189 195 180 0
9.460000 20.020000 8.030000 190 196 181 0
9.680000 20.020000 7.260000 190 196 181 0
9.900000 20.020000 7.370000 191 197 184 0
10.120000 20.020000 8.690000 192 198 185 0
10.340000 20.020000 12.210000 192 198 183 0
10.560000 20.020000 16.390000 193 199 184 0
10.780000 20.020000 17.820000 193 199 184 0
11.000000 20.020000 19.140000 193 199 184 0
11.220000 20.020000 19.250000 193 199 184 0
11.440000 20.020000 19.250000 194 200 185 0
11.660000 20.020000 19.250000 194 200 187 0
11.880000 20.020000 19.250000 194 200 187 0
12.100000 20.020000 19.360000 193 199 186 0
12.320000 20.020000 19.910000 195 201 188 0
12.540000 20.020000 20.900000 195 201 186 0
12.760000 20.020000 20.130000 194 200 185 0
12.980000 20.020000 14.520000 195 201 186 0
13.200000 20.020000 10.450000 194 200 185 0
13.420000 20.020000 14.630000 194 200 187 0
13.640000 20.020000 20.130000 194 200 187 0
13.860000 20.020000 16.060000 197 200 188 0
14.080000 20.020000 5.060000 197 200 188 0
14.300000 20.020000 0.220000 197 200 188 0
14.520000 20.020000 0.880000 197 200 188 0
14.740000 20.020000 0.880000 195 201 188 0
14.960000 20.020000 0.880000 195 201 188 0
15.180000 20.020000 0.990000 195 201 188 0
15.400000 20.020000 0.990000 196 202 189 0
15.620000 20.020000 0.990000 196 202 189 0
15.840000 20.020000 0.990000 196 202 189 0
16.060000 20.020000 0.990000 195 201 188 0
16.280000 20.020000 0.990000 196 202 189 0
16.500000 20.020000 0.990000 196 202 189 0
16.720000 20.020000 0.330000 195 201 188 0
16.940000 20.020000 0.440000 195 201 188 0
17.160000 20.020000 0.440000 194 200 187 0
17.380000 20.020000 0.440000 193 199 186 0
17.600000 20.020000 0.440000 193 199 186 0
17.820000 20.020000 0.440000 192 198 185 0
18.040000 20.020000 1.100000 193 199 186 0
18.260000 20.020000 1.210000 196 199 187 0
18.480000 20.020000 1.210000 196 199 187 0
18.700000 20.020000 1.210000 196 199 187 0
18.920000 20.020000 1.210000 196 199 187 0
19.140000 20.020000 1.210000 197 200 188 0
19.360000 20.020000 1.210000 197 200 188 0
19.580000 20.020000 1.210000 198 201 189 0
19.800000 20.020000 1.210000 197 200 188 0
20.020000 20.020000 1.320000 198 201 189 0
20.240000 20.020000 1.320000 198 201 189 0
20.460000 20.020000 1.320000 198 201 189 0
20.680000 20.020000 1.320000 198 201 189 0
20.900000 20.020000 1.320000 199 202 190 0
21.120000 20.020000 2.090000 199 202 190 0
21.340000 20.020000 1.870000 199 202 190 0
21.560000 20.020000 2.970000 199 202 190 0
21.780000 20.020000 3.520000 199 202 190 0
22.000000 20.020000 3.520000 199 202 190 0
22.220000 20.020000 3.520000 199 202 190 0
22.440000 20.020000 3.520000 199 202 190 0
22.660000 20.020000 3.520000 199 202 190 0
22.880000 20.020000 3.520000 198 201 189 0
23.100000 20.020000 4.290000 198 200 190 0
23.320000 20.020000 4.290000 198 200 190 0
23.540000 20.020000 3.630000 198 201 189 0
23.760000 20.020000 3.630000 198 201 189 0
23.980000 20.020000 3.630000 199 201 191 0
24.200000 20.020000 2.970000 199 201 191 0
24.420000 20.020000 2.970000 199 202 190 0
24.640000 20.020000 3.630000 198 201 189 0
24.860000 20.020000 3.740000 199 201 191 0
25.080000 20.020000 3.740000 199 201 191 0
25.300000 20.020000 3.740000 198 201 189 0
25.520000 20.020000 3.740000 198 201 189 0
25.740000 20.020000 4.400000 199 201 191 0
25.960000 20.020000 4.510000 199 201 191 0
26.180000 20.020000 4.510000 199 201 191 0
26.400000 20.020000 4.510000 199 201 191 0
26.620000 20.020000 4.510000 199 201 191 0
26.840000 20.020000 4.510000 200 202 192 0
27.060000 20.020000 5.280000 200 202 192 0
27.280000 20.020000 5.280000 200 202 192 0
27.500000 20.020000 5.280000 200 202 192 0
27.720000 20.020000 5.280000 200 202 192 0
27.940000 20.020000 6.050000 200 202 192 0
28.160000 20.020000 5.280000 200 202 192 0
28.380000 20.020000 5.390000 200 201 191 0
28.600000 20.020000 5.390000 200 201 191 0
28.820000 20.020000 5.390000 199 201 191 0
29.040000 20.020000 6.050000 198 200 190 0
29.260000 20.020000 6.050000 198 195 181 0
29.480000 20.020000 6.820000 192 189 175 0
29.700000 20.020000 6.820000 192 177 153 0
29.920000 20.020000 7.480000 182 167 143 0
30.140000 20.020000 7.590000 170 157 135 0
30.360000 20.020000 8.250000 167 154 132 0
30.580000 20.020000 7.590000 163 154 136 0
30.800000 20.020000 7.480000 169 160 142 0
31.020000 20.020000 7.260000 175 176 166 0
31.240000 20.020000 7.260000 187 188 178 0
31.460000 20.020000 7.700000 195 197 187 0
31.680000 20.020000 7.590000 197 199 189 0
31.900000 20.020000 7.700000 199 200 190 0
32.120000 20.020000 7.700000 200 201 191 0
32.340000 20.020000 7.700000 209 192 177 0
32.560000 20.020000 7.700000 199 182 167 0
32.780000 20.020000 7.700000 205 170 145 0
33.000000 20.020000 7.700000 196 161 136 0
33.220000 20.020000 7.700000 198 163 138 0
33.440000 20.020000 7.810000 198 163 138 0
33.660000 20.020000 7.810000 199 164 139 0
33.880000 20.020000 7.810000 199 164 139 0
34.100000 20.020000 7.810000 200 163 139 0
34.320000 20.020000 7.810000 200 163 139 0
34.540000 20.020000 7.810000 198 163 138 0
34.760000 20.020000 7.810000 199 164 139 0
34.980000 20.020000 7.920000 199 164 139 0
35.200000 20.020000 8.580000 199 164 139 0
35.420000 20.020000 8.580000 200 163 139 0
35.640000 20.020000 8.580000 202 165 141 0
35.860000 20.020000 8.580000 201 164 140 0
36.080000 20.020000 8.690000 201 164 140 0
36.300000 20.020000 8.690000 200 165 140 0
36.520000 20.020000 8.030000 200 165 140 0
36.740000 20.020000 8.030000 201 164 140 0
36.960000 20.020000 8.030000 201 164 140 0
37.180000 20.020000 8.030000 201 164 140 0
0.000000 20.240000 5.830000 129 133 113 0
0.220000 20.240000 5.060000 129 131 112 0
0.440000 20.240000 5.170000 129 131 112 0
0.660000 20.240000 5.060000 130 133 111 0
0.880000 20.240000 5.830000 130 133 111 0
1.100000 20.240000 6.490000 129 132 110 0
1.320000 20.240000 6.490000 130 133 111 0
1.540000 20.240000 5.830000 130 133 111 0
1.760000 20.240000 5.170000 129 132 110 0
1.980000 20.240000 5.170000 130 133 111 0
2.200000 20.240000 5.060000 130 133 111 0
2.420000 20.240000 5.720000 131 134 112 0
2.640000 20.240000 6.380000 131 134 112 0
2.860000 20.240000 7.150000 130 133 111 0
3.080000 20.240000 7.370000 131 134 112 0
3.300000 20.240000 7.370000 131 134 112 0
3.520000 20.240000 6.600000 131 134 112 0
3.740000 20.240000 5.280000 132 135 113 0
3.960000 20.240000 4.510000 131 134 112 0
4.180000 20.240000 4.620000 132 135 111 0
4.400000 20.240000 4.620000 133 136 112 0
4.620000 20.240000 4.620000 134 137 113 0
4.840000 20.240000 4.730000 134 137 113 0
5.060000 20.240000 4.620000 136 137 114 0
5.280000 20.240000 4.950000 135 136 113 0
5.500000 20.240000 5.610000 142 145 123 0
5.720000 20.240000 4.840000 151 154 132 0
5.940000 20.240000 4.950000 162 166 146 0
6.160000 20.240000 4.950000 166 170 150 0
6.380000 20.240000 4.950000 169 173 154 0
6.600000 20.240000 4.950000 172 176 157 0
6.820000 20.240000 4.950000 175 178 162 0
7.040000 20.240000 5.720000 178 181 165 0
7.260000 20.240000 6.380000 179 185 168 0
7.480000 20.240000 7.150000 179 185 168 0
7.700000 20.240000 7.810000 181 187 172 0
7.920000 20.240000 8.580000 181 187 172 0
8.140000 20.240000 7.920000 184 190 175 0
8.360000 20.240000 7.920000 185 191 176 0
8.580000 20.240000 7.920000 187 193 178 0
8.800000 20.240000 7.920000 188 194 179 0
9.020000 20.240000 7.920000 189 195 180 0
9.240000 20.240000 7.920000 190 196 181 0
9.460000 20.240000 8.030000 192 198 183 0
9.680000 20.240000 7.260000 192 198 183 0
9.900000 20.240000 7.370000 192 198 185 0
10.120000 20.240000 8.690000 193 199 186 0
10.340000 20.240000 12.870000 193 199 184 0
10.560000 20.240000 16.390000 193 199 184 0
10.780000 20.240000 18.480000 194 200 185 0
11.000000 20.240000 19.140000 194 200 185 0
11.220000 20.240000 19.250000 194 200 185 0
11.440000 20.240000 19.250000 194 200 185 0
11.660000 20.240000 19.250000 194 200 187 0
11.880000 20.240000 19.360000 195 201 188 0
12.100000 20.240000 19.360000 195 201 188 0
12.320000 20.240000 19.910000 195 201 188 0
12.540000 20.240000 20.900000 195 201 186 0
12.760000 20.240000 21.450000 195 201 186 0
12.980000 20.240000 20.130000 195 201 186 0
13.200000 20.240000 18.700000 195 201 186 0
13.420000 20.240000 20.130000 195 201 188 0
13.640000 20.240000 21.560000 196 202 189 0
13.860000 20.240000 16.060000 198 201 189 0
14.080000 20.240000 5.060000 198 201 189 0
14.300000 20.240000 0.220000 198 201 189 0
14.520000 20.240000 0.880000 198 201 189 0
14.740000 20.240000 0.880000 195 201 188 0
14.960000 20.240000 0.880000 196 202 189 0
15.180000 20.240000 0.990000 197 203 190 0
15.400000 20.240000 0.990000 196 202 189 0
15.620000 20.240000 0.990000 197 203 190 0
15.840000 20.240000 0.990000 196 202 189 0
16.060000 20.240000 0.990000 196 202 189 0
16.280000 20.240000 0.990000 196 202 189 0
16.500000 20.240000 0.990000 196 202 189 0
16.720000 20.240000 0.330000 196 202 189 0
16.940000 20.240000 0.440000 195 201 188 0
17.160000 20.240000 0.440000 195 201 188 0
17.380000 20.240000 0.440000 194 200 187 0
17.600000 20.240000 0.440000 194 200 187 0
17.820000 20.240000 0.440000 194 200 187 0
18.040000 20.240000 1.100000 195 201 188 0
18.260000 20.240000 1.210000 196 199 187 0
18.480000 20.240000 1.210000 198 201 189 0
18.700000 20.240000 1.210000 197 200 188 0
18.920000 20.240000 1.210000 197 200 188 0
19.140000 20.240000 1.210000 198 201 189 0
19.360000 20.240000 1.210000 198 201 189 0
19.580000 20.240000 1.210000 197 200 188 0
19.800000 20.240000 1.210000 198 201 189 0
20.020000 20.240000 1.320000 198 201 189 0
20.240000 20.240000 1.320000 198 201 189 0
20.460000 20.240000 1.320000 198 201 189 0
20.680000 20.240000 1.320000 198 201 189 0
20.900000 20.240000 1.320000 199 202 190 0
21.120000 20.240000 2.090000 199 202 190 0
21.340000 20.240000 1.870000 200 203 191 0
21.560000 20.240000 2.970000 199 202 190 0
21.780000 20.240000 2.750000 198 201 189 0
22.000000 20.240000 2.860000 200 203 191 0
22.220000 20.240000 2.860000 199 202 190 0
22.440000 20.240000 3.520000 199 202 190 0
22.660000 20.240000 3.520000 199 202 190 0
22.880000 20.240000 3.520000 199 202 190 0
23.100000 20.240000 3.520000 199 201 191 0
23.320000 20.240000 3.630000 199 201 191 0
23.540000 20.240000 3.630000 199 202 190 0
23.760000 20.240000 3.630000 199 202 190 0
23.980000 20.240000 3.630000 199 201 191 0
24.200000 20.240000 2.970000 200 202 192 0
24.420000 20.240000 2.970000 199 202 190 0
24.640000 20.240000 2.970000 199 202 190 0
24.860000 20.240000 3.740000 198 200 190 0
25.080000 20.240000 3.740000 198 200 190 0
25.300000 20.240000 3.740000 198 201 189 0
25.520000 20.240000 3.740000 198 201 189 0
25.740000 20.240000 3.740000 198 200 190 0
25.960000 20.240000 4.510000 198 200 190 0
26.180000 20.240000 4.510000 199 201 191 0
26.400000 20.240000 4.510000 199 201 191 0
26.620000 20.240000 4.510000 199 201 191 0
26.840000 20.240000 4.510000 200 202 192 0
27.060000 20.240000 5.280000 199 201 191 0
27.280000 20.240000 5.280000 200 202 192 0
27.500000 20.240000 5.280000 200 202 192 0
27.720000 20.240000 5.280000 200 202 192 0
27.940000 20.240000 6.050000 200 202 192 0
28.160000 20.240000 5.280000 200 202 192 0
28.380000 20.240000 5.390000 201 202 192 0
28.600000 20.240000 5.390000 200 201 191 0
28.820000 20.240000 5.390000 199 201 191 0
29.040000 20.240000 6.050000 198 200 190 0
29.260000 20.240000 6.050000 197 194 180 0
29.480000 20.240000 6.820000 188 185 171 0
29.700000 20.240000 7.480000 189 174 150 0
29.920000 20.240000 7.480000 174 159 135 0
30.140000 20.240000 7.480000 165 152 130 0
30.360000 20.240000 7.590000 164 151 129 0
30.580000 20.240000 7.590000 162 153 135 0
30.800000 20.240000 7.590000 174 165 147 0
31.020000 20.240000 6.820000 177 178 168 0
31.240000 20.240000 6.710000 191 192 182 0
31.460000 20.240000 7.040000 196 198 188 0
31.680000 20.240000 7.590000 197 199 189 0
31.900000 20.240000 7.700000 200 201 191 0
32.120000 20.240000 7.700000 200 201 191 0
32.340000 20.240000 7.700000 208 191 176 0
32.560000 20.240000 7.700000 198 181 166 0
32.780000 20.240000 7.700000 208 173 148 0
33.000000 20.240000 7.700000 196 161 136 0
33.220000 20.240000 7.700000 197 162 137 0
33.440000 20.240000 7.810000 200 165 140 0
33.660000 20.240000 7.810000 200 165 140 0
33.880000 20.240000 7.810000 200 165 140 0
34.100000 20.240000 7.810000 201 164 140 0
34.320000 20.240000 7.810000 201 164 140 0
34.540000 20.240000 7.810000 198 163 138 0
34.760000 20.240000 7.810000 199 164 139 0
34.980000 20.240000 7.920000 200 165 140 0
35.200000 20.240000 8.580000 200 165 140 0
35.420000 20.240000 8.580000 201 164 140 0
35.640000 20.240000 8.580000 201 164 140 0
35.860000 20.240000 8.580000 202 165 141 0
36.080000 20.240000 8.690000 201 164 140 0
36.300000 20.240000 8.690000 201 166 141 0
36.520000 20.240000 8.030000 201 166 141 0
36.740000 20.240000 8.030000 200 163 139 0
36.960000 20.240000 8.030000 201 164 140 0
37.180000 20.240000 8.030000 201 164 140 0
0.000000 20.460000 5.830000 130 132 113 0
0.220000 20.460000 5.060000 130 133 111 0
0.440000 20.460000 5.170000 131 134 112 0
0.660000 20.460000 5.060000 130 133 111 0
0.880000 20.460000 5.830000 130 133 111 0
1.100000 20.460000 6.490000 130 132 113 0
1.320000 20.460000 6.490000 130 132 113 0
1.540000 20.460000 5.830000 130 133 111 0
1.760000 20.460000 5.170000 130 133 111 0
1.980000 20.460000 5.170000 130 133 111 0
2.200000 20.460000 5.060000 130 133 111 0
2.420000 20.460000 5.720000 131 134 112 0
2.640000 20.460000 6.380000 131 134 112 0
2.860000 20.460000 7.150000 131 134 112 0
3.080000 20.460000 7.370000 131 134 112 0
3.300000 20.460000 7.370000 131 134 112 0
3.520000 20.460000 6.600000 131 134 112 0
3.740000 20.460000 5.280000 131 134 112 0
3.960000 20.460000 4.510000 132 135 113 0
4.180000 20.460000 4.620000 132 135 113 0
4.400000 20.460000 4.620000 132 135 113 0
4.620000 20.460000 4.620000 132 135 113 0
4.840000 20.460000 4.730000 133 136 114 0
5.060000 20.460000 4.620000 132 135 113 0
5.280000 20.460000 4.950000 134 137 115 0
5.500000 20.460000 5.610000 140 143 127 0
5.720000 20.460000 4.840000 150 153 137 0
5.940000 20.460000 4.950000 161 165 146 0
6.160000 20.460000 4.950000 165 169 150 0
6.380000 20.460000 4.950000 166 172 155 0
6.600000 20.460000 4.950000 170 176 159 0
6.820000 20.460000 5.060000 174 180 163 0
7.040000 20.460000 5.720000 176 182 165 0
7.260000 20.460000 6.380000 178 184 167 0
7.480000 20.460000 7.150000 179 185 168 0
7.700000 20.460000 7.810000 180 188 172 0
7.920000 20.460000 8.580000 181 189 173 0
8.140000 20.460000 7.920000 183 189 174 0
8.360000 20.460000 7.920000 186 192 177 0
8.580000 20.460000 7.920000 187 193 178 0
8.800000 20.460000 7.920000 188 194 179 0
9.020000 20.460000 7.920000 189 195 180 0
9.240000 20.460000 7.920000 190 196 181 0
9.460000 20.460000 8.030000 191 197 182 0
9.680000 20.460000 7.370000 192 198 183 0
9.900000 20.460000 7.370000 192 198 183 0
10.120000 20.460000 8.690000 192 198 183 0
10.340000 20.460000 12.870000 192 198 185 0
10.560000 20.460000 16.390000 193 199 186 0
10.780000 20.460000 18.480000 193 199 184 0
11.000000 20.460000 19.140000 194 200 185 0
11.220000 20.460000 19.250000 194 200 185 0
11.440000 20.460000 19.250000 194 200 185 0
11.660000 20.460000 19.250000 195 201 188 0
11.880000 20.460000 19.360000 195 201 188 0
12.100000 20.460000 19.250000 194 200 187 0
12.320000 20.460000 19.800000 196 202 189 0
12.540000 20.460000 20.900000 195 201 186 0
12.760000 20.460000 21.450000 195 201 186 0
12.980000 20.460000 21.450000 195 201 188 0
13.200000 20.460000 21.560000 195 201 188 0
13.420000 20.460000 21.560000 196 202 189 0
13.640000 20.460000 20.900000 196 202 189 0
13.860000 20.460000 16.060000 195 201 188 0
14.080000 20.460000 5.060000 196 202 189 0
14.300000 20.460000 0.220000 196 202 189 0
14.520000 20.460000 0.880000 196 202 189 0
14.740000 20.460000 0.880000 195 201 188 0
14.960000 20.460000 0.880000 195 201 188 0
15.180000 20.460000 0.990000 198 201 189 0
15.400000 20.460000 0.990000 198 201 189 0
15.620000 20.460000 0.990000 199 202 190 0
15.840000 20.460000 0.990000 198 201 189 0
16.060000 20.460000 0.990000 199 202 190 0
16.280000 20.460000 0.990000 198 201 189 0
16.500000 20.460000 0.990000 196 202 189 0
16.720000 20.460000 0.330000 196 202 189 0
16.940000 20.460000 0.440000 198 201 189 0
17.160000 20.460000 0.440000 198 201 189 0
17.380000 20.460000 0.440000 197 200 188 0
17.600000 20.460000 0.440000 197 200 188 0
17.820000 20.460000 1.100000 198 201 189 0
18.040000 20.460000 1.100000 197 200 188 0
18.260000 20.460000 1.210000 195 201 188 0
18.480000 20.460000 1.210000 195 201 188 0
18.700000 20.460000 1.210000 198 201 189 0
18.920000 20.460000 1.210000 198 201 189 0
19.140000 20.460000 1.210000 198 201 189 0
19.360000 20.460000 0.550000 198 201 189 0
19.580000 20.460000 1.210000 198 201 189 0
19.800000 20.460000 1.210000 198 201 189 0
20.020000 20.460000 1.320000 196 202 189 0
20.240000 20.460000 1.320000 196 202 189 0
20.460000 20.460000 1.320000 199 202 190 0
20.680000 20.460000 1.320000 198 201 189 0
20.900000 20.460000 1.320000 199 202 190 0
21.120000 20.460000 1.320000 199 202 190 0
21.340000 20.460000 1.870000 199 202 190 0
21.560000 20.460000 2.970000 199 202 190 0
21.780000 20.460000 2.750000 199 202 190 0
22.000000 20.460000 2.860000 199 202 190 0
22.220000 20.460000 2.860000 200 203 191 0
22.440000 20.460000 2.860000 199 202 190 0
22.660000 20.460000 3.520000 199 202 190 0
22.880000 20.460000 3.520000 199 202 190 0
23.100000 20.460000 3.520000 200 203 191 0
23.320000 20.460000 3.630000 200 203 191 0
23.540000 20.460000 3.630000 199 202 190 0
23.760000 20.460000 3.630000 200 203 191 0
23.980000 20.460000 3.630000 200 203 191 0
24.200000 20.460000 2.970000 200 203 191 0
24.420000 20.460000 2.970000 200 203 191 0
24.640000 20.460000 2.970000 198 201 189 0
24.860000 20.460000 2.970000 198 201 189 0
25.080000 20.460000 2.970000 198 201 189 0
25.300000 20.460000 3.080000 198 201 189 0
25.520000 20.460000 3.080000 197 200 188 0
25.740000 20.460000 3.740000 198 200 190 0
25.960000 20.460000 3.740000 198 200 190 0
26.180000 20.460000 4.510000 198 201 189 0
26.400000 20.460000 4.510000 198 201 189 0
26.620000 20.460000 4.510000 198 201 189 0
26.840000 20.460000 4.510000 199 202 190 0
27.060000 20.460000 5.280000 199 202 190 0
27.280000 20.460000 5.280000 199 202 190 0
27.500000 20.460000 5.280000 200 202 192 0
27.720000 20.460000 5.280000 200 202 192 0
27.940000 20.460000 6.050000 200 202 192 0
28.160000 20.460000 5.280000 200 202 192 0
28.380000 20.460000 5.390000 200 202 192 0
28.600000 20.460000 5.390000 199 201 191 0
28.820000 20.460000 5.390000 199 202 190 0
29.040000 20.460000 6.050000 197 200 188 0
29.260000 20.460000 6.050000 196 197 186 0
29.480000 20.460000 6.820000 187 188 177 0
29.700000 20.460000 6.820000 185 175 160 0
29.920000 20.460000 7.480000 171 161 146 0
30.140000 20.460000 7.480000 161 154 141 0
30.360000 20.460000 7.590000 161 154 141 0
30.580000 20.460000 6.820000 162 159 147 0
30.800000 20.460000 6.930000 175 172 160 0
31.020000 20.460000 6.160000 180 182 172 0
31.240000 20.460000 6.710000 193 195 185 0
31.460000 20.460000 7.040000 198 199 189 0
31.680000 20.460000 7.590000 199 200 190 0
31.900000 20.460000 7.700000 200 201 191 0
32.120000 20.460000 7.700000 199 200 190 0
32.340000 20.460000 7.700000 206 192 176 0
32.560000 20.460000 7.700000 197 183 167 0
32.780000 20.460000 7.700000 204 169 145 0
33.000000 20.460000 7.700000 197 162 138 0
33.220000 20.460000 7.700000 197 162 137 0
33.440000 20.460000 7.810000 199 164 139 0
33.660000 20.460000 7.810000 200 165 140 0
33.880000 20.460000 7.810000 199 164 139 0
34.100000 20.460000 7.810000 201 164 140 0
34.320000 20.460000 7.810000 201 164 140 0
34.540000 20.460000 7.810000 199 164 140 0
34.760000 20.460000 7.810000 199 164 140 0
34.980000 20.460000 7.920000 199 164 139 0
35.200000 20.460000 8.580000 200 165 140 0
35.420000 20.460000 8.580000 200 163 139 0
35.640000 20.460000 8.580000 201 164 140 0
35.860000 20.460000 8.580000 201 164 140 0
36.080000 20.460000 8.690000 201 164 140 0
36.300000 20.460000 8.690000 200 165 140 0
36.520000 20.460000 8.030000 199 164 139 0
36.740000 20.460000 8.030000 200 163 139 0
36.960000 20.460000 8.030000 201 164 140 0
37.180000 20.460000 8.030000 201 164 140 0
0.000000 20.680000 5.830000 129 131 112 0
0.220000 20.680000 5.060000 129 132 110 0
0.440000 20.680000 5.170000 130 133 111 0
0.660000 20.680000 5.060000 130 133 111 0
0.880000 20.680000 5.830000 130 133 111 0
1.100000 20.680000 6.490000 130 132 113 0
1.320000 20.680000 6.490000 131 133 114 0
1.540000 20.680000 5.830000 130 133 111 0
1.760000 20.680000 5.170000 131 134 112 0
1.980000 20.680000 5.170000 130 133 111 0
2.200000 20.680000 5.830000 130 133 111 0
2.420000 20.680000 5.720000 130 133 111 0
2.640000 20.680000 6.380000 131 134 112 0
2.860000 20.680000 7.150000 131 134 112 0
3.080000 20.680000 7.370000 130 133 111 0
3.300000 20.680000 7.370000 130 133 111 0
3.520000 20.680000 6.600000 130 133 111 0
3.740000 20.680000 5.280000 132 135 113 0
3.960000 20.680000 4.510000 130 133 111 0
4.180000 20.680000 4.620000 131 134 112 0
4.400000 20.680000 4.620000 131 134 112 0
4.620000 20.680000 4.620000 131 134 112 0
4.840000 20.680000 4.730000 132 135 113 0
5.060000 20.680000 4.620000 132 135 113 0
5.280000 20.680000 4.950000 134 137 115 0
5.500000 20.680000 5.610000 139 142 126 0
5.720000 20.680000 4.840000 148 151 135 0
5.940000 20.680000 4.950000 159 163 144 0
6.160000 20.680000 4.950000 165 169 150 0
6.380000 20.680000 4.950000 165 171 154 0
6.600000 20.680000 4.950000 170 176 159 0
6.820000 20.680000 5.060000 172 178 161 0
7.040000 20.680000 5.720000 175 181 164 0
7.260000 20.680000 6.380000 177 183 166 0
7.480000 20.680000 7.150000 179 185 168 0
7.700000 20.680000 7.810000 180 188 172 0
7.920000 20.680000 8.580000 181 189 173 0
8.140000 20.680000 8.580000 184 190 175 0
8.360000 20.680000 7.920000 185 191 176 0
8.580000 20.680000 7.920000 187 193 178 0
8.800000 20.680000 7.920000 188 194 179 0
9.020000 20.680000 7.920000 188 194 179 0
9.240000 20.680000 7.920000 189 195 180 0
9.460000 20.680000 8.030000 191 197 182 0
9.680000 20.680000 7.370000 191 197 182 0
9.900000 20.680000 7.370000 192 198 183 0
10.120000 20.680000 9.460000 191 197 182 0
10.340000 20.680000 13.640000 192 198 185 0
10.560000 20.680000 17.050000 193 199 186 0
10.780000 20.680000 18.480000 193 199 184 0
11.000000 20.680000 19.140000 194 200 185 0
11.220000 20.680000 19.250000 194 200 185 0
11.440000 20.680000 19.250000 194 200 185 0
11.660000 20.680000 19.250000 195 201 188 0
11.880000 20.680000 19.360000 195 201 188 0
12.100000 20.680000 19.250000 195 201 188 0
12.320000 20.680000 20.350000 195 201 188 0
12.540000 20.680000 20.790000 194 200 185 0
12.760000 20.680000 21.450000 193 199 184 0
12.980000 20.680000 21.450000 194 200 187 0
13.200000 20.680000 21.560000 194 200 187 0
13.420000 20.680000 21.560000 195 201 188 0
13.640000 20.680000 20.900000 194 200 187 0
13.860000 20.680000 16.060000 195 201 188 0
14.080000 20.680000 5.060000 195 201 188 0
14.300000 20.680000 0.220000 194 200 187 0
14.520000 20.680000 0.880000 195 201 188 0
14.740000 20.680000 0.880000 196 202 189 0
14.960000 20.680000 0.990000 196 202 189 0
15.180000 20.680000 0.990000 198 201 189 0
15.400000 20.680000 0.990000 198 201 189 0
15.620000 20.680000 0.990000 198 201 189 0
15.840000 20.680000 0.990000 197 200 188 0
16.060000 20.680000 0.990000 198 201 189 0
16.280000 20.680000 0.990000 198 201 189 0
16.500000 20.680000 0.990000 196 202 189 0
16.720000 20.680000 0.330000 196 202 189 0
16.940000 20.680000 0.440000 198 201 189 0
17.160000 20.680000 0.440000 197 200 188 0
17.380000 20.680000 0.440000 198 201 189 0
17.600000 20.680000 1.100000 198 201 189 0
17.820000 20.680000 1.100000 198 201 189 0
18.040000 20.680000 1.100000 198 201 189 0
18.260000 20.680000 1.210000 196 202 189 0
18.480000 20.680000 1.210000 196 202 189 0
18.700000 20.680000 1.210000 198 201 189 0
18.920000 20.680000 1.210000 198 201 189 0
19.140000 20.680000 1.210000 198 201 189 0
19.360000 20.680000 0.550000 199 202 190 0
19.580000 20.680000 1.210000 198 201 189 0
19.800000 20.680000 1.210000 198 201 189 0
20.020000 20.680000 1.320000 196 202 189 0
20.240000 20.680000 1.320000 196 202 189 0
20.460000 20.680000 1.320000 199 202 190 0
20.680000 20.680000 1.320000 199 202 190 0
20.900000 20.680000 1.980000 199 202 190 0
21.120000 20.680000 2.090000 199 202 190 0
21.340000 20.680000 1.870000 199 202 190 0
21.560000 20.680000 2.970000 199 202 190 0
21.780000 20.680000 2.750000 199 202 190 0
22.000000 20.680000 2.860000 200 203 191 0
22.220000 20.680000 2.860000 199 202 190 0
22.440000 20.680000 2.860000 199 202 190 0
22.660000 20.680000 2.860000 199 202 190 0
22.880000 20.680000 3.520000 200 203 191 0
23.100000 20.680000 3.520000 200 203 191 0
23.320000 20.680000 3.630000 201 204 192 0
23.540000 20.680000 3.630000 200 203 191 0
23.760000 20.680000 3.630000 200 203 191 0
23.980000 20.680000 2.970000 201 204 192 0
24.200000 20.680000 2.970000 200 203 191 0
24.420000 20.680000 2.310000 201 204 192 0
24.640000 20.680000 2.310000 199 202 190 0
24.860000 20.680000 2.970000 198 201 189 0
25.080000 20.680000 2.970000 197 200 188 0
25.300000 20.680000 3.080000 195 198 186 0
25.520000 20.680000 3.080000 195 198 186 0
25.740000 20.680000 3.080000 197 199 189 0
25.960000 20.680000 3.740000 198 200 190 0
26.180000 20.680000 4.510000 198 201 189 0
26.400000 20.680000 4.510000 198 201 189 0
26.620000 20.680000 4.510000 198 201 189 0
26.840000 20.680000 4.510000 199 202 190 0
27.060000 20.680000 5.280000 199 202 190 0
27.280000 20.680000 5.280000 199 202 190 0
27.500000 20.680000 5.280000 199 201 191 0
27.720000 20.680000 5.940000 200 202 192 0
27.940000 20.680000 6.050000 199 201 191 0
28.160000 20.680000 5.280000 200 202 192 0
28.380000 20.680000 5.390000 200 202 192 0
28.600000 20.680000 5.390000 199 201 191 0
28.820000 20.680000 5.390000 199 202 190 0
29.040000 20.680000 6.050000 198 201 189 0
29.260000 20.680000 6.050000 197 198 187 0
29.480000 20.680000 6.820000 192 193 182 0
29.700000 20.680000 6.820000 192 182 167 0
29.920000 20.680000 6.820000 184 174 159 0
30.140000 20.680000 6.820000 176 169 156 0
30.360000 20.680000 6.820000 175 168 155 0
30.580000 20.680000 6.820000 178 175 163 0
30.800000 20.680000 6.160000 184 181 169 0
31.020000 20.680000 6.160000 188 190 180 0
31.240000 20.680000 6.050000 196 198 188 0
31.460000 20.680000 7.040000 199 200 190 0
31.680000 20.680000 7.590000 199 200 190 0
31.900000 20.680000 7.700000 201 202 192 0
32.120000 20.680000 7.700000 200 201 191 0
32.340000 20.680000 7.700000 205 191 175 0
32.560000 20.680000 7.700000 196 182 166 0
32.780000 20.680000 7.700000 204 169 145 0
33.000000 20.680000 7.700000 197 162 138 0
33.220000 20.680000 7.700000 198 163 138 0
33.440000 20.680000 7.810000 199 164 139 0
33.660000 20.680000 7.810000 200 165 140 0
33.880000 20.680000 7.810000 200 165 140 0
34.100000 20.680000 7.810000 201 164 140 0
34.320000 20.680000 7.810000 201 164 140 0
34.540000 20.680000 7.810000 200 165 141 0
34.760000 20.680000 7.810000 200 165 141 0
34.980000 20.680000 8.580000 198 163 138 0
35.200000 20.680000 8.580000 199 164 139 0
35.420000 20.680000 8.580000 200 163 139 0
35.640000 20.680000 8.580000 201 164 140 0
35.860000 20.680000 7.920000 200 163 139 0
36.080000 20.680000 8.690000 201 164 140 0
36.300000 20.680000 8.030000 199 164 139 0
36.520000 20.680000 8.030000 200 165 140 0
36.740000 20.680000 8.030000 201 164 140 0
36.960000 20.680000 8.030000 200 163 139 0
37.180000 20.680000 8.030000 201 164 140 0
0.000000 20.900000 5.830000 128 132 112 0
0.220000 20.900000 5.060000 130 134 114 0
0.440000 20.900000 5.060000 129 133 113 0
0.660000 20.900000 5.060000 129 134 111 0
0.880000 20.900000 5.720000 128 133 110 0
1.100000 20.900000 6.490000 129 133 113 0
1.320000 20.900000 6.490000 129 133 113 0
1.540000 20.900000 5.830000 129 131 112 0
1.760000 20.900000 5.170000 130 132 113 0
1.980000 20.900000 5.170000 129 133 113 0
2.200000 20.900000 5.830000 129 133 113 0
2.420000 20.900000 6.380000 129 134 111 0
2.640000 20.900000 6.380000 130 135 112 0
2.860000 20.900000 7.150000 130 134 114 0
3.080000 20.900000 7.370000 129 133 113 0
3.300000 20.900000 7.370000 131 134 112 0
3.520000 20.900000 6.600000 130 133 111 0
3.740000 20.900000 5.280000 130 135 112 0
3.960000 20.900000 4.510000 130 135 112 0
4.180000 20.900000 4.620000 130 135 112 0
4.400000 20.900000 4.620000 130 135 112 0
4.620000 20.900000 4.620000 130 135 112 0
4.840000 20.900000 4.730000 130 135 112 0
5.060000 20.900000 4.620000 132 135 113 0
5.280000 20.900000 4.950000 134 137 115 0
5.500000 20.900000 5.610000 139 142 120 0
5.720000 20.900000 4.840000 149 152 130 0
5.940000 20.900000 4.950000 159 163 144 0
6.160000 20.900000 4.950000 164 168 149 0
6.380000 20.900000 4.950000 165 171 154 0
6.600000 20.900000 4.950000 168 174 157 0
6.820000 20.900000 5.720000 171 177 160 0
7.040000 20.900000 5.720000 175 181 164 0
7.260000 20.900000 6.380000 176 182 165 0
7.480000 20.900000 7.150000 177 183 166 0
7.700000 20.900000 7.810000 181 187 172 0
7.920000 20.900000 8.580000 182 188 173 0
8.140000 20.900000 8.580000 182 188 173 0
8.360000 20.900000 8.580000 185 191 176 0
8.580000 20.900000 7.920000 188 194 179 0
8.800000 20.900000 7.920000 188 194 179 0
9.020000 20.900000 7.920000 189 195 180 0
9.240000 20.900000 7.920000 189 195 180 0
9.460000 20.900000 8.030000 191 197 182 0
9.680000 20.900000 7.370000 191 197 182 0
9.900000 20.900000 8.030000 192 198 183 0
10.120000 20.900000 10.120000 192 198 183 0
10.340000 20.900000 13.640000 192 198 183 0
10.560000 20.900000 17.050000 193 199 184 0
10.780000 20.900000 18.480000 196 199 185 0
11.000000 20.900000 19.140000 196 199 185 0
11.220000 20.900000 19.250000 196 199 187 0
11.440000 20.900000 19.250000 196 199 187 0
11.660000 20.900000 19.250000 194 200 187 0
11.880000 20.900000 19.360000 195 201 188 0
12.100000 20.900000 19.800000 195 201 188 0
12.320000 20.900000 20.240000 194 200 187 0
12.540000 20.900000 20.790000 195 198 186 0
12.760000 20.900000 21.450000 196 199 187 0
12.980000 20.900000 21.450000 195 198 186 0
13.200000 20.900000 21.560000 196 199 187 0
13.420000 20.900000 20.900000 194 200 187 0
13.640000 20.900000 20.900000 194 200 187 0
13.860000 20.900000 16.060000 195 201 188 0
14.080000 20.900000 5.060000 195 201 188 0
14.300000 20.900000 0.220000 195 201 188 0
14.520000 20.900000 0.880000 196 202 189 0
14.740000 20.900000 0.880000 197 200 188 0
14.960000 20.900000 0.990000 198 201 189 0
15.180000 20.900000 0.990000 198 201 189 0
15.400000 20.900000 0.990000 198 201 189 0
15.620000 20.900000 0.990000 197 200 188 0
15.840000 20.900000 0.990000 197 200 188 0
16.060000 20.900000 0.990000 197 203 190 0
16.280000 20.900000 0.990000 196 202 189 0
16.500000 20.900000 0.990000 198 201 189 0
16.720000 20.900000 1.100000 198 201 189 0
16.940000 20.900000 0.440000 198 201 189 0
17.160000 20.900000 0.440000 199 202 190 0
17.380000 20.900000 1.100000 198 201 189 0
17.600000 20.900000 1.100000 198 201 189 0
17.820000 20.900000 1.100000 197 203 190 0
18.040000 20.900000 1.100000 196 202 189 0
18.260000 20.900000 1.210000 198 201 189 0
18.480000 20.900000 1.210000 198 201 189 0
18.700000 20.900000 1.210000 199 202 190 0
18.920000 20.900000 1.210000 199 202 190 0
19.140000 20.900000 1.210000 198 201 189 0
19.360000 20.900000 1.210000 199 202 190 0
19.580000 20.900000 1.210000 199 202 190 0
19.800000 20.900000 1.320000 199 202 190 0
20.020000 20.900000 1.320000 199 202 190 0
20.240000 20.900000 1.320000 198 201 189 0
20.460000 20.900000 1.320000 198 201 189 0
20.680000 20.900000 1.980000 199 202 190 0
20.900000 20.900000 1.980000 199 202 190 0
21.120000 20.900000 2.090000 199 202 190 0
21.340000 20.900000 1.870000 198 201 189 0
21.560000 20.900000 2.970000 200 203 191 0
21.780000 20.900000 2.750000 199 202 190 0
22.000000 20.900000 2.860000 200 203 191 0
22.220000 20.900000 2.090000 200 203 191 0
22.440000 20.900000 2.860000 200 203 191 0
22.660000 20.900000 2.860000 199 202 190 0
22.880000 20.900000 2.860000 199 202 190 0
23.100000 20.900000 3.520000 200 203 191 0
23.320000 20.900000 3.630000 200 203 191 0
23.540000 20.900000 3.630000 201 203 193 0
23.760000 20.900000 3.630000 201 203 193 0
23.980000 20.900000 2.970000 202 205 193 0
24.200000 20.900000 2.310000 203 206 194 0
24.420000 20.900000 1.650000 203 205 195 0
24.640000 20.900000 1.650000 201 203 193 0
24.860000 20.900000 2.310000 198 201 189 0
25.080000 20.900000 3.080000 194 197 185 0
25.300000 20.900000 3.080000 196 193 181 0
25.520000 20.900000 3.080000 192 189 177 0
25.740000 20.900000 3.080000 195 197 187 0
25.960000 20.900000 3.740000 197 199 189 0
26.180000 20.900000 3.740000 198 200 190 0
26.400000 20.900000 3.850000 198 200 190 0
26.620000 20.900000 4.510000 198 200 190 0
26.840000 20.900000 4.510000 199 201 191 0
27.060000 20.900000 4.510000 199 201 191 0
27.280000 20.900000 5.280000 199 201 191 0
27.500000 20.900000 5.280000 200 202 192 0
27.720000 20.900000 5.940000 200 202 192 0
27.940000 20.900000 6.050000 200 201 191 0
28.160000 20.900000 5.280000 201 202 192 0
28.380000 20.900000 5.390000 200 201 191 0
28.600000 20.900000 5.390000 200 201 191 0
28.820000 20.900000 5.390000 199 201 191 0
29.040000 20.900000 6.050000 198 200 190 0
29.260000 20.900000 6.050000 198 200 190 0
29.480000 20.900000 6.160000 196 198 188 0
29.700000 20.900000 6.820000 192 193 183 0
29.920000 20.900000 6.820000 189 190 180 0
30.140000 20.900000 6.820000 185 187 177 0
30.360000 20.900000 6.160000 183 185 175 0
30.580000 20.900000 6.160000 183 185 175 0
30.800000 20.900000 6.160000 191 193 183 0
31.020000 20.900000 6.160000 196 198 188 0
31.240000 20.900000 6.050000 199 201 191 0
31.460000 20.900000 7.150000 199 200 190 0
31.680000 20.900000 7.590000 200 201 191 0
31.900000 20.900000 7.700000 200 201 191 0
32.120000 20.900000 7.700000 200 201 191 0
32.340000 20.900000 7.700000 205 192 178 0
32.560000 20.900000 7.700000 197 184 170 0
32.780000 20.900000 7.700000 204 169 145 0
33.000000 20.900000 7.700000 197 162 138 0
33.220000 20.900000 7.700000 197 162 137 0
33.440000 20.900000 7.810000 200 165 140 0
33.660000 20.900000 7.810000 199 164 139 0
33.880000 20.900000 7.810000 199 164 139 0
34.100000 20.900000 7.810000 201 164 140 0
34.320000 20.900000 7.810000 202 165 141 0
34.540000 20.900000 7.810000 200 165 140 0
34.760000 20.900000 7.810000 200 165 140 0
34.980000 20.900000 8.580000 200 165 140 0
35.200000 20.900000 8.580000 200 165 140 0
35.420000 20.900000 8.580000 200 163 139 0
35.640000 20.900000 8.580000 200 163 139 0
35.860000 20.900000 7.920000 201 164 140 0
36.080000 20.900000 7.920000 200 163 139 0
36.300000 20.900000 8.030000 199 164 139 0
36.520000 20.900000 8.030000 200 165 140 0
36.740000 20.900000 8.030000 199 164 139 0
36.960000 20.900000 8.030000 200 165 140 0
37.180000 20.900000 8.030000 201 164 140 0
0.000000 21.120000 5.830000 128 132 112 0
0.220000 21.120000 5.060000 129 133 113 0
0.440000 21.120000 5.060000 128 132 112 0
0.660000 21.120000 5.060000 129 134 111 0
0.880000 21.120000 5.720000 128 133 110 0
1.100000 21.120000 6.490000 128 132 112 0
1.320000 21.120000 6.490000 129 133 113 0
1.540000 21.120000 5.830000 130 132 113 0
1.760000 21.120000 5.170000 130 132 113 0
1.980000 21.120000 5.170000 129 133 113 0
2.200000 21.120000 5.830000 128 132 112 0
2.420000 21.120000 6.380000 130 135 112 0
2.640000 21.120000 6.380000 129 134 111 0
2.860000 21.120000 7.150000 129 133 113 0
3.080000 21.120000 7.370000 129 133 113 0
3.300000 21.120000 7.370000 131 134 112 0
3.520000 21.120000 6.600000 131 134 112 0
3.740000 21.120000 5.940000 130 135 112 0
3.960000 21.120000 4.510000 129 134 111 0
4.180000 21.120000 4.620000 130 135 112 0
4.400000 21.120000 4.620000 129 134 111 0
4.620000 21.120000 4.620000 130 135 112 0
4.840000 21.120000 4.730000 130 135 112 0
5.060000 21.120000 4.620000 132 135 113 0
5.280000 21.120000 5.060000 133 136 114 0
5.500000 21.120000 4.950000 138 141 119 0
5.720000 21.120000 5.610000 147 150 128 0
5.940000 21.120000 5.610000 158 162 143 0
6.160000 21.120000 5.610000 164 168 149 0
6.380000 21.120000 5.610000 166 172 155 0
6.600000 21.120000 5.720000 168 174 157 0
6.820000 21.120000 5.720000 171 177 160 0
7.040000 21.120000 5.720000 174 180 163 0
7.260000 21.120000 6.380000 176 182 165 0
7.480000 21.120000 7.810000 178 184 167 0
7.700000 21.120000 7.810000 179 185 170 0
7.920000 21.120000 8.580000 182 188 173 0
8.140000 21.120000 8.580000 183 189 174 0
8.360000 21.120000 8.580000 185 191 176 0
8.580000 21.120000 8.580000 186 192 177 0
8.800000 21.120000 7.920000 187 193 178 0
9.020000 21.120000 7.920000 188 194 179 0
9.240000 21.120000 7.920000 190 196 181 0
9.460000 21.120000 8.030000 190 196 181 0
9.680000 21.120000 8.030000 191 197 182 0
9.900000 21.120000 8.030000 191 197 182 0
10.120000 21.120000 10.120000 192 198 183 0
10.340000 21.120000 14.300000 193 199 184 0
10.560000 21.120000 17.050000 193 199 184 0
10.780000 21.120000 18.480000 196 199 185 0
11.000000 21.120000 19.140000 196 199 185 0
11.220000 21.120000 19.250000 196 199 187 0
11.440000 21.120000 19.250000 196 199 187 0
11.660000 21.120000 19.250000 194 200 187 0
11.880000 21.120000 19.360000 194 200 187 0
12.100000 21.120000 19.800000 194 200 187 0
12.320000 21.120000 20.240000 194 200 187 0
12.540000 21.120000 20.790000 196 199 187 0
12.760000 21.120000 21.450000 196 199 187 0
12.980000 21.120000 21.450000 196 199 187 0
13.200000 21.120000 21.560000 195 198 186 0
13.420000 21.120000 20.900000 193 199 186 0
13.640000 21.120000 20.900000 195 201 188 0
13.860000 21.120000 16.060000 195 201 188 0
14.080000 21.120000 5.060000 195 201 188 0
14.300000 21.120000 0.220000 195 201 188 0
14.520000 21.120000 0.880000 195 201 188 0
14.740000 21.120000 0.880000 198 201 189 0
14.960000 21.120000 0.990000 197 200 188 0
15.180000 21.120000 0.990000 198 201 189 0
15.400000 21.120000 0.990000 198 201 189 0
15.620000 21.120000 0.990000 197 200 188 0
15.840000 21.120000 0.990000 197 200 188 0
16.060000 21.120000 0.990000 195 201 188 0
16.280000 21.120000 0.990000 195 201 188 0
16.500000 21.120000 0.990000 198 201 189 0
16.720000 21.120000 1.100000 198 201 189 0
16.940000 21.120000 0.440000 198 201 189 0
17.160000 21.120000 0.440000 199 202 190 0
17.380000 21.120000 1.100000 198 201 189 0
17.600000 21.120000 1.100000 199 202 190 0
17.820000 21.120000 1.100000 196 202 189 0
18.040000 21.120000 1.100000 196 202 189 0
18.260000 21.120000 1.210000 198 201 189 0
18.480000 21.120000 1.210000 198 201 189 0
18.700000 21.120000 1.210000 199 202 190 0
18.920000 21.120000 1.210000 198 201 189 0
19.140000 21.120000 1.210000 199 202 190 0
19.360000 21.120000 1.210000 199 202 190 0
19.580000 21.120000 1.210000 199 202 190 0
19.800000 21.120000 1.320000 199 202 190 0
20.020000 21.120000 1.320000 199 202 190 0
20.240000 21.120000 1.320000 198 201 189 0
20.460000 21.120000 1.320000 199 202 190 0
20.680000 21.120000 1.980000 199 202 190 0
20.900000 21.120000 1.980000 199 202 190 0
21.120000 21.120000 2.090000 199 202 190 0
21.340000 21.120000 1.870000 199 202 190 0
21.560000 21.120000 2.310000 200 203 191 0
21.780000 21.120000 2.750000 199 202 190 0
22.000000 21.120000 2.090000 199 202 190 0
22.220000 21.120000 2.090000 199 202 190 0
22.440000 21.120000 2.200000 199 202 190 0
22.660000 21.120000 2.860000 199 202 190 0
22.880000 21.120000 2.860000 200 203 191 0
23.100000 21.120000 2.860000 200 203 191 0
23.320000 21.120000 3.630000 201 204 192 0
23.540000 21.120000 3.630000 201 203 193 0
23.760000 21.120000 2.970000 203 205 195 0
23.980000 21.120000 2.970000 206 209 197 0
24.200000 21.120000 2.310000 209 212 200 0
24.420000 21.120000 1.650000 209 211 201 0
24.640000 21.120000 1.650000 206 208 198 0
24.860000 21.120000 1.650000 200 203 191 0
25.080000 21.120000 3.080000 192 195 183 0
25.300000 21.120000 3.740000 189 186 174 0
25.520000 21.120000 3.080000 188 185 173 0
25.740000 21.120000 3.080000 189 191 181 0
25.960000 21.120000 3.740000 194 196 186 0
26.180000 21.120000 3.740000 198 200 190 0
26.400000 21.120000 3.850000 198 200 190 0
26.620000 21.120000 3.850000 199 201 191 0
26.840000 21.120000 4.510000 199 201 191 0
27.060000 21.120000 4.510000 199 201 191 0
27.280000 21.120000 5.280000 199 201 191 0
27.500000 21.120000 5.280000 199 201 191 0
27.720000 21.120000 5.940000 199 201 191 0
27.940000 21.120000 6.050000 200 201 191 0
28.160000 21.120000 5.280000 201 202 192 0
28.380000 21.120000 5.390000 201 202 192 0
28.600000 21.120000 5.390000 201 202 192 0
28.820000 21.120000 5.390000 199 201 191 0
29.040000 21.120000 6.050000 199 201 191 0
29.260000 21.120000 6.050000 198 200 190 0
29.480000 21.120000 6.160000 198 200 190 0
29.700000 21.120000 6.160000 198 199 189 0
29.920000 21.120000 6.820000 197 198 188 0
30.140000 21.120000 6.160000 194 196 186 0
30.360000 21.120000 6.160000 195 197 187 0
30.580000 21.120000 6.160000 195 197 187 0
30.800000 21.120000 6.160000 197 199 189 0
31.020000 21.120000 6.160000 199 201 191 0
31.240000 21.120000 6.710000 198 200 190 0
31.460000 21.120000 7.150000 200 201 191 0
31.680000 21.120000 7.590000 200 201 191 0
31.900000 21.120000 7.700000 200 201 191 0
32.120000 21.120000 7.700000 201 202 192 0
32.340000 21.120000 7.700000 206 193 179 0
32.560000 21.120000 7.700000 196 183 169 0
32.780000 21.120000 7.700000 205 170 146 0
33.000000 21.120000 7.700000 197 162 138 0
33.220000 21.120000 7.700000 197 162 137 0
33.440000 21.120000 7.810000 200 165 140 0
33.660000 21.120000 7.810000 200 165 140 0
33.880000 21.120000 7.810000 199 164 139 0
34.100000 21.120000 7.810000 201 164 140 0
34.320000 21.120000 7.810000 201 164 140 0
34.540000 21.120000 7.810000 201 166 141 0
34.760000 21.120000 7.920000 200 165 140 0
34.980000 21.120000 8.580000 200 165 140 0
35.200000 21.120000 8.580000 200 165 140 0
35.420000 21.120000 8.580000 199 162 138 0
35.640000 21.120000 8.580000 199 162 138 0
35.860000 21.120000 7.920000 200 163 139 0
36.080000 21.120000 7.920000 201 164 140 0
36.300000 21.120000 8.030000 200 165 140 0
36.520000 21.120000 8.030000 199 164 139 0
36.740000 21.120000 8.030000 200 165 140 0
36.960000 21.120000 8.030000 200 165 140 0
37.180000 21.120000 8.030000 201 164 140 0
0.000000 21.340000 5.830000 128 132 112 0
0.220000 21.340000 5.060000 129 131 112 0
0.440000 21.340000 5.060000 129 131 112 0
0.660000 21.340000 5.060000 129 131 112 0
0.880000 21.340000 5.720000 129 131 112 0
1.100000 21.340000 6.490000 129 131 112 0
1.320000 21.340000 6.490000 130 132 113 0
1.540000 21.340000 5.830000 129 134 111 0
1.760000 21.340000 5.830000 129 134 111 0
1.980000 21.340000 5.170000 130 133 111 0
2.200000 21.340000 5.830000 130 133 111 0
2.420000 21.340000 5.720000 129 132 110 0
2.640000 21.340000 6.380000 130 133 111 0
2.860000 21.340000 6.490000 130 132 113 0
3.080000 21.340000 7.370000 130 132 113 0
3.300000 21.340000 8.030000 129 134 111 0
3.520000 21.340000 7.260000 130 135 112 0
3.740000 21.340000 5.940000 130 133 111 0
3.960000 21.340000 5.280000 131 134 112 0
4.180000 21.340000 4.620000 131 134 112 0
4.400000 21.340000 5.280000 130 133 111 0
4.620000 21.340000 4.620000 131 134 112 0
4.840000 21.340000 4.730000 130 133 111 0
5.060000 21.340000 4.070000 131 134 112 0
5.280000 21.340000 4.510000 132 135 113 0
5.500000 21.340000 4.950000 136 139 117 0
5.720000 21.340000 5.610000 147 150 128 0
5.940000 21.340000 5.610000 154 160 143 0
6.160000 21.340000 5.610000 162 168 151 0
6.380000 21.340000 5.610000 167 170 154 0
6.600000 21.340000 5.720000 170 173 157 0
6.820000 21.340000 5.720000 170 176 159 0
7.040000 21.340000 6.380000 174 180 163 0
7.260000 21.340000 7.150000 176 182 165 0
7.480000 21.340000 7.810000 176 182 165 0
7.700000 21.340000 7.810000 180 186 171 0
7.920000 21.340000 7.810000 181 187 172 0
8.140000 21.340000 8.580000 183 189 174 0
8.360000 21.340000 8.580000 184 190 175 0
8.580000 21.340000 8.580000 185 192 179 0
8.800000 21.340000 7.920000 186 193 180 0
9.020000 21.340000 7.920000 189 195 180 0
9.240000 21.340000 7.920000 191 197 182 0
9.460000 21.340000 8.030000 191 197 182 0
9.680000 21.340000 8.030000 192 198 183 0
9.900000 21.340000 8.690000 191 197 184 0
10.120000 21.340000 10.780000 193 199 186 0
10.340000 21.340000 14.300000 192 198 185 0
10.560000 21.340000 17.050000 194 200 187 0
10.780000 21.340000 18.480000 194 200 187 0
11.000000 21.340000 19.140000 194 200 187 0
11.220000 21.340000 19.250000 195 201 188 0
11.440000 21.340000 19.250000 194 200 187 0
11.660000 21.340000 19.250000 194 200 187 0
11.880000 21.340000 19.360000 194 200 187 0
12.100000 21.340000 19.910000 193 199 186 0
12.320000 21.340000 20.240000 194 200 187 0
12.540000 21.340000 20.790000 194 200 187 0
12.760000 21.340000 21.450000 194 200 187 0
12.980000 21.340000 21.450000 194 200 187 0
13.200000 21.340000 20.790000 193 199 186 0
13.420000 21.340000 20.900000 193 199 186 0
13.640000 21.340000 20.900000 194 200 187 0
13.860000 21.340000 16.060000 194 200 187 0
14.080000 21.340000 5.720000 194 200 187 0
14.300000 21.340000 0.220000 195 201 188 0
14.520000 21.340000 0.880000 196 202 189 0
14.740000 21.340000 0.880000 196 202 189 0
14.960000 21.340000 0.990000 195 201 188 0
15.180000 21.340000 0.990000 195 201 188 0
15.400000 21.340000 0.990000 195 201 188 0
15.620000 21.340000 0.990000 195 201 188 0
15.840000 21.340000 0.990000 196 202 189 0
16.060000 21.340000 0.990000 195 201 188 0
16.280000 21.340000 0.990000 195 201 188 0
16.500000 21.340000 1.100000 196 202 189 0
16.720000 21.340000 0.330000 196 202 189 0
16.940000 21.340000 0.440000 196 202 189 0
17.160000 21.340000 0.440000 196 202 189 0
17.380000 21.340000 1.100000 196 202 189 0
17.600000 21.340000 1.100000 197 203 190 0
17.820000 21.340000 1.100000 196 202 189 0
18.040000 21.340000 1.100000 196 202 189 0
18.260000 21.340000 1.210000 196 202 189 0
18.480000 21.340000 1.210000 196 202 189 0
18.700000 21.340000 1.210000 197 203 190 0
18.920000 21.340000 1.210000 196 202 189 0
19.140000 21.340000 1.210000 199 201 191 0
19.360000 21.340000 1.210000 199 201 191 0
19.580000 21.340000 1.210000 199 202 190 0
19.800000 21.340000 1.320000 199 202 190 0
20.020000 21.340000 1.320000 197 203 190 0
20.240000 21.340000 1.320000 197 203 190 0
