ply
format ascii 1.0
element vertex 1130
property float x
property float y
property float z
property uchar red
property uchar green
property uchar blue
property uchar alpha
end_header
30.580000 4.840000 15.730000 208 161 140 0
30.800000 4.840000 16.390000 205 153 135 0
31.020000 4.840000 16.390000 201 149 131 0
31.240000 4.840000 17.820000 198 140 124 0
31.460000 4.840000 19.250000 195 137 121 0
31.680000 4.840000 16.390000 191 135 118 0
31.900000 4.840000 7.480000 191 135 118 0
32.120000 4.840000 1.210000 191 137 120 0
32.780000 4.840000 0.660000 200 151 132 0
33.000000 4.840000 7.480000 199 155 139 0
33.220000 4.840000 16.170000 200 156 140 0
33.440000 4.840000 20.130000 201 163 147 0
33.660000 4.840000 20.130000 203 165 149 0
33.880000 4.840000 20.790000 207 169 151 0
34.100000 4.840000 20.790000 208 170 152 0
34.320000 4.840000 16.720000 210 170 155 0
34.540000 4.840000 7.810000 211 171 156 0
34.760000 4.840000 1.540000 212 174 156 0
34.980000 4.840000 0.220000 213 175 157 0
35.200000 4.840000 0.220000 217 177 162 0
35.420000 4.840000 0.220000 215 175 160 0
35.640000 4.840000 0.990000 215 176 156 0
35.860000 4.840000 0.990000 216 177 157 0
36.080000 4.840000 0.330000 218 179 159 0
36.300000 4.840000 0.990000 219 180 160 0
36.520000 4.840000 1.100000 217 183 168 0
36.740000 4.840000 1.100000 218 184 169 0
36.960000 4.840000 1.100000 222 184 168 0
37.180000 4.840000 1.100000 223 185 169 0
0.000000 5.060000 7.150000 197 201 181 0
0.220000 5.060000 6.490000 197 201 181 0
0.440000 5.060000 6.600000 197 201 181 0
0.660000 5.060000 6.600000 196 200 180 0
0.880000 5.060000 6.600000 196 200 180 0
1.100000 5.060000 6.600000 197 201 181 0
1.320000 5.060000 6.600000 204 196 170 0
1.540000 5.060000 6.600000 193 185 159 0
1.760000 5.060000 6.710000 204 170 137 0
1.980000 5.060000 6.820000 197 163 130 0
2.200000 5.060000 6.710000 193 158 123 0
2.420000 5.060000 7.810000 195 160 125 0
2.640000 5.060000 7.700000 196 159 125 0
2.860000 5.060000 7.700000 196 159 125 0
3.080000 5.060000 7.810000 195 158 124 0
3.300000 5.060000 7.810000 195 158 124 0
3.520000 5.060000 7.810000 192 157 122 0
3.740000 5.060000 8.580000 193 158 123 0
3.960000 5.060000 8.580000 193 156 122 0
4.180000 5.060000 8.580000 194 157 123 0
4.400000 5.060000 8.580000 193 156 122 0
4.620000 5.060000 8.580000 193 156 122 0
4.840000 5.060000 9.240000 194 157 123 0
5.060000 5.060000 9.350000 194 157 123 0
5.280000 5.060000 9.350000 195 160 125 0
5.500000 5.060000 9.350000 196 161 126 0
5.720000 5.060000 9.350000 197 160 126 0
5.940000 5.060000 9.350000 199 162 128 0
6.160000 5.060000 9.350000 199 162 128 0
6.380000 5.060000 9.350000 199 162 128 0
6.600000 5.060000 9.350000 198 161 127 0
6.820000 5.060000 9.350000 198 161 127 0
7.040000 5.060000 9.460000 197 160 126 0
7.260000 5.060000 9.460000 197 160 126 0
7.480000 5.060000 9.460000 199 160 126 0
7.700000 5.060000 9.460000 198 159 125 0
7.920000 5.060000 9.460000 199 160 126 0
8.140000 5.060000 9.460000 199 160 126 0
8.360000 5.060000 9.460000 198 159 125 0
8.580000 5.060000 9.460000 197 158 124 0
8.800000 5.060000 9.460000 197 158 124 0
9.020000 5.060000 9.570000 197 158 124 0
9.240000 5.060000 9.570000 198 159 125 0
9.460000 5.060000 9.570000 197 158 124 0
9.680000 5.060000 9.570000 197 158 124 0
9.900000 5.060000 8.910000 197 158 124 0
10.120000 5.060000 9.570000 197 158 124 0
10.340000 5.060000 9.900000 197 158 124 0
10.560000 5.060000 10.450000 199 160 126 0
10.780000 5.060000 10.450000 199 160 126 0
11.000000 5.060000 10.450000 200 160 129 0
11.220000 5.060000 10.450000 200 160 129 0
11.440000 5.060000 10.450000 200 160 129 0
11.660000 5.060000 10.450000 200 160 129 0
11.880000 5.060000 10.560000 200 160 129 0
12.100000 5.060000 10.560000 200 160 129 0
12.320000 5.060000 10.560000 199 159 128 0
12.540000 5.060000 10.560000 199 159 128 0
12.760000 5.060000 10.560000 199 159 128 0
12.980000 5.060000 10.560000 200 160 129 0
13.200000 5.060000 10.560000 200 160 129 0
13.420000 5.060000 10.670000 200 160 129 0
13.640000 5.060000 9.900000 199 159 128 0
13.860000 5.060000 9.900000 199 159 128 0
14.080000 5.060000 10.010000 200 160 130 0
14.300000 5.060000 10.670000 199 159 129 0
14.520000 5.060000 10.670000 200 160 129 0
14.740000 5.060000 10.010000 200 160 129 0
14.960000 5.060000 10.010000 201 160 129 0
15.180000 5.060000 10.010000 200 159 128 0
15.400000 5.060000 10.010000 201 160 129 0
15.620000 5.060000 10.120000 201 160 129 0
15.840000 5.060000 10.120000 202 160 131 0
16.060000 5.060000 10.120000 200 158 129 0
16.280000 5.060000 10.120000 202 161 130 0
16.500000 5.060000 10.120000 201 160 129 0
16.720000 5.060000 10.120000 203 161 132 0
16.940000 5.060000 10.120000 203 161 132 0
17.160000 5.060000 10.120000 202 161 130 0
17.380000 5.060000 10.120000 202 161 130 0
17.600000 5.060000 10.890000 200 158 129 0
17.820000 5.060000 10.890000 202 160 131 0
18.040000 5.060000 10.890000 201 159 130 0
18.260000 5.060000 11.660000 201 159 130 0
18.480000 5.060000 11.660000 199 158 127 0
18.700000 5.060000 11.660000 200 159 128 0
18.920000 5.060000 11.660000 201 159 130 0
19.140000 5.060000 12.320000 201 159 130 0
19.360000 5.060000 13.420000 201 159 130 0
19.580000 5.060000 13.860000 201 159 130 0
19.800000 5.060000 13.860000 200 158 129 0
20.020000 5.060000 13.860000 200 158 129 0
20.240000 5.060000 13.860000 205 160 132 0
20.460000 5.060000 14.630000 208 163 135 0
20.680000 5.060000 16.060000 211 169 140 0
20.900000 5.060000 16.830000 220 178 149 0
21.120000 5.060000 18.260000 229 187 158 0
21.340000 5.060000 18.920000 234 192 163 0
21.560000 5.060000 19.580000 237 195 166 0
21.780000 5.060000 19.580000 238 196 167 0
22.000000 5.060000 19.470000 239 195 165 0
22.220000 5.060000 19.470000 238 194 164 0
22.440000 5.060000 19.470000 237 193 163 0
22.660000 5.060000 19.470000 237 193 163 0
22.880000 5.060000 19.470000 234 192 163 0
23.100000 5.060000 19.470000 235 193 164 0
23.320000 5.060000 19.470000 236 194 165 0
23.540000 5.060000 19.470000 237 195 166 0
23.760000 5.060000 19.470000 237 195 166 0
23.980000 5.060000 20.240000 237 195 166 0
24.200000 5.060000 20.240000 237 195 166 0
24.420000 5.060000 20.240000 237 195 166 0
24.640000 5.060000 20.350000 237 195 166 0
24.860000 5.060000 20.350000 237 195 166 0
25.080000 5.060000 20.350000 236 194 165 0
25.300000 5.060000 16.940000 237 195 166 0
25.520000 5.060000 8.690000 236 194 165 0
25.740000 5.060000 4.510000 237 195 166 0
25.960000 5.060000 8.690000 237 197 169 0
26.180000 5.060000 16.390000 238 198 170 0
26.400000 5.060000 20.570000 237 198 176 0
26.620000 5.060000 19.910000 238 199 177 0
26.840000 5.060000 19.910000 238 199 177 0
27.060000 5.060000 20.020000 238 199 177 0
27.280000 5.060000 15.180000 237 200 176 0
27.500000 5.060000 7.370000 237 200 176 0
27.720000 5.060000 9.900000 238 200 176 0
27.940000 5.060000 16.060000 238 200 176 0
28.160000 5.060000 16.170000 237 200 179 0
28.380000 5.060000 14.080000 238 201 180 0
28.600000 5.060000 12.760000 238 199 177 0
28.820000 5.060000 12.100000 237 198 176 0
29.040000 5.060000 12.100000 236 198 174 0
29.260000 5.060000 12.100000 234 196 172 0
29.480000 5.060000 11.440000 234 192 173 0
29.700000 5.060000 11.550000 231 189 170 0
29.920000 5.060000 10.120000 226 185 163 0
30.140000 5.060000 10.890000 221 180 158 0
30.360000 5.060000 14.300000 220 174 154 0
30.580000 5.060000 16.390000 216 170 150 0
30.800000 5.060000 16.500000 210 162 143 0
31.020000 5.060000 17.160000 202 154 135 0
31.240000 5.060000 17.820000 198 144 127 0
31.460000 5.060000 18.480000 195 141 124 0
31.680000 5.060000 14.410000 194 134 118 0
31.900000 5.060000 4.730000 191 131 115 0
32.120000 5.060000 0.550000 193 131 115 0
33.000000 5.060000 3.850000 198 148 134 0
33.220000 5.060000 13.310000 201 151 137 0
33.440000 5.060000 19.360000 201 157 139 0
33.660000 5.060000 20.790000 204 160 142 0
33.880000 5.060000 20.790000 205 162 148 0
34.100000 5.060000 20.900000 208 165 151 0
34.320000 5.060000 19.470000 211 168 154 0
34.540000 5.060000 13.310000 212 169 155 0
34.760000 5.060000 3.630000 213 170 156 0
34.980000 5.060000 0.220000 214 171 157 0
35.200000 5.060000 0.220000 214 175 157 0
35.420000 5.060000 1.650000 214 175 157 0
35.640000 5.060000 3.080000 216 174 155 0
35.860000 5.060000 1.650000 219 177 158 0
36.080000 5.060000 0.330000 217 178 160 0
36.300000 5.060000 0.330000 219 180 162 0
36.520000 5.060000 1.100000 219 180 162 0
36.740000 5.060000 1.100000 221 182 164 0
36.960000 5.060000 1.100000 221 182 164 0
37.180000 5.060000 1.210000 222 183 165 0
0.000000 5.280000 6.490000 197 201 181 0
0.220000 5.280000 6.490000 197 201 181 0
0.440000 5.280000 6.600000 197 201 181 0
0.660000 5.280000 6.600000 196 200 180 0
0.880000 5.280000 6.600000 196 200 180 0
1.100000 5.280000 6.600000 196 200 180 0
1.320000 5.280000 6.600000 203 195 169 0
1.540000 5.280000 6.600000 193 185 159 0
1.760000 5.280000 6.600000 204 170 137 0
1.980000 5.280000 6.710000 196 162 129 0
2.200000 5.280000 7.260000 194 159 124 0
2.420000 5.280000 7.810000 195 160 125 0
2.640000 5.280000 7.700000 196 159 125 0
2.860000 5.280000 7.700000 196 159 125 0
3.080000 5.280000 7.810000 195 158 124 0
3.300000 5.280000 7.810000 195 158 124 0
3.520000 5.280000 7.810000 194 159 124 0
3.740000 5.280000 8.580000 192 157 122 0
3.960000 5.280000 8.580000 194 157 123 0
4.180000 5.280000 8.580000 192 155 121 0
4.400000 5.280000 8.580000 193 156 122 0
4.620000 5.280000 8.580000 192 155 121 0
4.840000 5.280000 9.240000 194 157 123 0
5.060000 5.280000 9.240000 194 157 123 0
5.280000 5.280000 9.350000 194 159 124 0
5.500000 5.280000 9.350000 195 160 125 0
5.720000 5.280000 9.350000 197 160 126 0
5.940000 5.280000 9.350000 197 160 126 0
6.160000 5.280000 9.350000 197 160 126 0
6.380000 5.280000 9.350000 198 161 127 0
6.600000 5.280000 9.350000 198 161 127 0
6.820000 5.280000 9.350000 198 161 127 0
7.040000 5.280000 9.460000 199 162 128 0
7.260000 5.280000 9.460000 199 162 128 0
7.480000 5.280000 9.460000 200 161 127 0
7.700000 5.280000 9.460000 199 160 126 0
7.920000 5.280000 9.460000 198 159 125 0
8.140000 5.280000 9.460000 198 159 125 0
8.360000 5.280000 9.460000 199 160 126 0
8.580000 5.280000 9.460000 198 159 125 0
8.800000 5.280000 9.460000 197 158 124 0
9.020000 5.280000 9.460000 198 159 125 0
9.240000 5.280000 9.570000 198 159 125 0
9.460000 5.280000 9.570000 197 158 124 0
9.680000 5.280000 9.570000 197 158 124 0
9.900000 5.280000 8.910000 197 158 124 0
10.120000 5.280000 9.460000 196 157 123 0
10.340000 5.280000 9.900000 197 158 124 0
10.560000 5.280000 10.450000 198 159 125 0
10.780000 5.280000 10.450000 197 158 124 0
11.000000 5.280000 10.450000 199 159 128 0
11.220000 5.280000 10.450000 200 160 129 0
11.440000 5.280000 10.450000 201 161 130 0
11.660000 5.280000 10.560000 202 162 131 0
11.880000 5.280000 10.560000 201 161 130 0
12.100000 5.280000 10.560000 200 160 129 0
12.320000 5.280000 10.560000 200 160 129 0
12.540000 5.280000 10.560000 200 160 129 0
12.760000 5.280000 10.560000 200 160 129 0
12.980000 5.280000 10.560000 200 160 129 0
13.200000 5.280000 10.670000 200 160 129 0
13.420000 5.280000 9.900000 199 159 128 0
13.640000 5.280000 9.900000 200 160 129 0
13.860000 5.280000 10.010000 200 160 129 0
14.080000 5.280000 10.010000 199 159 129 0
14.300000 5.280000 10.010000 200 160 130 0
14.520000 5.280000 10.010000 200 160 129 0
14.740000 5.280000 10.010000 199 159 128 0
14.960000 5.280000 10.010000 200 159 128 0
15.180000 5.280000 10.010000 200 159 128 0
15.400000 5.280000 10.010000 200 159 128 0
15.620000 5.280000 10.120000 200 159 128 0
15.840000 5.280000 10.120000 200 158 129 0
16.060000 5.280000 10.120000 201 159 130 0
16.280000 5.280000 10.120000 201 160 129 0
16.500000 5.280000 10.120000 201 160 129 0
16.720000 5.280000 10.120000 202 160 131 0
16.940000 5.280000 10.120000 202 160 131 0
17.160000 5.280000 10.120000 201 160 129 0
17.380000 5.280000 10.120000 201 160 129 0
17.600000 5.280000 10.890000 201 159 130 0
17.820000 5.280000 10.890000 201 159 130 0
18.040000 5.280000 10.890000 200 158 129 0
18.260000 5.280000 11.660000 201 159 130 0
18.480000 5.280000 11.660000 199 158 127 0
18.700000 5.280000 11.660000 200 159 128 0
18.920000 5.280000 11.660000 201 159 130 0
19.140000 5.280000 12.210000 201 159 130 0
19.360000 5.280000 13.310000 200 158 129 0
19.580000 5.280000 13.860000 202 160 131 0
19.800000 5.280000 13.860000 200 158 129 0
20.020000 5.280000 13.200000 201 159 130 0
20.240000 5.280000 13.200000 204 159 131 0
20.460000 5.280000 14.630000 207 162 134 0
20.680000 5.280000 16.060000 210 168 139 0
20.900000 5.280000 16.830000 220 178 149 0
21.120000 5.280000 18.150000 227 185 156 0
21.340000 5.280000 18.920000 234 192 163 0
21.560000 5.280000 19.580000 236 194 165 0
21.780000 5.280000 19.580000 237 195 166 0
22.000000 5.280000 19.580000 239 195 165 0
22.220000 5.280000 19.470000 237 193 163 0
22.440000 5.280000 18.810000 237 193 163 0
22.660000 5.280000 19.470000 237 193 163 0
22.880000 5.280000 19.470000 236 194 165 0
23.100000 5.280000 19.470000 236 194 165 0
23.320000 5.280000 19.470000 237 195 166 0
23.540000 5.280000 19.470000 237 195 166 0
23.760000 5.280000 19.580000 236 194 165 0
23.980000 5.280000 19.580000 237 195 166 0
24.200000 5.280000 20.240000 237 195 166 0
24.420000 5.280000 20.350000 238 196 167 0
24.640000 5.280000 20.350000 237 195 166 0
24.860000 5.280000 20.350000 237 195 166 0
25.080000 5.280000 20.350000 236 194 165 0
25.300000 5.280000 19.030000 236 194 165 0
25.520000 5.280000 16.280000 237 195 166 0
25.740000 5.280000 15.620000 239 197 168 0
25.960000 5.280000 16.280000 238 198 170 0
26.180000 5.280000 19.140000 239 199 171 0
26.400000 5.280000 20.570000 238 199 177 0
26.620000 5.280000 19.910000 239 200 178 0
26.840000 5.280000 19.910000 239 200 178 0
27.060000 5.280000 18.590000 240 201 179 0
27.280000 5.280000 12.320000 239 202 178 0
27.500000 5.280000 7.920000 239 202 178 0
27.720000 5.280000 11.880000 240 202 178 0
27.940000 5.280000 16.060000 239 201 177 0
28.160000 5.280000 15.510000 238 201 180 0
28.380000 5.280000 13.420000 238 201 180 0
28.600000 5.280000 12.760000 239 200 178 0
28.820000 5.280000 12.100000 238 199 177 0
29.040000 5.280000 12.100000 237 199 175 0
29.260000 5.280000 11.440000 235 197 173 0
29.480000 5.280000 11.550000 237 195 176 0
29.700000 5.280000 11.550000 233 191 172 0
29.920000 5.280000 9.460000 230 189 167 0
30.140000 5.280000 10.230000 226 185 163 0
30.360000 5.280000 13.640000 225 179 159 0
30.580000 5.280000 15.730000 219 173 153 0
30.800000 5.280000 16.500000 217 169 150 0
31.020000 5.280000 17.160000 211 163 144 0
31.240000 5.280000 17.820000 208 154 137 0
31.460000 5.280000 18.590000 199 145 128 0
31.680000 5.280000 13.750000 198 138 122 0
31.900000 5.280000 4.730000 193 133 117 0
32.120000 5.280000 0.550000 192 130 114 0
32.340000 5.280000 0.550000 192 130 114 0
33.000000 5.280000 1.650000 189 139 125 0
33.220000 5.280000 8.360000 193 143 129 0
33.440000 5.280000 16.610000 197 153 135 0
33.660000 5.280000 20.790000 201 157 139 0
33.880000 5.280000 20.130000 203 160 146 0
34.100000 5.280000 20.130000 204 161 147 0
34.320000 5.280000 20.900000 207 164 150 0
34.540000 5.280000 16.720000 210 167 153 0
34.760000 5.280000 7.810000 211 168 154 0
34.980000 5.280000 2.310000 212 169 155 0
35.200000 5.280000 3.740000 211 172 154 0
35.420000 5.280000 7.920000 214 175 157 0
35.640000 5.280000 10.670000 216 174 155 0
35.860000 5.280000 7.920000 218 176 157 0
36.080000 5.280000 5.170000 217 178 160 0
36.300000 5.280000 3.850000 219 180 162 0
36.520000 5.280000 1.760000 219 180 162 0
36.740000 5.280000 1.100000 220 181 163 0
36.960000 5.280000 1.100000 220 181 163 0
37.180000 5.280000 1.210000 220 181 163 0
0.000000 5.500000 6.490000 197 201 181 0
0.220000 5.500000 6.600000 197 201 181 0
0.440000 5.500000 6.600000 196 200 180 0
0.660000 5.500000 6.600000 196 200 180 0
0.880000 5.500000 5.940000 197 199 180 0
1.100000 5.500000 5.940000 196 198 179 0
1.320000 5.500000 6.600000 202 194 168 0
1.540000 5.500000 6.600000 193 185 159 0
1.760000 5.500000 7.150000 204 170 137 0
1.980000 5.500000 7.150000 197 163 130 0
2.200000 5.500000 7.700000 194 159 124 0
2.420000 5.500000 7.700000 195 160 125 0
2.640000 5.500000 7.700000 196 159 125 0
2.860000 5.500000 7.700000 195 158 124 0
3.080000 5.500000 7.810000 196 159 125 0
3.300000 5.500000 7.810000 195 158 124 0
3.520000 5.500000 7.810000 195 158 124 0
3.740000 5.500000 7.810000 194 157 123 0
3.960000 5.500000 8.580000 193 156 122 0
4.180000 5.500000 8.580000 192 155 121 0
4.400000 5.500000 8.580000 192 155 121 0
4.620000 5.500000 8.580000 193 156 122 0
4.840000 5.500000 8.580000 191 154 122 0
5.060000 5.500000 9.240000 194 157 125 0
5.280000 5.500000 9.240000 193 156 122 0
5.500000 5.500000 9.350000 195 158 124 0
5.720000 5.500000 9.350000 195 158 124 0
5.940000 5.500000 9.350000 196 159 125 0
6.160000 5.500000 9.350000 196 159 125 0
6.380000 5.500000 9.350000 196 159 125 0
6.600000 5.500000 9.350000 197 160 126 0
6.820000 5.500000 9.350000 198 161 127 0
7.040000 5.500000 9.460000 197 160 126 0
7.260000 5.500000 9.460000 198 161 127 0
7.480000 5.500000 9.460000 200 160 129 0
7.700000 5.500000 9.460000 199 159 128 0
7.920000 5.500000 9.460000 199 160 126 0
8.140000 5.500000 9.460000 199 160 126 0
8.360000 5.500000 9.460000 199 160 126 0
8.580000 5.500000 9.460000 199 160 126 0
8.800000 5.500000 9.460000 198 159 125 0
9.020000 5.500000 9.460000 198 159 125 0
9.240000 5.500000 9.460000 197 157 126 0
9.460000 5.500000 9.570000 197 157 126 0
9.680000 5.500000 9.570000 198 159 125 0
9.900000 5.500000 9.570000 196 157 123 0
10.120000 5.500000 9.570000 197 156 125 0
10.340000 5.500000 9.460000 198 157 126 0
10.560000 5.500000 9.900000 197 156 123 0
10.780000 5.500000 10.450000 199 158 125 0
11.000000 5.500000 10.450000 197 157 126 0
11.220000 5.500000 10.450000 198 158 127 0
11.440000 5.500000 10.450000 199 159 128 0
11.660000 5.500000 10.560000 199 159 128 0
11.880000 5.500000 10.560000 200 160 129 0
12.100000 5.500000 10.560000 201 161 130 0
12.320000 5.500000 10.560000 202 162 131 0
12.540000 5.500000 10.560000 200 160 129 0
12.760000 5.500000 10.560000 201 161 130 0
12.980000 5.500000 10.670000 200 160 129 0
13.200000 5.500000 10.670000 200 160 129 0
13.420000 5.500000 9.900000 201 161 130 0
13.640000 5.500000 10.010000 200 160 129 0
13.860000 5.500000 10.010000 200 160 129 0
14.080000 5.500000 10.010000 201 160 129 0
14.300000 5.500000 10.010000 201 160 129 0
14.520000 5.500000 10.010000 200 158 129 0
14.740000 5.500000 10.010000 200 158 129 0
14.960000 5.500000 10.010000 200 158 129 0
15.180000 5.500000 10.010000 200 158 129 0
15.400000 5.500000 10.010000 199 157 128 0
15.620000 5.500000 10.120000 200 158 129 0
15.840000 5.500000 10.120000 200 159 128 0
16.060000 5.500000 10.120000 201 160 129 0
16.280000 5.500000 10.120000 201 159 130 0
16.500000 5.500000 10.120000 201 159 130 0
16.720000 5.500000 10.120000 202 161 130 0
16.940000 5.500000 10.120000 201 160 129 0
17.160000 5.500000 10.120000 201 159 130 0
17.380000 5.500000 10.120000 202 160 131 0
17.600000 5.500000 10.230000 199 157 128 0
17.820000 5.500000 10.890000 200 158 129 0
18.040000 5.500000 10.890000 203 158 130 0
18.260000 5.500000 11.660000 202 157 129 0
18.480000 5.500000 11.660000 202 157 129 0
18.700000 5.500000 11.660000 202 157 129 0
18.920000 5.500000 11.660000 200 158 129 0
19.140000 5.500000 12.210000 200 158 129 0
19.360000 5.500000 13.310000 203 158 130 0
19.580000 5.500000 13.860000 202 157 129 0
19.800000 5.500000 13.860000 201 159 130 0
20.020000 5.500000 13.200000 201 159 130 0
20.240000 5.500000 13.200000 204 159 131 0
20.460000 5.500000 14.630000 207 162 134 0
20.680000 5.500000 16.060000 210 168 141 0
20.900000 5.500000 16.830000 220 178 151 0
21.120000 5.500000 18.150000 228 186 157 0
21.340000 5.500000 18.920000 235 193 164 0
21.560000 5.500000 18.920000 236 194 165 0
21.780000 5.500000 19.580000 237 195 166 0
22.000000 5.500000 19.580000 238 194 164 0
22.220000 5.500000 19.580000 238 194 164 0
22.440000 5.500000 19.470000 236 195 164 0
22.660000 5.500000 19.470000 236 195 164 0
22.880000 5.500000 19.470000 236 194 165 0
23.100000 5.500000 19.470000 236 194 165 0
23.320000 5.500000 19.470000 237 195 166 0
23.540000 5.500000 19.470000 237 195 166 0
23.760000 5.500000 19.580000 237 195 166 0
23.980000 5.500000 20.240000 237 195 166 0
24.200000 5.500000 20.240000 238 196 167 0
24.420000 5.500000 20.350000 238 196 167 0
24.640000 5.500000 20.350000 238 196 167 0
24.860000 5.500000 20.350000 237 195 166 0
25.080000 5.500000 20.350000 236 194 165 0
25.300000 5.500000 20.350000 236 194 165 0
25.520000 5.500000 20.460000 237 197 169 0
25.740000 5.500000 20.460000 238 198 170 0
25.960000 5.500000 20.460000 236 198 174 0
26.180000 5.500000 20.460000 237 199 175 0
26.400000 5.500000 20.570000 238 201 178 0
26.620000 5.500000 20.570000 239 202 179 0
26.840000 5.500000 19.910000 239 204 180 0
27.060000 5.500000 15.840000 239 204 180 0
27.280000 5.500000 7.480000 238 205 183 0
27.500000 5.500000 5.830000 237 204 182 0
27.720000 5.500000 13.970000 240 204 183 0
27.940000 5.500000 16.830000 240 204 183 0
28.160000 5.500000 14.850000 239 203 182 0
28.380000 5.500000 13.420000 239 203 182 0
28.600000 5.500000 12.100000 238 203 179 0
28.820000 5.500000 11.440000 237 202 178 0
29.040000 5.500000 11.440000 237 200 177 0
29.260000 5.500000 11.440000 236 199 176 0
29.480000 5.500000 11.550000 236 197 177 0
29.700000 5.500000 11.550000 234 195 175 0
29.920000 5.500000 10.120000 233 191 172 0
30.140000 5.500000 10.230000 229 187 168 0
30.360000 5.500000 12.320000 227 184 163 0
30.580000 5.500000 15.070000 224 181 160 0
30.800000 5.500000 15.730000 220 174 153 0
31.020000 5.500000 16.390000 215 169 148 0
31.240000 5.500000 17.820000 211 165 145 0
31.460000 5.500000 17.820000 204 158 138 0
31.680000 5.500000 15.070000 199 147 129 0
31.900000 5.500000 7.480000 193 141 123 0
32.120000 5.500000 2.640000 192 133 114 0
32.340000 5.500000 1.980000 190 131 112 0
32.560000 5.500000 0.660000 187 129 113 0
32.780000 5.500000 0.550000 187 129 113 0
33.000000 5.500000 0.880000 186 134 118 0
33.220000 5.500000 4.840000 190 138 122 0
33.440000 5.500000 13.200000 195 143 127 0
33.660000 5.500000 19.470000 200 148 132 0
33.880000 5.500000 20.130000 201 154 141 0
34.100000 5.500000 20.240000 204 157 144 0
34.320000 5.500000 20.240000 205 162 148 0
34.540000 5.500000 19.580000 208 165 151 0
34.760000 5.500000 14.080000 209 165 147 0
34.980000 5.500000 9.900000 211 167 149 0
35.200000 5.500000 12.760000 212 170 153 0
35.420000 5.500000 16.830000 214 172 155 0
35.640000 5.500000 18.260000 215 173 156 0
35.860000 5.500000 16.940000 218 176 159 0
36.080000 5.500000 15.510000 219 177 158 0
36.300000 5.500000 11.440000 221 179 160 0
36.520000 5.500000 4.510000 220 181 161 0
36.740000 5.500000 1.100000 220 181 161 0
36.960000 5.500000 1.100000 220 181 163 0
37.180000 5.500000 1.210000 219 180 162 0
0.000000 5.720000 6.600000 197 201 181 0
0.220000 5.720000 6.600000 197 201 181 0
0.440000 5.720000 6.600000 196 200 180 0
0.660000 5.720000 5.940000 196 200 180 0
0.880000 5.720000 6.050000 197 199 180 0
1.100000 5.720000 6.050000 196 198 179 0
1.320000 5.720000 5.940000 202 194 168 0
1.540000 5.720000 6.490000 195 187 161 0
1.760000 5.720000 7.040000 204 170 137 0
1.980000 5.720000 7.700000 198 164 131 0
2.200000 5.720000 7.700000 194 159 124 0
2.420000 5.720000 7.700000 195 160 125 0
2.640000 5.720000 7.700000 195 158 124 0
2.860000 5.720000 7.700000 195 158 124 0
3.080000 5.720000 7.810000 195 158 124 0
3.300000 5.720000 7.810000 195 158 124 0
3.520000 5.720000 7.810000 196 159 125 0
3.740000 5.720000 7.810000 195 158 124 0
3.960000 5.720000 8.580000 194 157 123 0
4.180000 5.720000 8.580000 194 157 123 0
4.400000 5.720000 8.580000 193 156 122 0
4.620000 5.720000 8.580000 191 154 120 0
4.840000 5.720000 8.580000 192 155 123 0
5.060000 5.720000 8.580000 192 155 123 0
5.280000 5.720000 9.240000 194 157 123 0
5.500000 5.720000 9.350000 194 157 123 0
5.720000 5.720000 9.350000 195 158 124 0
5.940000 5.720000 9.350000 195 158 124 0
6.160000 5.720000 9.350000 196 159 125 0
6.380000 5.720000 9.350000 196 159 125 0
6.600000 5.720000 9.350000 197 160 126 0
6.820000 5.720000 9.350000 197 160 126 0
7.040000 5.720000 9.460000 197 160 126 0
7.260000 5.720000 9.460000 198 161 127 0
7.480000 5.720000 9.460000 199 159 128 0
7.700000 5.720000 9.460000 200 160 129 0
7.920000 5.720000 9.460000 200 161 127 0
8.140000 5.720000 9.460000 200 161 127 0
8.360000 5.720000 9.460000 201 162 128 0
8.580000 5.720000 9.460000 200 161 127 0
8.800000 5.720000 9.460000 200 161 127 0
9.020000 5.720000 9.460000 198 159 125 0
9.240000 5.720000 9.460000 199 159 128 0
9.460000 5.720000 9.570000 199 159 128 0
9.680000 5.720000 9.570000 197 158 124 0
9.900000 5.720000 9.570000 196 157 123 0
10.120000 5.720000 8.910000 198 157 126 0
10.340000 5.720000 9.570000 198 157 126 0
10.560000 5.720000 9.460000 197 156 123 0
10.780000 5.720000 10.560000 198 157 124 0
11.000000 5.720000 10.450000 197 157 126 0
11.220000 5.720000 10.450000 198 158 127 0
11.440000 5.720000 10.450000 199 159 128 0
11.660000 5.720000 10.450000 200 160 129 0
11.880000 5.720000 10.560000 200 160 129 0
12.100000 5.720000 10.560000 201 161 130 0
12.320000 5.720000 10.560000 201 161 130 0
12.540000 5.720000 10.560000 200 160 129 0
12.760000 5.720000 10.560000 201 161 130 0
12.980000 5.720000 10.670000 201 161 130 0
13.200000 5.720000 10.670000 202 162 131 0
13.420000 5.720000 9.900000 202 162 131 0
13.640000 5.720000 10.010000 202 162 131 0
13.860000 5.720000 10.010000 202 162 131 0
14.080000 5.720000 10.010000 202 161 130 0
14.300000 5.720000 10.010000 201 160 129 0
14.520000 5.720000 10.010000 202 160 131 0
14.740000 5.720000 10.010000 201 159 130 0
14.960000 5.720000 10.010000 201 159 130 0
15.180000 5.720000 10.010000 201 159 130 0
15.400000 5.720000 10.010000 201 159 130 0
15.620000 5.720000 10.120000 201 159 130 0
15.840000 5.720000 10.120000 200 159 128 0
16.060000 5.720000 10.120000 202 161 130 0
16.280000 5.720000 10.120000 201 159 130 0
16.500000 5.720000 10.120000 202 160 131 0
16.720000 5.720000 10.120000 201 160 129 0
16.940000 5.720000 10.120000 201 160 129 0
17.160000 5.720000 10.120000 203 161 132 0
17.380000 5.720000 10.120000 200 158 129 0
17.600000 5.720000 10.230000 200 158 129 0
17.820000 5.720000 10.890000 200 158 129 0
18.040000 5.720000 10.890000 202 157 129 0
18.260000 5.720000 10.890000 201 156 128 0
18.480000 5.720000 11.660000 202 157 129 0
18.700000 5.720000 11.660000 201 156 128 0
18.920000 5.720000 11.660000 200 158 129 0
19.140000 5.720000 12.210000 200 158 129 0
19.360000 5.720000 13.310000 203 158 130 0
19.580000 5.720000 13.860000 203 158 130 0
19.800000 5.720000 13.860000 201 159 130 0
20.020000 5.720000 13.200000 202 160 131 0
20.240000 5.720000 13.200000 206 161 133 0
20.460000 5.720000 13.970000 208 163 135 0
20.680000 5.720000 15.400000 213 171 144 0
20.900000 5.720000 16.830000 220 178 151 0
21.120000 5.720000 17.490000 229 187 158 0
21.340000 5.720000 18.260000 236 194 165 0
21.560000 5.720000 18.920000 237 195 166 0
21.780000 5.720000 19.690000 236 194 165 0
22.000000 5.720000 19.580000 239 195 165 0
22.220000 5.720000 19.580000 238 194 164 0
22.440000 5.720000 20.240000 237 196 165 0
22.660000 5.720000 18.810000 237 196 165 0
22.880000 5.720000 17.490000 237 195 166 0
23.100000 5.720000 18.810000 237 195 166 0
23.320000 5.720000 20.240000 237 195 166 0
23.540000 5.720000 20.240000 237 195 166 0
23.760000 5.720000 20.240000 238 196 167 0
23.980000 5.720000 20.240000 237 195 166 0
24.200000 5.720000 20.350000 238 196 167 0
24.420000 5.720000 20.350000 238 196 167 0
24.640000 5.720000 20.350000 237 195 166 0
24.860000 5.720000 20.350000 238 196 167 0
25.080000 5.720000 20.350000 237 195 166 0
25.300000 5.720000 20.350000 238 196 167 0
25.520000 5.720000 20.460000 239 199 171 0
25.740000 5.720000 20.460000 239 199 171 0
25.960000 5.720000 20.460000 238 200 176 0
26.180000 5.720000 20.460000 239 201 177 0
26.400000 5.720000 20.570000 240 203 180 0
26.620000 5.720000 20.570000 240 203 180 0
26.840000 5.720000 20.570000 240 205 181 0
27.060000 5.720000 15.180000 240 205 181 0
27.280000 5.720000 4.730000 239 206 184 0
27.500000 5.720000 4.510000 239 206 184 0
27.720000 5.720000 13.420000 241 205 184 0
27.940000 5.720000 16.940000 240 204 183 0
28.160000 5.720000 14.850000 240 204 183 0
28.380000 5.720000 13.420000 239 203 182 0
28.600000 5.720000 11.440000 239 204 180 0
28.820000 5.720000 10.780000 238 203 179 0
29.040000 5.720000 10.780000 238 201 178 0
29.260000 5.720000 10.780000 236 199 176 0
29.480000 5.720000 11.550000 236 197 177 0
29.700000 5.720000 11.550000 235 196 176 0
29.920000 5.720000 10.890000 234 192 173 0
30.140000 5.720000 10.890000 232 190 171 0
30.360000 5.720000 12.980000 229 186 165 0
30.580000 5.720000 14.300000 227 184 163 0
30.800000 5.720000 15.730000 225 179 158 0
31.020000 5.720000 16.390000 220 174 153 0
31.240000 5.720000 17.160000 216 170 150 0
31.460000 5.720000 17.820000 211 165 145 0
31.680000 5.720000 17.160000 209 157 139 0
31.900000 5.720000 12.320000 200 148 130 0
32.120000 5.720000 5.390000 199 140 121 0
32.340000 5.720000 1.980000 192 133 114 0
32.560000 5.720000 1.320000 188 130 114 0
32.780000 5.720000 1.100000 186 128 112 0
33.000000 5.720000 2.200000 183 131 115 0
33.220000 5.720000 5.610000 185 133 117 0
33.440000 5.720000 11.880000 189 137 121 0
33.660000 5.720000 18.040000 195 143 127 0
33.880000 5.720000 20.130000 196 149 136 0
34.100000 5.720000 20.240000 200 153 140 0
34.320000 5.720000 20.240000 201 158 144 0
34.540000 5.720000 20.240000 205 162 148 0
34.760000 5.720000 19.580000 209 165 147 0
34.980000 5.720000 18.260000 210 166 148 0
35.200000 5.720000 19.580000 211 169 152 0
35.420000 5.720000 21.010000 213 171 154 0
35.640000 5.720000 21.010000 215 173 156 0
35.860000 5.720000 19.690000 217 175 158 0
36.080000 5.720000 17.600000 219 177 158 0
36.300000 5.720000 14.190000 220 178 159 0
36.520000 5.720000 5.940000 219 180 160 0
36.740000 5.720000 1.100000 220 181 161 0
36.960000 5.720000 1.100000 220 181 163 0
37.180000 5.720000 1.210000 220 181 163 0
0.000000 5.940000 6.050000 197 201 181 0
0.220000 5.940000 6.050000 196 200 180 0
0.440000 5.940000 6.050000 196 200 180 0
0.660000 5.940000 6.050000 195 199 179 0
0.880000 5.940000 6.160000 195 199 179 0
1.100000 5.940000 6.160000 195 199 179 0
1.320000 5.940000 5.940000 203 195 171 0
1.540000 5.940000 7.040000 195 187 163 0
1.760000 5.940000 6.930000 204 170 138 0
1.980000 5.940000 7.700000 197 163 131 0
2.200000 5.940000 7.700000 194 159 126 0
2.420000 5.940000 7.700000 194 159 126 0
2.640000 5.940000 7.700000 193 158 123 0
2.860000 5.940000 7.700000 195 160 125 0
3.080000 5.940000 7.810000 195 158 124 0
3.300000 5.940000 7.810000 195 158 124 0
3.520000 5.940000 7.810000 196 159 127 0
3.740000 5.940000 7.810000 196 159 127 0
3.960000 5.940000 7.810000 195 158 124 0
4.180000 5.940000 8.580000 195 158 124 0
4.400000 5.940000 8.580000 194 157 123 0
4.620000 5.940000 8.580000 192 155 121 0
4.840000 5.940000 8.580000 192 155 123 0
5.060000 5.940000 8.580000 191 154 122 0
5.280000 5.940000 8.580000 191 154 122 0
5.500000 5.940000 9.350000 194 157 125 0
5.720000 5.940000 9.350000 194 157 125 0
5.940000 5.940000 9.350000 195 158 126 0
6.160000 5.940000 9.350000 195 158 124 0
6.380000 5.940000 9.350000 195 158 124 0
6.600000 5.940000 9.350000 197 157 126 0
6.820000 5.940000 9.350000 198 158 127 0
7.040000 5.940000 9.460000 197 157 126 0
7.260000 5.940000 9.460000 197 157 126 0
7.480000 5.940000 9.460000 196 159 127 0
7.700000 5.940000 9.460000 196 159 127 0
7.920000 5.940000 9.460000 198 159 125 0
8.140000 5.940000 9.460000 200 161 127 0
8.360000 5.940000 9.460000 200 160 129 0
8.580000 5.940000 9.460000 200 160 129 0
8.800000 5.940000 9.460000 200 160 129 0
9.020000 5.940000 9.460000 199 159 128 0
9.240000 5.940000 9.570000 200 160 129 0
9.460000 5.940000 9.570000 198 158 127 0
9.680000 5.940000 9.570000 198 159 125 0
9.900000 5.940000 8.910000 197 158 124 0
10.120000 5.940000 8.910000 197 157 126 0
10.340000 5.940000 8.910000 198 158 127 0
10.560000 5.940000 9.460000 196 156 125 0
10.780000 5.940000 10.560000 196 156 125 0
11.000000 5.940000 10.450000 198 158 127 0
11.220000 5.940000 10.450000 198 158 127 0
11.440000 5.940000 10.450000 199 159 128 0
11.660000 5.940000 10.450000 199 159 128 0
11.880000 5.940000 10.560000 200 158 129 0
12.100000 5.940000 10.560000 200 158 129 0
12.320000 5.940000 10.560000 200 160 130 0
12.540000 5.940000 10.560000 200 160 130 0
12.760000 5.940000 10.560000 201 161 131 0
12.980000 5.940000 10.560000 201 161 131 0
13.200000 5.940000 10.670000 202 162 132 0
13.420000 5.940000 9.900000 202 162 132 0
13.640000 5.940000 9.900000 202 162 132 0
13.860000 5.940000 10.010000 201 161 131 0
14.080000 5.940000 10.010000 202 162 132 0
14.300000 5.940000 10.010000 201 161 131 0
14.520000 5.940000 10.010000 202 160 131 0
14.740000 5.940000 10.010000 202 160 131 0
14.960000 5.940000 10.010000 202 160 131 0
15.180000 5.940000 10.010000 201 159 130 0
15.400000 5.940000 10.010000 201 159 130 0
15.620000 5.940000 10.120000 202 160 131 0
15.840000 5.940000 10.120000 202 160 131 0
16.060000 5.940000 10.120000 201 159 130 0
16.280000 5.940000 10.120000 201 159 130 0
16.500000 5.940000 10.120000 201 159 130 0
16.720000 5.940000 10.120000 203 162 131 0
16.940000 5.940000 10.120000 201 160 129 0
17.160000 5.940000 10.120000 201 159 130 0
17.380000 5.940000 10.120000 200 158 129 0
17.600000 5.940000 10.230000 201 159 130 0
17.820000 5.940000 10.890000 200 158 129 0
18.040000 5.940000 10.890000 200 158 129 0
18.260000 5.940000 10.890000 200 158 129 0
18.480000 5.940000 11.660000 200 159 128 0
18.700000 5.940000 11.660000 199 158 127 0
18.920000 5.940000 11.660000 199 157 128 0
19.140000 5.940000 12.320000 198 156 127 0
19.360000 5.940000 12.650000 200 158 129 0
19.580000 5.940000 13.860000 201 159 130 0
19.800000 5.940000 13.860000 203 158 130 0
20.020000 5.940000 13.200000 204 159 131 0
20.240000 5.940000 13.200000 205 161 131 0
20.460000 5.940000 13.970000 209 165 135 0
20.680000 5.940000 15.400000 214 173 142 0
20.900000 5.940000 16.060000 222 181 150 0
21.120000 5.940000 16.830000 228 188 158 0
21.340000 5.940000 17.490000 234 194 164 0
21.560000 5.940000 18.260000 238 196 167 0
21.780000 5.940000 18.920000 238 196 167 0
22.000000 5.940000 19.690000 237 195 166 0
22.220000 5.940000 20.350000 237 195 166 0
22.440000 5.940000 20.240000 237 195 166 0
22.660000 5.940000 16.830000 236 194 165 0
22.880000 5.940000 11.880000 237 195 166 0
23.100000 5.940000 13.970000 235 193 164 0
23.320000 5.940000 19.580000 237 195 166 0
23.540000 5.940000 19.580000 238 196 167 0
23.760000 5.940000 16.830000 238 196 167 0
23.980000 5.940000 15.400000 238 196 167 0
24.200000 5.940000 15.510000 237 197 167 0
24.420000 5.940000 15.510000 237 197 167 0
24.640000 5.940000 15.510000 237 197 169 0
24.860000 5.940000 15.510000 237 197 169 0
25.080000 5.940000 15.510000 239 197 168 0
25.300000 5.940000 15.510000 239 197 168 0
25.520000 5.940000 14.850000 240 198 171 0
25.740000 5.940000 14.960000 241 199 172 0
25.960000 5.940000 14.960000 240 200 172 0
26.180000 5.940000 14.960000 241 201 173 0
26.400000 5.940000 14.960000 241 203 177 0
26.620000 5.940000 15.070000 241 203 177 0
26.840000 5.940000 15.070000 243 205 179 0
27.060000 5.940000 11.000000 243 205 179 0
27.280000 5.940000 3.300000 242 204 180 0
27.500000 5.940000 3.190000 243 205 181 0
27.720000 5.940000 10.780000 244 203 180 0
27.940000 5.940000 12.760000 243 202 179 0
28.160000 5.940000 12.100000 243 202 179 0
28.380000 5.940000 10.780000 241 200 177 0
28.600000 5.940000 10.010000 241 200 177 0
28.820000 5.940000 9.350000 241 200 177 0
29.040000 5.940000 10.120000 239 196 174 0
29.260000 5.940000 10.120000 238 195 173 0
29.480000 5.940000 11.550000 236 193 172 0
29.700000 5.940000 11.550000 235 192 171 0
29.920000 5.940000 11.550000 232 191 169 0
30.140000 5.940000 12.210000 230 189 167 0
30.360000 5.940000 12.980000 231 188 167 0
30.580000 5.940000 14.300000 229 186 165 0
30.800000 5.940000 15.070000 225 179 158 0
31.020000 5.940000 15.730000 221 175 154 0
31.240000 5.940000 16.390000 218 172 152 0
31.460000 5.940000 17.820000 214 168 148 0
31.680000 5.940000 18.480000 209 160 141 0
31.900000 5.940000 15.070000 205 156 137 0
32.120000 5.940000 6.050000 201 147 130 0
32.340000 5.940000 1.980000 195 141 124 0
32.560000 5.940000 1.980000 193 133 118 0
32.780000 5.940000 0.990000 188 128 113 0
33.000000 5.940000 3.520000 186 127 114 0
33.220000 5.940000 8.360000 185 126 113 0
33.440000 5.940000 13.200000 189 129 114 0
33.660000 5.940000 18.040000 192 132 117 0
33.880000 5.940000 20.130000 196 140 122 0
34.100000 5.940000 20.240000 203 147 129 0
34.320000 5.940000 20.240000 198 154 140 0
34.540000 5.940000 18.920000 203 159 145 0
34.760000 5.940000 16.830000 206 162 146 0
34.980000 5.940000 16.830000 208 164 148 0
35.200000 5.940000 18.260000 211 167 149 0
35.420000 5.940000 16.940000 212 168 150 0
35.640000 5.940000 15.510000 212 173 155 0
35.860000 5.940000 12.760000 214 175 157 0
36.080000 5.940000 10.010000 217 176 154 0
36.300000 5.940000 9.350000 218 177 155 0
36.520000 5.940000 4.510000 218 179 161 0
36.740000 5.940000 2.530000 221 182 164 0
36.960000 5.940000 3.190000 219 181 163 0
37.180000 5.940000 3.300000 219 181 163 0
0.000000 6.160000 6.050000 197 201 181 0
0.220000 6.160000 6.050000 197 201 181 0
0.440000 6.160000 6.050000 196 200 180 0
0.660000 6.160000 5.500000 195 199 179 0
0.880000 6.160000 5.390000 196 200 180 0
1.100000 6.160000 5.940000 195 199 179 0
1.320000 6.160000 6.490000 203 195 171 0
1.540000 6.160000 7.040000 194 186 162 0
1.760000 6.160000 6.930000 206 172 140 0
1.980000 6.160000 6.930000 196 162 130 0
2.200000 6.160000 7.700000 194 159 126 0
2.420000 6.160000 7.700000 195 160 127 0
2.640000 6.160000 7.700000 195 160 125 0
2.860000 6.160000 7.700000 195 160 125 0
3.080000 6.160000 7.810000 195 158 124 0
3.300000 6.160000 7.810000 195 158 124 0
3.520000 6.160000 7.810000 196 159 127 0
3.740000 6.160000 7.810000 196 159 127 0
3.960000 6.160000 7.810000 195 158 124 0
4.180000 6.160000 8.580000 194 157 123 0
4.400000 6.160000 8.580000 192 155 121 0
4.620000 6.160000 8.580000 191 154 120 0
4.840000 6.160000 8.580000 190 153 121 0
5.060000 6.160000 8.580000 191 154 122 0
5.280000 6.160000 8.580000 191 154 122 0
5.500000 6.160000 8.580000 193 156 124 0
5.720000 6.160000 9.350000 194 157 125 0
5.940000 6.160000 9.350000 194 157 125 0
6.160000 6.160000 9.350000 195 158 124 0
6.380000 6.160000 9.350000 194 157 123 0
6.600000 6.160000 9.350000 196 156 125 0
6.820000 6.160000 9.460000 198 158 127 0
7.040000 6.160000 9.460000 198 158 127 0
7.260000 6.160000 9.460000 197 157 126 0
7.480000 6.160000 9.460000 196 159 127 0
7.700000 6.160000 9.460000 196 159 127 0
7.920000 6.160000 9.460000 198 159 125 0
8.140000 6.160000 9.460000 199 160 126 0
8.360000 6.160000 9.460000 200 160 129 0
8.580000 6.160000 9.460000 200 160 129 0
8.800000 6.160000 9.460000 200 160 129 0
9.020000 6.160000 9.570000 199 159 128 0
9.240000 6.160000 9.570000 199 159 128 0
9.460000 6.160000 9.570000 199 159 128 0
9.680000 6.160000 9.570000 199 160 126 0
9.900000 6.160000 8.910000 198 159 125 0
10.120000 6.160000 8.910000 198 158 127 0
10.340000 6.160000 8.910000 197 157 126 0
10.560000 6.160000 9.460000 197 157 126 0
10.780000 6.160000 10.560000 198 158 127 0
11.000000 6.160000 10.450000 198 158 127 0
11.220000 6.160000 10.450000 198 158 127 0
11.440000 6.160000 10.450000 199 159 128 0
11.660000 6.160000 10.450000 199 159 128 0
11.880000 6.160000 10.560000 200 158 129 0
12.100000 6.160000 10.560000 200 158 129 0
12.320000 6.160000 10.560000 199 159 129 0
12.540000 6.160000 10.560000 200 160 130 0
12.760000 6.160000 10.560000 200 160 130 0
12.980000 6.160000 10.560000 201 161 131 0
13.200000 6.160000 10.560000 201 161 131 0
13.420000 6.160000 10.670000 201 161 131 0
13.640000 6.160000 9.900000 202 162 132 0
13.860000 6.160000 10.010000 203 163 133 0
14.080000 6.160000 10.010000 202 162 132 0
14.300000 6.160000 10.010000 202 162 132 0
14.520000 6.160000 10.010000 203 161 132 0
14.740000 6.160000 10.010000 202 160 131 0
14.960000 6.160000 10.010000 203 161 132 0
15.180000 6.160000 10.010000 202 160 131 0
15.400000 6.160000 10.010000 203 161 132 0
15.620000 6.160000 10.120000 202 160 131 0
15.840000 6.160000 10.120000 202 160 131 0
16.060000 6.160000 10.120000 202 160 131 0
16.280000 6.160000 10.120000 202 160 131 0
16.500000 6.160000 10.120000 202 160 131 0
16.720000 6.160000 10.120000 201 160 129 0
16.940000 6.160000 10.120000 201 160 129 0
17.160000 6.160000 10.120000 200 158 129 0
17.380000 6.160000 10.120000 201 159 130 0
17.600000 6.160000 10.230000 201 159 130 0
17.820000 6.160000 10.890000 200 158 129 0
18.040000 6.160000 10.890000 200 158 129 0
18.260000 6.160000 10.890000 200 158 129 0
18.480000 6.160000 11.660000 200 159 128 0
18.700000 6.160000 11.660000 199 158 127 0
18.920000 6.160000 11.660000 200 158 129 0
19.140000 6.160000 12.320000 198 156 127 0
19.360000 6.160000 12.870000 200 158 129 0
19.580000 6.160000 13.310000 200 158 129 0
19.800000 6.160000 13.860000 204 159 131 0
20.020000 6.160000 13.200000 204 159 131 0
20.240000 6.160000 13.970000 206 162 132 0
20.460000 6.160000 13.970000 209 165 135 0
20.680000 6.160000 15.400000 213 172 141 0
20.900000 6.160000 16.170000 222 181 150 0
21.120000 6.160000 16.830000 227 187 157 0
21.340000 6.160000 16.830000 234 194 164 0
21.560000 6.160000 17.600000 238 196 167 0
21.780000 6.160000 18.260000 238 196 167 0
22.000000 6.160000 18.920000 238 196 167 0
22.220000 6.160000 19.690000 238 196 167 0
22.440000 6.160000 20.350000 237 195 166 0
22.660000 6.160000 16.830000 236 194 165 0
22.880000 6.160000 10.560000 237 195 166 0
23.100000 6.160000 11.880000 237 195 166 0
23.320000 6.160000 18.150000 238 196 167 0
23.540000 6.160000 18.150000 238 196 167 0
23.760000 6.160000 11.990000 238 196 167 0
23.980000 6.160000 6.490000 238 196 167 0
24.200000 6.160000 5.060000 238 198 168 0
24.420000 6.160000 5.170000 239 199 169 0
24.640000 6.160000 5.830000 239 199 171 0
24.860000 6.160000 5.170000 238 198 170 0
25.080000 6.160000 5.170000 239 197 168 0
25.300000 6.160000 5.940000 240 198 169 0
25.520000 6.160000 8.690000 240 198 171 0
25.740000 6.160000 10.120000 239 197 170 0
25.960000 6.160000 8.690000 239 199 171 0
26.180000 6.160000 5.940000 239 199 171 0
26.400000 6.160000 4.620000 239 201 175 0
26.620000 6.160000 4.620000 240 202 176 0
26.840000 6.160000 4.730000 239 201 175 0
27.060000 6.160000 3.300000 240 202 176 0
27.280000 6.160000 1.210000 240 202 178 0
27.500000 6.160000 1.210000 239 201 177 0
27.720000 6.160000 3.960000 239 198 175 0
27.940000 6.160000 4.620000 237 196 173 0
28.160000 6.160000 4.510000 235 194 171 0
28.380000 6.160000 5.940000 237 196 173 0
28.600000 6.160000 7.260000 235 194 171 0
28.820000 6.160000 8.030000 236 195 172 0
29.040000 6.160000 8.690000 234 191 169 0
29.260000 6.160000 9.460000 232 189 167 0
29.480000 6.160000 10.120000 229 186 165 0
29.700000 6.160000 10.780000 231 188 167 0
29.920000 6.160000 11.550000 227 186 164 0
30.140000 6.160000 12.210000 230 189 167 0
30.360000 6.160000 13.640000 228 185 164 0
30.580000 6.160000 14.300000 225 182 161 0
30.800000 6.160000 14.960000 223 177 156 0
31.020000 6.160000 15.730000 221 175 154 0
31.240000 6.160000 16.390000 217 171 151 0
31.460000 6.160000 17.050000 213 167 147 0
31.680000 6.160000 18.480000 211 162 143 0
31.900000 6.160000 14.410000 206 157 138 0
32.120000 6.160000 5.390000 204 150 133 0
32.340000 6.160000 1.320000 199 145 128 0
32.560000 6.160000 1.320000 199 139 124 0
32.780000 6.160000 1.100000 192 132 117 0
33.000000 6.160000 1.540000 187 128 115 0
33.220000 6.160000 4.180000 187 128 115 0
33.440000 6.160000 9.020000 187 127 112 0
33.660000 6.160000 16.720000 190 130 115 0
33.880000 6.160000 20.900000 191 135 117 0
34.100000 6.160000 19.470000 197 141 123 0
34.320000 6.160000 16.830000 193 149 135 0
34.540000 6.160000 12.650000 200 156 142 0
34.760000 6.160000 7.920000 204 160 144 0
34.980000 6.160000 7.920000 206 162 146 0
35.200000 6.160000 10.010000 208 164 146 0
35.420000 6.160000 7.260000 210 166 148 0
35.640000 6.160000 4.510000 210 171 153 0
35.860000 6.160000 3.850000 212 173 155 0
36.080000 6.160000 2.420000 216 175 153 0
36.300000 6.160000 2.420000 218 177 155 0
36.520000 6.160000 2.530000 217 178 160 0
36.740000 6.160000 4.620000 218 179 161 0
36.960000 6.160000 8.030000 217 179 161 0
37.180000 6.160000 8.140000 218 180 162 0
0.000000 6.380000 6.160000 194 201 181 0
0.220000 6.380000 6.160000 195 202 182 0
0.440000 6.380000 5.500000 194 201 181 0
0.660000 6.380000 5.500000 194 201 181 0
0.880000 6.380000 6.050000 194 201 180 0
1.100000 6.380000 6.490000 193 200 179 0
1.320000 6.380000 6.930000 200 193 169 0
1.540000 6.380000 6.930000 193 186 162 0
1.760000 6.380000 6.930000 203 172 138 0
1.980000 6.380000 6.930000 196 165 131 0
2.200000 6.380000 7.700000 195 160 127 0
2.420000 6.380000 7.700000 194 159 126 0
2.640000 6.380000 7.700000 195 160 125 0
2.860000 6.380000 7.700000 194 159 124 0
3.080000 6.380000 7.700000 194 159 124 0
3.300000 6.380000 7.810000 196 161 126 0
3.520000 6.380000 7.810000 194 159 126 0
3.740000 6.380000 7.810000 194 159 126 0
3.960000 6.380000 7.810000 194 159 126 0
4.180000 6.380000 7.810000 193 158 125 0
4.400000 6.380000 8.580000 192 155 123 0
4.620000 6.380000 8.580000 191 154 122 0
4.840000 6.380000 8.580000 190 155 120 0
5.060000 6.380000 8.580000 190 155 120 0
5.280000 6.380000 8.580000 191 156 123 0
5.500000 6.380000 8.580000 191 156 123 0
5.720000 6.380000 8.580000 194 157 125 0
5.940000 6.380000 8.690000 194 157 125 0
6.160000 6.380000 8.690000 194 157 123 0
6.380000 6.380000 8.690000 195 158 124 0
6.600000 6.380000 8.690000 196 159 125 0
6.820000 6.380000 9.460000 196 159 125 0
7.040000 6.380000 9.460000 196 159 127 0
7.260000 6.380000 9.460000 195 158 126 0
7.480000 6.380000 9.460000 195 158 124 0
7.700000 6.380000 9.460000 196 159 125 0
7.920000 6.380000 8.800000 195 158 126 0
8.140000 6.380000 9.460000 196 159 127 0
8.360000 6.380000 9.460000 198 161 127 0
8.580000 6.380000 9.460000 197 160 126 0
8.800000 6.380000 9.570000 197 160 128 0
9.020000 6.380000 9.570000 198 161 129 0
9.240000 6.380000 9.570000 199 159 128 0
9.460000 6.380000 9.570000 199 159 128 0
9.680000 6.380000 9.570000 197 160 128 0
9.900000 6.380000 8.910000 196 159 127 0
10.120000 6.380000 8.910000 196 159 127 0
10.340000 6.380000 9.570000 197 160 128 0
10.560000 6.380000 9.900000 199 159 128 0
10.780000 6.380000 10.450000 199 159 128 0
11.000000 6.380000 10.450000 200 160 129 0
11.220000 6.380000 10.450000 200 160 129 0
11.440000 6.380000 10.450000 199 159 129 0
11.660000 6.380000 10.450000 199 159 129 0
11.880000 6.380000 10.450000 199 159 128 0
12.100000 6.380000 10.560000 198 158 127 0
12.320000 6.380000 10.560000 198 158 128 0
12.540000 6.380000 10.560000 199 159 129 0
12.760000 6.380000 10.560000 200 160 130 0
12.980000 6.380000 10.560000 201 161 131 0
13.200000 6.380000 10.560000 201 161 131 0
13.420000 6.380000 10.560000 201 161 131 0
13.640000 6.380000 10.670000 201 161 130 0
13.860000 6.380000 10.670000 201 161 130 0
14.080000 6.380000 10.670000 202 162 132 0
14.300000 6.380000 10.670000 202 162 132 0
14.520000 6.380000 10.010000 203 163 133 0
14.740000 6.380000 10.010000 202 162 132 0
14.960000 6.380000 10.010000 203 163 133 0
15.180000 6.380000 10.010000 202 162 132 0
15.400000 6.380000 10.010000 202 162 132 0
15.620000 6.380000 10.120000 202 162 132 0
15.840000 6.380000 10.120000 202 162 132 0
16.060000 6.380000 10.120000 202 162 132 0
16.280000 6.380000 10.120000 203 161 132 0
16.500000 6.380000 10.120000 202 160 131 0
16.720000 6.380000 10.120000 203 161 132 0
16.940000 6.380000 10.120000 201 159 130 0
17.160000 6.380000 10.120000 201 159 130 0
17.380000 6.380000 10.120000 201 159 130 0
17.600000 6.380000 10.230000 200 160 130 0
17.820000 6.380000 10.890000 199 159 129 0
18.040000 6.380000 10.890000 200 158 129 0
18.260000 6.380000 10.890000 200 158 129 0
18.480000 6.380000 11.660000 199 157 128 0
18.700000 6.380000 11.660000 198 156 127 0
