ply
format ascii 1.0
element vertex 1137
property float x
property float y
property float z
property uchar red
property uchar green
property uchar blue
property uchar alpha
end_header
25.740000 8.800000 7.700000 218 200 191 0
25.960000 8.800000 7.150000 219 201 192 0
26.180000 8.800000 7.150000 219 204 196 0
26.400000 8.800000 7.150000 220 205 197 0
26.620000 8.800000 7.260000 220 206 200 0
26.840000 8.800000 7.260000 222 208 202 0
27.060000 8.800000 7.260000 218 209 207 0
27.280000 8.800000 7.260000 221 212 210 0
27.500000 8.800000 7.370000 222 213 213 0
27.720000 8.800000 7.370000 223 214 214 0
27.940000 8.800000 9.460000 223 214 212 0
28.160000 8.800000 10.120000 221 212 210 0
28.380000 8.800000 7.370000 216 215 216 0
28.600000 8.800000 5.940000 216 215 216 0
28.820000 8.800000 6.050000 217 218 217 0
29.040000 8.800000 6.710000 218 219 218 0
29.260000 8.800000 8.140000 222 218 214 0
29.480000 8.800000 8.800000 204 200 196 0
29.700000 8.800000 8.140000 190 158 142 0
29.920000 8.800000 8.140000 170 138 122 0
30.140000 8.800000 8.140000 173 147 129 0
30.360000 8.800000 7.480000 183 157 139 0
30.580000 8.800000 8.250000 190 162 146 0
30.800000 8.800000 8.250000 193 165 149 0
31.020000 8.800000 8.910000 193 164 151 0
31.240000 8.800000 9.460000 196 167 154 0
31.460000 8.800000 9.460000 196 166 150 0
31.680000 8.800000 9.460000 197 167 151 0
31.900000 8.800000 10.230000 193 165 149 0
32.120000 8.800000 10.230000 191 163 147 0
32.340000 8.800000 10.230000 192 162 146 0
32.560000 8.800000 9.570000 190 160 144 0
32.780000 8.800000 9.570000 184 157 145 0
33.000000 8.800000 9.570000 182 155 143 0
33.220000 8.800000 9.680000 176 156 144 0
33.440000 8.800000 9.570000 177 157 145 0
33.660000 8.800000 10.120000 174 160 154 0
33.880000 8.800000 10.560000 173 159 153 0
34.100000 8.800000 11.110000 167 163 159 0
34.320000 8.800000 11.110000 169 165 161 0
34.540000 8.800000 11.880000 163 170 173 0
34.760000 8.800000 11.990000 165 172 175 0
34.980000 8.800000 12.650000 163 177 181 0
35.200000 8.800000 12.650000 167 181 185 0
35.420000 8.800000 12.760000 158 188 194 0
35.640000 8.800000 12.760000 162 192 198 0
35.860000 8.800000 12.100000 160 200 207 0
36.080000 8.800000 12.100000 164 204 211 0
36.300000 8.800000 12.100000 161 208 221 0
36.520000 8.800000 12.100000 164 211 224 0
36.740000 8.800000 12.210000 159 220 233 0
36.960000 8.800000 12.210000 164 225 238 0
37.180000 8.800000 11.550000 173 226 239 0
0.000000 9.020000 3.630000 161 165 163 0
0.220000 9.020000 3.630000 160 161 160 0
0.440000 9.020000 4.400000 155 156 155 0
0.660000 9.020000 4.400000 155 156 155 0
0.880000 9.020000 3.630000 152 153 152 0
1.100000 9.020000 3.740000 152 152 149 0
1.320000 9.020000 3.740000 151 151 148 0
1.540000 9.020000 4.400000 150 148 144 0
1.760000 9.020000 5.060000 148 146 142 0
1.980000 9.020000 4.400000 149 145 137 0
2.200000 9.020000 4.400000 148 144 136 0
2.420000 9.020000 4.510000 147 143 137 0
2.640000 9.020000 4.510000 147 143 137 0
2.860000 9.020000 4.620000 147 142 133 0
3.080000 9.020000 4.620000 147 142 133 0
3.300000 9.020000 4.070000 147 139 131 0
3.520000 9.020000 4.070000 146 138 130 0
3.740000 9.020000 4.620000 146 137 125 0
3.960000 9.020000 5.060000 146 137 125 0
4.180000 9.020000 5.610000 146 137 127 0
4.400000 9.020000 5.610000 146 137 127 0
4.620000 9.020000 5.610000 145 136 126 0
4.840000 9.020000 5.610000 144 135 125 0
5.060000 9.020000 5.720000 147 136 127 0
5.280000 9.020000 5.060000 147 136 127 0
5.500000 9.020000 5.060000 147 136 125 0
5.720000 9.020000 5.170000 148 137 126 0
5.940000 9.020000 5.170000 148 135 122 0
6.160000 9.020000 5.170000 147 134 121 0
6.380000 9.020000 5.170000 144 133 122 0
6.600000 9.020000 5.170000 144 133 122 0
6.820000 9.020000 5.280000 147 134 121 0
7.040000 9.020000 5.280000 146 133 120 0
7.260000 9.020000 5.280000 146 133 120 0
7.480000 9.020000 5.280000 145 132 119 0
7.700000 9.020000 5.280000 144 129 117 0
7.920000 9.020000 5.280000 145 130 118 0
8.140000 9.020000 5.280000 143 130 117 0
8.360000 9.020000 5.390000 142 129 116 0
8.580000 9.020000 5.390000 143 130 117 0
8.800000 9.020000 4.730000 142 129 116 0
9.020000 9.020000 5.390000 142 127 115 0
9.240000 9.020000 5.390000 142 127 115 0
9.460000 9.020000 5.390000 145 128 115 0
9.680000 9.020000 5.390000 143 126 113 0
9.900000 9.020000 4.730000 140 126 112 0
10.120000 9.020000 4.730000 141 127 113 0
10.340000 9.020000 4.730000 138 125 111 0
10.560000 9.020000 4.730000 138 125 111 0
10.780000 9.020000 5.390000 141 124 111 0
11.000000 9.020000 5.390000 142 125 112 0
11.220000 9.020000 5.390000 140 126 112 0
11.440000 9.020000 5.390000 139 125 111 0
11.660000 9.020000 5.390000 139 125 111 0
11.880000 9.020000 5.390000 139 125 111 0
12.100000 9.020000 5.390000 139 125 111 0
12.320000 9.020000 5.500000 140 126 112 0
12.540000 9.020000 6.160000 142 125 112 0
12.760000 9.020000 6.160000 141 124 111 0
12.980000 9.020000 6.050000 138 124 110 0
13.200000 9.020000 5.390000 139 125 111 0
13.420000 9.020000 4.730000 140 123 110 0
13.640000 9.020000 4.730000 140 123 110 0
13.860000 9.020000 5.500000 139 122 109 0
14.080000 9.020000 6.160000 138 121 108 0
14.300000 9.020000 6.050000 138 121 108 0
14.520000 9.020000 5.940000 138 121 108 0
14.740000 9.020000 5.280000 136 122 108 0
14.960000 9.020000 5.280000 136 122 108 0
15.180000 9.020000 6.050000 137 120 107 0
15.400000 9.020000 6.050000 137 120 107 0
15.620000 9.020000 6.050000 137 120 107 0
15.840000 9.020000 5.390000 138 121 108 0
16.060000 9.020000 6.050000 139 122 109 0
16.280000 9.020000 6.050000 140 123 110 0
16.500000 9.020000 5.390000 152 130 114 0
16.720000 9.020000 6.050000 159 137 121 0
16.940000 9.020000 4.730000 164 140 123 0
17.160000 9.020000 2.640000 163 139 122 0
17.380000 9.020000 2.640000 162 138 123 0
17.600000 9.020000 2.750000 163 139 124 0
17.820000 9.020000 2.530000 162 140 122 0
18.040000 9.020000 3.630000 161 139 121 0
18.260000 9.020000 4.180000 161 137 122 0
18.480000 9.020000 4.180000 162 138 123 0
18.700000 9.020000 4.180000 162 138 121 0
18.920000 9.020000 5.610000 163 139 122 0
19.140000 9.020000 5.720000 164 140 123 0
19.360000 9.020000 5.170000 163 139 122 0
19.580000 9.020000 5.170000 162 140 122 0
19.800000 9.020000 4.950000 162 140 122 0
20.020000 9.020000 4.840000 164 140 125 0
20.240000 9.020000 4.950000 164 140 125 0
20.460000 9.020000 4.950000 165 141 124 0
20.680000 9.020000 5.610000 166 142 125 0
20.900000 9.020000 5.610000 171 141 125 0
21.120000 9.020000 4.840000 176 146 130 0
21.340000 9.020000 4.950000 184 153 128 0
21.560000 9.020000 4.290000 196 165 140 0
21.780000 9.020000 4.290000 205 173 147 0
22.000000 9.020000 4.290000 214 182 156 0
22.220000 9.020000 5.060000 214 183 157 0
22.440000 9.020000 5.060000 215 184 158 0
22.660000 9.020000 5.060000 215 184 159 0
22.880000 9.020000 5.170000 214 183 158 0
23.100000 9.020000 5.830000 217 182 157 0
23.320000 9.020000 5.940000 214 179 154 0
23.540000 9.020000 5.940000 213 178 151 0
23.760000 9.020000 6.710000 212 177 150 0
23.980000 9.020000 6.710000 210 178 152 0
24.200000 9.020000 6.710000 212 180 154 0
24.420000 9.020000 6.710000 213 184 161 0
24.640000 9.020000 6.820000 215 186 163 0
24.860000 9.020000 6.160000 214 187 165 0
25.080000 9.020000 6.710000 214 187 165 0
25.300000 9.020000 7.150000 214 191 172 0
25.520000 9.020000 7.700000 214 191 172 0
25.740000 9.020000 7.700000 213 195 186 0
25.960000 9.020000 7.810000 214 196 187 0
26.180000 9.020000 7.810000 214 199 191 0
26.400000 9.020000 7.810000 215 200 192 0
26.620000 9.020000 7.920000 212 198 192 0
26.840000 9.020000 7.920000 215 201 195 0
27.060000 9.020000 7.260000 211 202 200 0
27.280000 9.020000 8.030000 213 204 202 0
27.500000 9.020000 8.030000 214 205 205 0
27.720000 9.020000 8.030000 214 205 205 0
27.940000 9.020000 8.030000 214 205 203 0
28.160000 9.020000 8.690000 213 204 202 0
28.380000 9.020000 8.690000 208 207 208 0
28.600000 9.020000 7.370000 209 208 209 0
28.820000 9.020000 7.370000 209 210 209 0
29.040000 9.020000 8.140000 209 210 209 0
29.260000 9.020000 8.800000 214 210 206 0
29.480000 9.020000 8.800000 197 193 189 0
29.700000 9.020000 8.140000 186 154 138 0
29.920000 9.020000 7.480000 169 137 121 0
30.140000 9.020000 7.480000 174 148 130 0
30.360000 9.020000 7.480000 182 156 138 0
30.580000 9.020000 8.250000 187 159 143 0
30.800000 9.020000 8.250000 189 161 145 0
31.020000 9.020000 8.910000 191 162 149 0
31.240000 9.020000 9.460000 192 163 150 0
31.460000 9.020000 10.120000 194 164 148 0
31.680000 9.020000 10.120000 193 163 147 0
31.900000 9.020000 10.230000 191 163 147 0
32.120000 9.020000 10.230000 189 161 145 0
32.340000 9.020000 9.570000 189 159 143 0
32.560000 9.020000 9.570000 187 157 141 0
32.780000 9.020000 9.570000 183 156 144 0
33.000000 9.020000 9.570000 180 153 141 0
33.220000 9.020000 9.570000 176 156 144 0
33.440000 9.020000 10.120000 177 157 145 0
33.660000 9.020000 10.560000 173 159 153 0
33.880000 9.020000 10.450000 172 158 152 0
34.100000 9.020000 11.110000 167 163 159 0
34.320000 9.020000 11.220000 169 165 161 0
34.540000 9.020000 11.880000 162 169 172 0
34.760000 9.020000 11.990000 164 171 174 0
34.980000 9.020000 12.650000 162 176 180 0
35.200000 9.020000 12.650000 165 179 183 0
35.420000 9.020000 12.760000 158 188 194 0
35.640000 9.020000 12.760000 162 192 198 0
35.860000 9.020000 12.760000 160 200 207 0
36.080000 9.020000 12.100000 163 203 210 0
36.300000 9.020000 12.100000 159 206 219 0
36.520000 9.020000 12.100000 162 209 222 0
36.740000 9.020000 12.100000 156 217 230 0
36.960000 9.020000 11.550000 158 219 232 0
37.180000 9.020000 11.550000 168 221 234 0
0.000000 9.240000 3.630000 162 165 165 0
0.220000 9.240000 3.630000 160 161 158 0
0.440000 9.240000 4.400000 158 159 156 0
0.660000 9.240000 4.400000 155 156 153 0
0.880000 9.240000 3.630000 153 154 151 0
1.100000 9.240000 3.740000 153 153 150 0
1.320000 9.240000 3.740000 150 150 147 0
1.540000 9.240000 4.400000 149 149 144 0
1.760000 9.240000 5.060000 148 148 143 0
1.980000 9.240000 4.400000 148 147 140 0
2.200000 9.240000 4.400000 148 147 140 0
2.420000 9.240000 4.510000 148 144 136 0
2.640000 9.240000 4.510000 147 143 135 0
2.860000 9.240000 4.620000 146 142 136 0
3.080000 9.240000 4.730000 145 141 135 0
3.300000 9.240000 4.070000 146 141 133 0
3.520000 9.240000 4.070000 144 139 131 0
3.740000 9.240000 4.620000 147 140 129 0
3.960000 9.240000 5.060000 146 139 128 0
4.180000 9.240000 5.610000 146 139 128 0
4.400000 9.240000 5.610000 145 138 127 0
4.620000 9.240000 5.610000 146 137 127 0
4.840000 9.240000 5.610000 145 136 126 0
5.060000 9.240000 4.950000 146 137 127 0
5.280000 9.240000 5.060000 146 137 127 0
5.500000 9.240000 5.060000 146 137 125 0
5.720000 9.240000 5.170000 145 136 124 0
5.940000 9.240000 5.170000 148 135 124 0
6.160000 9.240000 5.170000 147 134 123 0
6.380000 9.240000 5.170000 144 133 122 0
6.600000 9.240000 5.170000 145 134 123 0
6.820000 9.240000 5.280000 148 133 121 0
7.040000 9.240000 4.620000 147 132 120 0
7.260000 9.240000 5.280000 147 133 119 0
7.480000 9.240000 5.280000 145 131 117 0
7.700000 9.240000 5.280000 145 130 118 0
7.920000 9.240000 5.280000 144 129 117 0
8.140000 9.240000 5.280000 145 130 118 0
8.360000 9.240000 5.390000 142 127 115 0
8.580000 9.240000 4.730000 144 130 116 0
8.800000 9.240000 4.730000 142 128 114 0
9.020000 9.240000 4.730000 143 129 115 0
9.240000 9.240000 4.730000 142 128 114 0
9.460000 9.240000 5.390000 141 127 113 0
9.680000 9.240000 5.390000 140 126 112 0
9.900000 9.240000 4.730000 141 127 113 0
10.120000 9.240000 4.730000 139 125 111 0
10.340000 9.240000 4.730000 141 127 113 0
10.560000 9.240000 4.730000 139 125 111 0
10.780000 9.240000 5.390000 142 125 112 0
11.000000 9.240000 5.390000 141 124 111 0
11.220000 9.240000 5.390000 139 125 111 0
11.440000 9.240000 5.390000 140 126 112 0
11.660000 9.240000 5.390000 139 125 111 0
11.880000 9.240000 5.390000 139 125 111 0
12.100000 9.240000 5.500000 138 124 110 0
12.320000 9.240000 5.500000 139 125 111 0
12.540000 9.240000 5.500000 142 125 112 0
12.760000 9.240000 5.500000 142 125 112 0
12.980000 9.240000 6.050000 138 124 110 0
13.200000 9.240000 5.390000 138 124 110 0
13.420000 9.240000 5.390000 139 125 111 0
13.640000 9.240000 4.730000 137 123 109 0
13.860000 9.240000 5.500000 137 123 109 0
14.080000 9.240000 6.160000 137 123 109 0
14.300000 9.240000 6.710000 138 121 108 0
14.520000 9.240000 5.940000 138 121 108 0
14.740000 9.240000 5.280000 136 122 108 0
14.960000 9.240000 5.280000 135 121 107 0
15.180000 9.240000 5.940000 136 122 108 0
15.400000 9.240000 6.050000 135 121 107 0
15.620000 9.240000 6.050000 135 121 107 0
15.840000 9.240000 5.280000 135 121 107 0
16.060000 9.240000 6.050000 138 121 108 0
16.280000 9.240000 6.050000 142 125 112 0
16.500000 9.240000 6.050000 149 129 113 0
16.720000 9.240000 5.390000 155 135 119 0
16.940000 9.240000 3.300000 162 138 123 0
17.160000 9.240000 1.980000 163 139 124 0
17.380000 9.240000 1.980000 163 139 122 0
17.600000 9.240000 1.980000 163 139 122 0
17.820000 9.240000 2.530000 162 140 124 0
18.040000 9.240000 2.970000 161 139 123 0
18.260000 9.240000 4.180000 160 138 122 0
18.480000 9.240000 3.520000 161 139 123 0
18.700000 9.240000 4.180000 163 139 124 0
18.920000 9.240000 4.950000 164 140 125 0
19.140000 9.240000 5.060000 163 139 124 0
19.360000 9.240000 4.510000 164 140 125 0
19.580000 9.240000 4.510000 163 139 124 0
19.800000 9.240000 4.400000 163 139 124 0
20.020000 9.240000 4.950000 163 139 122 0
20.240000 9.240000 4.950000 165 141 124 0
20.460000 9.240000 4.950000 164 140 125 0
20.680000 9.240000 4.840000 166 142 127 0
20.900000 9.240000 4.840000 171 143 126 0
21.120000 9.240000 4.840000 175 147 130 0
21.340000 9.240000 4.180000 185 153 127 0
21.560000 9.240000 4.180000 197 165 139 0
21.780000 9.240000 4.290000 205 173 147 0
22.000000 9.240000 4.290000 213 181 155 0
22.220000 9.240000 4.400000 215 183 157 0
22.440000 9.240000 4.400000 216 184 158 0
22.660000 9.240000 5.060000 213 185 159 0
22.880000 9.240000 5.170000 210 182 156 0
23.100000 9.240000 5.830000 214 182 156 0
23.320000 9.240000 5.940000 211 179 153 0
23.540000 9.240000 5.940000 212 177 152 0
23.760000 9.240000 6.710000 211 176 151 0
23.980000 9.240000 6.710000 211 176 151 0
24.200000 9.240000 6.710000 214 179 154 0
24.420000 9.240000 6.820000 212 184 158 0
24.640000 9.240000 6.160000 214 186 160 0
24.860000 9.240000 6.160000 216 185 162 0
25.080000 9.240000 6.710000 216 185 162 0
25.300000 9.240000 7.040000 218 187 162 0
25.520000 9.240000 7.590000 218 187 162 0
25.740000 9.240000 7.700000 220 189 164 0
25.960000 9.240000 7.700000 222 191 166 0
26.180000 9.240000 7.810000 221 192 169 0
26.400000 9.240000 7.810000 220 191 168 0
26.620000 9.240000 7.920000 221 192 171 0
26.840000 9.240000 7.920000 221 192 171 0
27.060000 9.240000 7.920000 222 195 173 0
27.280000 9.240000 8.030000 222 195 173 0
27.500000 9.240000 8.030000 223 196 172 0
27.720000 9.240000 8.690000 223 196 172 0
27.940000 9.240000 8.690000 224 197 175 0
28.160000 9.240000 9.460000 223 196 174 0
28.380000 9.240000 9.460000 223 195 176 0
28.600000 9.240000 8.800000 223 195 176 0
28.820000 9.240000 8.800000 223 197 177 0
29.040000 9.240000 8.800000 223 197 177 0
29.260000 9.240000 8.800000 225 197 181 0
29.480000 9.240000 8.800000 206 178 162 0
29.700000 9.240000 8.140000 189 151 133 0
29.920000 9.240000 7.480000 173 135 117 0
30.140000 9.240000 7.480000 179 147 129 0
30.360000 9.240000 8.250000 185 153 135 0
30.580000 9.240000 8.250000 187 157 141 0
30.800000 9.240000 8.250000 189 159 143 0
31.020000 9.240000 9.460000 193 161 143 0
31.240000 9.240000 10.120000 194 162 144 0
31.460000 9.240000 10.780000 193 164 145 0
31.680000 9.240000 10.780000 192 163 144 0
31.900000 9.240000 10.230000 191 161 146 0
32.120000 9.240000 9.570000 190 160 145 0
32.340000 9.240000 9.570000 187 157 141 0
32.560000 9.240000 9.570000 185 155 139 0
32.780000 9.240000 9.570000 180 153 139 0
33.000000 9.240000 9.570000 178 151 137 0
33.220000 9.240000 10.120000 175 155 143 0
33.440000 9.240000 10.560000 176 156 144 0
33.660000 9.240000 10.450000 172 158 150 0
33.880000 9.240000 10.450000 171 157 149 0
34.100000 9.240000 11.110000 164 160 152 0
34.320000 9.240000 11.220000 167 163 155 0
34.540000 9.240000 11.990000 163 167 165 0
34.760000 9.240000 11.990000 167 171 169 0
34.980000 9.240000 11.990000 162 175 179 0
35.200000 9.240000 11.990000 164 177 181 0
35.420000 9.240000 12.760000 160 183 188 0
35.640000 9.240000 12.100000 165 188 193 0
35.860000 9.240000 12.100000 164 194 200 0
36.080000 9.240000 12.100000 167 197 203 0
36.300000 9.240000 12.100000 165 199 206 0
36.520000 9.240000 12.100000 169 203 210 0
36.740000 9.240000 11.440000 171 205 210 0
36.960000 9.240000 11.440000 172 206 211 0
37.180000 9.240000 11.550000 171 208 212 0
0.000000 9.460000 3.630000 162 165 165 0
0.220000 9.460000 3.630000 160 161 158 0
0.440000 9.460000 4.400000 158 159 156 0
0.660000 9.460000 4.400000 156 157 154 0
0.880000 9.460000 3.740000 153 154 151 0
1.100000 9.460000 3.740000 154 154 151 0
1.320000 9.460000 3.740000 151 151 148 0
1.540000 9.460000 4.400000 150 150 145 0
1.760000 9.460000 5.060000 149 149 144 0
1.980000 9.460000 4.400000 149 148 141 0
2.200000 9.460000 4.400000 148 147 140 0
2.420000 9.460000 4.510000 151 147 139 0
2.640000 9.460000 4.510000 148 144 136 0
2.860000 9.460000 4.620000 147 143 137 0
3.080000 9.460000 4.730000 146 142 136 0
3.300000 9.460000 4.730000 146 141 133 0
3.520000 9.460000 4.070000 146 141 133 0
3.740000 9.460000 4.620000 147 140 129 0
3.960000 9.460000 5.060000 146 139 128 0
4.180000 9.460000 5.610000 145 138 127 0
4.400000 9.460000 5.610000 146 139 128 0
4.620000 9.460000 5.610000 146 137 127 0
4.840000 9.460000 5.610000 146 137 127 0
5.060000 9.460000 4.950000 146 137 127 0
5.280000 9.460000 5.060000 146 137 127 0
5.500000 9.460000 5.060000 145 136 124 0
5.720000 9.460000 5.170000 145 136 124 0
5.940000 9.460000 5.170000 148 135 124 0
6.160000 9.460000 5.170000 147 134 123 0
6.380000 9.460000 5.170000 145 134 123 0
6.600000 9.460000 5.170000 145 134 123 0
6.820000 9.460000 4.620000 148 133 121 0
7.040000 9.460000 4.620000 146 131 119 0
7.260000 9.460000 4.620000 147 133 119 0
7.480000 9.460000 5.280000 146 132 118 0
7.700000 9.460000 5.280000 145 130 118 0
7.920000 9.460000 5.280000 144 129 117 0
8.140000 9.460000 5.280000 144 129 117 0
8.360000 9.460000 4.620000 144 129 117 0
8.580000 9.460000 4.620000 143 129 115 0
8.800000 9.460000 4.730000 143 129 115 0
9.020000 9.460000 4.730000 142 128 114 0
9.240000 9.460000 4.730000 141 127 113 0
9.460000 9.460000 5.390000 141 127 113 0
9.680000 9.460000 5.390000 141 127 113 0
9.900000 9.460000 4.730000 141 127 113 0
10.120000 9.460000 4.730000 140 126 112 0
10.340000 9.460000 4.730000 140 126 112 0
10.560000 9.460000 4.730000 140 126 112 0
10.780000 9.460000 5.390000 141 124 111 0
11.000000 9.460000 5.390000 140 123 110 0
11.220000 9.460000 5.390000 139 125 111 0
11.440000 9.460000 5.390000 139 125 111 0
11.660000 9.460000 5.390000 139 125 111 0
11.880000 9.460000 5.390000 140 126 112 0
12.100000 9.460000 5.500000 139 125 111 0
12.320000 9.460000 5.500000 139 125 111 0
12.540000 9.460000 5.500000 141 124 111 0
12.760000 9.460000 5.500000 141 124 111 0
12.980000 9.460000 6.160000 139 125 111 0
13.200000 9.460000 5.390000 139 125 111 0
13.420000 9.460000 5.390000 139 125 111 0
13.640000 9.460000 5.390000 138 124 110 0
13.860000 9.460000 5.500000 137 123 109 0
14.080000 9.460000 6.820000 137 123 109 0
14.300000 9.460000 6.710000 139 122 109 0
14.520000 9.460000 5.940000 138 121 108 0
14.740000 9.460000 5.940000 135 121 107 0
14.960000 9.460000 5.940000 135 121 107 0
15.180000 9.460000 5.940000 135 121 107 0
15.400000 9.460000 6.050000 135 121 107 0
15.620000 9.460000 6.050000 135 121 107 0
15.840000 9.460000 5.280000 136 122 108 0
16.060000 9.460000 6.050000 138 121 108 0
16.280000 9.460000 6.050000 141 124 111 0
16.500000 9.460000 6.050000 150 130 114 0
16.720000 9.460000 4.730000 156 136 120 0
16.940000 9.460000 2.640000 162 138 123 0
17.160000 9.460000 1.320000 163 139 124 0
17.380000 9.460000 1.320000 162 138 121 0
17.600000 9.460000 1.980000 163 139 122 0
17.820000 9.460000 1.870000 162 140 124 0
18.040000 9.460000 2.970000 161 139 123 0
18.260000 9.460000 3.520000 161 139 123 0
18.480000 9.460000 3.520000 162 140 124 0
18.700000 9.460000 3.520000 164 140 125 0
18.920000 9.460000 4.290000 163 139 124 0
19.140000 9.460000 4.510000 164 140 125 0
19.360000 9.460000 3.850000 163 139 124 0
19.580000 9.460000 3.960000 163 139 124 0
19.800000 9.460000 3.850000 162 138 123 0
20.020000 9.460000 4.290000 163 139 122 0
20.240000 9.460000 4.180000 165 141 124 0
20.460000 9.460000 4.840000 165 141 126 0
20.680000 9.460000 4.840000 165 141 126 0
20.900000 9.460000 4.840000 169 141 124 0
21.120000 9.460000 4.840000 175 147 130 0
21.340000 9.460000 4.180000 186 154 128 0
21.560000 9.460000 4.180000 198 166 140 0
21.780000 9.460000 3.520000 207 175 149 0
22.000000 9.460000 4.290000 213 181 155 0
22.220000 9.460000 4.290000 215 183 157 0
22.440000 9.460000 4.400000 216 184 158 0
22.660000 9.460000 4.400000 213 185 159 0
22.880000 9.460000 5.170000 211 183 157 0
23.100000 9.460000 5.170000 212 180 154 0
23.320000 9.460000 5.940000 213 181 155 0
23.540000 9.460000 5.940000 212 177 152 0
23.760000 9.460000 5.940000 211 176 151 0
23.980000 9.460000 6.050000 211 176 151 0
24.200000 9.460000 6.050000 213 178 153 0
24.420000 9.460000 6.050000 211 183 157 0
24.640000 9.460000 6.160000 213 185 159 0
24.860000 9.460000 6.160000 217 186 163 0
25.080000 9.460000 6.710000 216 185 162 0
25.300000 9.460000 7.040000 217 186 161 0
25.520000 9.460000 7.590000 217 186 161 0
25.740000 9.460000 7.700000 218 187 162 0
25.960000 9.460000 7.700000 218 187 162 0
26.180000 9.460000 7.810000 219 190 167 0
26.400000 9.460000 7.810000 219 190 167 0
26.620000 9.460000 7.920000 220 191 170 0
26.840000 9.460000 7.920000 220 191 170 0
27.060000 9.460000 7.920000 220 193 171 0
27.280000 9.460000 8.030000 221 194 172 0
27.500000 9.460000 8.690000 219 192 168 0
27.720000 9.460000 8.690000 220 193 169 0
27.940000 9.460000 9.460000 219 192 170 0
28.160000 9.460000 9.460000 218 191 169 0
28.380000 9.460000 9.460000 218 190 171 0
28.600000 9.460000 9.460000 218 190 171 0
28.820000 9.460000 9.570000 217 191 171 0
29.040000 9.460000 9.570000 217 191 171 0
29.260000 9.460000 9.570000 217 189 173 0
29.480000 9.460000 8.910000 198 170 154 0
29.700000 9.460000 8.140000 185 147 129 0
29.920000 9.460000 7.480000 173 135 117 0
30.140000 9.460000 7.480000 177 145 127 0
30.360000 9.460000 8.250000 183 151 133 0
30.580000 9.460000 8.250000 186 156 140 0
30.800000 9.460000 8.800000 188 158 142 0
31.020000 9.460000 10.010000 190 158 140 0
31.240000 9.460000 10.670000 192 160 142 0
31.460000 9.460000 11.440000 190 161 142 0
31.680000 9.460000 11.550000 190 161 142 0
31.900000 9.460000 10.890000 188 158 143 0
32.120000 9.460000 9.570000 187 157 142 0
32.340000 9.460000 9.460000 185 155 139 0
32.560000 9.460000 9.460000 184 154 138 0
32.780000 9.460000 9.460000 177 150 136 0
33.000000 9.460000 10.120000 175 148 134 0
33.220000 9.460000 10.560000 172 152 140 0
33.440000 9.460000 10.450000 174 154 142 0
33.660000 9.460000 10.450000 170 156 148 0
33.880000 9.460000 10.450000 168 154 146 0
34.100000 9.460000 10.450000 158 154 146 0
34.320000 9.460000 10.560000 161 157 149 0
34.540000 9.460000 11.330000 156 160 158 0
34.760000 9.460000 11.330000 161 165 163 0
34.980000 9.460000 11.330000 156 169 173 0
35.200000 9.460000 11.330000 159 172 176 0
35.420000 9.460000 11.330000 153 176 181 0
35.640000 9.460000 11.330000 157 180 185 0
35.860000 9.460000 10.670000 157 187 193 0
36.080000 9.460000 10.670000 160 190 196 0
36.300000 9.460000 10.670000 160 194 201 0
36.520000 9.460000 11.440000 165 199 206 0
36.740000 9.460000 11.440000 166 200 205 0
36.960000 9.460000 11.440000 168 202 207 0
37.180000 9.460000 11.550000 164 201 205 0
0.000000 9.680000 3.630000 159 167 165 0
0.220000 9.680000 3.630000 161 162 159 0
0.440000 9.680000 4.400000 159 160 157 0
0.660000 9.680000 4.400000 158 158 153 0
0.880000 9.680000 3.630000 156 156 151 0
1.100000 9.680000 3.740000 153 153 150 0
1.320000 9.680000 3.740000 152 152 149 0
1.540000 9.680000 4.400000 151 149 145 0
1.760000 9.680000 5.060000 150 148 144 0
1.980000 9.680000 4.400000 149 148 141 0
2.200000 9.680000 4.400000 148 147 140 0
2.420000 9.680000 4.510000 149 145 139 0
2.640000 9.680000 4.510000 147 143 137 0
2.860000 9.680000 4.620000 148 142 137 0
3.080000 9.680000 4.730000 147 141 136 0
3.300000 9.680000 4.730000 149 141 133 0
3.520000 9.680000 4.730000 148 140 132 0
3.740000 9.680000 4.620000 146 141 132 0
3.960000 9.680000 5.060000 145 140 131 0
4.180000 9.680000 5.610000 146 139 128 0
4.400000 9.680000 5.610000 145 138 127 0
4.620000 9.680000 5.610000 146 137 127 0
4.840000 9.680000 4.950000 146 137 127 0
5.060000 9.680000 4.950000 146 137 127 0
5.280000 9.680000 5.060000 146 137 127 0
5.500000 9.680000 4.400000 146 137 127 0
5.720000 9.680000 4.400000 145 136 126 0
5.940000 9.680000 5.170000 149 136 125 0
6.160000 9.680000 5.170000 148 135 124 0
6.380000 9.680000 5.170000 146 135 124 0
6.600000 9.680000 4.510000 146 135 124 0
6.820000 9.680000 4.620000 146 135 124 0
7.040000 9.680000 4.620000 145 134 123 0
7.260000 9.680000 4.620000 146 133 120 0
7.480000 9.680000 4.620000 144 131 118 0
7.700000 9.680000 5.280000 144 131 118 0
7.920000 9.680000 5.280000 143 130 117 0
8.140000 9.680000 5.280000 144 131 118 0
8.360000 9.680000 5.280000 144 131 118 0
8.580000 9.680000 4.620000 142 129 116 0
8.800000 9.680000 4.730000 142 129 116 0
9.020000 9.680000 4.730000 142 127 115 0
9.240000 9.680000 4.730000 142 127 115 0
9.460000 9.680000 4.730000 141 127 113 0
9.680000 9.680000 4.730000 141 127 113 0
9.900000 9.680000 4.730000 140 126 112 0
10.120000 9.680000 4.730000 141 127 113 0
10.340000 9.680000 4.730000 140 126 112 0
10.560000 9.680000 5.390000 140 126 112 0
10.780000 9.680000 5.390000 139 125 111 0
11.000000 9.680000 5.390000 139 125 111 0
11.220000 9.680000 5.390000 139 125 111 0
11.440000 9.680000 5.390000 139 125 111 0
11.660000 9.680000 5.500000 139 125 111 0
11.880000 9.680000 5.500000 139 125 111 0
12.100000 9.680000 5.500000 140 126 112 0
12.320000 9.680000 5.500000 139 125 111 0
12.540000 9.680000 5.500000 139 125 111 0
12.760000 9.680000 5.500000 139 125 111 0
12.980000 9.680000 5.390000 141 124 111 0
13.200000 9.680000 5.390000 141 124 111 0
13.420000 9.680000 5.390000 138 124 110 0
13.640000 9.680000 5.390000 138 124 110 0
13.860000 9.680000 6.160000 138 124 110 0
14.080000 9.680000 6.820000 137 123 109 0
14.300000 9.680000 6.710000 139 122 109 0
14.520000 9.680000 5.940000 138 121 108 0
14.740000 9.680000 5.940000 137 120 107 0
14.960000 9.680000 5.940000 138 121 108 0
15.180000 9.680000 5.940000 136 122 108 0
15.400000 9.680000 6.050000 136 122 108 0
15.620000 9.680000 6.050000 138 121 108 0
15.840000 9.680000 5.280000 138 121 108 0
16.060000 9.680000 5.390000 139 122 109 0
16.280000 9.680000 5.390000 141 124 111 0
16.500000 9.680000 6.050000 150 128 112 0
16.720000 9.680000 4.730000 158 136 120 0
16.940000 9.680000 1.980000 162 138 123 0
17.160000 9.680000 0.550000 162 138 123 0
17.380000 9.680000 1.320000 161 139 121 0
17.600000 9.680000 1.320000 163 141 123 0
17.820000 9.680000 1.210000 162 140 122 0
18.040000 9.680000 2.310000 161 139 121 0
18.260000 9.680000 2.860000 162 138 121 0
18.480000 9.680000 2.750000 162 138 121 0
18.700000 9.680000 2.860000 163 139 124 0
18.920000 9.680000 3.080000 163 139 124 0
19.140000 9.680000 3.850000 162 140 124 0
19.360000 9.680000 3.850000 162 140 124 0
19.580000 9.680000 3.300000 163 139 122 0
19.800000 9.680000 3.190000 164 140 123 0
20.020000 9.680000 3.630000 164 140 123 0
20.240000 9.680000 4.180000 165 141 124 0
20.460000 9.680000 4.840000 165 141 124 0
20.680000 9.680000 4.840000 165 141 124 0
20.900000 9.680000 5.610000 168 142 124 0
21.120000 9.680000 4.840000 174 148 130 0
21.340000 9.680000 4.180000 185 152 128 0
21.560000 9.680000 4.180000 198 165 141 0
21.780000 9.680000 3.520000 208 176 150 0
22.000000 9.680000 3.630000 212 180 154 0
22.220000 9.680000 3.630000 216 184 158 0
22.440000 9.680000 4.400000 215 183 157 0
22.660000 9.680000 4.400000 213 182 157 0
22.880000 9.680000 4.400000 213 182 157 0
23.100000 9.680000 5.170000 212 179 155 0
23.320000 9.680000 5.170000 213 180 156 0
23.540000 9.680000 5.940000 212 177 150 0
23.760000 9.680000 5.940000 212 177 150 0
23.980000 9.680000 6.050000 211 176 151 0
24.200000 9.680000 6.050000 212 177 152 0
24.420000 9.680000 6.050000 213 182 157 0
24.640000 9.680000 6.160000 216 185 160 0
24.860000 9.680000 6.160000 216 185 160 0
25.080000 9.680000 6.050000 215 184 159 0
25.300000 9.680000 7.040000 217 184 160 0
25.520000 9.680000 7.590000 217 184 160 0
25.740000 9.680000 7.700000 218 187 161 0
25.960000 9.680000 7.700000 218 187 161 0
26.180000 9.680000 7.810000 218 187 162 0
26.400000 9.680000 7.810000 219 188 163 0
26.620000 9.680000 7.920000 220 189 164 0
26.840000 9.680000 7.920000 220 189 164 0
27.060000 9.680000 7.920000 222 189 165 0
27.280000 9.680000 8.030000 223 190 166 0
27.500000 9.680000 8.690000 222 190 164 0
27.720000 9.680000 8.800000 221 189 163 0
27.940000 9.680000 9.460000 220 189 163 0
28.160000 9.680000 9.460000 220 189 163 0
28.380000 9.680000 9.460000 218 187 162 0
28.600000 9.680000 9.570000 218 187 162 0
28.820000 9.680000 9.570000 219 186 162 0
29.040000 9.680000 9.570000 218 185 161 0
29.260000 9.680000 9.570000 224 183 160 0
29.480000 9.680000 8.910000 205 164 141 0
29.700000 9.680000 8.250000 186 143 122 0
29.920000 9.680000 8.250000 177 134 113 0
30.140000 9.680000 8.250000 177 141 120 0
30.360000 9.680000 8.250000 184 148 127 0
30.580000 9.680000 8.140000 186 153 133 0
30.800000 9.680000 9.350000 188 155 135 0
31.020000 9.680000 10.560000 190 157 135 0
31.240000 9.680000 11.220000 190 157 135 0
31.460000 9.680000 11.330000 191 157 140 0
31.680000 9.680000 11.440000 190 156 139 0
31.900000 9.680000 10.890000 188 155 135 0
32.120000 9.680000 10.120000 188 155 135 0
32.340000 9.680000 9.900000 185 153 137 0
32.560000 9.680000 9.900000 183 151 135 0
32.780000 9.680000 10.560000 173 146 134 0
33.000000 9.680000 10.560000 170 143 131 0
33.220000 9.680000 11.110000 167 142 132 0
33.440000 9.680000 11.110000 171 146 136 0
33.660000 9.680000 10.450000 172 145 133 0
33.880000 9.680000 9.790000 170 143 131 0
34.100000 9.680000 9.790000 165 139 133 0
34.320000 9.680000 9.900000 167 141 135 0
34.540000 9.680000 10.560000 161 141 137 0
34.760000 9.680000 11.330000 164 144 140 0
34.980000 9.680000 11.330000 158 147 148 0
35.200000 9.680000 10.670000 157 146 147 0
35.420000 9.680000 9.900000 156 153 155 0
35.640000 9.680000 10.010000 163 160 162 0
35.860000 9.680000 9.350000 165 164 167 0
36.080000 9.680000 9.350000 169 168 171 0
36.300000 9.680000 9.350000 167 177 181 0
36.520000 9.680000 10.010000 172 182 186 0
36.740000 9.680000 10.780000 181 185 191 0
36.960000 9.680000 10.780000 185 189 195 0
37.180000 9.680000 10.780000 185 188 188 0
0.000000 9.900000 3.630000 158 166 164 0
0.220000 9.900000 3.630000 160 161 158 0
0.440000 9.900000 4.400000 158 159 156 0
0.660000 9.900000 4.400000 157 157 152 0
0.880000 9.900000 3.630000 155 155 150 0
1.100000 9.900000 3.740000 153 153 150 0
1.320000 9.900000 3.740000 153 153 150 0
1.540000 9.900000 4.400000 151 149 145 0
1.760000 9.900000 5.060000 150 148 144 0
1.980000 9.900000 4.400000 149 148 141 0
2.200000 9.900000 4.400000 148 147 140 0
2.420000 9.900000 4.510000 149 145 139 0
2.640000 9.900000 4.510000 149 145 139 0
2.860000 9.900000 4.620000 148 142 137 0
3.080000 9.900000 4.730000 147 141 136 0
3.300000 9.900000 4.730000 149 141 133 0
3.520000 9.900000 4.730000 148 140 132 0
3.740000 9.900000 4.620000 147 142 133 0
3.960000 9.900000 5.060000 146 141 132 0
4.180000 9.900000 5.610000 146 139 128 0
4.400000 9.900000 5.610000 146 139 128 0
4.620000 9.900000 4.950000 146 137 127 0
4.840000 9.900000 4.950000 146 137 127 0
5.060000 9.900000 4.950000 147 138 128 0
5.280000 9.900000 4.400000 148 139 129 0
5.500000 9.900000 4.400000 146 137 127 0
5.720000 9.900000 4.400000 146 137 127 0
5.940000 9.900000 4.510000 148 135 124 0
6.160000 9.900000 4.510000 148 135 124 0
6.380000 9.900000 4.510000 146 135 124 0
6.600000 9.900000 4.510000 145 134 123 0
6.820000 9.900000 4.620000 145 134 123 0
7.040000 9.900000 4.620000 145 134 123 0
7.260000 9.900000 4.620000 146 133 120 0
7.480000 9.900000 4.620000 145 132 119 0
7.700000 9.900000 4.620000 145 132 119 0
7.920000 9.900000 5.280000 143 130 117 0
8.140000 9.900000 5.280000 143 130 117 0
8.360000 9.900000 5.280000 144 131 118 0
8.580000 9.900000 4.620000 143 130 117 0
8.800000 9.900000 4.730000 141 128 115 0
9.020000 9.900000 4.730000 142 127 115 0
9.240000 9.900000 4.730000 141 126 114 0
9.460000 9.900000 4.730000 141 127 113 0
9.680000 9.900000 4.730000 141 127 113 0
9.900000 9.900000 4.730000 141 127 113 0
10.120000 9.900000 5.390000 141 127 113 0
10.340000 9.900000 5.390000 140 126 112 0
10.560000 9.900000 5.390000 140 126 112 0
10.780000 9.900000 5.390000 139 125 111 0
11.000000 9.900000 5.390000 139 125 111 0
11.220000 9.900000 5.390000 138 124 110 0
11.440000 9.900000 5.390000 138 124 110 0
11.660000 9.900000 5.500000 140 126 112 0
11.880000 9.900000 5.500000 139 125 111 0
12.100000 9.900000 5.390000 139 125 111 0
12.320000 9.900000 5.500000 139 125 111 0
12.540000 9.900000 5.500000 138 124 110 0
12.760000 9.900000 5.500000 139 125 111 0
12.980000 9.900000 5.390000 141 124 111 0
13.200000 9.900000 5.390000 141 124 111 0
13.420000 9.900000 5.390000 139 125 111 0
13.640000 9.900000 5.390000 137 123 109 0
13.860000 9.900000 6.160000 138 124 110 0
14.080000 9.900000 6.820000 138 124 110 0
14.300000 9.900000 6.710000 140 123 110 0
14.520000 9.900000 5.940000 138 121 108 0
14.740000 9.900000 5.940000 138 121 108 0
14.960000 9.900000 5.940000 138 121 108 0
15.180000 9.900000 5.940000 137 123 109 0
15.400000 9.900000 6.050000 136 122 108 0
15.620000 9.900000 5.280000 139 122 109 0
15.840000 9.900000 5.280000 139 122 109 0
16.060000 9.900000 5.390000 140 123 110 0
16.280000 9.900000 5.390000 141 124 111 0
16.500000 9.900000 5.390000 153 131 115 0
16.720000 9.900000 4.070000 158 136 120 0
16.940000 9.900000 1.320000 162 138 123 0
17.380000 9.900000 1.320000 161 139 121 0
17.600000 9.900000 1.320000 161 139 121 0
17.820000 9.900000 1.320000 162 140 122 0
18.040000 9.900000 1.760000 162 140 122 0
18.260000 9.900000 2.200000 162 138 121 0
18.480000 9.900000 2.200000 162 138 121 0
18.700000 9.900000 1.650000 162 138 123 0
18.920000 9.900000 1.760000 162 138 123 0
19.140000 9.900000 2.530000 161 139 123 0
19.360000 9.900000 3.190000 161 139 123 0
19.580000 9.900000 3.300000 163 139 122 0
19.800000 9.900000 3.190000 164 140 123 0
20.020000 9.900000 3.630000 164 140 123 0
20.240000 9.900000 4.180000 165 141 124 0
20.460000 9.900000 4.840000 165 141 124 0
20.680000 9.900000 4.840000 165 141 124 0
20.900000 9.900000 5.610000 168 142 124 0
21.120000 9.900000 4.840000 172 146 128 0
21.340000 9.900000 4.180000 186 153 129 0
21.560000 9.900000 3.520000 198 165 141 0
21.780000 9.900000 3.520000 207 175 149 0
22.000000 9.900000 3.630000 212 180 154 0
22.220000 9.900000 3.630000 214 182 156 0
22.440000 9.900000 3.740000 215 183 157 0
22.660000 9.900000 4.400000 213 182 157 0
22.880000 9.900000 4.510000 213 182 157 0
23.100000 9.900000 5.170000 213 180 156 0
23.320000 9.900000 5.170000 212 179 155 0
23.540000 9.900000 5.280000 213 178 151 0
23.760000 9.900000 5.940000 212 177 150 0
23.980000 9.900000 6.050000 211 176 151 0
24.200000 9.900000 6.050000 212 177 152 0
24.420000 9.900000 6.050000 212 181 156 0
24.640000 9.900000 6.160000 214 183 158 0
24.860000 9.900000 5.500000 216 185 160 0
25.080000 9.900000 6.050000 215 184 159 0
25.300000 9.900000 7.040000 216 183 159 0
25.520000 9.900000 7.590000 217 184 160 0
25.740000 9.900000 7.700000 216 185 159 0
25.960000 9.900000 7.700000 217 186 160 0
26.180000 9.900000 7.810000 219 188 163 0
26.400000 9.900000 7.810000 219 188 163 0
26.620000 9.900000 7.920000 218 187 162 0
26.840000 9.900000 7.920000 219 188 163 0
27.060000 9.900000 7.920000 221 188 164 0
27.280000 9.900000 8.030000 220 187 163 0
27.500000 9.900000 8.030000 221 189 163 0
27.720000 9.900000 8.800000 219 187 161 0
27.940000 9.900000 8.800000 218 187 161 0
28.160000 9.900000 9.460000 218 187 161 0
28.380000 9.900000 9.570000 218 187 162 0
28.600000 9.900000 9.570000 217 186 161 0
28.820000 9.900000 9.570000 216 183 159 0
29.040000 9.900000 9.570000 217 184 160 0
29.260000 9.900000 9.570000 220 179 156 0
29.480000 9.900000 8.910000 201 160 137 0
29.700000 9.900000 8.910000 185 142 121 0
29.920000 9.900000 8.910000 175 132 111 0
30.140000 9.900000 8.800000 176 140 119 0
30.360000 9.900000 8.910000 182 146 125 0
30.580000 9.900000 8.800000 183 150 130 0
30.800000 9.900000 9.900000 186 153 133 0
31.020000 9.900000 11.220000 187 154 132 0
31.240000 9.900000 11.990000 188 155 133 0
31.460000 9.900000 11.990000 188 154 137 0
31.680000 9.900000 12.100000 187 153 136 0
31.900000 9.900000 11.330000 187 154 134 0
32.120000 9.900000 10.560000 185 152 132 0
32.340000 9.900000 9.790000 183 151 135 0
32.560000 9.900000 10.450000 177 145 129 0
32.780000 9.900000 11.110000 165 138 126 0
33.000000 9.900000 11.110000 165 138 126 0
33.220000 9.900000 11.110000 165 140 130 0
33.440000 9.900000 11.110000 165 140 130 0
33.660000 9.900000 10.450000 168 141 129 0
33.880000 9.900000 9.790000 165 138 126 0
34.100000 9.900000 9.790000 161 135 129 0
34.320000 9.900000 9.900000 157 131 125 0
34.540000 9.900000 10.670000 151 131 127 0
34.760000 9.900000 10.670000 151 131 127 0
34.980000 9.900000 10.670000 142 131 132 0
35.200000 9.900000 9.900000 142 131 132 0
35.420000 9.900000 8.580000 139 136 138 0
35.640000 9.900000 8.580000 142 139 141 0
35.860000 9.900000 7.920000 148 147 150 0
36.080000 9.900000 8.580000 153 152 155 0
36.300000 9.900000 8.580000 152 162 166 0
36.520000 9.900000 9.350000 163 173 177 0
36.740000 9.900000 10.010000 172 176 182 0
36.960000 9.900000 10.780000 177 181 187 0
37.180000 9.900000 10.780000 179 182 182 0
0.000000 10.120000 3.630000 161 165 163 0
0.220000 10.120000 3.630000 158 164 161 0
0.440000 10.120000 4.400000 154 160 157 0
0.660000 10.120000 4.400000 156 155 155 0
0.880000 10.120000 3.630000 155 154 154 0
1.100000 10.120000 3.740000 152 153 150 0
1.320000 10.120000 3.740000 152 153 150 0
1.540000 10.120000 4.400000 152 150 146 0
1.760000 10.120000 5.060000 151 149 145 0
1.980000 10.120000 4.400000 148 150 144 0
2.200000 10.120000 4.400000 146 148 142 0
2.420000 10.120000 4.510000 147 145 141 0
2.640000 10.120000 4.510000 145 143 139 0
2.860000 10.120000 4.620000 148 144 138 0
3.080000 10.120000 4.730000 146 142 136 0
3.300000 10.120000 4.730000 147 142 133 0
3.520000 10.120000 4.730000 145 140 131 0
3.740000 10.120000 4.620000 148 140 132 0
3.960000 10.120000 5.720000 147 139 131 0
4.180000 10.120000 5.610000 147 139 131 0
4.400000 10.120000 5.720000 146 138 130 0
4.620000 10.120000 4.950000 146 139 128 0
4.840000 10.120000 4.950000 145 138 127 0
5.060000 10.120000 5.060000 148 137 128 0
5.280000 10.120000 4.400000 148 137 128 0
5.500000 10.120000 4.400000 146 137 127 0
5.720000 10.120000 4.510000 146 137 127 0
5.940000 10.120000 4.510000 145 136 124 0
6.160000 10.120000 4.510000 146 137 125 0
6.380000 10.120000 4.510000 145 134 123 0
6.600000 10.120000 4.510000 145 134 123 0
6.820000 10.120000 4.620000 144 133 122 0
7.040000 10.120000 4.620000 145 134 123 0
7.260000 10.120000 4.620000 145 132 119 0
7.480000 10.120000 4.620000 145 132 119 0
7.700000 10.120000 4.620000 144 131 118 0
7.920000 10.120000 4.620000 144 131 118 0
8.140000 10.120000 5.280000 143 130 117 0
8.360000 10.120000 5.280000 142 129 116 0
8.580000 10.120000 5.390000 143 130 117 0
8.800000 10.120000 4.730000 141 128 115 0
9.020000 10.120000 4.730000 143 129 115 0
9.240000 10.120000 4.730000 142 128 114 0
9.460000 10.120000 4.730000 140 126 112 0
9.680000 10.120000 4.730000 141 127 113 0
9.900000 10.120000 5.390000 138 123 111 0
10.120000 10.120000 5.390000 139 124 112 0
10.340000 10.120000 5.390000 140 126 112 0
10.560000 10.120000 5.390000 140 126 112 0
10.780000 10.120000 5.390000 139 125 111 0
11.000000 10.120000 6.050000 140 126 112 0
11.220000 10.120000 5.390000 139 125 111 0
11.440000 10.120000 5.390000 138 124 110 0
11.660000 10.120000 5.500000 138 124 110 0
11.880000 10.120000 5.500000 139 125 111 0
12.100000 10.120000 5.390000 139 125 111 0
12.320000 10.120000 5.390000 138 124 110 0
12.540000 10.120000 5.500000 141 124 111 0
12.760000 10.120000 5.500000 142 125 112 0
12.980000 10.120000 5.390000 141 124 111 0
13.200000 10.120000 5.390000 141 124 111 0
13.420000 10.120000 5.390000 141 124 111 0
13.640000 10.120000 5.390000 139 122 109 0
13.860000 10.120000 6.160000 138 124 110 0
14.080000 10.120000 6.820000 137 123 109 0
14.300000 10.120000 6.710000 139 122 109 0
14.520000 10.120000 5.940000 139 122 109 0
14.740000 10.120000 5.940000 137 123 109 0
14.960000 10.120000 5.940000 136 122 108 0
15.180000 10.120000 5.940000 136 122 108 0
15.400000 10.120000 6.050000 136 122 108 0
15.620000 10.120000 5.280000 136 122 108 0
15.840000 10.120000 5.280000 137 123 109 0
16.060000 10.120000 5.390000 139 122 107 0
16.280000 10.120000 5.390000 142 125 110 0
16.500000 10.120000 5.390000 151 131 115 0
16.720000 10.120000 4.070000 155 135 119 0
16.940000 10.120000 1.320000 160 136 119 0
17.380000 10.120000 1.320000 162 140 124 0
17.600000 10.120000 1.320000 162 140 124 0
17.820000 10.120000 0.660000 162 140 124 0
18.040000 10.120000 1.210000 161 139 123 0
18.260000 10.120000 1.650000 160 138 122 0
18.480000 10.120000 1.650000 161 139 123 0
18.700000 10.120000 0.990000 161 137 120 0
18.920000 10.120000 1.760000 161 137 120 0
19.140000 10.120000 2.530000 161 139 123 0
19.360000 10.120000 3.190000 161 139 123 0
19.580000 10.120000 3.300000 161 139 121 0
19.800000 10.120000 3.190000 162 140 122 0
20.020000 10.120000 3.630000 162 140 124 0
20.240000 10.120000 4.180000 163 141 125 0
20.460000 10.120000 4.840000 163 139 122 0
20.680000 10.120000 4.840000 164 140 123 0
20.900000 10.120000 5.610000 170 141 122 0
21.120000 10.120000 4.840000 172 143 124 0
21.340000 10.120000 4.180000 187 152 128 0
21.560000 10.120000 3.520000 197 162 138 0
21.780000 10.120000 3.520000 204 172 146 0
22.000000 10.120000 3.630000 212 180 154 0
22.220000 10.120000 3.630000 213 180 156 0
22.440000 10.120000 3.740000 214 181 157 0
22.660000 10.120000 4.400000 214 183 158 0
22.880000 10.120000 4.510000 212 181 156 0
23.100000 10.120000 5.170000 213 181 155 0
23.320000 10.120000 5.170000 212 180 154 0
23.540000 10.120000 5.280000 211 176 151 0
23.760000 10.120000 5.940000 210 175 150 0
23.980000 10.120000 6.050000 210 175 150 0
24.200000 10.120000 6.050000 211 176 151 0
24.420000 10.120000 5.390000 211 180 155 0
24.640000 10.120000 5.390000 215 184 159 0
24.860000 10.120000 5.500000 214 185 162 0
25.080000 10.120000 6.050000 214 185 162 0
25.300000 10.120000 7.040000 216 183 159 0
25.520000 10.120000 7.590000 215 182 158 0
25.740000 10.120000 7.700000 217 185 159 0
25.960000 10.120000 7.700000 217 185 159 0
26.180000 10.120000 7.810000 216 185 160 0
26.400000 10.120000 7.810000 218 187 162 0
26.620000 10.120000 7.920000 216 188 162 0
26.840000 10.120000 7.920000 215 187 161 0
27.060000 10.120000 7.920000 218 185 161 0
27.280000 10.120000 8.030000 219 186 162 0
27.500000 10.120000 8.030000 220 185 160 0
27.720000 10.120000 8.030000 219 184 159 0
27.940000 10.120000 8.800000 217 186 160 0
28.160000 10.120000 8.800000 217 186 160 0
28.380000 10.120000 8.910000 216 184 158 0
28.600000 10.120000 8.910000 216 184 158 0
28.820000 10.120000 8.910000 216 181 156 0
29.040000 10.120000 9.570000 216 181 156 0
29.260000 10.120000 9.570000 218 172 151 0
29.480000 10.120000 9.570000 201 155 134 0
29.700000 10.120000 9.570000 183 137 119 0
29.920000 10.120000 9.460000 176 130 112 0
30.140000 10.120000 9.350000 180 136 118 0
30.360000 10.120000 9.460000 184 140 122 0
30.580000 10.120000 9.460000 187 146 123 0
30.800000 10.120000 10.560000 190 149 126 0
31.020000 10.120000 11.880000 192 149 128 0
31.240000 10.120000 11.990000 193 150 129 0
31.460000 10.120000 11.990000 186 153 131 0
31.680000 10.120000 11.990000 185 152 130 0
31.900000 10.120000 11.330000 184 151 137 0
32.120000 10.120000 10.560000 182 149 135 0
32.340000 10.120000 9.790000 176 147 134 0
32.560000 10.120000 9.900000 166 137 124 0
32.780000 10.120000 10.560000 160 135 125 0
33.000000 10.120000 11.220000 160 135 125 0
33.220000 10.120000 11.880000 163 136 122 0
33.440000 10.120000 11.880000 167 140 126 0
33.660000 10.120000 11.110000 170 138 122 0
33.880000 10.120000 10.450000 170 138 122 0
34.100000 10.120000 9.900000 164 135 122 0
34.320000 10.120000 9.900000 159 130 117 0
34.540000 10.120000 10.670000 153 130 119 0
34.760000 10.120000 11.330000 151 128 117 0
34.980000 10.120000 10.670000 147 125 122 0
35.200000 10.120000 9.240000 146 124 121 0
35.420000 10.120000 8.580000 146 126 123 0
35.640000 10.120000 7.920000 150 130 127 0
35.860000 10.120000 7.920000 149 132 137 0
36.080000 10.120000 7.920000 151 134 139 0
36.300000 10.120000 8.580000 156 140 135 0
36.520000 10.120000 9.350000 165 149 144 0
36.740000 10.120000 10.010000 178 157 147 0
36.960000 10.120000 10.120000 183 162 152 0
37.180000 10.120000 10.120000 189 170 161 0
0.000000 10.340000 3.630000 161 165 163 0
0.220000 10.340000 3.630000 157 163 160 0
0.440000 10.340000 4.400000 155 161 158 0
0.660000 10.340000 4.400000 156 155 155 0
0.880000 10.340000 3.630000 154 153 153 0
1.100000 10.340000 3.080000 153 154 151 0
1.320000 10.340000 3.740000 152 153 150 0
1.540000 10.340000 4.400000 153 151 147 0
1.760000 10.340000 5.060000 152 150 146 0
1.980000 10.340000 5.060000 148 150 144 0
2.200000 10.340000 4.400000 147 149 143 0
2.420000 10.340000 4.510000 148 146 142 0
2.640000 10.340000 5.280000 146 144 140 0
2.860000 10.340000 5.280000 148 144 138 0
3.080000 10.340000 5.390000 148 144 138 0
3.300000 10.340000 4.730000 148 143 134 0
3.520000 10.340000 4.730000 147 142 133 0
3.740000 10.340000 5.390000 148 140 132 0
3.960000 10.340000 5.060000 147 139 131 0
4.180000 10.340000 5.610000 147 139 131 0
4.400000 10.340000 5.720000 147 139 131 0
4.620000 10.340000 5.060000 147 140 129 0
4.840000 10.340000 5.060000 146 139 128 0
5.060000 10.340000 4.400000 149 138 129 0
5.280000 10.340000 4.400000 149 138 129 0
5.500000 10.340000 4.510000 148 139 129 0
5.720000 10.340000 4.510000 148 139 129 0
5.940000 10.340000 3.850000 145 136 124 0
6.160000 10.340000 3.850000 146 137 125 0
6.380000 10.340000 3.850000 145 134 123 0
6.600000 10.340000 4.620000 145 134 123 0
6.820000 10.340000 4.620000 145 134 123 0
7.040000 10.340000 4.620000 145 134 123 0
7.260000 10.340000 4.620000 146 133 120 0
7.480000 10.340000 4.620000 144 131 118 0
7.700000 10.340000 4.620000 145 132 119 0
7.920000 10.340000 4.620000 144 131 118 0
8.140000 10.340000 4.620000 142 129 116 0
8.360000 10.340000 4.620000 143 130 117 0
8.580000 10.340000 4.620000 142 129 116 0
8.800000 10.340000 4.730000 142 129 116 0
9.020000 10.340000 4.730000 143 129 115 0
9.240000 10.340000 4.730000 141 127 113 0
9.460000 10.340000 4.730000 141 127 113 0
9.680000 10.340000 5.390000 140 126 112 0
9.900000 10.340000 5.390000 140 125 113 0
10.120000 10.340000 5.390000 140 125 113 0
10.340000 10.340000 5.390000 140 126 112 0
10.560000 10.340000 5.390000 141 127 113 0
10.780000 10.340000 6.160000 140 126 112 0
11.000000 10.340000 6.050000 139 125 111 0
11.220000 10.340000 6.050000 139 125 111 0
11.440000 10.340000 5.390000 139 125 111 0
11.660000 10.340000 5.390000 139 125 111 0
11.880000 10.340000 5.390000 138 124 110 0
12.100000 10.340000 5.390000 138 124 110 0
12.320000 10.340000 5.390000 138 124 110 0
12.540000 10.340000 5.500000 140 123 110 0
12.760000 10.340000 5.500000 140 123 110 0
12.980000 10.340000 5.390000 141 124 111 0
13.200000 10.340000 5.390000 141 124 111 0
13.420000 10.340000 5.390000 141 124 111 0
13.640000 10.340000 5.390000 141 124 111 0
13.860000 10.340000 6.160000 137 123 109 0
14.080000 10.340000 6.820000 138 124 110 0
14.300000 10.340000 6.710000 139 122 109 0
