ply
format ascii 1.0
element vertex 1108
property float x
property float y
property float z
property uchar red
property uchar green
property uchar blue
property uchar alpha
end_header
26.840000 29.700000 20.350000 211 219 201 0
27.060000 29.700000 21.120000 212 220 204 0
27.280000 29.700000 20.460000 211 219 203 0
27.500000 29.700000 15.620000 211 219 201 0
27.720000 29.700000 4.620000 210 218 200 0
28.160000 29.700000 4.620000 207 215 197 0
28.380000 29.700000 9.460000 205 212 192 0
28.600000 29.700000 3.960000 201 208 188 0
28.820000 29.700000 4.730000 198 200 171 0
29.040000 29.700000 9.570000 191 193 164 0
29.260000 29.700000 4.730000 190 194 164 0
30.800000 29.700000 4.730000 200 208 188 0
31.020000 29.700000 15.180000 203 211 193 0
31.240000 29.700000 19.910000 206 214 196 0
31.460000 29.700000 20.240000 207 215 197 0
31.680000 29.700000 20.130000 209 217 199 0
31.900000 29.700000 20.240000 209 217 199 0
32.120000 29.700000 19.690000 209 217 199 0
32.340000 29.700000 19.690000 209 217 199 0
32.560000 29.700000 14.960000 209 217 199 0
32.780000 29.700000 4.620000 209 217 199 0
34.320000 29.700000 4.180000 210 218 200 0
34.540000 29.700000 7.700000 209 217 199 0
34.760000 29.700000 4.290000 209 217 199 0
34.980000 29.700000 0.110000 209 217 199 0
35.200000 29.700000 0.220000 208 216 198 0
35.420000 29.700000 0.220000 208 216 198 0
35.640000 29.700000 0.220000 207 215 197 0
35.860000 29.700000 0.330000 207 215 197 0
36.080000 29.700000 0.330000 207 215 197 0
36.300000 29.700000 0.990000 206 214 196 0
36.520000 29.700000 1.100000 206 214 196 0
36.740000 29.700000 1.100000 206 214 196 0
36.960000 29.700000 1.760000 204 212 194 0
37.180000 29.700000 1.760000 204 212 194 0
0.000000 29.920000 1.210000 223 223 216 0
0.220000 29.920000 1.870000 223 223 216 0
0.440000 29.920000 1.870000 223 223 216 0
0.660000 29.920000 1.980000 222 222 215 0
0.880000 29.920000 1.980000 224 224 217 0
1.100000 29.920000 1.980000 230 230 223 0
1.320000 29.920000 1.980000 229 229 222 0
1.540000 29.920000 1.870000 224 224 217 0
1.760000 29.920000 2.970000 224 224 217 0
1.980000 29.920000 2.750000 224 224 217 0
2.200000 29.920000 3.520000 225 225 218 0
2.420000 29.920000 3.520000 225 225 218 0
2.640000 29.920000 3.520000 226 226 219 0
2.860000 29.920000 3.630000 224 226 218 0
3.080000 29.920000 3.630000 218 220 212 0
3.300000 29.920000 3.630000 218 220 212 0
3.520000 29.920000 3.630000 218 220 212 0
3.740000 29.920000 4.400000 217 219 211 0
3.960000 29.920000 3.740000 216 218 210 0
4.180000 29.920000 3.740000 214 219 210 0
4.400000 29.920000 3.740000 212 217 208 0
4.620000 29.920000 3.850000 211 212 201 0
4.840000 29.920000 3.850000 205 206 195 0
5.060000 29.920000 3.190000 202 196 177 0
5.280000 29.920000 2.530000 195 189 170 0
5.500000 29.920000 2.530000 195 189 170 0
5.720000 29.920000 2.530000 197 191 172 0
5.940000 29.920000 3.300000 196 194 177 0
6.160000 29.920000 3.300000 199 197 180 0
6.380000 29.920000 3.300000 199 199 186 0
6.600000 29.920000 2.640000 201 201 188 0
6.820000 29.920000 3.190000 204 205 194 0
7.040000 29.920000 3.850000 209 210 199 0
7.260000 29.920000 4.510000 209 211 201 0
7.480000 29.920000 5.280000 211 213 203 0
7.700000 29.920000 5.280000 213 215 205 0
7.920000 29.920000 5.280000 215 217 207 0
8.140000 29.920000 5.390000 213 219 206 0
8.360000 29.920000 5.390000 213 219 206 0
8.580000 29.920000 5.390000 214 217 205 0
8.800000 29.920000 5.390000 216 219 207 0
9.020000 29.920000 5.500000 218 221 209 0
9.240000 29.920000 5.500000 218 221 209 0
9.460000 29.920000 6.050000 215 221 208 0
9.680000 29.920000 6.380000 214 220 207 0
9.900000 29.920000 6.930000 215 221 208 0
10.120000 29.920000 6.930000 214 220 207 0
10.340000 29.920000 7.700000 216 219 207 0
10.560000 29.920000 7.700000 217 220 208 0
10.780000 29.920000 7.700000 216 222 209 0
11.000000 29.920000 7.810000 217 223 210 0
11.220000 29.920000 7.810000 215 221 208 0
11.440000 29.920000 7.810000 215 221 208 0
11.660000 29.920000 7.810000 213 219 206 0
11.880000 29.920000 7.920000 214 220 207 0
12.100000 29.920000 7.920000 214 220 207 0
12.320000 29.920000 7.920000 215 221 208 0
12.540000 29.920000 7.920000 213 219 206 0
12.760000 29.920000 8.030000 214 220 207 0
12.980000 29.920000 8.030000 213 219 206 0
13.200000 29.920000 8.030000 213 219 206 0
13.420000 29.920000 8.800000 213 219 206 0
13.640000 29.920000 8.800000 215 221 208 0
13.860000 29.920000 8.800000 216 222 209 0
14.080000 29.920000 8.800000 216 222 209 0
14.300000 29.920000 8.910000 216 222 209 0
14.520000 29.920000 8.910000 215 221 208 0
14.740000 29.920000 8.910000 214 220 205 0
14.960000 29.920000 8.910000 213 219 204 0
15.180000 29.920000 9.460000 214 220 205 0
15.400000 29.920000 9.900000 214 220 205 0
15.620000 29.920000 10.450000 215 221 206 0
15.840000 29.920000 10.450000 216 222 207 0
16.060000 29.920000 11.110000 214 220 207 0
16.280000 29.920000 11.220000 214 220 207 0
16.500000 29.920000 11.220000 213 219 204 0
16.720000 29.920000 11.220000 214 220 205 0
16.940000 29.920000 11.220000 214 220 205 0
17.160000 29.920000 11.330000 214 220 205 0
17.380000 29.920000 11.330000 214 220 205 0
17.600000 29.920000 11.330000 214 220 205 0
17.820000 29.920000 11.330000 214 220 205 0
18.040000 29.920000 12.100000 214 220 205 0
18.260000 29.920000 12.100000 214 220 205 0
18.480000 29.920000 12.100000 214 220 205 0
18.700000 29.920000 12.210000 214 220 205 0
18.920000 29.920000 12.210000 214 220 205 0
19.140000 29.920000 12.210000 214 220 205 0
19.360000 29.920000 12.210000 214 220 205 0
19.580000 29.920000 12.980000 212 218 203 0
19.800000 29.920000 12.980000 212 218 203 0
20.020000 29.920000 12.980000 213 219 204 0
20.240000 29.920000 13.090000 213 219 204 0
20.460000 29.920000 13.090000 213 219 204 0
20.680000 29.920000 13.640000 212 218 203 0
20.900000 29.920000 13.970000 212 218 203 0
21.120000 29.920000 14.520000 212 218 203 0
21.340000 29.920000 14.630000 212 218 203 0
21.560000 29.920000 14.630000 211 217 202 0
21.780000 29.920000 15.290000 210 216 201 0
22.000000 29.920000 15.290000 209 215 200 0
22.220000 29.920000 15.400000 209 215 200 0
22.440000 29.920000 15.400000 208 214 199 0
22.660000 29.920000 15.510000 207 213 198 0
22.880000 29.920000 16.280000 207 213 198 0
23.100000 29.920000 17.050000 206 214 198 0
23.320000 29.920000 17.820000 209 217 201 0
23.540000 29.920000 17.930000 211 219 203 0
23.760000 29.920000 18.480000 211 219 203 0
23.980000 29.920000 19.580000 211 219 203 0
24.200000 29.920000 20.020000 210 218 202 0
24.420000 29.920000 19.360000 209 217 201 0
24.640000 29.920000 19.470000 211 219 203 0
24.860000 29.920000 19.470000 211 219 203 0
25.080000 29.920000 18.700000 213 221 205 0
25.300000 29.920000 18.810000 214 222 206 0
25.520000 29.920000 18.810000 213 221 205 0
25.740000 29.920000 18.810000 212 220 204 0
25.960000 29.920000 19.580000 212 220 204 0
26.180000 29.920000 20.240000 211 219 203 0
26.400000 29.920000 20.350000 211 219 203 0
26.620000 29.920000 20.350000 212 220 202 0
26.840000 29.920000 21.010000 213 221 203 0
27.060000 29.920000 21.120000 212 220 204 0
27.280000 29.920000 20.460000 212 220 204 0
27.500000 29.920000 15.620000 211 219 201 0
27.720000 29.920000 4.620000 209 217 199 0
28.160000 29.920000 4.620000 207 215 197 0
28.380000 29.920000 9.460000 206 213 193 0
28.600000 29.920000 3.960000 201 208 188 0
28.820000 29.920000 3.300000 197 199 170 0
29.040000 29.920000 6.710000 192 194 165 0
29.260000 29.920000 3.300000 190 194 164 0
30.800000 29.920000 4.730000 202 210 190 0
31.020000 29.920000 15.180000 204 212 194 0
31.240000 29.920000 20.570000 206 214 196 0
31.460000 29.920000 20.240000 207 215 197 0
31.680000 29.920000 20.130000 209 217 199 0
31.900000 29.920000 20.240000 210 218 200 0
32.120000 29.920000 19.690000 209 217 199 0
32.340000 29.920000 19.690000 209 217 199 0
32.560000 29.920000 14.960000 208 216 198 0
32.780000 29.920000 4.620000 209 217 199 0
34.320000 29.920000 1.430000 210 218 200 0
34.540000 29.920000 2.860000 210 218 200 0
34.760000 29.920000 1.540000 209 217 199 0
34.980000 29.920000 0.110000 208 216 198 0
35.200000 29.920000 0.220000 208 216 198 0
35.420000 29.920000 0.220000 208 216 198 0
35.640000 29.920000 0.220000 207 215 197 0
35.860000 29.920000 0.330000 207 215 197 0
36.080000 29.920000 0.330000 207 215 197 0
36.300000 29.920000 0.990000 206 214 196 0
36.520000 29.920000 1.100000 206 214 196 0
36.740000 29.920000 1.100000 206 214 196 0
36.960000 29.920000 1.760000 204 212 194 0
37.180000 29.920000 1.760000 204 212 194 0
0.000000 30.140000 1.210000 227 227 220 0
0.220000 30.140000 1.870000 223 223 216 0
0.440000 30.140000 1.870000 223 223 216 0
0.660000 30.140000 1.980000 223 223 216 0
0.880000 30.140000 1.980000 223 223 216 0
1.100000 30.140000 1.980000 228 228 221 0
1.320000 30.140000 1.980000 234 234 227 0
1.540000 30.140000 1.870000 227 227 220 0
1.760000 30.140000 2.970000 219 219 212 0
1.980000 30.140000 3.520000 224 224 217 0
2.200000 30.140000 3.520000 223 223 216 0
2.420000 30.140000 3.520000 224 224 217 0
2.640000 30.140000 3.520000 224 224 217 0
2.860000 30.140000 3.630000 223 223 216 0
3.080000 30.140000 3.630000 219 219 212 0
3.300000 30.140000 3.630000 218 219 209 0
3.520000 30.140000 4.400000 218 219 209 0
3.740000 30.140000 4.400000 218 220 212 0
3.960000 30.140000 3.740000 216 218 210 0
4.180000 30.140000 3.740000 215 217 209 0
4.400000 30.140000 3.740000 223 225 217 0
4.620000 30.140000 3.850000 219 220 207 0
4.840000 30.140000 3.850000 200 201 188 0
5.060000 30.140000 3.190000 198 195 175 0
5.280000 30.140000 2.530000 193 190 170 0
5.500000 30.140000 2.530000 194 188 169 0
5.720000 30.140000 2.530000 196 190 171 0
5.940000 30.140000 3.300000 196 194 176 0
6.160000 30.140000 3.300000 198 196 178 0
6.380000 30.140000 3.300000 199 199 184 0
6.600000 30.140000 2.640000 201 201 186 0
6.820000 30.140000 3.190000 204 205 194 0
7.040000 30.140000 3.850000 208 209 198 0
7.260000 30.140000 4.510000 210 212 202 0
7.480000 30.140000 5.280000 212 214 204 0
7.700000 30.140000 5.280000 211 216 205 0
7.920000 30.140000 5.280000 213 218 207 0
8.140000 30.140000 5.390000 216 219 207 0
8.360000 30.140000 5.390000 216 219 207 0
8.580000 30.140000 5.390000 215 218 206 0
8.800000 30.140000 5.390000 215 218 206 0
9.020000 30.140000 5.500000 217 220 208 0
9.240000 30.140000 5.500000 217 220 208 0
9.460000 30.140000 6.050000 215 221 208 0
9.680000 30.140000 6.380000 214 220 207 0
9.900000 30.140000 6.930000 216 219 207 0
10.120000 30.140000 6.930000 217 220 208 0
10.340000 30.140000 7.700000 217 220 208 0
10.560000 30.140000 7.700000 217 220 208 0
10.780000 30.140000 7.700000 218 221 209 0
11.000000 30.140000 7.810000 219 222 210 0
11.220000 30.140000 7.810000 216 222 209 0
11.440000 30.140000 7.810000 214 220 207 0
11.660000 30.140000 7.810000 216 219 207 0
11.880000 30.140000 7.920000 217 220 208 0
12.100000 30.140000 7.920000 217 220 208 0
12.320000 30.140000 7.920000 217 220 208 0
12.540000 30.140000 7.920000 217 220 208 0
12.760000 30.140000 8.030000 216 219 207 0
12.980000 30.140000 8.030000 214 220 207 0
13.200000 30.140000 8.030000 214 220 207 0
13.420000 30.140000 8.800000 214 220 205 0
13.640000 30.140000 8.800000 214 220 205 0
13.860000 30.140000 8.800000 215 221 206 0
14.080000 30.140000 8.800000 216 222 207 0
14.300000 30.140000 8.910000 217 223 208 0
14.520000 30.140000 8.910000 213 219 204 0
14.740000 30.140000 8.910000 213 219 204 0
14.960000 30.140000 8.910000 212 218 203 0
15.180000 30.140000 9.460000 214 220 205 0
15.400000 30.140000 9.900000 214 220 205 0
15.620000 30.140000 10.450000 215 221 206 0
15.840000 30.140000 10.450000 216 222 207 0
16.060000 30.140000 11.110000 214 220 205 0
16.280000 30.140000 11.220000 213 219 204 0
16.500000 30.140000 11.220000 213 219 204 0
16.720000 30.140000 11.220000 214 220 205 0
16.940000 30.140000 11.220000 214 220 205 0
17.160000 30.140000 11.330000 214 220 205 0
17.380000 30.140000 11.330000 214 220 205 0
17.600000 30.140000 11.330000 214 220 205 0
17.820000 30.140000 11.330000 213 219 204 0
18.040000 30.140000 12.100000 213 219 204 0
18.260000 30.140000 12.100000 214 220 205 0
18.480000 30.140000 12.100000 214 220 205 0
18.700000 30.140000 12.210000 214 220 205 0
18.920000 30.140000 12.210000 215 221 206 0
19.140000 30.140000 12.210000 215 221 206 0
19.360000 30.140000 12.210000 214 220 205 0
19.580000 30.140000 12.980000 213 219 204 0
19.800000 30.140000 12.980000 212 218 203 0
20.020000 30.140000 12.980000 212 218 203 0
20.240000 30.140000 13.090000 213 219 204 0
20.460000 30.140000 13.090000 212 218 203 0
20.680000 30.140000 13.640000 213 219 204 0
20.900000 30.140000 13.970000 211 217 202 0
21.120000 30.140000 14.520000 211 217 202 0
21.340000 30.140000 14.630000 211 219 203 0
21.560000 30.140000 14.630000 210 218 202 0
21.780000 30.140000 14.630000 210 216 201 0
22.000000 30.140000 15.290000 210 216 201 0
22.220000 30.140000 15.400000 209 215 200 0
22.440000 30.140000 15.400000 208 214 199 0
22.660000 30.140000 15.510000 207 213 196 0
22.880000 30.140000 16.280000 206 212 195 0
23.100000 30.140000 17.050000 206 214 198 0
23.320000 30.140000 17.820000 209 217 201 0
23.540000 30.140000 17.930000 209 217 201 0
23.760000 30.140000 18.480000 211 219 203 0
23.980000 30.140000 19.580000 212 220 204 0
24.200000 30.140000 20.020000 211 219 203 0
24.420000 30.140000 20.130000 210 218 200 0
24.640000 30.140000 19.470000 211 219 201 0
24.860000 30.140000 19.470000 211 219 203 0
25.080000 30.140000 18.810000 212 220 204 0
25.300000 30.140000 18.810000 213 221 205 0
25.520000 30.140000 18.810000 213 221 205 0
25.740000 30.140000 18.810000 212 220 204 0
25.960000 30.140000 19.580000 212 220 204 0
26.180000 30.140000 19.580000 211 219 201 0
26.400000 30.140000 20.350000 212 220 202 0
26.620000 30.140000 20.350000 213 221 205 0
26.840000 30.140000 21.010000 213 221 205 0
27.060000 30.140000 20.350000 213 221 203 0
27.280000 30.140000 20.460000 212 220 202 0
27.500000 30.140000 14.960000 211 219 201 0
27.720000 30.140000 4.620000 210 218 200 0
28.160000 30.140000 4.620000 207 215 197 0
28.380000 30.140000 9.460000 205 213 193 0
28.600000 30.140000 3.960000 201 209 189 0
28.820000 30.140000 0.550000 199 203 173 0
29.040000 30.140000 1.870000 191 195 165 0
29.260000 30.140000 0.550000 189 195 166 0
30.800000 30.140000 4.730000 204 211 191 0
31.020000 30.140000 13.750000 204 212 194 0
31.240000 30.140000 17.820000 205 213 195 0
31.460000 30.140000 18.810000 208 216 198 0
31.680000 30.140000 20.130000 209 217 199 0
31.900000 30.140000 20.240000 209 217 199 0
32.120000 30.140000 19.690000 209 217 199 0
32.340000 30.140000 19.690000 208 216 196 0
32.560000 30.140000 14.960000 209 217 197 0
32.780000 30.140000 4.620000 209 217 199 0
34.540000 30.140000 0.110000 209 217 199 0
34.760000 30.140000 0.110000 209 217 199 0
34.980000 30.140000 0.110000 208 216 198 0
35.200000 30.140000 0.220000 208 216 198 0
35.420000 30.140000 0.220000 208 216 198 0
35.640000 30.140000 0.220000 207 215 197 0
35.860000 30.140000 0.330000 206 214 196 0
36.080000 30.140000 0.990000 206 214 196 0
36.300000 30.140000 0.990000 206 214 196 0
36.520000 30.140000 1.100000 205 213 195 0
36.740000 30.140000 1.100000 206 214 196 0
36.960000 30.140000 1.760000 204 212 194 0
37.180000 30.140000 1.760000 203 211 193 0
0.000000 30.360000 1.210000 232 232 225 0
0.220000 30.360000 1.870000 226 226 219 0
0.440000 30.360000 1.870000 221 221 214 0
0.660000 30.360000 1.980000 220 220 213 0
0.880000 30.360000 1.980000 221 221 214 0
1.100000 30.360000 1.980000 223 223 216 0
1.320000 30.360000 1.980000 231 231 224 0
1.540000 30.360000 1.870000 237 237 230 0
1.760000 30.360000 2.970000 224 224 217 0
1.980000 30.360000 3.520000 222 222 215 0
2.200000 30.360000 3.520000 223 223 216 0
2.420000 30.360000 3.520000 224 224 217 0
2.640000 30.360000 3.520000 224 224 217 0
2.860000 30.360000 3.630000 222 222 215 0
3.080000 30.360000 3.630000 221 221 214 0
3.300000 30.360000 3.630000 218 219 209 0
3.520000 30.360000 4.400000 217 218 208 0
3.740000 30.360000 4.400000 217 219 211 0
3.960000 30.360000 3.740000 217 219 211 0
4.180000 30.360000 3.740000 216 218 210 0
4.400000 30.360000 3.740000 224 226 218 0
4.620000 30.360000 3.850000 234 235 222 0
4.840000 30.360000 3.850000 207 208 195 0
5.060000 30.360000 3.190000 196 193 173 0
5.280000 30.360000 2.530000 192 189 169 0
5.500000 30.360000 2.530000 194 188 169 0
5.720000 30.360000 2.530000 196 190 171 0
5.940000 30.360000 3.300000 196 194 176 0
6.160000 30.360000 3.300000 198 196 178 0
6.380000 30.360000 3.300000 199 199 184 0
6.600000 30.360000 2.640000 201 201 186 0
6.820000 30.360000 3.190000 204 205 194 0
7.040000 30.360000 3.850000 208 209 198 0
7.260000 30.360000 4.510000 209 211 201 0
7.480000 30.360000 5.280000 212 214 204 0
7.700000 30.360000 5.280000 211 216 205 0
7.920000 30.360000 5.280000 213 218 207 0
8.140000 30.360000 5.390000 216 219 207 0
8.360000 30.360000 5.390000 215 218 206 0
8.580000 30.360000 5.390000 214 217 205 0
8.800000 30.360000 5.390000 215 218 206 0
9.020000 30.360000 5.500000 216 219 207 0
9.240000 30.360000 5.500000 216 219 207 0
9.460000 30.360000 6.050000 215 221 208 0
9.680000 30.360000 6.380000 214 220 207 0
9.900000 30.360000 6.930000 216 219 207 0
10.120000 30.360000 7.700000 216 219 207 0
10.340000 30.360000 7.700000 216 219 207 0
10.560000 30.360000 7.700000 217 220 208 0
10.780000 30.360000 7.700000 218 221 209 0
11.000000 30.360000 7.810000 219 222 210 0
11.220000 30.360000 7.810000 215 221 208 0
11.440000 30.360000 7.810000 214 220 207 0
11.660000 30.360000 7.810000 216 219 207 0
11.880000 30.360000 7.920000 218 221 209 0
12.100000 30.360000 7.920000 217 220 208 0
12.320000 30.360000 7.920000 217 220 208 0
12.540000 30.360000 7.920000 217 220 208 0
12.760000 30.360000 8.030000 216 219 207 0
12.980000 30.360000 8.030000 214 220 207 0
13.200000 30.360000 8.030000 214 220 207 0
13.420000 30.360000 8.800000 215 221 206 0
13.640000 30.360000 8.800000 215 221 206 0
13.860000 30.360000 8.800000 214 220 205 0
14.080000 30.360000 8.800000 216 222 207 0
14.300000 30.360000 8.910000 215 221 206 0
14.520000 30.360000 8.910000 214 220 205 0
14.740000 30.360000 8.910000 214 220 205 0
14.960000 30.360000 8.910000 214 220 205 0
15.180000 30.360000 9.460000 213 219 204 0
15.400000 30.360000 9.900000 214 220 205 0
15.620000 30.360000 10.450000 215 221 206 0
15.840000 30.360000 10.450000 216 222 207 0
16.060000 30.360000 11.110000 214 220 205 0
16.280000 30.360000 11.220000 213 219 204 0
16.500000 30.360000 11.220000 214 220 205 0
16.720000 30.360000 11.220000 214 220 205 0
16.940000 30.360000 11.220000 214 220 205 0
17.160000 30.360000 11.330000 214 220 205 0
17.380000 30.360000 11.330000 214 220 205 0
17.600000 30.360000 11.330000 214 220 205 0
17.820000 30.360000 11.330000 214 220 205 0
18.040000 30.360000 11.440000 215 221 206 0
18.260000 30.360000 12.100000 213 219 204 0
18.480000 30.360000 12.100000 214 220 205 0
18.700000 30.360000 12.210000 214 220 205 0
18.920000 30.360000 12.210000 214 220 205 0
19.140000 30.360000 12.210000 213 219 204 0
19.360000 30.360000 12.210000 213 219 204 0
19.580000 30.360000 12.980000 213 219 204 0
19.800000 30.360000 12.980000 213 219 204 0
20.020000 30.360000 12.980000 213 219 204 0
20.240000 30.360000 13.090000 213 219 204 0
20.460000 30.360000 13.090000 212 218 203 0
20.680000 30.360000 13.640000 212 218 203 0
20.900000 30.360000 13.970000 213 219 204 0
21.120000 30.360000 14.520000 212 218 203 0
21.340000 30.360000 14.630000 211 219 203 0
21.560000 30.360000 14.630000 210 218 202 0
21.780000 30.360000 14.630000 210 216 201 0
22.000000 30.360000 15.290000 210 216 201 0
22.220000 30.360000 15.400000 208 214 199 0
22.440000 30.360000 15.400000 208 214 199 0
22.660000 30.360000 15.510000 207 213 196 0
22.880000 30.360000 16.280000 206 212 195 0
23.100000 30.360000 17.050000 205 213 197 0
23.320000 30.360000 17.820000 209 217 201 0
23.540000 30.360000 17.930000 210 218 202 0
23.760000 30.360000 18.480000 210 218 202 0
23.980000 30.360000 19.580000 210 218 202 0
24.200000 30.360000 20.020000 210 218 202 0
24.420000 30.360000 20.130000 210 218 200 0
24.640000 30.360000 19.470000 211 219 201 0
24.860000 30.360000 19.470000 211 219 203 0
25.080000 30.360000 19.470000 212 220 204 0
25.300000 30.360000 18.810000 212 220 204 0
25.520000 30.360000 18.810000 213 221 205 0
25.740000 30.360000 18.810000 213 221 205 0
25.960000 30.360000 19.580000 212 220 204 0
26.180000 30.360000 19.580000 211 219 201 0
26.400000 30.360000 20.350000 212 220 202 0
26.620000 30.360000 20.350000 212 220 204 0
26.840000 30.360000 20.350000 214 222 206 0
27.060000 30.360000 20.350000 213 221 203 0
27.280000 30.360000 20.460000 212 220 202 0
27.500000 30.360000 16.280000 211 219 201 0
27.720000 30.360000 7.370000 210 218 200 0
27.940000 30.360000 0.440000 210 218 200 0
28.160000 30.360000 4.620000 207 215 197 0
28.380000 30.360000 9.460000 205 213 193 0
28.600000 30.360000 3.960000 201 209 189 0
29.920000 30.360000 0.660000 194 198 170 0
30.800000 30.360000 4.730000 203 210 190 0
31.020000 30.360000 11.000000 204 212 194 0
31.240000 30.360000 12.210000 206 214 196 0
31.460000 30.360000 16.060000 207 215 197 0
31.680000 30.360000 20.130000 209 217 199 0
31.900000 30.360000 20.240000 209 217 199 0
32.120000 30.360000 19.690000 208 216 198 0
32.340000 30.360000 19.690000 208 216 196 0
32.560000 30.360000 14.960000 208 216 196 0
32.780000 30.360000 4.620000 209 217 199 0
34.540000 30.360000 0.110000 209 217 199 0
34.760000 30.360000 0.110000 209 217 199 0
34.980000 30.360000 0.110000 209 217 199 0
35.200000 30.360000 0.220000 209 217 199 0
35.420000 30.360000 0.220000 208 216 198 0
35.640000 30.360000 0.220000 207 215 197 0
35.860000 30.360000 0.330000 207 215 197 0
36.080000 30.360000 0.990000 206 214 196 0
36.300000 30.360000 0.990000 206 214 196 0
36.520000 30.360000 1.100000 206 214 196 0
36.740000 30.360000 1.100000 205 213 195 0
36.960000 30.360000 1.760000 204 212 194 0
37.180000 30.360000 1.760000 203 211 193 0
0.000000 30.580000 1.210000 229 228 218 0
0.220000 30.580000 1.870000 232 233 222 0
0.440000 30.580000 1.870000 221 222 211 0
0.660000 30.580000 1.980000 221 220 210 0
0.880000 30.580000 1.320000 221 220 210 0
1.100000 30.580000 1.980000 222 221 212 0
1.320000 30.580000 1.980000 227 226 217 0
1.540000 30.580000 1.870000 237 239 229 0
1.760000 30.580000 2.970000 231 233 223 0
1.980000 30.580000 3.520000 224 223 214 0
2.200000 30.580000 3.520000 223 222 213 0
2.420000 30.580000 3.520000 224 225 214 0
2.640000 30.580000 3.520000 223 224 213 0
2.860000 30.580000 3.630000 221 222 212 0
3.080000 30.580000 3.630000 223 224 214 0
3.300000 30.580000 3.630000 224 225 215 0
3.520000 30.580000 4.400000 218 219 209 0
3.740000 30.580000 4.400000 219 220 209 0
3.960000 30.580000 3.740000 219 220 209 0
4.180000 30.580000 3.740000 218 219 208 0
4.400000 30.580000 3.080000 223 224 213 0
4.620000 30.580000 3.850000 234 235 225 0
4.840000 30.580000 3.850000 224 225 215 0
5.060000 30.580000 3.190000 202 195 172 0
5.280000 30.580000 2.530000 194 187 164 0
5.500000 30.580000 2.530000 193 190 168 0
5.720000 30.580000 2.530000 195 192 170 0
5.940000 30.580000 2.530000 197 194 174 0
6.160000 30.580000 3.300000 199 196 176 0
6.380000 30.580000 3.300000 198 198 181 0
6.600000 30.580000 3.300000 201 201 184 0
6.820000 30.580000 3.190000 204 205 192 0
7.040000 30.580000 3.850000 208 209 196 0
7.260000 30.580000 4.510000 210 211 198 0
7.480000 30.580000 5.280000 214 215 202 0
7.700000 30.580000 5.280000 214 217 203 0
7.920000 30.580000 5.280000 216 219 205 0
8.140000 30.580000 5.390000 215 218 204 0
8.360000 30.580000 5.390000 214 217 203 0
8.580000 30.580000 5.390000 214 217 203 0
8.800000 30.580000 5.390000 215 218 204 0
9.020000 30.580000 5.500000 216 219 205 0
9.240000 30.580000 5.500000 216 219 205 0
9.460000 30.580000 6.050000 216 219 205 0
9.680000 30.580000 6.380000 216 219 205 0
9.900000 30.580000 6.930000 217 220 206 0
10.120000 30.580000 7.700000 217 220 206 0
10.340000 30.580000 7.700000 217 220 204 0
10.560000 30.580000 7.700000 217 220 204 0
10.780000 30.580000 7.700000 217 220 204 0
11.000000 30.580000 7.810000 217 220 204 0
11.220000 30.580000 7.810000 217 220 206 0
11.440000 30.580000 7.810000 217 220 206 0
11.660000 30.580000 7.810000 217 220 206 0
11.880000 30.580000 7.920000 219 222 208 0
12.100000 30.580000 7.920000 221 224 208 0
12.320000 30.580000 7.920000 218 221 205 0
12.540000 30.580000 7.920000 217 220 204 0
12.760000 30.580000 8.030000 217 220 204 0
12.980000 30.580000 8.030000 217 220 204 0
13.200000 30.580000 8.690000 216 219 203 0
13.420000 30.580000 8.800000 217 220 204 0
13.640000 30.580000 8.800000 218 221 205 0
13.860000 30.580000 8.800000 216 219 203 0
14.080000 30.580000 8.800000 216 219 203 0
14.300000 30.580000 8.910000 217 220 204 0
14.520000 30.580000 8.910000 217 220 204 0
14.740000 30.580000 8.910000 216 219 203 0
14.960000 30.580000 8.910000 217 220 204 0
15.180000 30.580000 9.460000 218 221 205 0
15.400000 30.580000 9.900000 217 220 204 0
15.620000 30.580000 10.450000 215 221 204 0
15.840000 30.580000 11.110000 216 222 205 0
16.060000 30.580000 11.110000 214 220 203 0
16.280000 30.580000 11.220000 214 220 203 0
16.500000 30.580000 11.220000 216 222 205 0
16.720000 30.580000 11.220000 214 220 203 0
16.940000 30.580000 11.220000 213 219 202 0
17.160000 30.580000 11.330000 213 219 202 0
17.380000 30.580000 11.330000 215 221 204 0
17.600000 30.580000 11.330000 214 220 203 0
17.820000 30.580000 11.330000 215 221 204 0
18.040000 30.580000 11.440000 214 220 203 0
18.260000 30.580000 12.100000 215 219 200 0
18.480000 30.580000 12.100000 215 219 200 0
18.700000 30.580000 12.210000 213 219 202 0
18.920000 30.580000 12.210000 214 220 203 0
19.140000 30.580000 12.210000 213 219 202 0
19.360000 30.580000 12.210000 213 219 202 0
19.580000 30.580000 12.980000 214 220 203 0
19.800000 30.580000 12.980000 214 220 203 0
20.020000 30.580000 12.980000 213 220 200 0
20.240000 30.580000 13.090000 212 219 199 0
20.460000 30.580000 13.090000 212 218 201 0
20.680000 30.580000 13.640000 213 219 202 0
20.900000 30.580000 13.970000 213 220 200 0
21.120000 30.580000 14.520000 212 219 199 0
21.340000 30.580000 14.520000 212 218 201 0
21.560000 30.580000 14.630000 211 217 200 0
21.780000 30.580000 14.630000 210 217 197 0
22.000000 30.580000 15.290000 210 217 197 0
22.220000 30.580000 15.400000 208 215 195 0
22.440000 30.580000 15.400000 208 215 195 0
22.660000 30.580000 15.510000 207 214 194 0
22.880000 30.580000 16.280000 206 213 193 0
23.100000 30.580000 17.050000 207 214 194 0
23.320000 30.580000 17.820000 210 217 197 0
23.540000 30.580000 17.930000 212 219 199 0
23.760000 30.580000 18.480000 212 219 199 0
23.980000 30.580000 19.580000 210 218 198 0
24.200000 30.580000 20.020000 211 219 199 0
24.420000 30.580000 20.130000 212 219 199 0
24.640000 30.580000 19.470000 213 220 200 0
24.860000 30.580000 19.470000 212 219 199 0
25.080000 30.580000 19.470000 212 219 199 0
25.300000 30.580000 18.810000 212 219 199 0
25.520000 30.580000 18.810000 213 220 200 0
25.740000 30.580000 18.810000 213 221 201 0
25.960000 30.580000 19.580000 213 221 201 0
26.180000 30.580000 19.580000 212 220 200 0
26.400000 30.580000 20.350000 213 221 201 0
26.620000 30.580000 20.350000 214 221 201 0
26.840000 30.580000 20.350000 214 221 201 0
27.060000 30.580000 20.350000 212 220 200 0
27.280000 30.580000 20.460000 212 220 200 0
27.500000 30.580000 19.030000 211 219 199 0
27.720000 30.580000 12.870000 211 219 199 0
27.940000 30.580000 4.620000 209 217 197 0
28.160000 30.580000 7.370000 208 216 196 0
28.380000 30.580000 10.890000 206 213 192 0
28.600000 30.580000 3.960000 201 208 187 0
29.700000 30.580000 0.660000 193 198 165 0
29.920000 30.580000 0.660000 194 199 166 0
30.140000 30.580000 0.660000 195 201 172 0
30.800000 30.580000 4.730000 202 209 188 0
31.020000 30.580000 9.680000 205 212 191 0
31.240000 30.580000 9.460000 207 214 193 0
31.460000 30.580000 14.740000 207 215 195 0
31.680000 30.580000 20.130000 209 217 197 0
31.900000 30.580000 20.240000 210 217 196 0
32.120000 30.580000 19.690000 210 217 196 0
32.340000 30.580000 19.690000 210 217 196 0
32.560000 30.580000 14.960000 211 218 197 0
32.780000 30.580000 4.620000 211 218 197 0
34.540000 30.580000 0.110000 210 217 196 0
34.760000 30.580000 0.110000 210 217 196 0
34.980000 30.580000 0.110000 209 218 196 0
35.200000 30.580000 0.220000 209 218 196 0
35.420000 30.580000 0.220000 210 217 196 0
35.640000 30.580000 0.220000 209 216 195 0
35.860000 30.580000 0.330000 209 216 195 0
36.080000 30.580000 0.330000 208 215 194 0
36.300000 30.580000 0.990000 208 215 194 0
36.520000 30.580000 0.990000 207 214 193 0
36.740000 30.580000 1.100000 205 214 192 0
36.960000 30.580000 1.760000 204 213 191 0
37.180000 30.580000 1.760000 204 211 190 0
0.000000 30.800000 1.210000 225 224 214 0
0.220000 30.800000 1.870000 226 227 216 0
0.440000 30.800000 1.870000 226 227 216 0
0.660000 30.800000 1.210000 221 220 210 0
0.880000 30.800000 1.320000 221 220 210 0
1.100000 30.800000 1.980000 222 221 212 0
1.320000 30.800000 1.980000 221 220 211 0
1.540000 30.800000 1.870000 221 223 213 0
1.760000 30.800000 2.970000 229 231 221 0
1.980000 30.800000 3.520000 232 231 222 0
2.200000 30.800000 3.520000 218 217 208 0
2.420000 30.800000 3.520000 222 223 212 0
2.640000 30.800000 3.520000 223 224 213 0
2.860000 30.800000 3.630000 221 222 212 0
3.080000 30.800000 3.630000 222 223 213 0
3.300000 30.800000 3.630000 228 229 219 0
3.520000 30.800000 4.400000 224 225 215 0
3.740000 30.800000 4.400000 218 219 208 0
3.960000 30.800000 3.740000 218 219 208 0
4.180000 30.800000 3.740000 217 218 207 0
4.400000 30.800000 3.740000 220 221 210 0
4.620000 30.800000 3.850000 227 228 218 0
4.840000 30.800000 3.850000 223 224 214 0
5.060000 30.800000 3.190000 209 202 179 0
5.280000 30.800000 2.530000 195 188 165 0
5.500000 30.800000 2.530000 192 189 167 0
5.720000 30.800000 2.530000 195 192 170 0
5.940000 30.800000 2.530000 197 194 174 0
6.160000 30.800000 3.300000 200 197 177 0
6.380000 30.800000 3.300000 199 199 182 0
6.600000 30.800000 3.300000 202 202 185 0
6.820000 30.800000 3.190000 205 206 193 0
7.040000 30.800000 3.850000 208 209 196 0
7.260000 30.800000 4.510000 210 211 198 0
7.480000 30.800000 5.280000 213 214 201 0
7.700000 30.800000 5.280000 214 217 203 0
7.920000 30.800000 5.280000 214 217 203 0
8.140000 30.800000 5.390000 216 219 205 0
8.360000 30.800000 5.390000 215 218 204 0
8.580000 30.800000 5.390000 214 217 203 0
8.800000 30.800000 5.390000 215 218 204 0
9.020000 30.800000 5.500000 217 220 206 0
9.240000 30.800000 5.500000 217 220 206 0
9.460000 30.800000 6.050000 216 219 205 0
9.680000 30.800000 7.040000 216 219 205 0
9.900000 30.800000 6.930000 217 220 206 0
10.120000 30.800000 7.700000 217 220 206 0
10.340000 30.800000 7.700000 216 219 203 0
10.560000 30.800000 7.700000 217 220 204 0
10.780000 30.800000 7.700000 217 220 204 0
11.000000 30.800000 7.810000 217 220 204 0
11.220000 30.800000 7.810000 217 220 206 0
11.440000 30.800000 7.810000 217 220 206 0
11.660000 30.800000 7.810000 217 220 206 0
11.880000 30.800000 7.920000 219 222 208 0
12.100000 30.800000 7.920000 220 223 207 0
12.320000 30.800000 8.580000 219 222 206 0
12.540000 30.800000 8.690000 218 221 205 0
12.760000 30.800000 8.690000 218 221 205 0
12.980000 30.800000 8.690000 216 219 203 0
13.200000 30.800000 8.690000 217 220 204 0
13.420000 30.800000 8.800000 217 220 204 0
13.640000 30.800000 8.800000 218 221 205 0
13.860000 30.800000 8.800000 217 220 204 0
14.080000 30.800000 8.800000 217 220 204 0
14.300000 30.800000 8.910000 218 221 205 0
14.520000 30.800000 8.910000 217 220 204 0
14.740000 30.800000 8.910000 217 220 204 0
14.960000 30.800000 8.910000 217 220 204 0
15.180000 30.800000 9.460000 218 221 205 0
15.400000 30.800000 10.560000 218 221 205 0
15.620000 30.800000 10.450000 215 221 204 0
15.840000 30.800000 11.110000 214 220 203 0
16.060000 30.800000 11.110000 215 221 204 0
16.280000 30.800000 11.220000 214 220 203 0
16.500000 30.800000 11.220000 215 221 204 0
16.720000 30.800000 11.220000 216 222 205 0
16.940000 30.800000 11.220000 215 221 204 0
17.160000 30.800000 11.330000 213 219 202 0
17.380000 30.800000 11.330000 213 219 202 0
17.600000 30.800000 11.330000 214 220 203 0
17.820000 30.800000 11.330000 215 221 204 0
18.040000 30.800000 11.440000 214 220 203 0
18.260000 30.800000 11.440000 217 221 202 0
18.480000 30.800000 12.100000 216 220 201 0
18.700000 30.800000 12.210000 213 219 202 0
18.920000 30.800000 12.210000 213 219 202 0
19.140000 30.800000 12.210000 213 219 202 0
19.360000 30.800000 12.210000 213 219 202 0
19.580000 30.800000 12.980000 213 219 202 0
19.800000 30.800000 12.980000 213 219 202 0
20.020000 30.800000 12.980000 213 220 200 0
20.240000 30.800000 13.090000 212 219 199 0
20.460000 30.800000 13.090000 213 219 202 0
20.680000 30.800000 13.640000 213 219 202 0
20.900000 30.800000 13.970000 213 220 200 0
21.120000 30.800000 14.520000 213 220 200 0
21.340000 30.800000 14.520000 212 218 201 0
21.560000 30.800000 14.630000 210 216 199 0
21.780000 30.800000 14.630000 210 217 197 0
22.000000 30.800000 15.290000 210 217 197 0
22.220000 30.800000 15.400000 210 217 197 0
22.440000 30.800000 15.400000 208 215 195 0
22.660000 30.800000 15.510000 207 214 194 0
22.880000 30.800000 16.280000 207 214 194 0
23.100000 30.800000 17.050000 209 216 196 0
23.320000 30.800000 17.820000 210 217 197 0
23.540000 30.800000 17.930000 212 219 199 0
23.760000 30.800000 18.480000 211 218 198 0
23.980000 30.800000 19.580000 211 219 199 0
24.200000 30.800000 20.020000 211 219 199 0
24.420000 30.800000 20.130000 212 219 199 0
24.640000 30.800000 19.470000 213 220 200 0
24.860000 30.800000 19.470000 213 220 200 0
25.080000 30.800000 19.470000 212 219 199 0
25.300000 30.800000 18.810000 213 220 200 0
25.520000 30.800000 18.810000 212 219 199 0
25.740000 30.800000 18.810000 212 220 200 0
25.960000 30.800000 19.580000 213 221 201 0
26.180000 30.800000 19.580000 213 221 201 0
26.400000 30.800000 20.350000 214 222 202 0
26.620000 30.800000 20.350000 215 222 202 0
26.840000 30.800000 20.350000 214 221 201 0
27.060000 30.800000 20.350000 212 220 200 0
27.280000 30.800000 20.460000 212 220 200 0
27.500000 30.800000 20.460000 211 219 199 0
27.720000 30.800000 15.620000 212 220 200 0
27.940000 30.800000 8.690000 210 218 198 0
28.160000 30.800000 12.210000 209 217 197 0
28.380000 30.800000 13.640000 205 212 191 0
28.600000 30.800000 3.960000 201 208 187 0
29.700000 30.800000 0.660000 192 197 164 0
29.920000 30.800000 0.660000 195 200 167 0
30.140000 30.800000 0.660000 195 201 172 0
30.800000 30.800000 4.730000 203 210 189 0
31.020000 30.800000 9.680000 204 211 190 0
31.240000 30.800000 9.460000 205 212 191 0
31.460000 30.800000 14.740000 207 215 195 0
31.680000 30.800000 20.130000 209 217 197 0
31.900000 30.800000 20.240000 210 217 196 0
32.120000 30.800000 19.690000 210 217 196 0
32.340000 30.800000 19.690000 210 217 196 0
32.560000 30.800000 14.960000 211 218 197 0
32.780000 30.800000 4.620000 211 218 197 0
34.540000 30.800000 0.110000 210 217 196 0
34.760000 30.800000 0.110000 210 217 196 0
34.980000 30.800000 0.110000 209 218 196 0
35.200000 30.800000 0.220000 208 217 195 0
35.420000 30.800000 0.220000 210 217 196 0
35.640000 30.800000 0.220000 209 216 195 0
35.860000 30.800000 0.330000 209 216 195 0
36.080000 30.800000 0.330000 208 215 194 0
36.300000 30.800000 0.990000 208 215 194 0
36.520000 30.800000 0.990000 207 214 193 0
36.740000 30.800000 1.100000 205 214 192 0
36.960000 30.800000 1.760000 204 213 191 0
37.180000 30.800000 1.760000 204 211 190 0
0.000000 31.020000 1.870000 224 223 213 0
0.220000 31.020000 1.870000 222 223 212 0
0.440000 31.020000 1.870000 229 230 219 0
0.660000 31.020000 1.210000 229 230 219 0
0.880000 31.020000 1.320000 220 221 210 0
1.100000 31.020000 1.320000 222 221 211 0
1.320000 31.020000 1.980000 223 222 212 0
1.540000 31.020000 1.870000 222 221 211 0
1.760000 31.020000 2.310000 229 228 218 0
1.980000 31.020000 3.520000 234 235 224 0
2.200000 31.020000 3.520000 229 230 219 0
2.420000 31.020000 3.520000 222 223 212 0
2.640000 31.020000 4.290000 223 224 213 0
2.860000 31.020000 3.630000 221 222 211 0
3.080000 31.020000 3.630000 223 224 213 0
3.300000 31.020000 3.630000 225 226 215 0
3.520000 31.020000 4.400000 226 227 216 0
3.740000 31.020000 3.740000 223 224 213 0
3.960000 31.020000 3.740000 218 219 208 0
4.180000 31.020000 3.740000 216 219 207 0
4.400000 31.020000 3.740000 215 218 206 0
4.620000 31.020000 3.850000 214 215 202 0
4.840000 31.020000 3.850000 210 211 198 0
5.060000 31.020000 3.850000 201 196 172 0
5.280000 31.020000 3.190000 195 190 166 0
5.500000 31.020000 2.530000 192 189 165 0
5.720000 31.020000 2.530000 195 192 168 0
5.940000 31.020000 2.530000 196 194 174 0
6.160000 31.020000 3.300000 199 197 177 0
6.380000 31.020000 3.410000 198 198 181 0
6.600000 31.020000 3.300000 201 201 184 0
6.820000 31.020000 3.190000 205 206 193 0
7.040000 31.020000 4.510000 208 209 196 0
7.260000 31.020000 4.510000 209 212 198 0
7.480000 31.020000 5.280000 212 215 201 0
7.700000 31.020000 5.280000 214 217 203 0
7.920000 31.020000 5.280000 215 218 204 0
8.140000 31.020000 5.390000 216 219 205 0
8.360000 31.020000 5.390000 215 218 204 0
8.580000 31.020000 5.390000 215 216 203 0
8.800000 31.020000 5.390000 216 217 204 0
9.020000 31.020000 5.500000 217 220 204 0
9.240000 31.020000 5.500000 218 221 205 0
9.460000 31.020000 6.050000 217 220 206 0
9.680000 31.020000 7.040000 217 220 206 0
9.900000 31.020000 6.930000 216 219 205 0
10.120000 31.020000 7.700000 216 219 205 0
10.340000 31.020000 7.700000 217 220 204 0
10.560000 31.020000 7.700000 217 220 204 0
10.780000 31.020000 7.700000 218 221 205 0
11.000000 31.020000 7.810000 217 220 204 0
11.220000 31.020000 7.810000 217 220 206 0
11.440000 31.020000 7.810000 217 220 206 0
11.660000 31.020000 7.810000 217 220 206 0
11.880000 31.020000 7.920000 218 221 207 0
12.100000 31.020000 8.580000 220 223 207 0
12.320000 31.020000 8.580000 219 222 206 0
12.540000 31.020000 8.690000 218 221 205 0
12.760000 31.020000 8.690000 218 221 205 0
12.980000 31.020000 8.690000 218 221 205 0
13.200000 31.020000 8.690000 217 220 204 0
13.420000 31.020000 8.800000 217 220 204 0
13.640000 31.020000 8.800000 217 220 204 0
13.860000 31.020000 8.800000 218 221 205 0
14.080000 31.020000 8.800000 217 220 204 0
14.300000 31.020000 8.910000 217 220 204 0
14.520000 31.020000 8.910000 217 220 204 0
14.740000 31.020000 8.910000 215 221 204 0
14.960000 31.020000 8.910000 215 221 204 0
15.180000 31.020000 9.460000 217 220 204 0
15.400000 31.020000 10.560000 218 221 205 0
15.620000 31.020000 10.450000 217 220 204 0
15.840000 31.020000 10.450000 216 219 203 0
16.060000 31.020000 10.450000 214 220 203 0
16.280000 31.020000 10.450000 214 220 203 0
16.500000 31.020000 11.220000 215 221 204 0
16.720000 31.020000 11.220000 214 220 203 0
16.940000 31.020000 11.220000 215 221 204 0
17.160000 31.020000 11.330000 214 220 203 0
17.380000 31.020000 11.330000 214 221 201 0
17.600000 31.020000 11.330000 214 221 201 0
17.820000 31.020000 11.330000 216 219 203 0
18.040000 31.020000 11.440000 217 220 204 0
18.260000 31.020000 11.440000 215 221 204 0
18.480000 31.020000 11.440000 215 221 204 0
18.700000 31.020000 12.210000 215 221 204 0
18.920000 31.020000 12.210000 214 220 203 0
19.140000 31.020000 12.210000 214 221 201 0
19.360000 31.020000 12.210000 214 221 201 0
19.580000 31.020000 12.980000 214 221 201 0
19.800000 31.020000 12.980000 214 221 201 0
20.020000 31.020000 12.980000 214 221 201 0
20.240000 31.020000 13.090000 213 220 200 0
20.460000 31.020000 13.090000 215 218 202 0
20.680000 31.020000 13.640000 215 218 202 0
20.900000 31.020000 13.970000 213 220 200 0
21.120000 31.020000 14.520000 213 220 200 0
21.340000 31.020000 14.520000 212 219 199 0
21.560000 31.020000 14.630000 211 218 198 0
21.780000 31.020000 14.630000 211 218 198 0
22.000000 31.020000 15.290000 210 217 197 0
22.220000 31.020000 15.400000 209 215 198 0
22.440000 31.020000 15.400000 208 214 197 0
22.660000 31.020000 15.510000 207 214 194 0
22.880000 31.020000 16.280000 207 214 194 0
23.100000 31.020000 17.050000 209 216 196 0
23.320000 31.020000 17.820000 212 219 199 0
23.540000 31.020000 17.930000 212 219 199 0
23.760000 31.020000 18.480000 211 218 198 0
23.980000 31.020000 19.580000 212 219 199 0
24.200000 31.020000 20.020000 213 220 200 0
24.420000 31.020000 20.130000 213 220 200 0
24.640000 31.020000 19.470000 214 221 201 0
24.860000 31.020000 19.470000 213 220 200 0
25.080000 31.020000 19.470000 213 220 200 0
25.300000 31.020000 18.810000 213 220 200 0
25.520000 31.020000 18.810000 213 220 200 0
25.740000 31.020000 18.810000 213 220 200 0
25.960000 31.020000 19.580000 214 221 201 0
26.180000 31.020000 19.580000 216 223 203 0
26.400000 31.020000 20.350000 216 223 203 0
26.620000 31.020000 20.350000 215 222 202 0
26.840000 31.020000 20.350000 213 220 200 0
27.060000 31.020000 20.350000 213 220 200 0
27.280000 31.020000 20.460000 213 220 200 0
27.500000 31.020000 20.460000 212 219 199 0
27.720000 31.020000 14.960000 212 219 199 0
27.940000 31.020000 10.120000 210 218 198 0
28.160000 31.020000 14.960000 207 215 195 0
28.380000 31.020000 15.070000 206 213 190 0
28.600000 31.020000 3.960000 200 207 184 0
29.700000 31.020000 0.660000 192 196 166 0
29.920000 31.020000 0.660000 194 198 168 0
30.140000 31.020000 0.660000 196 200 172 0
30.360000 31.020000 0.660000 199 203 175 0
30.800000 31.020000 4.730000 202 209 186 0
31.020000 31.020000 9.680000 204 211 190 0
31.240000 31.020000 9.460000 206 213 192 0
31.460000 31.020000 14.740000 208 215 194 0
31.680000 31.020000 20.130000 209 216 195 0
31.900000 31.020000 20.240000 210 217 196 0
32.120000 31.020000 19.690000 210 217 196 0
32.340000 31.020000 19.690000 210 217 196 0
32.560000 31.020000 14.960000 211 218 197 0
32.780000 31.020000 4.620000 211 218 197 0
34.540000 31.020000 0.110000 210 217 196 0
34.760000 31.020000 0.110000 209 216 195 0
34.980000 31.020000 0.110000 210 217 196 0
35.200000 31.020000 0.220000 210 217 196 0
35.420000 31.020000 0.220000 210 217 196 0
35.640000 31.020000 0.220000 210 217 196 0
35.860000 31.020000 0.330000 209 216 195 0
36.080000 31.020000 0.330000 208 215 194 0
36.300000 31.020000 0.330000 207 214 193 0
36.520000 31.020000 0.990000 206 213 192 0
36.740000 31.020000 1.100000 206 213 192 0
36.960000 31.020000 1.760000 206 213 192 0
37.180000 31.020000 1.760000 205 212 191 0
0.000000 31.240000 1.870000 224 223 213 0
0.220000 31.240000 1.870000 221 222 211 0
0.440000 31.240000 1.870000 223 224 213 0
0.660000 31.240000 1.210000 228 229 218 0
0.880000 31.240000 1.320000 225 226 215 0
1.100000 31.240000 1.320000 221 220 210 0
1.320000 31.240000 1.980000 221 220 210 0
1.540000 31.240000 1.980000 222 221 211 0
1.760000 31.240000 2.420000 223 222 212 0
1.980000 31.240000 2.860000 226 227 216 0
2.200000 31.240000 3.520000 225 226 215 0
2.420000 31.240000 4.180000 223 224 213 0
2.640000 31.240000 4.290000 223 224 213 0
2.860000 31.240000 4.290000 223 224 213 0
3.080000 31.240000 3.630000 224 225 214 0
3.300000 31.240000 3.630000 225 226 215 0
3.520000 31.240000 4.400000 224 225 214 0
3.740000 31.240000 4.400000 226 227 216 0
3.960000 31.240000 3.740000 222 223 212 0
4.180000 31.240000 3.740000 215 218 206 0
4.400000 31.240000 3.740000 214 217 205 0
4.620000 31.240000 3.850000 212 213 200 0
4.840000 31.240000 3.850000 204 205 192 0
5.060000 31.240000 3.850000 200 195 171 0
5.280000 31.240000 3.190000 196 191 167 0
5.500000 31.240000 2.530000 194 191 167 0
5.720000 31.240000 2.530000 195 192 168 0
5.940000 31.240000 2.530000 198 196 176 0
6.160000 31.240000 3.300000 198 196 176 0
6.380000 31.240000 3.410000 198 198 181 0
6.600000 31.240000 3.300000 201 201 184 0
6.820000 31.240000 3.850000 204 205 192 0
7.040000 31.240000 4.510000 207 208 195 0
7.260000 31.240000 4.510000 210 213 199 0
7.480000 31.240000 5.280000 213 216 202 0
7.700000 31.240000 5.280000 214 217 203 0
7.920000 31.240000 5.280000 214 217 203 0
8.140000 31.240000 5.390000 215 218 204 0
8.360000 31.240000 5.390000 215 218 204 0
8.580000 31.240000 5.390000 215 216 203 0
8.800000 31.240000 5.390000 216 217 204 0
9.020000 31.240000 5.500000 217 220 204 0
9.240000 31.240000 5.500000 218 221 205 0
9.460000 31.240000 6.050000 217 220 206 0
9.680000 31.240000 7.040000 216 219 205 0
9.900000 31.240000 7.590000 216 219 205 0
10.120000 31.240000 7.700000 215 218 204 0
10.340000 31.240000 7.700000 217 220 204 0
10.560000 31.240000 7.700000 217 220 204 0
10.780000 31.240000 7.700000 217 220 204 0
11.000000 31.240000 7.810000 216 219 203 0
11.220000 31.240000 7.810000 217 220 206 0
11.440000 31.240000 7.810000 216 219 205 0
11.660000 31.240000 7.810000 217 220 206 0
11.880000 31.240000 7.920000 217 220 206 0
12.100000 31.240000 8.580000 218 221 205 0
12.320000 31.240000 8.580000 217 220 204 0
12.540000 31.240000 8.690000 218 221 205 0
12.760000 31.240000 8.690000 217 220 204 0
12.980000 31.240000 8.690000 217 220 204 0
13.200000 31.240000 8.690000 216 219 203 0
13.420000 31.240000 8.800000 216 219 203 0
13.640000 31.240000 8.800000 217 220 204 0
13.860000 31.240000 8.800000 217 220 204 0
14.080000 31.240000 8.800000 217 220 204 0
14.300000 31.240000 8.910000 217 220 204 0
14.520000 31.240000 8.910000 216 219 203 0
14.740000 31.240000 8.910000 214 220 203 0
14.960000 31.240000 8.910000 213 219 202 0
15.180000 31.240000 9.460000 218 221 205 0
15.400000 31.240000 10.560000 218 221 205 0
15.620000 31.240000 10.450000 219 222 206 0
15.840000 31.240000 10.450000 217 220 204 0
16.060000 31.240000 10.450000 215 221 204 0
16.280000 31.240000 10.450000 214 220 203 0
16.500000 31.240000 11.220000 214 220 203 0
16.720000 31.240000 11.220000 214 220 203 0
16.940000 31.240000 11.220000 214 220 203 0
17.160000 31.240000 11.330000 215 221 204 0
17.380000 31.240000 11.330000 214 221 201 0
17.600000 31.240000 11.330000 214 221 201 0
17.820000 31.240000 11.330000 216 219 203 0
18.040000 31.240000 11.440000 217 220 204 0
18.260000 31.240000 11.440000 216 222 205 0
18.480000 31.240000 11.440000 215 221 204 0
18.700000 31.240000 12.210000 215 221 204 0
18.920000 31.240000 12.210000 214 220 203 0
19.140000 31.240000 12.210000 213 220 200 0
19.360000 31.240000 12.210000 214 221 201 0
19.580000 31.240000 12.320000 214 221 201 0
19.800000 31.240000 12.980000 214 221 201 0
20.020000 31.240000 12.980000 214 221 201 0
20.240000 31.240000 13.090000 214 221 201 0
20.460000 31.240000 13.090000 215 218 202 0
20.680000 31.240000 13.640000 216 219 203 0
20.900000 31.240000 13.970000 213 220 200 0
21.120000 31.240000 14.520000 213 220 200 0
21.340000 31.240000 14.520000 213 220 200 0
21.560000 31.240000 14.630000 211 218 198 0
21.780000 31.240000 14.630000 211 218 198 0
22.000000 31.240000 14.630000 210 217 197 0
22.220000 31.240000 15.400000 210 216 199 0
22.440000 31.240000 15.400000 208 214 197 0
22.660000 31.240000 15.510000 207 214 194 0
22.880000 31.240000 16.280000 207 214 194 0
23.100000 31.240000 17.050000 208 215 195 0
23.320000 31.240000 17.820000 211 218 198 0
23.540000 31.240000 17.930000 213 220 200 0
23.760000 31.240000 18.480000 212 219 199 0
23.980000 31.240000 19.580000 212 219 199 0
24.200000 31.240000 20.020000 212 219 199 0
24.420000 31.240000 20.130000 212 219 199 0
24.640000 31.240000 19.470000 213 220 200 0
24.860000 31.240000 19.470000 212 219 199 0
25.080000 31.240000 18.810000 213 220 200 0
25.300000 31.240000 18.810000 212 219 199 0
25.520000 31.240000 18.810000 213 220 200 0
25.740000 31.240000 18.810000 212 219 199 0
25.960000 31.240000 19.580000 213 220 200 0
26.180000 31.240000 19.580000 214 221 201 0
26.400000 31.240000 20.350000 216 223 203 0
26.620000 31.240000 20.350000 216 223 203 0
26.840000 31.240000 20.350000 214 221 201 0
27.060000 31.240000 20.350000 214 221 201 0
27.280000 31.240000 19.690000 213 220 200 0
27.500000 31.240000 20.460000 213 220 200 0
27.720000 31.240000 14.960000 212 219 199 0
27.940000 31.240000 10.120000 210 218 198 0
28.160000 31.240000 14.960000 208 216 196 0
28.380000 31.240000 16.390000 205 212 189 0
28.600000 31.240000 8.140000 202 209 186 0
28.820000 31.240000 3.300000 199 202 170 0
29.040000 31.240000 0.550000 192 195 163 0
