ply
format ascii 1.0
element vertex 1130
property float x
property float y
property float z
property uchar red
property uchar green
property uchar blue
property uchar alpha
end_header
11.220000 26.620000 5.500000 129 122 99 0
11.440000 26.620000 5.500000 129 122 99 0
11.660000 26.620000 5.500000 129 122 98 0
11.880000 26.620000 6.160000 129 122 98 0
12.100000 26.620000 6.600000 130 123 99 0
12.320000 26.620000 7.150000 130 123 99 0
12.540000 26.620000 6.600000 130 123 99 0
12.760000 26.620000 6.710000 131 124 100 0
12.980000 26.620000 6.600000 130 123 99 0
13.200000 26.620000 7.810000 129 122 98 0
13.420000 26.620000 9.130000 131 123 97 0
13.640000 26.620000 10.010000 132 124 98 0
13.860000 26.620000 10.780000 131 123 97 0
14.080000 26.620000 10.780000 132 124 98 0
14.300000 26.620000 10.780000 132 124 98 0
14.520000 26.620000 10.120000 133 125 99 0
14.740000 26.620000 10.120000 133 125 101 0
14.960000 26.620000 10.890000 132 124 100 0
15.180000 26.620000 10.890000 132 121 96 0
15.400000 26.620000 11.550000 130 119 94 0
15.620000 26.620000 12.980000 132 119 95 0
15.840000 26.620000 14.410000 132 119 95 0
16.060000 26.620000 15.730000 131 118 94 0
16.280000 26.620000 15.840000 131 118 94 0
16.500000 26.620000 15.180000 134 119 95 0
16.720000 26.620000 15.180000 134 119 95 0
16.940000 26.620000 14.410000 134 119 95 0
17.160000 26.620000 14.410000 134 119 95 0
17.380000 26.620000 14.410000 133 120 96 0
17.600000 26.620000 14.410000 132 119 95 0
17.820000 26.620000 15.070000 131 120 95 0
18.040000 26.620000 16.500000 132 121 96 0
18.260000 26.620000 16.500000 133 120 96 0
18.480000 26.620000 12.980000 133 120 96 0
18.700000 26.620000 6.710000 133 118 94 0
18.920000 26.620000 1.980000 135 120 96 0
19.140000 26.620000 5.390000 138 123 99 0
19.360000 26.620000 14.410000 142 127 103 0
19.580000 26.620000 18.590000 143 128 104 0
19.800000 26.620000 18.590000 142 127 103 0
20.020000 26.620000 14.520000 138 125 101 0
20.240000 26.620000 5.500000 136 123 99 0
20.460000 26.620000 6.050000 131 120 97 0
20.680000 26.620000 10.670000 131 120 97 0
20.900000 26.620000 11.990000 130 121 99 0
21.120000 26.620000 12.870000 131 122 100 0
21.340000 26.620000 10.890000 133 122 99 0
21.560000 26.620000 9.570000 136 125 102 0
21.780000 26.620000 8.800000 137 124 102 0
22.000000 26.620000 4.620000 137 124 102 0
22.220000 26.620000 1.210000 137 122 98 0
23.540000 26.620000 0.660000 137 120 99 0
23.760000 26.620000 1.870000 139 122 101 0
23.980000 26.620000 3.850000 137 122 98 0
24.200000 26.620000 3.850000 135 120 96 0
24.420000 26.620000 5.940000 131 116 92 0
24.640000 26.620000 8.580000 129 114 90 0
24.860000 26.620000 7.260000 130 113 92 0
25.080000 26.620000 5.830000 129 112 91 0
25.300000 26.620000 6.380000 127 111 90 0
25.520000 26.620000 6.380000 127 111 90 0
25.740000 26.620000 5.830000 127 111 90 0
25.960000 26.620000 5.170000 127 111 90 0
26.180000 26.620000 5.940000 128 112 91 0
26.400000 26.620000 6.820000 128 112 91 0
26.620000 26.620000 7.480000 128 112 91 0
26.840000 26.620000 7.810000 128 112 91 0
27.060000 26.620000 7.700000 128 112 91 0
27.280000 26.620000 6.930000 128 112 91 0
27.500000 26.620000 6.270000 128 112 91 0
27.720000 26.620000 6.270000 128 112 91 0
27.940000 26.620000 5.610000 130 113 90 0
28.160000 26.620000 4.950000 131 114 91 0
28.380000 26.620000 4.950000 132 115 94 0
28.600000 26.620000 4.180000 133 116 95 0
28.820000 26.620000 4.950000 133 114 92 0
29.040000 26.620000 4.950000 134 115 93 0
29.260000 26.620000 4.950000 134 115 93 0
29.480000 26.620000 4.950000 135 116 94 0
29.700000 26.620000 4.290000 134 117 94 0
29.920000 26.620000 4.290000 134 117 94 0
30.140000 26.620000 3.520000 134 117 94 0
30.360000 26.620000 3.520000 132 115 92 0
30.580000 26.620000 3.520000 133 114 92 0
30.800000 26.620000 3.520000 134 115 93 0
31.020000 26.620000 2.860000 133 114 92 0
31.240000 26.620000 2.860000 133 114 92 0
31.460000 26.620000 3.630000 132 115 92 0
31.680000 26.620000 3.630000 132 115 92 0
31.900000 26.620000 3.630000 133 116 95 0
32.120000 26.620000 4.290000 131 114 93 0
32.340000 26.620000 4.950000 133 114 92 0
32.560000 26.620000 6.380000 134 115 93 0
32.780000 26.620000 6.380000 134 115 93 0
33.000000 26.620000 7.040000 135 116 94 0
33.220000 26.620000 7.040000 135 116 94 0
33.440000 26.620000 6.380000 136 117 95 0
33.660000 26.620000 5.720000 137 118 96 0
33.880000 26.620000 4.950000 137 118 96 0
34.100000 26.620000 5.060000 138 117 95 0
34.320000 26.620000 5.060000 139 118 96 0
34.540000 26.620000 5.060000 139 118 96 0
34.760000 26.620000 5.060000 141 120 98 0
34.980000 26.620000 5.170000 141 120 98 0
35.200000 26.620000 5.170000 141 120 98 0
35.420000 26.620000 5.060000 139 120 98 0
35.640000 26.620000 5.830000 139 120 98 0
35.860000 26.620000 5.830000 142 121 99 0
36.080000 26.620000 5.830000 143 122 100 0
36.300000 26.620000 6.600000 143 121 102 0
36.520000 26.620000 7.260000 144 122 103 0
36.740000 26.620000 7.260000 144 123 101 0
36.960000 26.620000 8.030000 144 123 101 0
37.180000 26.620000 8.690000 144 123 101 0
0.000000 26.840000 2.310000 147 144 124 0
0.220000 26.840000 2.310000 146 143 123 0
0.440000 26.840000 1.650000 150 147 127 0
0.660000 26.840000 1.650000 150 144 127 0
0.880000 26.840000 1.650000 150 144 127 0
1.100000 26.840000 1.760000 147 144 124 0
1.320000 26.840000 1.980000 146 143 123 0
1.540000 26.840000 1.980000 145 142 120 0
1.760000 26.840000 2.640000 140 137 115 0
1.980000 26.840000 2.640000 140 137 115 0
2.200000 26.840000 1.980000 138 135 113 0
2.420000 26.840000 3.300000 137 134 112 0
2.640000 26.840000 3.300000 136 133 111 0
2.860000 26.840000 3.960000 134 131 109 0
3.080000 26.840000 3.850000 134 131 109 0
3.300000 26.840000 4.510000 132 129 107 0
3.520000 26.840000 5.280000 132 129 107 0
3.740000 26.840000 5.280000 133 130 108 0
3.960000 26.840000 5.940000 131 128 106 0
4.180000 26.840000 5.940000 133 127 106 0
4.400000 26.840000 6.050000 132 126 105 0
4.620000 26.840000 6.050000 132 126 105 0
4.840000 26.840000 6.160000 131 125 104 0
5.060000 26.840000 6.160000 131 126 102 0
5.280000 26.840000 6.160000 132 127 103 0
5.500000 26.840000 6.160000 131 126 102 0
5.720000 26.840000 6.050000 131 126 102 0
5.940000 26.840000 6.160000 130 125 101 0
6.160000 26.840000 5.500000 129 124 100 0
6.380000 26.840000 5.500000 130 125 101 0
6.600000 26.840000 5.390000 130 125 101 0
6.820000 26.840000 5.720000 129 124 100 0
7.040000 26.840000 5.060000 131 126 102 0
7.260000 26.840000 5.170000 131 124 101 0
7.480000 26.840000 5.720000 130 123 100 0
7.700000 26.840000 6.270000 130 125 101 0
7.920000 26.840000 6.270000 129 124 100 0
8.140000 26.840000 6.270000 129 124 100 0
8.360000 26.840000 5.720000 129 124 100 0
8.580000 26.840000 5.280000 130 123 100 0
8.800000 26.840000 4.730000 131 124 101 0
9.020000 26.840000 4.730000 130 123 100 0
9.240000 26.840000 5.390000 130 123 100 0
9.460000 26.840000 5.940000 130 123 100 0
9.680000 26.840000 6.490000 130 123 100 0
9.900000 26.840000 5.940000 129 124 100 0
10.120000 26.840000 6.050000 129 124 100 0
10.340000 26.840000 6.710000 130 123 100 0
10.560000 26.840000 6.160000 129 122 99 0
10.780000 26.840000 6.160000 130 123 99 0
11.000000 26.840000 5.500000 130 123 99 0
11.220000 26.840000 5.500000 129 122 99 0
11.440000 26.840000 5.500000 130 123 100 0
11.660000 26.840000 5.500000 129 122 98 0
11.880000 26.840000 6.160000 129 122 98 0
12.100000 26.840000 6.600000 129 122 98 0
12.320000 26.840000 7.260000 130 123 99 0
12.540000 26.840000 7.370000 130 123 99 0
12.760000 26.840000 6.710000 130 123 99 0
12.980000 26.840000 6.600000 130 123 99 0
13.200000 26.840000 7.810000 130 123 99 0
13.420000 26.840000 9.240000 131 123 97 0
13.640000 26.840000 10.010000 132 124 98 0
13.860000 26.840000 10.780000 133 125 99 0
14.080000 26.840000 10.780000 132 124 98 0
14.300000 26.840000 10.780000 132 124 98 0
14.520000 26.840000 10.780000 132 124 98 0
14.740000 26.840000 10.890000 132 124 100 0
14.960000 26.840000 10.890000 133 125 101 0
15.180000 26.840000 10.890000 131 120 95 0
15.400000 26.840000 11.550000 129 118 93 0
15.620000 26.840000 12.320000 131 118 94 0
15.840000 26.840000 12.980000 130 117 93 0
16.060000 26.840000 13.750000 129 116 92 0
16.280000 26.840000 14.410000 128 115 91 0
16.500000 26.840000 14.410000 131 116 92 0
16.720000 26.840000 14.410000 132 117 93 0
16.940000 26.840000 14.410000 132 117 93 0
17.160000 26.840000 14.410000 131 116 92 0
17.380000 26.840000 14.410000 129 116 92 0
17.600000 26.840000 14.410000 129 116 92 0
17.820000 26.840000 15.070000 129 118 93 0
18.040000 26.840000 15.840000 130 119 94 0
18.260000 26.840000 17.270000 132 119 95 0
18.480000 26.840000 17.160000 131 118 94 0
18.700000 26.840000 12.320000 131 116 92 0
18.920000 26.840000 5.390000 132 117 93 0
19.140000 26.840000 7.480000 134 119 95 0
19.360000 26.840000 15.180000 136 121 97 0
19.580000 26.840000 17.930000 138 123 99 0
19.800000 26.840000 17.930000 138 123 99 0
20.020000 26.840000 14.520000 136 123 99 0
20.240000 26.840000 10.340000 134 121 97 0
20.460000 26.840000 12.980000 131 120 97 0
20.680000 26.840000 17.490000 131 120 97 0
20.900000 26.840000 17.380000 129 120 98 0
21.120000 26.840000 16.830000 130 121 99 0
21.340000 26.840000 15.620000 133 122 99 0
21.560000 26.840000 14.300000 133 122 99 0
21.780000 26.840000 10.780000 134 121 99 0
22.000000 26.840000 4.620000 133 120 98 0
22.220000 26.840000 0.440000 133 118 94 0
23.760000 26.840000 3.410000 136 119 98 0
23.980000 26.840000 7.480000 134 119 95 0
24.200000 26.840000 3.960000 134 119 95 0
24.420000 26.840000 2.530000 132 117 93 0
24.640000 26.840000 3.850000 131 116 92 0
24.860000 26.840000 3.190000 131 114 93 0
25.080000 26.840000 3.190000 130 113 92 0
25.300000 26.840000 4.400000 128 112 91 0
25.520000 26.840000 3.740000 127 111 90 0
25.740000 26.840000 3.850000 127 111 90 0
25.960000 26.840000 3.190000 127 111 90 0
26.180000 26.840000 3.850000 127 111 90 0
26.400000 26.840000 4.730000 127 111 90 0
26.620000 26.840000 6.160000 127 111 90 0
26.840000 26.840000 7.370000 127 111 90 0
27.060000 26.840000 7.810000 126 110 89 0
27.280000 26.840000 7.700000 126 110 89 0
27.500000 26.840000 6.270000 126 110 89 0
27.720000 26.840000 5.610000 126 110 89 0
27.940000 26.840000 5.610000 128 111 88 0
28.160000 26.840000 4.950000 130 113 90 0
28.380000 26.840000 4.950000 131 114 93 0
28.600000 26.840000 4.950000 131 114 93 0
28.820000 26.840000 4.950000 132 113 91 0
29.040000 26.840000 4.950000 133 114 92 0
29.260000 26.840000 5.610000 132 113 91 0
29.480000 26.840000 4.950000 134 115 93 0
29.700000 26.840000 4.950000 133 116 93 0
29.920000 26.840000 4.290000 133 116 93 0
30.140000 26.840000 4.290000 133 116 93 0
30.360000 26.840000 3.520000 132 115 92 0
30.580000 26.840000 3.520000 133 114 92 0
30.800000 26.840000 3.520000 132 113 91 0
31.020000 26.840000 2.860000 132 113 91 0
31.240000 26.840000 2.860000 133 114 92 0
31.460000 26.840000 3.630000 132 115 92 0
31.680000 26.840000 3.630000 132 115 92 0
31.900000 26.840000 4.290000 132 115 94 0
32.120000 26.840000 4.950000 132 115 94 0
32.340000 26.840000 5.720000 132 113 91 0
32.560000 26.840000 6.380000 133 114 92 0
32.780000 26.840000 6.380000 134 115 93 0
33.000000 26.840000 7.040000 135 116 94 0
33.220000 26.840000 6.380000 135 116 94 0
33.440000 26.840000 5.720000 135 116 94 0
33.660000 26.840000 5.720000 135 116 94 0
33.880000 26.840000 4.950000 136 117 95 0
34.100000 26.840000 5.060000 138 117 95 0
34.320000 26.840000 5.060000 139 118 96 0
34.540000 26.840000 5.060000 140 119 97 0
34.760000 26.840000 5.060000 142 121 99 0
34.980000 26.840000 5.170000 141 120 98 0
35.200000 26.840000 5.170000 141 120 98 0
35.420000 26.840000 5.060000 138 119 97 0
35.640000 26.840000 5.830000 139 120 98 0
35.860000 26.840000 5.830000 141 120 98 0
36.080000 26.840000 5.830000 143 122 100 0
36.300000 26.840000 6.600000 143 121 102 0
36.520000 26.840000 7.260000 143 121 102 0
36.740000 26.840000 7.260000 143 122 100 0
36.960000 26.840000 8.030000 144 123 101 0
37.180000 26.840000 8.690000 145 124 102 0
0.000000 27.060000 2.970000 145 142 122 0
0.220000 27.060000 2.310000 145 142 122 0
0.440000 27.060000 1.650000 145 142 122 0
0.660000 27.060000 2.420000 148 145 125 0
0.880000 27.060000 1.650000 148 145 125 0
1.100000 27.060000 1.760000 147 143 126 0
1.320000 27.060000 1.870000 146 142 125 0
1.540000 27.060000 2.640000 144 141 121 0
1.760000 27.060000 2.640000 141 138 118 0
1.980000 27.060000 2.640000 139 136 116 0
2.200000 27.060000 2.750000 138 135 115 0
2.420000 27.060000 3.410000 136 133 113 0
2.640000 27.060000 3.410000 135 132 112 0
2.860000 27.060000 3.410000 136 130 109 0
3.080000 27.060000 3.960000 136 130 109 0
3.300000 27.060000 4.620000 133 130 108 0
3.520000 27.060000 5.280000 132 129 107 0
3.740000 27.060000 5.280000 132 129 107 0
3.960000 27.060000 5.940000 131 128 106 0
4.180000 27.060000 5.940000 133 127 106 0
4.400000 27.060000 6.050000 132 126 105 0
4.620000 27.060000 6.710000 132 126 105 0
4.840000 27.060000 6.820000 132 126 105 0
5.060000 27.060000 6.160000 132 126 105 0
5.280000 27.060000 6.160000 131 125 104 0
5.500000 27.060000 6.160000 131 125 104 0
5.720000 27.060000 6.160000 131 125 104 0
5.940000 27.060000 6.160000 131 125 104 0
6.160000 27.060000 5.500000 130 124 103 0
6.380000 27.060000 5.500000 130 124 103 0
6.600000 27.060000 5.390000 130 124 103 0
6.820000 27.060000 5.170000 130 124 103 0
7.040000 27.060000 4.510000 130 124 103 0
7.260000 27.060000 4.620000 130 124 103 0
7.480000 27.060000 5.170000 129 123 102 0
7.700000 27.060000 5.720000 131 124 101 0
7.920000 27.060000 6.270000 130 123 100 0
8.140000 27.060000 6.270000 130 123 102 0
8.360000 27.060000 5.830000 130 123 102 0
8.580000 27.060000 5.390000 130 124 103 0
8.800000 27.060000 4.730000 129 123 102 0
9.020000 27.060000 4.730000 130 123 100 0
9.240000 27.060000 4.840000 130 123 100 0
9.460000 27.060000 5.390000 130 123 100 0
9.680000 27.060000 6.490000 130 123 100 0
9.900000 27.060000 6.600000 130 123 100 0
10.120000 27.060000 6.050000 130 123 100 0
10.340000 27.060000 6.710000 130 123 100 0
10.560000 27.060000 6.160000 129 122 99 0
10.780000 27.060000 6.160000 130 123 100 0
11.000000 27.060000 5.500000 130 123 100 0
11.220000 27.060000 5.500000 130 123 100 0
11.440000 27.060000 5.500000 130 123 100 0
11.660000 27.060000 5.500000 131 122 100 0
11.880000 27.060000 6.160000 131 122 100 0
12.100000 27.060000 6.710000 130 123 100 0
12.320000 27.060000 7.370000 130 123 100 0
12.540000 27.060000 7.370000 131 123 99 0
12.760000 27.060000 7.370000 131 123 99 0
12.980000 27.060000 7.260000 131 123 99 0
13.200000 27.060000 7.260000 132 124 100 0
13.420000 27.060000 8.690000 132 124 100 0
13.640000 27.060000 10.120000 132 124 100 0
13.860000 27.060000 10.120000 132 124 100 0
14.080000 27.060000 10.120000 133 125 101 0
14.300000 27.060000 10.120000 133 125 101 0
14.520000 27.060000 10.780000 132 124 100 0
14.740000 27.060000 10.890000 134 123 100 0
14.960000 27.060000 10.890000 134 123 100 0
15.180000 27.060000 10.890000 130 119 96 0
15.400000 27.060000 11.550000 127 116 93 0
15.620000 27.060000 11.550000 128 117 92 0
15.840000 27.060000 12.320000 129 118 93 0
16.060000 27.060000 12.980000 125 117 93 0
16.280000 27.060000 13.750000 125 117 93 0
16.500000 27.060000 13.750000 125 117 93 0
16.720000 27.060000 13.750000 126 118 94 0
16.940000 27.060000 13.750000 119 118 95 0
17.160000 27.060000 13.750000 118 117 94 0
17.380000 27.060000 14.410000 115 116 93 0
17.600000 27.060000 14.410000 116 117 94 0
17.820000 27.060000 14.410000 116 117 94 0
18.040000 27.060000 15.840000 118 119 96 0
18.260000 27.060000 16.500000 111 122 101 0
18.480000 27.060000 17.270000 110 121 100 0
18.700000 27.060000 14.410000 109 120 99 0
18.920000 27.060000 10.340000 110 121 100 0
19.140000 27.060000 12.430000 113 120 99 0
19.360000 27.060000 15.840000 115 122 101 0
19.580000 27.060000 15.840000 116 123 100 0
19.800000 27.060000 16.500000 117 124 101 0
20.020000 27.060000 15.840000 115 123 103 0
20.240000 27.060000 15.730000 113 121 101 0
20.460000 27.060000 17.710000 111 122 101 0
20.680000 27.060000 19.470000 110 121 100 0
20.900000 27.060000 19.470000 108 125 102 0
21.120000 27.060000 18.810000 108 125 102 0
21.340000 27.060000 18.260000 112 125 103 0
21.560000 27.060000 16.940000 113 126 104 0
21.780000 27.060000 13.530000 113 126 104 0
22.000000 27.060000 6.600000 111 124 102 0
22.220000 27.060000 1.210000 110 123 101 0
23.540000 27.060000 0.660000 116 120 100 0
23.760000 27.060000 6.820000 116 120 100 0
23.980000 27.060000 11.000000 124 118 97 0
24.200000 27.060000 5.390000 124 118 97 0
24.420000 27.060000 0.550000 130 114 93 0
24.640000 27.060000 1.210000 130 114 93 0
24.860000 27.060000 1.870000 127 114 93 0
25.080000 27.060000 1.980000 126 113 92 0
25.300000 27.060000 2.640000 125 112 91 0
25.520000 27.060000 2.640000 126 113 92 0
25.740000 27.060000 2.640000 123 112 90 0
25.960000 27.060000 2.530000 123 112 90 0
26.180000 27.060000 2.530000 128 112 91 0
26.400000 27.060000 2.640000 128 112 91 0
26.620000 27.060000 4.070000 128 112 91 0
26.840000 27.060000 5.500000 125 109 88 0
27.060000 27.060000 6.710000 125 109 88 0
27.280000 27.060000 6.490000 125 109 88 0
27.500000 27.060000 6.270000 124 108 88 0
27.720000 27.060000 5.610000 125 109 89 0
27.940000 27.060000 4.840000 126 110 89 0
28.160000 27.060000 4.950000 128 112 91 0
28.380000 27.060000 4.950000 130 114 93 0
28.600000 27.060000 4.950000 130 114 93 0
28.820000 27.060000 4.950000 131 114 93 0
29.040000 27.060000 5.610000 131 114 93 0
29.260000 27.060000 5.610000 131 114 91 0
29.480000 27.060000 4.950000 131 114 91 0
29.700000 27.060000 4.950000 133 116 95 0
29.920000 27.060000 4.290000 132 115 94 0
30.140000 27.060000 4.180000 131 114 93 0
30.360000 27.060000 3.520000 130 113 92 0
30.580000 27.060000 3.520000 129 113 92 0
30.800000 27.060000 3.520000 129 113 92 0
31.020000 27.060000 3.630000 131 114 91 0
31.240000 27.060000 3.630000 131 114 91 0
31.460000 27.060000 3.630000 131 114 91 0
31.680000 27.060000 4.290000 131 114 91 0
31.900000 27.060000 4.290000 132 115 94 0
32.120000 27.060000 4.950000 132 115 94 0
32.340000 27.060000 5.720000 133 114 92 0
32.560000 27.060000 6.380000 133 114 92 0
32.780000 27.060000 6.380000 133 114 92 0
33.000000 27.060000 6.380000 134 115 93 0
33.220000 27.060000 6.380000 135 116 94 0
33.440000 27.060000 5.720000 135 116 94 0
33.660000 27.060000 4.950000 136 117 95 0
33.880000 27.060000 4.950000 137 118 96 0
34.100000 27.060000 5.060000 137 118 96 0
34.320000 27.060000 5.060000 137 118 96 0
34.540000 27.060000 5.060000 138 119 97 0
34.760000 27.060000 5.060000 138 119 97 0
34.980000 27.060000 5.060000 140 119 97 0
35.200000 27.060000 5.170000 141 120 98 0
35.420000 27.060000 5.170000 139 120 98 0
35.640000 27.060000 5.830000 139 120 98 0
35.860000 27.060000 5.830000 142 121 99 0
36.080000 27.060000 6.600000 142 121 99 0
36.300000 27.060000 6.600000 142 121 99 0
36.520000 27.060000 7.260000 142 121 99 0
36.740000 27.060000 7.260000 145 122 101 0
36.960000 27.060000 8.030000 145 122 101 0
37.180000 27.060000 8.690000 143 122 100 0
0.000000 27.280000 2.970000 143 140 120 0
0.220000 27.280000 2.310000 143 140 120 0
0.440000 27.280000 2.420000 143 140 120 0
0.660000 27.280000 2.310000 146 143 123 0
0.880000 27.280000 2.310000 147 144 124 0
1.100000 27.280000 1.650000 147 143 126 0
1.320000 27.280000 2.310000 146 142 125 0
1.540000 27.280000 3.190000 143 140 120 0
1.760000 27.280000 3.300000 141 138 118 0
1.980000 27.280000 3.300000 139 136 116 0
2.200000 27.280000 2.640000 138 135 115 0
2.420000 27.280000 3.410000 136 133 113 0
2.640000 27.280000 3.410000 135 132 112 0
2.860000 27.280000 4.070000 136 130 109 0
3.080000 27.280000 4.070000 135 129 108 0
3.300000 27.280000 4.620000 132 129 107 0
3.520000 27.280000 5.280000 134 131 109 0
3.740000 27.280000 5.280000 131 128 106 0
3.960000 27.280000 5.940000 131 128 106 0
4.180000 27.280000 5.940000 133 127 106 0
4.400000 27.280000 6.710000 132 126 105 0
4.620000 27.280000 6.710000 133 127 106 0
4.840000 27.280000 6.710000 132 126 105 0
5.060000 27.280000 6.820000 131 125 104 0
5.280000 27.280000 6.160000 131 125 104 0
5.500000 27.280000 6.160000 131 125 104 0
5.720000 27.280000 6.160000 132 126 105 0
5.940000 27.280000 5.500000 130 124 103 0
6.160000 27.280000 5.500000 130 124 103 0
6.380000 27.280000 4.840000 130 124 103 0
6.600000 27.280000 5.390000 130 124 103 0
6.820000 27.280000 5.170000 130 124 103 0
7.040000 27.280000 4.620000 130 124 103 0
7.260000 27.280000 4.730000 129 123 102 0
7.480000 27.280000 4.730000 130 124 103 0
7.700000 27.280000 5.170000 130 123 100 0
7.920000 27.280000 6.380000 131 124 101 0
8.140000 27.280000 6.270000 130 123 102 0
8.360000 27.280000 5.830000 131 124 103 0
8.580000 27.280000 5.390000 129 123 102 0
8.800000 27.280000 4.730000 129 123 102 0
9.020000 27.280000 5.390000 131 124 101 0
9.240000 27.280000 5.390000 130 123 100 0
9.460000 27.280000 5.940000 131 124 101 0
9.680000 27.280000 6.490000 130 123 100 0
9.900000 27.280000 6.490000 130 123 100 0
10.120000 27.280000 6.710000 130 123 100 0
10.340000 27.280000 6.820000 130 123 100 0
10.560000 27.280000 6.820000 130 123 100 0
10.780000 27.280000 6.160000 130 123 100 0
11.000000 27.280000 6.160000 129 122 99 0
11.220000 27.280000 5.390000 129 122 99 0
11.440000 27.280000 5.390000 129 122 99 0
11.660000 27.280000 6.160000 131 122 100 0
11.880000 27.280000 6.160000 131 122 100 0
12.100000 27.280000 6.820000 130 123 100 0
12.320000 27.280000 7.480000 130 123 100 0
12.540000 27.280000 7.370000 131 123 99 0
12.760000 27.280000 7.260000 132 124 100 0
12.980000 27.280000 7.370000 131 123 99 0
13.200000 27.280000 7.480000 132 124 100 0
13.420000 27.280000 8.140000 132 124 100 0
13.640000 27.280000 9.460000 131 123 99 0
13.860000 27.280000 10.120000 131 123 99 0
14.080000 27.280000 10.120000 132 124 100 0
14.300000 27.280000 10.120000 132 124 100 0
14.520000 27.280000 10.120000 132 124 100 0
14.740000 27.280000 10.890000 134 123 100 0
14.960000 27.280000 10.890000 133 122 99 0
15.180000 27.280000 10.890000 129 118 95 0
15.400000 27.280000 11.550000 127 116 93 0
15.620000 27.280000 12.320000 128 117 92 0
15.840000 27.280000 12.320000 127 116 91 0
16.060000 27.280000 12.980000 124 116 92 0
16.280000 27.280000 13.090000 123 115 91 0
16.500000 27.280000 13.750000 124 116 92 0
16.720000 27.280000 13.750000 123 115 91 0
16.940000 27.280000 13.750000 116 115 92 0
17.160000 27.280000 13.750000 116 115 92 0
17.380000 27.280000 13.750000 114 115 92 0
17.600000 27.280000 13.750000 114 115 92 0
17.820000 27.280000 13.750000 114 115 92 0
18.040000 27.280000 14.520000 115 116 93 0
18.260000 27.280000 15.180000 107 118 97 0
18.480000 27.280000 15.840000 107 118 97 0
18.700000 27.280000 15.180000 107 118 97 0
18.920000 27.280000 14.520000 107 118 97 0
19.140000 27.280000 15.180000 110 117 96 0
19.360000 27.280000 15.070000 111 118 97 0
19.580000 27.280000 15.180000 111 118 95 0
19.800000 27.280000 15.180000 111 118 95 0
20.020000 27.280000 15.730000 109 117 97 0
20.240000 27.280000 16.940000 111 119 99 0
20.460000 27.280000 18.150000 107 118 97 0
20.680000 27.280000 18.700000 108 119 98 0
20.900000 27.280000 18.700000 105 122 99 0
21.120000 27.280000 18.700000 105 122 99 0
21.340000 27.280000 18.810000 108 121 99 0
21.560000 27.280000 18.260000 108 121 99 0
21.780000 27.280000 16.280000 109 122 100 0
22.000000 27.280000 9.350000 108 121 99 0
22.220000 27.280000 1.760000 108 121 99 0
22.660000 27.280000 0.550000 111 118 97 0
22.880000 27.280000 3.300000 111 118 97 0
23.100000 27.280000 4.730000 112 119 98 0
23.320000 27.280000 4.730000 112 119 98 0
23.540000 27.280000 6.820000 114 118 98 0
23.760000 27.280000 13.640000 114 118 98 0
23.980000 27.280000 13.640000 121 115 94 0
24.200000 27.280000 5.390000 122 116 95 0
24.420000 27.280000 0.550000 127 111 90 0
24.640000 27.280000 1.320000 127 111 90 0
24.860000 27.280000 1.980000 125 112 91 0
25.080000 27.280000 1.980000 124 111 90 0
25.300000 27.280000 2.750000 123 110 89 0
25.520000 27.280000 2.750000 123 110 89 0
25.740000 27.280000 2.640000 123 112 90 0
25.960000 27.280000 2.640000 122 111 89 0
26.180000 27.280000 1.980000 126 110 89 0
26.400000 27.280000 1.980000 128 112 91 0
26.620000 27.280000 2.750000 127 111 90 0
26.840000 27.280000 4.070000 126 110 89 0
27.060000 27.280000 4.730000 126 110 89 0
27.280000 27.280000 5.280000 124 108 87 0
27.500000 27.280000 5.720000 124 108 88 0
27.720000 27.280000 5.610000 125 109 89 0
27.940000 27.280000 4.840000 125 109 88 0
28.160000 27.280000 4.840000 127 111 90 0
28.380000 27.280000 4.950000 128 112 91 0
28.600000 27.280000 4.950000 129 113 92 0
28.820000 27.280000 4.950000 130 113 92 0
29.040000 27.280000 5.610000 129 112 91 0
29.260000 27.280000 5.610000 131 114 91 0
29.480000 27.280000 4.950000 131 114 91 0
29.700000 27.280000 4.950000 131 114 93 0
29.920000 27.280000 4.180000 131 114 93 0
30.140000 27.280000 4.180000 129 112 91 0
30.360000 27.280000 4.290000 128 111 90 0
30.580000 27.280000 3.520000 128 112 91 0
30.800000 27.280000 3.520000 127 111 90 0
31.020000 27.280000 3.630000 129 112 89 0
31.240000 27.280000 3.630000 131 114 91 0
31.460000 27.280000 4.290000 131 114 91 0
31.680000 27.280000 4.290000 132 115 92 0
31.900000 27.280000 4.950000 132 115 94 0
32.120000 27.280000 5.720000 133 116 95 0
32.340000 27.280000 6.380000 133 114 92 0
32.560000 27.280000 6.380000 133 114 92 0
32.780000 27.280000 6.380000 132 113 91 0
33.000000 27.280000 6.380000 133 114 92 0
33.220000 27.280000 5.720000 133 114 92 0
33.440000 27.280000 5.720000 135 116 94 0
33.660000 27.280000 4.950000 136 117 95 0
33.880000 27.280000 5.060000 136 117 95 0
34.100000 27.280000 5.060000 136 117 95 0
34.320000 27.280000 5.060000 137 118 96 0
34.540000 27.280000 5.060000 137 118 96 0
34.760000 27.280000 5.060000 137 118 96 0
34.980000 27.280000 5.060000 140 119 97 0
35.200000 27.280000 5.170000 140 119 97 0
35.420000 27.280000 5.170000 140 121 99 0
35.640000 27.280000 5.830000 140 121 99 0
35.860000 27.280000 6.490000 142 121 99 0
36.080000 27.280000 6.600000 141 120 98 0
36.300000 27.280000 6.600000 142 121 99 0
36.520000 27.280000 7.260000 142 121 99 0
36.740000 27.280000 8.030000 144 121 100 0
36.960000 27.280000 8.030000 144 121 100 0
37.180000 27.280000 8.690000 143 122 100 0
0.000000 27.500000 3.080000 143 137 118 0
0.220000 27.500000 2.310000 141 138 118 0
0.440000 27.500000 2.310000 142 139 119 0
0.660000 27.500000 2.310000 144 141 121 0
0.880000 27.500000 2.310000 146 143 123 0
1.100000 27.500000 2.310000 146 143 123 0
1.320000 27.500000 2.310000 144 141 121 0
1.540000 27.500000 3.080000 145 139 120 0
1.760000 27.500000 3.190000 143 137 118 0
1.980000 27.500000 3.300000 139 136 116 0
2.200000 27.500000 3.410000 137 134 114 0
2.420000 27.500000 3.300000 136 133 111 0
2.640000 27.500000 4.070000 135 132 110 0
2.860000 27.500000 4.070000 136 130 109 0
3.080000 27.500000 4.730000 136 130 109 0
3.300000 27.500000 4.730000 135 129 108 0
3.520000 27.500000 5.390000 134 128 107 0
3.740000 27.500000 5.390000 134 128 107 0
3.960000 27.500000 6.050000 132 126 105 0
4.180000 27.500000 6.050000 133 127 106 0
4.400000 27.500000 6.710000 133 127 106 0
4.620000 27.500000 6.710000 132 125 104 0
4.840000 27.500000 6.710000 132 125 104 0
5.060000 27.500000 6.710000 132 126 105 0
5.280000 27.500000 6.050000 132 126 105 0
5.500000 27.500000 6.160000 131 125 104 0
5.720000 27.500000 6.160000 130 124 103 0
5.940000 27.500000 5.500000 130 124 103 0
6.160000 27.500000 5.500000 131 125 104 0
6.380000 27.500000 4.840000 132 125 104 0
6.600000 27.500000 4.730000 131 124 103 0
6.820000 27.500000 5.280000 131 124 101 0
7.040000 27.500000 4.730000 131 124 101 0
7.260000 27.500000 4.840000 131 124 101 0
7.480000 27.500000 4.840000 130 123 100 0
7.700000 27.500000 5.280000 130 123 100 0
7.920000 27.500000 6.380000 130 123 100 0
8.140000 27.500000 6.270000 130 123 100 0
8.360000 27.500000 6.490000 130 123 100 0
8.580000 27.500000 5.280000 130 123 100 0
8.800000 27.500000 5.280000 129 122 99 0
9.020000 27.500000 5.830000 130 123 100 0
9.240000 27.500000 6.380000 130 123 100 0
9.460000 27.500000 6.380000 130 123 100 0
9.680000 27.500000 6.490000 130 123 100 0
9.900000 27.500000 6.710000 130 123 100 0
10.120000 27.500000 6.050000 130 123 100 0
10.340000 27.500000 6.820000 130 123 100 0
10.560000 27.500000 6.820000 129 122 99 0
10.780000 27.500000 6.160000 130 123 100 0
11.000000 27.500000 6.160000 129 122 99 0
11.220000 27.500000 6.160000 130 123 99 0
11.440000 27.500000 6.050000 129 122 98 0
11.660000 27.500000 6.160000 131 123 99 0
11.880000 27.500000 6.160000 131 123 99 0
12.100000 27.500000 6.820000 130 123 99 0
12.320000 27.500000 7.590000 130 123 99 0
12.540000 27.500000 8.140000 131 123 99 0
12.760000 27.500000 8.030000 132 124 100 0
12.980000 27.500000 7.370000 132 124 100 0
13.200000 27.500000 7.590000 132 124 100 0
13.420000 27.500000 8.140000 132 124 100 0
13.640000 27.500000 9.460000 132 124 100 0
13.860000 27.500000 10.120000 131 123 99 0
14.080000 27.500000 10.120000 132 124 100 0
14.300000 27.500000 9.460000 132 124 100 0
14.520000 27.500000 10.120000 132 124 100 0
14.740000 27.500000 10.120000 132 124 100 0
14.960000 27.500000 10.120000 128 120 96 0
15.180000 27.500000 10.890000 126 118 92 0
15.400000 27.500000 11.550000 126 118 92 0
15.620000 27.500000 12.320000 125 118 95 0
15.840000 27.500000 12.980000 124 117 94 0
16.060000 27.500000 13.750000 117 118 95 0
16.280000 27.500000 13.750000 116 117 94 0
16.500000 27.500000 13.750000 104 121 97 0
16.720000 27.500000 13.750000 104 121 97 0
16.940000 27.500000 13.750000 97 124 100 0
17.160000 27.500000 13.750000 96 123 99 0
17.380000 27.500000 13.750000 97 122 96 0
17.600000 27.500000 13.750000 97 122 96 0
17.820000 27.500000 13.750000 98 123 99 0
18.040000 27.500000 13.750000 97 122 98 0
18.260000 27.500000 13.750000 97 122 96 0
18.480000 27.500000 13.750000 96 121 95 0
18.700000 27.500000 14.520000 94 121 97 0
18.920000 27.500000 14.520000 95 122 98 0
19.140000 27.500000 14.410000 94 121 97 0
19.360000 27.500000 14.410000 94 121 97 0
19.580000 27.500000 14.410000 93 122 97 0
19.800000 27.500000 14.410000 93 122 97 0
20.020000 27.500000 15.070000 96 121 97 0
20.240000 27.500000 16.060000 98 123 99 0
20.460000 27.500000 17.270000 94 123 98 0
20.680000 27.500000 18.040000 95 124 99 0
20.900000 27.500000 18.040000 95 122 98 0
21.120000 27.500000 18.040000 96 123 99 0
21.340000 27.500000 18.040000 96 125 100 0
21.560000 27.500000 18.150000 95 124 99 0
21.780000 27.500000 16.170000 95 124 99 0
22.000000 27.500000 10.670000 97 126 101 0
22.220000 27.500000 6.490000 97 124 100 0
22.440000 27.500000 5.170000 97 124 100 0
22.660000 27.500000 7.260000 96 125 102 0
22.880000 27.500000 12.760000 97 126 103 0
23.100000 27.500000 14.960000 94 127 103 0
23.320000 27.500000 14.960000 94 127 103 0
23.540000 27.500000 15.730000 95 126 103 0
23.760000 27.500000 19.140000 95 126 103 0
23.980000 27.500000 15.620000 98 125 101 0
24.200000 27.500000 5.280000 98 125 101 0
24.420000 27.500000 0.550000 104 122 101 0
24.640000 27.500000 1.210000 103 121 100 0
24.860000 27.500000 1.980000 102 120 99 0
25.080000 27.500000 1.980000 101 119 98 0
25.300000 27.500000 2.640000 112 115 93 0
25.520000 27.500000 2.640000 111 114 92 0
25.740000 27.500000 2.640000 117 111 92 0
25.960000 27.500000 2.640000 118 112 93 0
26.180000 27.500000 2.640000 119 112 89 0
26.400000 27.500000 1.980000 120 113 90 0
26.620000 27.500000 1.980000 126 110 89 0
26.840000 27.500000 2.750000 126 110 89 0
27.060000 27.500000 3.410000 123 112 90 0
27.280000 27.500000 3.960000 122 111 89 0
27.500000 27.500000 4.400000 123 110 88 0
27.720000 27.500000 4.290000 122 109 87 0
27.940000 27.500000 4.290000 122 111 88 0
28.160000 27.500000 4.180000 123 112 89 0
28.380000 27.500000 4.180000 128 112 91 0
28.600000 27.500000 4.180000 128 112 91 0
28.820000 27.500000 4.950000 130 111 89 0
29.040000 27.500000 4.950000 131 112 90 0
29.260000 27.500000 4.950000 130 113 90 0
29.480000 27.500000 4.950000 131 114 91 0
29.700000 27.500000 4.950000 130 115 91 0
29.920000 27.500000 4.950000 129 114 90 0
30.140000 27.500000 4.950000 127 111 90 0
30.360000 27.500000 4.950000 127 111 90 0
30.580000 27.500000 4.290000 129 110 88 0
30.800000 27.500000 4.290000 130 111 89 0
31.020000 27.500000 4.290000 131 112 90 0
31.240000 27.500000 4.290000 132 113 91 0
31.460000 27.500000 4.290000 131 114 91 0
31.680000 27.500000 4.950000 133 116 93 0
31.900000 27.500000 5.720000 134 115 93 0
32.120000 27.500000 5.720000 134 115 93 0
32.340000 27.500000 6.380000 133 114 92 0
32.560000 27.500000 6.380000 133 114 92 0
32.780000 27.500000 6.380000 132 113 91 0
33.000000 27.500000 6.380000 133 114 92 0
33.220000 27.500000 5.720000 133 114 92 0
33.440000 27.500000 4.950000 133 114 92 0
33.660000 27.500000 4.950000 135 116 94 0
33.880000 27.500000 5.060000 136 117 95 0
34.100000 27.500000 4.290000 136 117 95 0
34.320000 27.500000 5.060000 136 117 95 0
34.540000 27.500000 5.060000 137 118 96 0
34.760000 27.500000 5.060000 137 118 96 0
34.980000 27.500000 5.060000 138 119 97 0
35.200000 27.500000 5.170000 138 119 97 0
35.420000 27.500000 5.830000 141 120 98 0
35.640000 27.500000 5.830000 141 120 98 0
35.860000 27.500000 6.490000 139 120 98 0
36.080000 27.500000 6.600000 139 120 98 0
36.300000 27.500000 6.600000 140 119 97 0
36.520000 27.500000 7.260000 141 120 98 0
36.740000 27.500000 8.030000 141 120 98 0
36.960000 27.500000 8.030000 141 120 98 0
37.180000 27.500000 8.030000 143 122 100 0
0.000000 27.720000 3.080000 143 137 118 0
0.220000 27.720000 2.310000 141 138 118 0
0.440000 27.720000 2.310000 141 138 118 0
0.660000 27.720000 2.310000 142 139 119 0
0.880000 27.720000 2.310000 144 141 121 0
1.100000 27.720000 2.310000 145 142 122 0
1.320000 27.720000 2.310000 144 141 121 0
1.540000 27.720000 3.080000 144 138 119 0
1.760000 27.720000 3.850000 142 136 117 0
1.980000 27.720000 4.070000 139 136 116 0
2.200000 27.720000 3.410000 138 135 115 0
2.420000 27.720000 3.300000 137 134 112 0
2.640000 27.720000 3.410000 135 132 110 0
2.860000 27.720000 4.070000 135 129 108 0
3.080000 27.720000 4.730000 135 129 108 0
3.300000 27.720000 4.730000 135 129 108 0
3.520000 27.720000 5.390000 133 127 106 0
3.740000 27.720000 5.390000 132 126 105 0
3.960000 27.720000 6.050000 134 128 107 0
4.180000 27.720000 6.710000 132 126 105 0
4.400000 27.720000 6.710000 132 126 105 0
4.620000 27.720000 6.710000 133 126 105 0
4.840000 27.720000 6.710000 132 125 104 0
5.060000 27.720000 6.710000 131 125 104 0
5.280000 27.720000 6.050000 131 125 104 0
5.500000 27.720000 6.160000 131 125 104 0
5.720000 27.720000 5.500000 131 125 104 0
5.940000 27.720000 5.500000 130 124 103 0
6.160000 27.720000 4.840000 129 123 102 0
6.380000 27.720000 4.840000 130 123 102 0
6.600000 27.720000 4.730000 131 124 103 0
6.820000 27.720000 4.730000 131 124 101 0
7.040000 27.720000 4.730000 130 123 100 0
7.260000 27.720000 4.840000 131 124 101 0
7.480000 27.720000 4.840000 130 123 100 0
7.700000 27.720000 5.280000 130 123 100 0
7.920000 27.720000 6.380000 130 123 100 0
8.140000 27.720000 6.930000 130 123 100 0
8.360000 27.720000 6.270000 130 123 100 0
8.580000 27.720000 6.490000 130 123 100 0
8.800000 27.720000 5.830000 130 123 100 0
9.020000 27.720000 6.380000 130 123 100 0
9.240000 27.720000 6.270000 130 123 100 0
9.460000 27.720000 6.380000 130 123 100 0
9.680000 27.720000 5.940000 131 124 101 0
9.900000 27.720000 6.160000 130 123 100 0
10.120000 27.720000 6.160000 130 123 100 0
10.340000 27.720000 6.820000 128 121 98 0
10.560000 27.720000 6.820000 129 122 99 0
10.780000 27.720000 6.820000 129 122 99 0
11.000000 27.720000 6.820000 129 122 99 0
11.220000 27.720000 6.160000 129 122 98 0
11.440000 27.720000 6.160000 129 122 98 0
11.660000 27.720000 6.820000 131 123 99 0
11.880000 27.720000 6.820000 131 123 99 0
12.100000 27.720000 7.480000 130 123 99 0
12.320000 27.720000 8.250000 130 123 99 0
12.540000 27.720000 8.140000 130 122 98 0
12.760000 27.720000 8.140000 131 123 99 0
12.980000 27.720000 8.140000 131 123 99 0
13.200000 27.720000 8.250000 132 124 100 0
13.420000 27.720000 8.910000 132 124 100 0
13.640000 27.720000 9.460000 132 124 100 0
13.860000 27.720000 10.120000 132 124 100 0
14.080000 27.720000 9.460000 132 124 100 0
14.300000 27.720000 9.460000 132 124 100 0
14.520000 27.720000 9.460000 132 124 100 0
14.740000 27.720000 10.120000 131 123 99 0
14.960000 27.720000 10.230000 127 119 95 0
15.180000 27.720000 10.890000 125 117 91 0
15.400000 27.720000 11.550000 124 116 90 0
15.620000 27.720000 12.980000 124 117 94 0
15.840000 27.720000 13.640000 124 117 94 0
16.060000 27.720000 14.410000 117 118 95 0
16.280000 27.720000 14.410000 115 116 93 0
16.500000 27.720000 14.410000 104 121 97 0
16.720000 27.720000 13.750000 103 120 96 0
16.940000 27.720000 13.750000 96 123 99 0
17.160000 27.720000 12.980000 96 123 99 0
17.380000 27.720000 12.980000 98 123 97 0
17.600000 27.720000 13.090000 96 121 95 0
17.820000 27.720000 13.090000 97 122 98 0
18.040000 27.720000 13.090000 97 122 98 0
18.260000 27.720000 13.090000 96 121 95 0
18.480000 27.720000 13.090000 96 121 95 0
18.700000 27.720000 13.090000 94 121 97 0
18.920000 27.720000 13.090000 94 121 97 0
19.140000 27.720000 13.090000 95 122 98 0
19.360000 27.720000 12.980000 94 121 97 0
19.580000 27.720000 13.750000 92 121 96 0
19.800000 27.720000 13.750000 93 122 97 0
20.020000 27.720000 14.410000 96 121 97 0
20.240000 27.720000 15.510000 96 121 97 0
20.460000 27.720000 16.060000 94 123 98 0
20.680000 27.720000 16.060000 95 124 99 0
20.900000 27.720000 16.170000 95 122 98 0
21.120000 27.720000 16.280000 96 123 99 0
21.340000 27.720000 16.830000 95 124 99 0
21.560000 27.720000 17.380000 95 124 99 0
21.780000 27.720000 16.720000 95 124 99 0
22.000000 27.720000 15.400000 96 125 100 0
22.220000 27.720000 15.400000 98 125 101 0
22.440000 27.720000 15.400000 98 125 101 0
22.660000 27.720000 16.720000 98 127 104 0
22.880000 27.720000 18.920000 98 127 104 0
23.100000 27.720000 19.690000 96 129 105 0
23.320000 27.720000 19.690000 96 129 105 0
23.540000 27.720000 19.690000 96 127 104 0
23.760000 27.720000 19.690000 97 128 105 0
23.980000 27.720000 14.850000 100 127 103 0
24.200000 27.720000 5.280000 99 126 102 0
24.420000 27.720000 0.440000 104 122 101 0
24.640000 27.720000 1.210000 104 122 101 0
24.860000 27.720000 1.870000 102 120 99 0
25.080000 27.720000 1.870000 102 120 99 0
25.300000 27.720000 2.640000 113 116 94 0
25.520000 27.720000 2.640000 111 114 92 0
25.740000 27.720000 2.640000 118 112 93 0
25.960000 27.720000 2.640000 117 111 92 0
26.180000 27.720000 2.640000 118 111 88 0
26.400000 27.720000 1.980000 120 113 90 0
26.620000 27.720000 1.980000 125 109 88 0
26.840000 27.720000 2.750000 127 111 90 0
27.060000 27.720000 2.750000 123 112 90 0
27.280000 27.720000 3.410000 122 111 89 0
27.500000 27.720000 3.300000 122 109 87 0
27.720000 27.720000 3.300000 121 108 86 0
27.940000 27.720000 3.190000 120 109 86 0
28.160000 27.720000 3.740000 121 110 87 0
28.380000 27.720000 3.630000 127 111 90 0
28.600000 27.720000 4.180000 127 111 90 0
28.820000 27.720000 4.180000 130 111 89 0
29.040000 27.720000 4.950000 131 112 90 0
29.260000 27.720000 4.950000 129 112 89 0
29.480000 27.720000 4.950000 130 113 90 0
29.700000 27.720000 4.950000 128 113 89 0
29.920000 27.720000 4.950000 128 113 89 0
30.140000 27.720000 5.610000 127 111 90 0
30.360000 27.720000 4.950000 126 110 89 0
30.580000 27.720000 4.950000 130 111 89 0
30.800000 27.720000 4.290000 130 111 89 0
31.020000 27.720000 4.290000 130 111 89 0
31.240000 27.720000 4.290000 132 113 91 0
31.460000 27.720000 4.290000 131 114 91 0
31.680000 27.720000 4.950000 132 115 92 0
31.900000 27.720000 5.720000 133 114 92 0
32.120000 27.720000 5.720000 133 114 92 0
32.340000 27.720000 6.380000 133 114 92 0
32.560000 27.720000 6.380000 132 113 91 0
32.780000 27.720000 6.380000 133 114 92 0
33.000000 27.720000 5.720000 133 114 92 0
33.220000 27.720000 5.720000 132 113 91 0
33.440000 27.720000 4.950000 133 114 92 0
33.660000 27.720000 4.950000 134 115 93 0
33.880000 27.720000 4.290000 135 116 94 0
34.100000 27.720000 4.290000 135 116 94 0
34.320000 27.720000 4.400000 135 116 94 0
34.540000 27.720000 5.060000 136 117 95 0
34.760000 27.720000 5.060000 136 117 95 0
34.980000 27.720000 5.060000 137 118 96 0
35.200000 27.720000 5.170000 136 117 95 0
35.420000 27.720000 5.830000 140 119 97 0
35.640000 27.720000 5.830000 141 120 98 0
35.860000 27.720000 6.490000 138 119 97 0
36.080000 27.720000 6.600000 138 119 97 0
36.300000 27.720000 6.600000 140 119 97 0
36.520000 27.720000 7.260000 140 119 97 0
36.740000 27.720000 8.030000 140 119 97 0
36.960000 27.720000 8.030000 141 120 98 0
37.180000 27.720000 8.030000 143 122 100 0
0.000000 27.940000 2.970000 141 138 118 0
0.220000 27.940000 2.310000 140 137 117 0
0.440000 27.940000 1.650000 140 137 117 0
0.660000 27.940000 2.310000 141 138 118 0
0.880000 27.940000 2.310000 143 140 120 0
1.100000 27.940000 2.310000 142 139 119 0
1.320000 27.940000 2.310000 143 140 120 0
1.540000 27.940000 3.080000 142 139 119 0
1.760000 27.940000 3.850000 140 137 117 0
1.980000 27.940000 4.070000 138 135 115 0
2.200000 27.940000 4.070000 137 134 114 0
2.420000 27.940000 4.070000 136 133 113 0
2.640000 27.940000 4.730000 135 132 112 0
2.860000 27.940000 4.730000 133 130 108 0
3.080000 27.940000 5.390000 133 130 108 0
3.300000 27.940000 5.390000 135 129 108 0
3.520000 27.940000 5.390000 133 127 106 0
3.740000 27.940000 5.390000 134 128 107 0
3.960000 27.940000 6.050000 132 126 105 0
4.180000 27.940000 6.710000 132 126 105 0
4.400000 27.940000 6.710000 132 126 105 0
4.620000 27.940000 6.710000 131 125 104 0
4.840000 27.940000 6.710000 130 124 103 0
5.060000 27.940000 6.710000 131 125 104 0
5.280000 27.940000 6.050000 130 124 103 0
5.500000 27.940000 6.160000 132 125 104 0
5.720000 27.940000 5.500000 132 125 104 0
5.940000 27.940000 5.500000 130 124 103 0
6.160000 27.940000 4.840000 130 124 103 0
6.380000 27.940000 4.840000 130 124 103 0
6.600000 27.940000 4.840000 129 123 102 0
6.820000 27.940000 4.840000 130 125 101 0
7.040000 27.940000 4.840000 130 125 101 0
7.260000 27.940000 4.840000 131 124 101 0
7.480000 27.940000 4.840000 130 123 100 0
7.700000 27.940000 5.280000 129 123 102 0
7.920000 27.940000 6.380000 129 123 102 0
8.140000 27.940000 6.930000 130 124 103 0
8.360000 27.940000 6.930000 129 123 102 0
8.580000 27.940000 6.380000 129 124 100 0
8.800000 27.940000 5.830000 129 124 100 0
9.020000 27.940000 5.720000 130 123 100 0
9.240000 27.940000 6.490000 129 122 99 0
9.460000 27.940000 5.940000 129 124 100 0
9.680000 27.940000 6.160000 128 123 99 0
9.900000 27.940000 6.160000 130 123 100 0
10.120000 27.940000 6.820000 128 121 98 0
10.340000 27.940000 6.820000 128 123 99 0
10.560000 27.940000 6.820000 128 123 99 0
10.780000 27.940000 6.820000 129 122 99 0
11.000000 27.940000 6.820000 128 121 98 0
11.220000 27.940000 6.820000 128 121 98 0
11.440000 27.940000 6.820000 128 121 98 0
11.660000 27.940000 7.480000 129 122 99 0
11.880000 27.940000 7.480000 129 122 99 0
12.100000 27.940000 8.140000 128 123 99 0
12.320000 27.940000 8.800000 129 124 100 0
12.540000 27.940000 8.800000 130 123 100 0
12.760000 27.940000 8.800000 129 122 99 0
12.980000 27.940000 8.800000 130 123 99 0
13.200000 27.940000 8.910000 130 123 99 0
13.420000 27.940000 8.910000 131 123 99 0
13.640000 27.940000 9.460000 132 124 100 0
13.860000 27.940000 9.460000 132 125 102 0
14.080000 27.940000 9.460000 131 124 101 0
14.300000 27.940000 8.800000 131 126 102 0
14.520000 27.940000 8.800000 129 124 100 0
14.740000 27.940000 9.460000 121 124 100 0
14.960000 27.940000 9.460000 119 122 98 0
15.180000 27.940000 10.230000 103 125 100 0
15.400000 27.940000 12.320000 103 125 100 0
15.620000 27.940000 13.640000 102 125 102 0
15.840000 27.940000 15.070000 101 124 101 0
16.060000 27.940000 15.840000 98 125 101 0
16.280000 27.940000 15.840000 97 124 100 0
16.500000 27.940000 15.180000 96 125 100 0
16.720000 27.940000 13.750000 95 124 99 0
16.940000 27.940000 13.090000 95 124 99 0
17.160000 27.940000 12.320000 95 124 99 0
17.380000 27.940000 12.320000 94 123 100 0
17.600000 27.940000 12.320000 93 122 99 0
17.820000 27.940000 12.320000 91 122 99 0
18.040000 27.940000 11.660000 91 122 99 0
18.260000 27.940000 11.660000 91 122 99 0
18.480000 27.940000 11.660000 91 122 99 0
18.700000 27.940000 12.320000 92 123 100 0
18.920000 27.940000 12.320000 91 122 99 0
19.140000 27.940000 12.320000 92 121 98 0
19.360000 27.940000 12.980000 93 122 99 0
19.580000 27.940000 12.980000 91 122 99 0
19.800000 27.940000 13.750000 92 123 100 0
20.020000 27.940000 13.750000 92 123 100 0
20.240000 27.940000 14.300000 93 124 101 0
20.460000 27.940000 14.300000 93 126 102 0
20.680000 27.940000 14.960000 92 125 101 0
20.900000 27.940000 15.070000 93 124 101 0
21.120000 27.940000 15.070000 94 125 102 0
21.340000 27.940000 15.620000 92 127 104 0
21.560000 27.940000 16.170000 92 127 104 0
21.780000 27.940000 16.720000 93 128 103 0
22.000000 27.940000 18.040000 93 128 103 0
22.220000 27.940000 19.470000 94 129 104 0
22.440000 27.940000 19.470000 94 129 104 0
22.660000 27.940000 19.470000 95 130 103 0
22.880000 27.940000 19.580000 97 132 105 0
23.100000 27.940000 19.580000 93 132 106 0
23.320000 27.940000 18.920000 94 133 107 0
23.540000 27.940000 19.690000 94 132 106 0
23.760000 27.940000 19.690000 94 132 106 0
23.980000 27.940000 14.850000 94 132 106 0
24.200000 27.940000 4.510000 94 132 106 0
24.640000 27.940000 0.440000 93 131 103 0
24.860000 27.940000 1.100000 93 131 105 0
25.080000 27.940000 1.870000 92 130 104 0
25.300000 27.940000 1.870000 91 129 103 0
25.520000 27.940000 1.870000 90 128 102 0
25.740000 27.940000 1.870000 93 126 102 0
25.960000 27.940000 2.640000 92 125 101 0
26.180000 27.940000 2.640000 99 123 96 0
26.400000 27.940000 2.640000 100 124 97 0
26.620000 27.940000 1.980000 107 120 97 0
26.840000 27.940000 2.640000 107 120 97 0
27.060000 27.940000 2.750000 117 115 95 0
27.280000 27.940000 3.410000 113 111 91 0
27.500000 27.940000 3.410000 117 110 89 0
27.720000 27.940000 2.750000 114 107 86 0
27.940000 27.940000 2.640000 115 106 84 0
28.160000 27.940000 3.300000 117 108 86 0
28.380000 27.940000 3.190000 121 108 87 0
28.600000 27.940000 3.630000 123 110 89 0
28.820000 27.940000 4.180000 122 111 89 0
29.040000 27.940000 4.180000 124 113 91 0
29.260000 27.940000 4.840000 125 112 91 0
29.480000 27.940000 4.840000 123 110 89 0
29.700000 27.940000 5.610000 125 109 88 0
29.920000 27.940000 5.610000 125 109 88 0
30.140000 27.940000 5.610000 126 110 89 0
30.360000 27.940000 5.610000 127 111 90 0
30.580000 27.940000 5.610000 128 111 90 0
30.800000 27.940000 4.950000 130 113 92 0
31.020000 27.940000 4.950000 129 112 89 0
31.240000 27.940000 4.290000 129 112 89 0
31.460000 27.940000 4.950000 132 113 91 0
31.680000 27.940000 4.950000 131 112 90 0
31.900000 27.940000 4.950000 132 113 91 0
32.120000 27.940000 5.720000 133 114 92 0
32.340000 27.940000 6.380000 132 115 94 0
32.560000 27.940000 6.380000 131 114 93 0
32.780000 27.940000 6.380000 132 113 91 0
33.000000 27.940000 5.720000 132 113 91 0
33.220000 27.940000 4.950000 133 114 92 0
33.440000 27.940000 4.950000 133 114 92 0
33.660000 27.940000 5.060000 133 114 92 0
33.880000 27.940000 4.290000 135 116 94 0
34.100000 27.940000 4.290000 134 115 93 0
34.320000 27.940000 4.400000 135 116 94 0
34.540000 27.940000 5.060000 136 117 95 0
34.760000 27.940000 5.060000 137 118 96 0
34.980000 27.940000 5.060000 138 117 95 0
35.200000 27.940000 5.060000 139 118 96 0
35.420000 27.940000 5.830000 139 118 96 0
35.640000 27.940000 5.830000 140 119 97 0
35.860000 27.940000 5.830000 140 119 97 0
36.080000 27.940000 6.600000 141 120 98 0
36.300000 27.940000 6.600000 140 119 97 0
36.520000 27.940000 7.260000 140 119 97 0
36.740000 27.940000 8.030000 141 118 97 0
36.960000 27.940000 8.030000 142 119 98 0
37.180000 27.940000 8.030000 142 121 99 0
0.000000 28.160000 2.970000 139 136 116 0
0.220000 28.160000 2.310000 138 135 115 0
0.440000 28.160000 0.990000 139 136 116 0
0.660000 28.160000 1.650000 140 137 117 0
0.880000 28.160000 2.310000 142 139 119 0
1.100000 28.160000 2.310000 142 139 119 0
1.320000 28.160000 2.310000 143 140 120 0
1.540000 28.160000 3.080000 142 139 119 0
1.760000 28.160000 3.850000 140 137 117 0
