ply
format ascii 1.0
element vertex 1126
property float x
property float y
property float z
property uchar red
property uchar green
property uchar blue
property uchar alpha
end_header
26.840000 9.460000 19.030000 236 192 162 0
27.060000 9.460000 19.030000 235 191 161 0
27.280000 9.460000 19.030000 233 189 159 0
27.500000 9.460000 19.140000 234 190 160 0
27.720000 9.460000 19.910000 234 190 160 0
27.940000 9.460000 19.910000 235 191 161 0
28.160000 9.460000 19.910000 236 191 163 0
28.380000 9.460000 19.250000 235 190 162 0
28.600000 9.460000 20.020000 235 190 162 0
28.820000 9.460000 15.070000 233 188 160 0
29.040000 9.460000 9.900000 233 188 160 0
29.260000 9.460000 15.290000 232 187 159 0
29.480000 9.460000 15.510000 232 188 158 0
29.700000 9.460000 10.010000 230 186 156 0
29.920000 9.460000 10.120000 230 185 157 0
30.140000 9.460000 9.570000 232 187 159 0
30.360000 9.460000 14.410000 231 186 160 0
30.580000 9.460000 14.960000 232 187 161 0
30.800000 9.460000 5.060000 232 187 159 0
31.240000 9.460000 5.610000 234 189 161 0
31.460000 9.460000 10.450000 233 188 160 0
31.680000 9.460000 5.060000 231 189 162 0
31.900000 9.460000 0.220000 231 189 162 0
32.120000 9.460000 0.990000 234 189 163 0
32.340000 9.460000 0.990000 235 190 164 0
32.560000 9.460000 1.100000 237 192 166 0
32.780000 9.460000 1.100000 235 190 164 0
33.000000 9.460000 1.210000 235 193 166 0
33.220000 9.460000 1.210000 235 193 166 0
33.440000 9.460000 1.980000 236 193 169 0
33.660000 9.460000 1.980000 236 193 169 0
33.880000 9.460000 1.980000 238 193 167 0
34.100000 9.460000 1.980000 237 192 166 0
34.320000 9.460000 2.530000 236 191 167 0
34.540000 9.460000 3.630000 236 191 167 0
34.760000 9.460000 4.180000 234 192 165 0
34.980000 9.460000 4.290000 234 192 165 0
35.200000 9.460000 4.290000 233 190 166 0
35.420000 9.460000 4.400000 233 190 166 0
35.640000 9.460000 4.510000 222 194 178 0
35.860000 9.460000 5.170000 226 198 182 0
36.080000 9.460000 6.380000 212 206 201 0
36.300000 9.460000 7.590000 216 210 205 0
36.520000 9.460000 8.360000 215 211 205 0
36.740000 9.460000 8.470000 216 212 206 0
36.960000 9.460000 8.470000 216 212 206 0
37.180000 9.460000 9.240000 217 213 207 0
0.000000 9.680000 5.060000 142 121 89 0
0.220000 9.680000 5.060000 141 120 88 0
0.440000 9.680000 5.060000 143 119 88 0
0.660000 9.680000 5.060000 143 119 88 0
0.880000 9.680000 5.720000 143 119 88 0
1.100000 9.680000 5.720000 143 119 88 0
1.320000 9.680000 5.720000 143 119 88 0
1.540000 9.680000 5.720000 143 119 88 0
1.760000 9.680000 5.060000 142 118 87 0
1.980000 9.680000 5.060000 143 119 88 0
2.200000 9.680000 4.950000 144 120 91 0
2.420000 9.680000 4.950000 144 120 91 0
2.640000 9.680000 5.720000 143 119 90 0
2.860000 9.680000 5.720000 143 119 90 0
3.080000 9.680000 5.720000 143 119 90 0
3.300000 9.680000 6.380000 144 120 91 0
3.520000 9.680000 6.380000 143 119 90 0
3.740000 9.680000 6.380000 144 120 91 0
3.960000 9.680000 6.380000 143 117 87 0
4.180000 9.680000 6.380000 143 117 87 0
4.400000 9.680000 6.490000 143 117 87 0
4.620000 9.680000 7.150000 143 117 87 0
4.840000 9.680000 7.150000 143 119 90 0
5.060000 9.680000 7.150000 143 119 90 0
5.280000 9.680000 7.040000 144 120 91 0
5.500000 9.680000 6.380000 144 120 91 0
5.720000 9.680000 6.380000 144 120 91 0
5.940000 9.680000 6.380000 144 120 91 0
6.160000 9.680000 6.380000 146 122 93 0
6.380000 9.680000 6.270000 146 122 93 0
6.600000 9.680000 7.040000 146 122 93 0
6.820000 9.680000 6.930000 147 123 94 0
7.040000 9.680000 7.700000 147 123 94 0
7.260000 9.680000 7.700000 147 123 94 0
7.480000 9.680000 6.930000 149 123 95 0
7.700000 9.680000 5.610000 148 122 94 0
7.920000 9.680000 5.610000 147 122 95 0
8.140000 9.680000 5.610000 146 121 94 0
8.360000 9.680000 5.610000 146 122 93 0
8.580000 9.680000 5.610000 147 123 94 0
8.800000 9.680000 5.720000 149 123 95 0
9.020000 9.680000 5.720000 149 123 95 0
9.240000 9.680000 5.720000 155 123 95 0
9.460000 9.680000 5.170000 159 127 99 0
9.680000 9.680000 5.170000 182 139 100 0
9.900000 9.680000 5.170000 193 150 111 0
10.120000 9.680000 5.170000 202 164 122 0
10.340000 9.680000 5.170000 211 173 131 0
10.560000 9.680000 5.280000 217 179 138 0
10.780000 9.680000 5.280000 220 182 141 0
11.000000 9.680000 5.280000 224 186 145 0
11.220000 9.680000 5.390000 225 187 146 0
11.440000 9.680000 6.050000 226 187 151 0
11.660000 9.680000 6.160000 227 188 152 0
11.880000 9.680000 6.160000 225 190 153 0
12.100000 9.680000 6.050000 226 191 154 0
12.320000 9.680000 7.150000 226 191 156 0
12.540000 9.680000 6.930000 227 192 157 0
12.760000 9.680000 6.930000 227 191 154 0
12.980000 9.680000 7.040000 227 191 154 0
13.200000 9.680000 7.700000 227 188 152 0
13.420000 9.680000 7.810000 226 187 151 0
13.640000 9.680000 7.810000 226 187 151 0
13.860000 9.680000 7.920000 225 186 150 0
14.080000 9.680000 7.920000 223 185 144 0
14.300000 9.680000 7.920000 223 185 144 0
14.520000 9.680000 8.030000 223 185 144 0
14.740000 9.680000 8.030000 224 186 145 0
14.960000 9.680000 8.140000 224 185 149 0
15.180000 9.680000 8.140000 225 186 150 0
15.400000 9.680000 8.140000 227 187 149 0
15.620000 9.680000 8.250000 228 188 150 0
15.840000 9.680000 8.910000 227 188 150 0
16.060000 9.680000 9.460000 228 189 151 0
16.280000 9.680000 9.900000 228 189 151 0
16.500000 9.680000 10.450000 228 189 151 0
16.720000 9.680000 11.110000 230 191 155 0
16.940000 9.680000 11.110000 231 192 156 0
17.160000 9.680000 11.220000 231 192 156 0
17.380000 9.680000 11.220000 231 192 156 0
17.600000 9.680000 11.990000 231 191 153 0
17.820000 9.680000 11.990000 230 190 152 0
18.040000 9.680000 11.990000 230 191 153 0
18.260000 9.680000 12.100000 229 190 152 0
18.480000 9.680000 12.100000 231 192 156 0
18.700000 9.680000 12.100000 230 191 155 0
18.920000 9.680000 12.210000 232 191 156 0
19.140000 9.680000 12.210000 232 191 156 0
19.360000 9.680000 12.210000 231 190 155 0
19.580000 9.680000 12.980000 231 190 155 0
19.800000 9.680000 12.980000 231 192 156 0
20.020000 9.680000 13.090000 232 193 157 0
20.240000 9.680000 13.090000 232 193 157 0
20.460000 9.680000 13.640000 232 193 157 0
20.680000 9.680000 14.740000 232 191 156 0
20.900000 9.680000 15.290000 233 192 157 0
21.120000 9.680000 15.290000 233 192 157 0
21.340000 9.680000 15.290000 234 193 158 0
21.560000 9.680000 15.290000 232 191 156 0
21.780000 9.680000 15.400000 233 192 157 0
22.000000 9.680000 15.400000 232 191 158 0
22.220000 9.680000 15.400000 233 192 159 0
22.440000 9.680000 15.510000 233 192 157 0
22.660000 9.680000 15.510000 233 192 157 0
22.880000 9.680000 15.510000 232 191 156 0
23.100000 9.680000 16.280000 233 192 157 0
23.320000 9.680000 16.280000 233 192 159 0
23.540000 9.680000 16.390000 233 192 159 0
23.760000 9.680000 16.390000 233 192 159 0
23.980000 9.680000 16.500000 234 193 160 0
24.200000 9.680000 16.500000 234 193 160 0
24.420000 9.680000 16.500000 234 193 160 0
24.640000 9.680000 17.160000 234 193 160 0
24.860000 9.680000 17.490000 233 192 159 0
25.080000 9.680000 18.040000 233 192 161 0
25.300000 9.680000 18.040000 234 193 162 0
25.520000 9.680000 18.040000 234 193 162 0
25.740000 9.680000 18.040000 234 193 162 0
25.960000 9.680000 18.150000 235 194 163 0
26.180000 9.680000 18.920000 235 194 163 0
26.400000 9.680000 18.920000 234 193 162 0
26.620000 9.680000 18.920000 235 194 163 0
26.840000 9.680000 19.030000 236 192 162 0
27.060000 9.680000 19.030000 235 191 161 0
27.280000 9.680000 19.030000 233 189 159 0
27.500000 9.680000 19.800000 235 191 161 0
27.720000 9.680000 19.910000 234 190 160 0
27.940000 9.680000 19.910000 234 190 160 0
28.160000 9.680000 19.910000 235 190 162 0
28.380000 9.680000 20.020000 235 190 162 0
28.600000 9.680000 20.020000 235 190 162 0
28.820000 9.680000 15.070000 234 189 161 0
29.040000 9.680000 9.900000 233 188 160 0
29.260000 9.680000 15.290000 233 188 160 0
29.480000 9.680000 15.510000 232 188 158 0
29.700000 9.680000 10.010000 230 186 156 0
29.920000 9.680000 10.120000 229 184 156 0
30.140000 9.680000 9.570000 230 185 157 0
30.360000 9.680000 14.410000 231 186 160 0
30.580000 9.680000 14.960000 231 186 160 0
30.800000 9.680000 5.060000 233 188 160 0
31.240000 9.680000 5.610000 233 188 160 0
31.460000 9.680000 10.450000 233 188 160 0
31.680000 9.680000 5.060000 232 190 163 0
31.900000 9.680000 0.220000 232 190 163 0
32.120000 9.680000 0.990000 235 190 164 0
32.340000 9.680000 0.990000 234 189 163 0
32.560000 9.680000 1.100000 236 191 165 0
32.780000 9.680000 1.100000 236 191 165 0
33.000000 9.680000 1.210000 234 192 165 0
33.220000 9.680000 1.870000 235 193 166 0
33.440000 9.680000 1.980000 235 192 168 0
33.660000 9.680000 1.980000 234 191 167 0
33.880000 9.680000 1.980000 237 192 166 0
34.100000 9.680000 1.980000 236 191 165 0
34.320000 9.680000 2.530000 237 192 168 0
34.540000 9.680000 3.630000 235 190 166 0
34.760000 9.680000 4.180000 235 193 166 0
34.980000 9.680000 4.290000 234 192 165 0
35.200000 9.680000 4.290000 234 191 167 0
35.420000 9.680000 4.400000 235 192 168 0
35.640000 9.680000 4.510000 222 194 178 0
35.860000 9.680000 5.170000 224 196 180 0
36.080000 9.680000 6.380000 212 206 201 0
36.300000 9.680000 7.590000 216 210 205 0
36.520000 9.680000 8.360000 216 212 206 0
36.740000 9.680000 8.470000 217 213 207 0
36.960000 9.680000 8.470000 216 212 206 0
37.180000 9.680000 9.240000 217 213 207 0
0.000000 9.900000 5.060000 143 119 88 0
0.220000 9.900000 5.060000 144 120 89 0
0.440000 9.900000 5.060000 141 120 88 0
0.660000 9.900000 5.060000 141 120 88 0
0.880000 9.900000 5.720000 143 119 88 0
1.100000 9.900000 5.720000 143 119 88 0
1.320000 9.900000 6.380000 143 119 88 0
1.540000 9.900000 5.720000 144 120 89 0
1.760000 9.900000 5.060000 143 119 90 0
1.980000 9.900000 5.060000 144 120 91 0
2.200000 9.900000 4.950000 144 120 91 0
2.420000 9.900000 4.950000 143 119 90 0
2.640000 9.900000 5.720000 144 120 91 0
2.860000 9.900000 5.720000 143 119 90 0
3.080000 9.900000 5.720000 144 120 91 0
3.300000 9.900000 6.380000 144 120 91 0
3.520000 9.900000 6.380000 143 119 90 0
3.740000 9.900000 6.380000 144 120 91 0
3.960000 9.900000 6.490000 144 120 91 0
4.180000 9.900000 6.490000 143 119 90 0
4.400000 9.900000 7.150000 142 118 89 0
4.620000 9.900000 7.150000 141 117 88 0
4.840000 9.900000 7.810000 141 117 88 0
5.060000 9.900000 7.810000 142 118 89 0
5.280000 9.900000 7.810000 143 117 89 0
5.500000 9.900000 7.040000 145 119 91 0
5.720000 9.900000 7.040000 144 120 91 0
5.940000 9.900000 7.040000 145 121 92 0
6.160000 9.900000 6.380000 144 122 94 0
6.380000 9.900000 6.270000 145 123 95 0
6.600000 9.900000 7.040000 144 122 94 0
6.820000 9.900000 7.040000 145 123 95 0
7.040000 9.900000 7.700000 147 122 95 0
7.260000 9.900000 7.700000 148 123 96 0
7.480000 9.900000 6.930000 148 123 96 0
7.700000 9.900000 5.610000 148 123 96 0
7.920000 9.900000 5.610000 148 123 96 0
8.140000 9.900000 5.610000 146 121 94 0
8.360000 9.900000 5.610000 145 123 95 0
8.580000 9.900000 5.610000 143 121 93 0
8.800000 9.900000 5.720000 148 122 94 0
9.020000 9.900000 5.720000 150 124 96 0
9.240000 9.900000 5.720000 154 123 97 0
9.460000 9.900000 5.060000 157 126 100 0
9.680000 9.900000 5.170000 177 137 99 0
9.900000 9.900000 5.170000 189 149 111 0
10.120000 9.900000 5.170000 199 161 120 0
10.340000 9.900000 5.170000 208 170 129 0
10.560000 9.900000 5.280000 217 179 138 0
10.780000 9.900000 5.280000 219 181 140 0
11.000000 9.900000 5.280000 223 185 144 0
11.220000 9.900000 5.390000 224 186 145 0
11.440000 9.900000 6.050000 225 186 148 0
11.660000 9.900000 6.160000 226 187 149 0
11.880000 9.900000 6.160000 227 188 150 0
12.100000 9.900000 6.160000 227 188 150 0
12.320000 9.900000 6.600000 226 190 153 0
12.540000 9.900000 7.040000 226 190 153 0
12.760000 9.900000 6.930000 228 189 153 0
12.980000 9.900000 7.040000 227 188 152 0
13.200000 9.900000 7.040000 227 188 150 0
13.420000 9.900000 7.810000 226 187 149 0
13.640000 9.900000 7.810000 227 188 152 0
13.860000 9.900000 7.920000 227 188 152 0
14.080000 9.900000 7.920000 226 187 149 0
14.300000 9.900000 7.920000 225 186 148 0
14.520000 9.900000 8.030000 224 185 147 0
14.740000 9.900000 8.030000 225 186 148 0
14.960000 9.900000 8.140000 226 187 149 0
15.180000 9.900000 8.140000 226 187 149 0
15.400000 9.900000 8.910000 228 188 150 0
15.620000 9.900000 8.910000 228 188 150 0
15.840000 9.900000 8.910000 229 188 153 0
16.060000 9.900000 9.460000 229 188 153 0
16.280000 9.900000 9.900000 229 189 151 0
16.500000 9.900000 11.110000 230 190 152 0
16.720000 9.900000 11.110000 230 190 152 0
16.940000 9.900000 11.110000 231 191 153 0
17.160000 9.900000 11.220000 231 190 155 0
17.380000 9.900000 11.880000 231 190 155 0
17.600000 9.900000 11.990000 230 190 152 0
17.820000 9.900000 11.990000 231 191 153 0
18.040000 9.900000 11.990000 230 190 152 0
18.260000 9.900000 12.100000 230 190 152 0
18.480000 9.900000 12.100000 231 190 155 0
18.700000 9.900000 12.100000 232 191 156 0
18.920000 9.900000 12.210000 231 190 155 0
19.140000 9.900000 12.870000 231 190 155 0
19.360000 9.900000 12.980000 233 192 157 0
19.580000 9.900000 12.980000 232 191 156 0
19.800000 9.900000 12.980000 232 191 156 0
20.020000 9.900000 13.090000 233 192 157 0
20.240000 9.900000 13.090000 233 192 157 0
20.460000 9.900000 13.640000 233 192 157 0
20.680000 9.900000 14.740000 233 194 160 0
20.900000 9.900000 15.290000 232 193 159 0
21.120000 9.900000 15.290000 233 192 157 0
21.340000 9.900000 15.290000 234 193 158 0
21.560000 9.900000 15.290000 233 192 157 0
21.780000 9.900000 15.400000 233 192 157 0
22.000000 9.900000 15.400000 233 192 157 0
22.220000 9.900000 15.400000 233 192 157 0
22.440000 9.900000 15.510000 233 192 159 0
22.660000 9.900000 15.510000 234 193 160 0
22.880000 9.900000 15.510000 233 192 157 0
23.100000 9.900000 16.280000 234 193 158 0
23.320000 9.900000 16.280000 233 192 159 0
23.540000 9.900000 16.390000 234 193 160 0
23.760000 9.900000 16.390000 234 193 160 0
23.980000 9.900000 16.500000 234 193 160 0
24.200000 9.900000 16.500000 234 193 162 0
24.420000 9.900000 16.500000 234 193 162 0
24.640000 9.900000 17.160000 234 193 160 0
24.860000 9.900000 17.710000 234 193 160 0
25.080000 9.900000 18.150000 234 193 160 0
25.300000 9.900000 18.040000 233 192 159 0
25.520000 9.900000 18.040000 233 192 159 0
25.740000 9.900000 18.040000 234 193 160 0
25.960000 9.900000 18.150000 234 193 162 0
26.180000 9.900000 18.810000 234 193 162 0
26.400000 9.900000 18.920000 237 193 163 0
26.620000 9.900000 18.920000 236 192 162 0
26.840000 9.900000 19.030000 235 191 161 0
27.060000 9.900000 19.030000 236 192 162 0
27.280000 9.900000 19.030000 234 190 160 0
27.500000 9.900000 19.800000 234 190 160 0
27.720000 9.900000 19.910000 235 190 162 0
27.940000 9.900000 19.910000 235 190 162 0
28.160000 9.900000 19.910000 234 190 160 0
28.380000 9.900000 20.020000 235 191 161 0
28.600000 9.900000 20.020000 235 190 162 0
28.820000 9.900000 15.070000 233 188 160 0
29.040000 9.900000 10.560000 233 189 159 0
29.260000 9.900000 15.290000 233 189 159 0
29.480000 9.900000 15.510000 233 188 160 0
29.700000 9.900000 10.010000 230 185 157 0
29.920000 9.900000 10.120000 230 185 157 0
30.140000 9.900000 9.570000 230 185 157 0
30.360000 9.900000 15.180000 231 186 158 0
30.580000 9.900000 14.960000 232 187 159 0
30.800000 9.900000 5.060000 232 187 159 0
31.240000 9.900000 5.610000 233 188 162 0
31.460000 9.900000 10.450000 233 188 162 0
31.680000 9.900000 5.060000 233 188 162 0
31.900000 9.900000 0.220000 233 188 162 0
32.120000 9.900000 0.990000 233 188 162 0
32.340000 9.900000 0.990000 234 189 163 0
32.560000 9.900000 1.100000 233 191 164 0
32.780000 9.900000 1.100000 234 192 165 0
33.000000 9.900000 1.210000 235 193 166 0
33.220000 9.900000 1.870000 235 193 166 0
33.440000 9.900000 1.980000 234 192 165 0
33.660000 9.900000 1.980000 234 192 165 0
33.880000 9.900000 1.980000 234 191 167 0
34.100000 9.900000 1.980000 233 190 166 0
34.320000 9.900000 2.530000 233 191 164 0
34.540000 9.900000 3.630000 233 191 164 0
34.760000 9.900000 4.180000 233 191 164 0
34.980000 9.900000 4.290000 234 192 165 0
35.200000 9.900000 4.290000 234 192 165 0
35.420000 9.900000 4.400000 234 192 165 0
35.640000 9.900000 4.510000 226 193 173 0
35.860000 9.900000 5.170000 228 195 175 0
36.080000 9.900000 6.380000 212 206 201 0
36.300000 9.900000 7.590000 216 210 205 0
36.520000 9.900000 8.360000 216 212 206 0
36.740000 9.900000 8.470000 216 212 206 0
36.960000 9.900000 8.470000 216 212 206 0
37.180000 9.900000 9.240000 217 213 207 0
0.000000 10.120000 5.060000 143 119 88 0
0.220000 10.120000 5.060000 144 120 89 0
0.440000 10.120000 5.060000 141 120 88 0
0.660000 10.120000 5.060000 141 120 88 0
0.880000 10.120000 5.720000 143 119 88 0
1.100000 10.120000 6.380000 143 119 88 0
1.320000 10.120000 6.380000 143 119 88 0
1.540000 10.120000 6.490000 144 120 89 0
1.760000 10.120000 5.720000 145 121 92 0
1.980000 10.120000 5.060000 143 119 90 0
2.200000 10.120000 4.950000 143 119 90 0
2.420000 10.120000 4.950000 144 120 91 0
2.640000 10.120000 5.720000 143 119 90 0
2.860000 10.120000 5.720000 144 120 91 0
3.080000 10.120000 5.720000 143 119 90 0
3.300000 10.120000 6.380000 144 120 91 0
3.520000 10.120000 6.380000 145 121 92 0
3.740000 10.120000 6.380000 145 121 92 0
3.960000 10.120000 6.490000 145 121 92 0
4.180000 10.120000 7.150000 143 119 90 0
4.400000 10.120000 7.150000 143 119 90 0
4.620000 10.120000 7.810000 141 117 88 0
4.840000 10.120000 7.810000 141 117 88 0
5.060000 10.120000 7.810000 141 117 88 0
5.280000 10.120000 7.810000 143 117 89 0
5.500000 10.120000 7.810000 144 118 90 0
5.720000 10.120000 7.700000 143 119 90 0
5.940000 10.120000 7.040000 145 121 92 0
6.160000 10.120000 7.040000 143 121 93 0
6.380000 10.120000 7.040000 143 121 93 0
6.600000 10.120000 7.040000 144 122 94 0
6.820000 10.120000 7.040000 145 123 95 0
7.040000 10.120000 7.700000 148 123 96 0
7.260000 10.120000 7.700000 149 124 97 0
7.480000 10.120000 6.930000 149 124 97 0
7.700000 10.120000 5.610000 148 123 96 0
7.920000 10.120000 5.610000 148 123 96 0
8.140000 10.120000 4.950000 148 123 96 0
8.360000 10.120000 5.610000 145 123 95 0
8.580000 10.120000 5.610000 145 123 95 0
8.800000 10.120000 5.720000 148 122 94 0
9.020000 10.120000 5.720000 149 123 95 0
9.240000 10.120000 5.720000 153 122 96 0
9.460000 10.120000 5.060000 156 125 99 0
9.680000 10.120000 5.170000 175 135 97 0
9.900000 10.120000 4.510000 188 148 110 0
10.120000 10.120000 5.170000 199 161 120 0
10.340000 10.120000 5.170000 207 169 128 0
10.560000 10.120000 5.280000 217 179 138 0
10.780000 10.120000 5.280000 220 182 141 0
11.000000 10.120000 5.280000 221 183 142 0
11.220000 10.120000 5.390000 223 185 144 0
11.440000 10.120000 6.050000 225 186 148 0
11.660000 10.120000 6.160000 225 186 148 0
11.880000 10.120000 6.160000 226 187 149 0
12.100000 10.120000 6.160000 226 187 149 0
12.320000 10.120000 6.050000 225 189 152 0
12.540000 10.120000 7.150000 226 190 153 0
12.760000 10.120000 6.930000 228 189 153 0
12.980000 10.120000 7.040000 227 188 152 0
13.200000 10.120000 7.040000 228 189 151 0
13.420000 10.120000 7.810000 226 187 149 0
13.640000 10.120000 7.810000 227 188 152 0
13.860000 10.120000 7.920000 228 189 153 0
14.080000 10.120000 7.920000 227 188 150 0
14.300000 10.120000 7.920000 227 188 150 0
14.520000 10.120000 8.030000 227 188 150 0
14.740000 10.120000 8.030000 227 188 150 0
14.960000 10.120000 8.800000 227 188 150 0
15.180000 10.120000 8.800000 227 188 150 0
15.400000 10.120000 8.910000 229 189 151 0
15.620000 10.120000 8.910000 229 189 151 0
15.840000 10.120000 8.910000 229 188 153 0
16.060000 10.120000 9.460000 229 188 153 0
16.280000 10.120000 10.560000 229 189 151 0
16.500000 10.120000 11.110000 230 190 152 0
16.720000 10.120000 11.110000 231 191 153 0
16.940000 10.120000 11.110000 230 190 152 0
17.160000 10.120000 11.880000 231 190 155 0
17.380000 10.120000 11.880000 230 189 154 0
17.600000 10.120000 11.990000 230 190 152 0
17.820000 10.120000 11.990000 230 190 152 0
18.040000 10.120000 11.990000 231 191 153 0
18.260000 10.120000 12.100000 232 192 154 0
18.480000 10.120000 12.100000 231 190 155 0
18.700000 10.120000 12.100000 232 191 156 0
18.920000 10.120000 12.870000 232 191 156 0
19.140000 10.120000 12.870000 232 191 156 0
19.360000 10.120000 12.980000 233 192 157 0
19.580000 10.120000 12.980000 232 191 156 0
19.800000 10.120000 12.980000 234 193 158 0
20.020000 10.120000 13.090000 234 193 158 0
20.240000 10.120000 13.090000 234 193 158 0
20.460000 10.120000 13.640000 233 192 157 0
20.680000 10.120000 14.740000 233 194 160 0
20.900000 10.120000 15.290000 234 195 161 0
21.120000 10.120000 15.290000 234 193 158 0
21.340000 10.120000 15.290000 234 193 158 0
21.560000 10.120000 15.290000 234 193 158 0
21.780000 10.120000 15.400000 233 192 157 0
22.000000 10.120000 15.400000 234 193 158 0
22.220000 10.120000 15.400000 233 192 157 0
22.440000 10.120000 15.510000 234 193 160 0
22.660000 10.120000 15.510000 234 193 160 0
22.880000 10.120000 15.510000 234 193 158 0
23.100000 10.120000 16.280000 234 193 158 0
23.320000 10.120000 16.280000 233 192 159 0
23.540000 10.120000 16.390000 233 192 159 0
23.760000 10.120000 16.390000 234 193 160 0
23.980000 10.120000 16.500000 233 192 159 0
24.200000 10.120000 16.500000 233 192 161 0
24.420000 10.120000 16.500000 233 192 161 0
24.640000 10.120000 17.270000 233 192 159 0
24.860000 10.120000 17.050000 234 193 160 0
25.080000 10.120000 18.150000 233 192 159 0
25.300000 10.120000 18.700000 234 193 160 0
25.520000 10.120000 18.040000 233 192 159 0
25.740000 10.120000 18.040000 233 192 159 0
25.960000 10.120000 18.150000 234 193 162 0
26.180000 10.120000 18.810000 234 193 162 0
26.400000 10.120000 18.920000 236 192 162 0
26.620000 10.120000 18.260000 236 192 162 0
26.840000 10.120000 19.030000 236 192 162 0
27.060000 10.120000 19.030000 235 191 161 0
27.280000 10.120000 19.030000 234 190 160 0
27.500000 10.120000 19.800000 235 191 161 0
27.720000 10.120000 19.910000 234 189 161 0
27.940000 10.120000 19.910000 235 190 162 0
28.160000 10.120000 19.910000 234 190 160 0
28.380000 10.120000 20.020000 233 189 159 0
28.600000 10.120000 20.020000 234 189 161 0
28.820000 10.120000 15.070000 234 189 161 0
29.040000 10.120000 10.560000 232 188 158 0
29.260000 10.120000 15.290000 232 188 158 0
29.480000 10.120000 15.510000 232 187 159 0
29.700000 10.120000 10.010000 229 184 156 0
29.920000 10.120000 10.120000 228 183 155 0
30.140000 10.120000 9.570000 229 184 156 0
30.360000 10.120000 15.180000 232 187 159 0
30.580000 10.120000 14.960000 232 187 159 0
30.800000 10.120000 5.060000 231 186 158 0
31.240000 10.120000 5.610000 233 188 162 0
31.460000 10.120000 10.450000 233 188 162 0
31.680000 10.120000 5.060000 234 189 163 0
31.900000 10.120000 0.220000 234 189 163 0
32.120000 10.120000 0.990000 232 187 161 0
32.340000 10.120000 0.990000 233 188 162 0
32.560000 10.120000 1.100000 232 190 163 0
32.780000 10.120000 1.100000 234 192 165 0
33.000000 10.120000 1.870000 234 192 165 0
33.220000 10.120000 1.870000 234 192 165 0
33.440000 10.120000 1.980000 235 193 166 0
33.660000 10.120000 1.980000 234 192 165 0
33.880000 10.120000 1.980000 234 191 167 0
34.100000 10.120000 1.980000 234 191 167 0
34.320000 10.120000 2.530000 233 191 164 0
34.540000 10.120000 3.630000 233 191 164 0
34.760000 10.120000 4.180000 233 191 164 0
34.980000 10.120000 4.290000 234 192 165 0
35.200000 10.120000 4.290000 234 192 165 0
35.420000 10.120000 4.400000 234 192 165 0
35.640000 10.120000 4.510000 225 192 172 0
35.860000 10.120000 5.170000 229 196 176 0
36.080000 10.120000 6.380000 211 205 200 0
36.300000 10.120000 7.590000 217 211 206 0
36.520000 10.120000 8.360000 216 212 206 0
36.740000 10.120000 8.360000 218 214 208 0
36.960000 10.120000 9.240000 217 213 207 0
37.180000 10.120000 9.240000 216 212 206 0
0.000000 10.340000 5.060000 141 120 88 0
0.220000 10.340000 5.060000 141 120 88 0
0.440000 10.340000 5.060000 141 119 90 0
0.660000 10.340000 5.060000 142 120 91 0
0.880000 10.340000 5.720000 143 119 90 0
1.100000 10.340000 6.380000 144 120 91 0
1.320000 10.340000 6.380000 141 119 90 0
1.540000 10.340000 6.490000 143 121 92 0
1.760000 10.340000 5.720000 144 120 91 0
1.980000 10.340000 5.720000 144 120 91 0
2.200000 10.340000 4.950000 144 120 91 0
2.420000 10.340000 5.060000 143 119 90 0
2.640000 10.340000 5.060000 143 119 90 0
2.860000 10.340000 5.720000 143 119 90 0
3.080000 10.340000 5.720000 142 120 92 0
3.300000 10.340000 5.720000 143 121 93 0
3.520000 10.340000 6.380000 145 121 92 0
3.740000 10.340000 6.380000 145 121 92 0
3.960000 10.340000 6.490000 143 121 92 0
4.180000 10.340000 7.150000 142 120 91 0
4.400000 10.340000 7.150000 143 119 90 0
4.620000 10.340000 7.920000 142 118 89 0
4.840000 10.340000 7.920000 141 117 88 0
5.060000 10.340000 8.580000 142 118 89 0
5.280000 10.340000 8.470000 142 118 89 0
5.500000 10.340000 8.470000 143 119 90 0
5.720000 10.340000 7.700000 144 120 91 0
5.940000 10.340000 7.700000 144 120 91 0
6.160000 10.340000 7.040000 144 119 92 0
6.380000 10.340000 7.040000 145 120 93 0
6.600000 10.340000 7.040000 144 122 94 0
6.820000 10.340000 7.040000 145 123 95 0
7.040000 10.340000 7.700000 147 125 97 0
7.260000 10.340000 7.700000 148 126 98 0
7.480000 10.340000 6.930000 147 125 99 0
7.700000 10.340000 5.610000 147 125 99 0
7.920000 10.340000 4.950000 149 124 97 0
8.140000 10.340000 4.950000 147 122 95 0
8.360000 10.340000 5.610000 147 122 95 0
8.580000 10.340000 5.610000 147 122 95 0
8.800000 10.340000 5.720000 147 123 94 0
9.020000 10.340000 5.720000 147 123 94 0
9.240000 10.340000 5.720000 154 123 97 0
9.460000 10.340000 5.060000 156 125 99 0
9.680000 10.340000 5.170000 174 133 102 0
9.900000 10.340000 4.510000 186 145 114 0
10.120000 10.340000 4.510000 199 161 120 0
10.340000 10.340000 5.170000 208 170 129 0
10.560000 10.340000 5.280000 215 176 138 0
10.780000 10.340000 5.280000 219 180 142 0
11.000000 10.340000 5.280000 222 183 145 0
11.220000 10.340000 5.280000 223 184 146 0
11.440000 10.340000 6.050000 223 184 146 0
11.660000 10.340000 6.160000 224 185 147 0
11.880000 10.340000 6.160000 223 187 148 0
12.100000 10.340000 6.160000 223 187 148 0
12.320000 10.340000 6.050000 227 188 150 0
12.540000 10.340000 7.150000 225 186 148 0
12.760000 10.340000 7.700000 225 186 148 0
12.980000 10.340000 7.040000 223 184 146 0
13.200000 10.340000 7.040000 225 186 150 0
13.420000 10.340000 7.810000 225 186 150 0
13.640000 10.340000 7.810000 226 190 153 0
13.860000 10.340000 7.920000 226 190 153 0
14.080000 10.340000 7.920000 229 190 154 0
14.300000 10.340000 7.920000 228 189 153 0
14.520000 10.340000 8.690000 229 190 152 0
14.740000 10.340000 8.690000 228 189 151 0
14.960000 10.340000 8.800000 228 189 153 0
15.180000 10.340000 8.800000 227 188 152 0
15.400000 10.340000 8.910000 229 190 152 0
15.620000 10.340000 8.910000 227 188 150 0
15.840000 10.340000 8.910000 227 188 152 0
16.060000 10.340000 9.460000 228 189 153 0
16.280000 10.340000 10.560000 229 188 153 0
16.500000 10.340000 11.110000 229 188 153 0
16.720000 10.340000 11.110000 230 189 154 0
16.940000 10.340000 11.880000 231 190 155 0
17.160000 10.340000 11.880000 230 190 152 0
17.380000 10.340000 11.880000 230 190 152 0
17.600000 10.340000 11.990000 231 190 155 0
17.820000 10.340000 11.990000 231 190 155 0
18.040000 10.340000 11.990000 231 191 153 0
18.260000 10.340000 12.100000 231 191 153 0
18.480000 10.340000 12.100000 232 191 156 0
18.700000 10.340000 12.760000 231 190 155 0
18.920000 10.340000 12.870000 232 191 156 0
19.140000 10.340000 12.870000 232 191 156 0
19.360000 10.340000 12.980000 232 191 158 0
19.580000 10.340000 12.980000 233 192 159 0
19.800000 10.340000 12.980000 232 193 157 0
20.020000 10.340000 13.090000 233 194 158 0
20.240000 10.340000 13.090000 233 192 157 0
20.460000 10.340000 13.640000 234 193 158 0
20.680000 10.340000 14.740000 234 193 158 0
20.900000 10.340000 15.290000 234 193 158 0
21.120000 10.340000 15.290000 235 194 161 0
21.340000 10.340000 15.290000 234 193 160 0
21.560000 10.340000 15.290000 233 192 157 0
21.780000 10.340000 15.400000 233 192 157 0
22.000000 10.340000 15.400000 233 192 157 0
22.220000 10.340000 15.400000 233 192 157 0
22.440000 10.340000 15.510000 234 193 160 0
22.660000 10.340000 15.510000 233 192 159 0
22.880000 10.340000 15.510000 233 192 159 0
23.100000 10.340000 16.280000 234 193 160 0
23.320000 10.340000 16.280000 233 192 159 0
23.540000 10.340000 16.390000 233 192 159 0
23.760000 10.340000 16.390000 233 192 159 0
23.980000 10.340000 16.500000 234 193 160 0
24.200000 10.340000 16.500000 233 192 159 0
24.420000 10.340000 17.270000 233 192 159 0
24.640000 10.340000 17.270000 233 192 161 0
24.860000 10.340000 17.820000 233 192 161 0
25.080000 10.340000 18.150000 234 193 160 0
25.300000 10.340000 18.700000 234 193 160 0
25.520000 10.340000 18.700000 236 192 162 0
25.740000 10.340000 18.040000 236 192 162 0
25.960000 10.340000 18.810000 233 192 161 0
26.180000 10.340000 18.810000 234 193 162 0
26.400000 10.340000 18.920000 234 192 163 0
26.620000 10.340000 18.260000 233 191 162 0
26.840000 10.340000 19.030000 233 191 162 0
27.060000 10.340000 19.030000 233 191 162 0
27.280000 10.340000 19.030000 234 189 161 0
27.500000 10.340000 19.800000 234 189 161 0
27.720000 10.340000 19.910000 233 191 162 0
27.940000 10.340000 19.910000 231 189 160 0
28.160000 10.340000 19.910000 232 190 161 0
28.380000 10.340000 20.020000 231 189 160 0
28.600000 10.340000 20.020000 233 188 160 0
28.820000 10.340000 15.070000 233 188 160 0
29.040000 10.340000 10.560000 232 187 159 0
29.260000 10.340000 15.290000 232 187 159 0
29.480000 10.340000 15.400000 230 186 156 0
29.700000 10.340000 10.010000 228 184 154 0
29.920000 10.340000 10.120000 228 183 155 0
30.140000 10.340000 9.570000 230 185 157 0
30.360000 10.340000 15.180000 229 187 160 0
30.580000 10.340000 14.960000 230 188 161 0
30.800000 10.340000 5.060000 230 188 161 0
31.240000 10.340000 5.610000 231 189 162 0
31.460000 10.340000 10.450000 231 189 162 0
31.680000 10.340000 5.060000 231 189 162 0
31.900000 10.340000 0.220000 231 189 162 0
32.120000 10.340000 0.990000 231 188 164 0
32.340000 10.340000 0.990000 232 189 165 0
32.560000 10.340000 1.100000 231 188 164 0
32.780000 10.340000 1.100000 233 190 166 0
33.000000 10.340000 1.870000 234 192 165 0
33.220000 10.340000 1.870000 234 192 165 0
33.440000 10.340000 1.980000 233 190 166 0
33.660000 10.340000 1.980000 235 192 168 0
33.880000 10.340000 1.980000 235 192 168 0
34.100000 10.340000 1.980000 234 191 167 0
34.320000 10.340000 2.530000 234 191 167 0
34.540000 10.340000 3.630000 234 191 167 0
34.760000 10.340000 4.180000 234 192 165 0
34.980000 10.340000 4.290000 234 192 165 0
35.200000 10.340000 4.290000 234 192 165 0
35.420000 10.340000 4.400000 233 191 164 0
35.640000 10.340000 4.510000 227 191 172 0
35.860000 10.340000 5.060000 230 194 175 0
36.080000 10.340000 6.380000 212 206 201 0
36.300000 10.340000 7.590000 216 210 205 0
36.520000 10.340000 8.360000 216 212 206 0
36.740000 10.340000 8.360000 218 214 208 0
36.960000 10.340000 9.240000 217 213 209 0
37.180000 10.340000 9.240000 217 213 209 0
0.000000 10.560000 5.060000 141 120 88 0
0.220000 10.560000 5.060000 141 120 88 0
0.440000 10.560000 5.060000 141 119 90 0
0.660000 10.560000 5.060000 141 119 90 0
0.880000 10.560000 5.720000 143 119 90 0
1.100000 10.560000 6.380000 144 120 91 0
1.320000 10.560000 6.380000 143 121 92 0
1.540000 10.560000 6.490000 143 121 92 0
1.760000 10.560000 6.490000 145 121 92 0
1.980000 10.560000 5.720000 145 121 92 0
2.200000 10.560000 5.060000 144 120 91 0
2.420000 10.560000 5.060000 142 118 89 0
2.640000 10.560000 5.060000 142 118 89 0
2.860000 10.560000 5.720000 143 119 90 0
3.080000 10.560000 5.720000 141 119 91 0
3.300000 10.560000 5.720000 143 121 93 0
3.520000 10.560000 5.720000 145 121 92 0
3.740000 10.560000 6.380000 145 121 92 0
3.960000 10.560000 6.490000 144 122 93 0
4.180000 10.560000 6.490000 142 120 91 0
4.400000 10.560000 7.260000 143 119 90 0
4.620000 10.560000 7.920000 143 119 90 0
4.840000 10.560000 7.920000 142 118 89 0
5.060000 10.560000 8.580000 142 118 89 0
5.280000 10.560000 8.470000 143 119 90 0
5.500000 10.560000 8.470000 143 119 90 0
5.720000 10.560000 8.470000 143 119 90 0
5.940000 10.560000 7.700000 143 119 90 0
6.160000 10.560000 7.700000 144 119 92 0
6.380000 10.560000 7.040000 145 120 93 0
6.600000 10.560000 7.040000 145 123 95 0
6.820000 10.560000 7.040000 146 124 96 0
7.040000 10.560000 7.700000 146 124 96 0
7.260000 10.560000 7.700000 148 126 98 0
7.480000 10.560000 6.930000 148 126 100 0
7.700000 10.560000 5.610000 147 125 99 0
7.920000 10.560000 4.950000 149 124 97 0
8.140000 10.560000 4.950000 147 122 95 0
8.360000 10.560000 4.950000 147 122 95 0
8.580000 10.560000 5.610000 146 121 94 0
8.800000 10.560000 5.720000 147 123 94 0
9.020000 10.560000 5.720000 147 123 94 0
9.240000 10.560000 5.720000 152 121 95 0
9.460000 10.560000 5.060000 156 125 99 0
9.680000 10.560000 5.170000 174 133 102 0
9.900000 10.560000 4.510000 185 144 113 0
10.120000 10.560000 4.510000 198 160 119 0
10.340000 10.560000 5.170000 208 170 129 0
10.560000 10.560000 5.280000 217 178 140 0
10.780000 10.560000 5.280000 219 180 142 0
11.000000 10.560000 5.280000 221 182 144 0
11.220000 10.560000 5.280000 222 183 145 0
11.440000 10.560000 6.050000 223 184 146 0
11.660000 10.560000 6.160000 223 184 146 0
11.880000 10.560000 6.160000 222 186 147 0
12.100000 10.560000 6.160000 222 186 147 0
12.320000 10.560000 6.050000 224 185 147 0
12.540000 10.560000 7.150000 224 185 147 0
12.760000 10.560000 7.700000 224 185 147 0
12.980000 10.560000 7.040000 223 184 146 0
13.200000 10.560000 7.700000 224 185 149 0
13.420000 10.560000 7.810000 225 186 150 0
13.640000 10.560000 7.810000 224 188 151 0
13.860000 10.560000 7.920000 225 189 152 0
14.080000 10.560000 7.920000 228 189 153 0
14.300000 10.560000 7.920000 229 190 154 0
14.520000 10.560000 8.690000 229 190 152 0
14.740000 10.560000 8.690000 228 189 151 0
14.960000 10.560000 8.800000 227 188 152 0
15.180000 10.560000 8.800000 228 189 153 0
15.400000 10.560000 8.800000 228 189 151 0
15.620000 10.560000 8.910000 228 189 151 0
15.840000 10.560000 8.910000 228 189 153 0
16.060000 10.560000 9.570000 229 190 154 0
16.280000 10.560000 9.900000 230 189 154 0
16.500000 10.560000 11.110000 231 190 155 0
16.720000 10.560000 11.110000 230 189 154 0
16.940000 10.560000 11.880000 230 189 154 0
17.160000 10.560000 11.880000 230 190 152 0
17.380000 10.560000 11.880000 232 192 154 0
17.600000 10.560000 11.990000 230 189 154 0
17.820000 10.560000 11.990000 231 190 155 0
18.040000 10.560000 11.990000 230 190 152 0
18.260000 10.560000 12.100000 231 191 153 0
18.480000 10.560000 12.100000 230 189 154 0
18.700000 10.560000 12.760000 231 190 155 0
18.920000 10.560000 12.870000 232 191 156 0
19.140000 10.560000 12.870000 232 191 156 0
19.360000 10.560000 12.980000 233 192 159 0
19.580000 10.560000 12.980000 233 192 159 0
19.800000 10.560000 12.980000 233 194 158 0
20.020000 10.560000 13.090000 233 194 158 0
20.240000 10.560000 13.090000 234 193 158 0
20.460000 10.560000 13.640000 234 193 158 0
20.680000 10.560000 14.740000 235 194 159 0
20.900000 10.560000 15.290000 234 193 158 0
21.120000 10.560000 15.290000 235 194 161 0
21.340000 10.560000 15.290000 233 192 159 0
21.560000 10.560000 15.290000 234 193 158 0
21.780000 10.560000 15.400000 233 192 157 0
22.000000 10.560000 15.400000 232 191 156 0
22.220000 10.560000 15.400000 233 192 157 0
22.440000 10.560000 15.510000 234 193 160 0
22.660000 10.560000 15.510000 234 193 160 0
22.880000 10.560000 15.510000 233 192 159 0
23.100000 10.560000 16.280000 233 192 159 0
23.320000 10.560000 16.280000 233 192 159 0
23.540000 10.560000 16.390000 233 192 159 0
23.760000 10.560000 16.390000 233 192 159 0
23.980000 10.560000 16.500000 233 192 159 0
24.200000 10.560000 16.500000 234 193 160 0
24.420000 10.560000 17.270000 235 194 161 0
24.640000 10.560000 17.270000 235 194 163 0
24.860000 10.560000 17.820000 234 193 162 0
25.080000 10.560000 18.150000 234 193 160 0
25.300000 10.560000 18.700000 234 193 160 0
25.520000 10.560000 18.700000 236 192 162 0
25.740000 10.560000 18.810000 234 190 160 0
25.960000 10.560000 18.810000 233 192 161 0
26.180000 10.560000 18.810000 234 193 162 0
26.400000 10.560000 18.920000 234 192 163 0
26.620000 10.560000 18.260000 234 192 163 0
26.840000 10.560000 18.920000 234 192 163 0
27.060000 10.560000 19.030000 233 191 162 0
27.280000 10.560000 19.800000 234 189 161 0
27.500000 10.560000 19.800000 234 189 161 0
27.720000 10.560000 19.910000 233 191 162 0
27.940000 10.560000 19.910000 231 189 160 0
28.160000 10.560000 19.910000 232 190 161 0
28.380000 10.560000 20.020000 231 189 160 0
28.600000 10.560000 20.020000 232 187 159 0
28.820000 10.560000 15.070000 231 186 158 0
29.040000 10.560000 10.560000 230 185 157 0
29.260000 10.560000 15.290000 230 185 157 0
29.480000 10.560000 15.400000 229 185 155 0
29.700000 10.560000 10.010000 228 184 154 0
29.920000 10.560000 10.120000 228 183 155 0
30.140000 10.560000 9.570000 230 185 157 0
30.360000 10.560000 15.180000 230 188 161 0
30.580000 10.560000 14.960000 230 188 161 0
30.800000 10.560000 5.060000 231 189 162 0
31.240000 10.560000 5.610000 231 189 162 0
31.460000 10.560000 10.450000 232 190 163 0
31.680000 10.560000 5.060000 232 190 163 0
31.900000 10.560000 0.220000 232 190 163 0
32.120000 10.560000 0.990000 231 188 164 0
32.340000 10.560000 0.990000 232 189 165 0
32.560000 10.560000 1.100000 231 188 164 0
32.780000 10.560000 1.760000 232 189 165 0
33.000000 10.560000 1.870000 233 191 164 0
33.220000 10.560000 1.870000 233 191 164 0
33.440000 10.560000 1.980000 234 191 167 0
33.660000 10.560000 1.980000 234 191 167 0
33.880000 10.560000 1.980000 235 192 168 0
34.100000 10.560000 1.980000 233 190 166 0
34.320000 10.560000 2.530000 234 191 167 0
34.540000 10.560000 3.630000 234 191 167 0
34.760000 10.560000 4.180000 234 192 165 0
34.980000 10.560000 4.290000 234 192 165 0
35.200000 10.560000 4.290000 233 191 164 0
35.420000 10.560000 4.400000 232 190 163 0
35.640000 10.560000 4.510000 227 191 172 0
35.860000 10.560000 5.060000 231 195 176 0
36.080000 10.560000 6.380000 213 207 202 0
36.300000 10.560000 7.590000 216 210 205 0
36.520000 10.560000 8.360000 216 212 206 0
36.740000 10.560000 8.360000 217 213 207 0
36.960000 10.560000 9.240000 219 215 211 0
37.180000 10.560000 9.240000 217 213 209 0
0.000000 10.780000 5.720000 139 117 88 0
0.220000 10.780000 5.060000 141 119 90 0
0.440000 10.780000 5.060000 140 118 89 0
0.660000 10.780000 5.060000 140 118 89 0
0.880000 10.780000 5.720000 142 120 91 0
1.100000 10.780000 6.380000 141 119 90 0
1.320000 10.780000 6.380000 141 121 91 0
1.540000 10.780000 6.490000 142 122 92 0
1.760000 10.780000 6.490000 143 121 92 0
1.980000 10.780000 5.720000 142 120 91 0
2.200000 10.780000 5.720000 141 119 90 0
2.420000 10.780000 5.060000 141 119 90 0
2.640000 10.780000 5.060000 143 119 90 0
2.860000 10.780000 5.060000 143 119 90 0
3.080000 10.780000 5.720000 142 120 91 0
3.300000 10.780000 5.720000 142 120 91 0
3.520000 10.780000 5.720000 143 121 92 0
3.740000 10.780000 5.720000 143 121 92 0
3.960000 10.780000 6.490000 143 121 92 0
4.180000 10.780000 6.490000 142 120 91 0
4.400000 10.780000 7.260000 143 119 90 0
4.620000 10.780000 7.260000 143 119 90 0
4.840000 10.780000 7.920000 142 118 89 0
5.060000 10.780000 8.580000 141 117 88 0
5.280000 10.780000 9.240000 142 118 89 0
5.500000 10.780000 9.130000 142 118 89 0
5.720000 10.780000 8.470000 143 119 90 0
5.940000 10.780000 8.360000 143 119 90 0
6.160000 10.780000 7.700000 143 118 91 0
6.380000 10.780000 7.040000 144 119 92 0
6.600000 10.780000 7.040000 145 123 97 0
6.820000 10.780000 7.040000 145 123 97 0
7.040000 10.780000 7.700000 147 125 97 0
7.260000 10.780000 7.700000 148 126 98 0
7.480000 10.780000 7.040000 148 127 101 0
7.700000 10.780000 5.610000 147 126 100 0
7.920000 10.780000 4.950000 147 125 99 0
8.140000 10.780000 4.950000 146 124 98 0
8.360000 10.780000 4.950000 147 122 95 0
8.580000 10.780000 5.610000 147 122 95 0
8.800000 10.780000 5.720000 148 122 94 0
9.020000 10.780000 5.720000 148 122 94 0
9.240000 10.780000 5.720000 150 122 95 0
9.460000 10.780000 5.830000 153 125 98 0
9.680000 10.780000 5.170000 172 131 98 0
9.900000 10.780000 4.510000 185 144 111 0
10.120000 10.780000 4.510000 200 160 120 0
10.340000 10.780000 4.510000 208 168 128 0
10.560000 10.780000 4.510000 217 179 138 0
10.780000 10.780000 5.280000 219 181 140 0
11.000000 10.780000 5.280000 219 183 144 0
11.220000 10.780000 5.280000 220 184 145 0
11.440000 10.780000 6.050000 222 183 145 0
11.660000 10.780000 6.160000 222 183 145 0
11.880000 10.780000 6.160000 223 184 146 0
12.100000 10.780000 6.160000 223 184 146 0
12.320000 10.780000 6.050000 223 184 146 0
12.540000 10.780000 7.150000 223 184 146 0
12.760000 10.780000 7.700000 220 184 147 0
12.980000 10.780000 7.700000 221 185 148 0
13.200000 10.780000 7.700000 224 185 149 0
13.420000 10.780000 7.810000 225 186 150 0
13.640000 10.780000 7.810000 225 186 152 0
13.860000 10.780000 7.810000 226 187 153 0
14.080000 10.780000 7.920000 227 188 152 0
14.300000 10.780000 7.920000 227 188 152 0
14.520000 10.780000 8.690000 226 190 153 0
14.740000 10.780000 8.690000 225 189 152 0
14.960000 10.780000 8.800000 228 189 153 0
15.180000 10.780000 8.800000 229 190 154 0
15.400000 10.780000 8.800000 228 189 155 0
15.620000 10.780000 8.910000 229 190 156 0
15.840000 10.780000 8.910000 229 190 156 0
16.060000 10.780000 8.910000 230 191 157 0
16.280000 10.780000 10.120000 230 191 157 0
16.500000 10.780000 10.560000 230 191 157 0
16.720000 10.780000 11.110000 231 192 158 0
16.940000 10.780000 11.880000 231 192 158 0
17.160000 10.780000 11.880000 231 190 155 0
17.380000 10.780000 11.880000 230 189 154 0
17.600000 10.780000 11.880000 230 191 157 0
17.820000 10.780000 11.990000 230 191 157 0
18.040000 10.780000 12.650000 230 191 157 0
18.260000 10.780000 12.100000 230 191 157 0
18.480000 10.780000 12.100000 230 191 155 0
18.700000 10.780000 12.760000 230 191 155 0
18.920000 10.780000 12.870000 232 191 156 0
19.140000 10.780000 12.870000 232 191 156 0
19.360000 10.780000 12.980000 231 192 158 0
19.580000 10.780000 12.980000 232 193 159 0
19.800000 10.780000 12.980000 234 195 161 0
20.020000 10.780000 13.090000 233 194 160 0
20.240000 10.780000 13.090000 234 195 159 0
20.460000 10.780000 13.640000 233 194 158 0
20.680000 10.780000 14.740000 235 194 159 0
20.900000 10.780000 15.290000 234 193 158 0
21.120000 10.780000 15.290000 235 194 161 0
21.340000 10.780000 15.290000 234 193 160 0
21.560000 10.780000 15.290000 234 193 160 0
21.780000 10.780000 15.400000 234 193 160 0
22.000000 10.780000 15.400000 232 193 157 0
22.220000 10.780000 15.400000 232 193 157 0
22.440000 10.780000 15.510000 233 192 159 0
22.660000 10.780000 15.510000 233 192 159 0
22.880000 10.780000 15.510000 232 191 160 0
23.100000 10.780000 16.280000 233 192 161 0
23.320000 10.780000 16.280000 233 192 161 0
23.540000 10.780000 16.390000 235 194 163 0
23.760000 10.780000 16.390000 232 193 159 0
23.980000 10.780000 16.500000 233 194 160 0
24.200000 10.780000 16.500000 235 194 161 0
24.420000 10.780000 17.270000 235 194 161 0
24.640000 10.780000 17.160000 235 194 161 0
24.860000 10.780000 17.710000 235 194 161 0
25.080000 10.780000 18.150000 234 193 162 0
25.300000 10.780000 18.700000 234 193 162 0
25.520000 10.780000 18.700000 233 192 161 0
25.740000 10.780000 18.810000 233 192 161 0
25.960000 10.780000 18.810000 233 192 161 0
26.180000 10.780000 18.810000 233 192 161 0
26.400000 10.780000 18.920000 235 193 164 0
26.620000 10.780000 18.260000 234 192 163 0
26.840000 10.780000 18.920000 236 191 163 0
27.060000 10.780000 19.030000 234 189 161 0
27.280000 10.780000 19.800000 234 189 161 0
27.500000 10.780000 19.800000 233 188 160 0
27.720000 10.780000 19.910000 231 189 160 0
27.940000 10.780000 19.910000 231 189 160 0
28.160000 10.780000 19.910000 234 189 161 0
28.380000 10.780000 20.020000 232 187 159 0
28.600000 10.780000 20.020000 231 186 158 0
28.820000 10.780000 15.070000 230 185 157 0
29.040000 10.780000 10.560000 229 185 155 0
29.260000 10.780000 15.290000 229 185 155 0
29.480000 10.780000 15.400000 229 185 155 0
29.700000 10.780000 10.010000 228 184 154 0
29.920000 10.780000 10.120000 227 182 154 0
30.140000 10.780000 9.570000 230 185 157 0
30.360000 10.780000 15.180000 231 186 160 0
30.580000 10.780000 14.960000 232 187 161 0
30.800000 10.780000 5.060000 233 188 162 0
31.240000 10.780000 5.610000 231 189 162 0
31.460000 10.780000 10.450000 230 188 161 0
31.680000 10.780000 5.060000 231 189 162 0
31.900000 10.780000 0.220000 232 190 163 0
32.120000 10.780000 0.990000 232 189 165 0
32.340000 10.780000 0.990000 232 189 165 0
32.560000 10.780000 1.760000 231 188 164 0
32.780000 10.780000 1.760000 233 190 166 0
33.000000 10.780000 1.870000 233 190 166 0
33.220000 10.780000 1.870000 233 190 166 0
33.440000 10.780000 1.980000 233 190 166 0
33.660000 10.780000 1.980000 234 191 167 0
33.880000 10.780000 1.980000 234 191 167 0
34.100000 10.780000 1.980000 233 190 166 0
34.320000 10.780000 2.530000 232 189 165 0
34.540000 10.780000 3.630000 233 190 166 0
34.760000 10.780000 4.180000 233 190 166 0
34.980000 10.780000 4.290000 232 189 165 0
35.200000 10.780000 4.290000 233 190 166 0
35.420000 10.780000 4.400000 231 188 164 0
35.640000 10.780000 4.510000 227 191 170 0
35.860000 10.780000 5.060000 230 194 173 0
36.080000 10.780000 6.380000 213 207 202 0
36.300000 10.780000 7.590000 217 211 206 0
36.520000 10.780000 8.360000 216 212 206 0
36.740000 10.780000 8.360000 218 214 208 0
36.960000 10.780000 9.240000 217 213 207 0
37.180000 10.780000 9.240000 217 213 207 0
0.000000 11.000000 5.720000 139 117 88 0
0.220000 11.000000 5.720000 139 117 88 0
0.440000 11.000000 5.060000 140 118 89 0
0.660000 11.000000 5.060000 140 118 89 0
0.880000 11.000000 5.720000 141 119 90 0
1.100000 11.000000 5.720000 141 119 90 0
1.320000 11.000000 6.380000 143 123 93 0
1.540000 11.000000 6.490000 142 122 92 0
1.760000 11.000000 6.380000 143 121 92 0
1.980000 11.000000 5.720000 142 120 91 0
2.200000 11.000000 5.720000 141 119 90 0
2.420000 11.000000 5.060000 140 118 89 0
2.640000 11.000000 5.060000 142 118 89 0
2.860000 11.000000 5.060000 142 118 89 0
3.080000 11.000000 4.950000 141 119 90 0
3.300000 11.000000 5.720000 142 120 91 0
3.520000 11.000000 5.720000 143 121 92 0
3.740000 11.000000 5.720000 143 121 92 0
3.960000 11.000000 6.490000 142 120 91 0
4.180000 11.000000 6.490000 142 120 91 0
4.400000 11.000000 6.600000 144 120 91 0
4.620000 11.000000 7.260000 143 119 90 0
4.840000 11.000000 7.260000 142 118 89 0
5.060000 11.000000 8.580000 141 117 88 0
5.280000 11.000000 8.470000 143 119 90 0
5.500000 11.000000 9.130000 143 119 90 0
5.720000 11.000000 8.360000 144 120 91 0
5.940000 11.000000 8.360000 144 120 91 0
6.160000 11.000000 7.700000 143 118 91 0
6.380000 11.000000 7.700000 144 119 92 0
6.600000 11.000000 7.040000 144 122 96 0
6.820000 11.000000 7.040000 146 124 98 0
7.040000 11.000000 7.700000 146 124 96 0
7.260000 11.000000 8.360000 147 125 97 0
7.480000 11.000000 7.040000 147 126 100 0
7.700000 11.000000 5.610000 148 127 101 0
7.920000 11.000000 4.950000 147 125 99 0
8.140000 11.000000 4.950000 147 125 99 0
8.360000 11.000000 4.950000 149 124 97 0
8.580000 11.000000 5.610000 147 122 95 0
8.800000 11.000000 6.380000 148 122 94 0
9.020000 11.000000 5.720000 148 122 94 0
9.240000 11.000000 5.720000 149 121 94 0
9.460000 11.000000 5.830000 152 124 97 0
9.680000 11.000000 5.170000 171 130 97 0
9.900000 11.000000 4.510000 187 146 113 0
10.120000 11.000000 4.510000 200 160 120 0
10.340000 11.000000 4.510000 207 167 127 0
10.560000 11.000000 4.510000 216 178 137 0
10.780000 11.000000 5.280000 220 182 141 0
11.000000 11.000000 5.280000 219 183 144 0
11.220000 11.000000 5.280000 220 184 145 0
11.440000 11.000000 6.050000 223 184 146 0
11.660000 11.000000 6.160000 222 183 145 0
11.880000 11.000000 6.160000 223 184 146 0
12.100000 11.000000 6.160000 223 184 146 0
12.320000 11.000000 6.050000 222 183 145 0
12.540000 11.000000 7.150000 222 183 145 0
12.760000 11.000000 7.700000 221 185 148 0
12.980000 11.000000 7.700000 221 185 148 0
13.200000 11.000000 7.700000 224 185 149 0
13.420000 11.000000 7.810000 224 185 149 0
13.640000 11.000000 7.810000 227 188 154 0
13.860000 11.000000 7.810000 226 187 153 0
14.080000 11.000000 7.920000 227 188 152 0
