ply
format ascii 1.0
element vertex 1131
property float x
property float y
property float z
property uchar red
property uchar green
property uchar blue
property uchar alpha
end_header
34.320000 7.700000 1.870000 177 218 235 0
34.540000 7.700000 8.690000 172 220 235 0
34.760000 7.700000 10.120000 174 222 237 0
34.980000 7.700000 8.800000 175 222 237 0
35.200000 7.700000 13.640000 176 223 238 0
35.420000 7.700000 17.820000 174 225 237 0
35.640000 7.700000 14.960000 174 225 237 0
35.860000 7.700000 8.800000 173 226 237 0
36.080000 7.700000 3.960000 174 227 238 0
36.300000 7.700000 2.530000 171 232 238 0
36.520000 7.700000 2.530000 171 232 238 0
36.740000 7.700000 2.530000 172 233 239 0
36.960000 7.700000 2.530000 172 233 239 0
37.180000 7.700000 2.530000 173 237 241 0
0.000000 7.920000 17.270000 181 177 161 0
0.220000 7.920000 16.610000 183 176 161 0
0.440000 7.920000 17.160000 184 177 162 0
0.660000 7.920000 17.490000 181 179 161 0
0.880000 7.920000 18.040000 181 179 161 0
1.100000 7.920000 18.700000 182 178 161 0
1.320000 7.920000 18.810000 182 178 161 0
1.540000 7.920000 18.810000 183 179 163 0
1.760000 7.920000 18.810000 184 180 164 0
1.980000 7.920000 19.470000 184 180 164 0
2.200000 7.920000 19.580000 184 180 164 0
2.420000 7.920000 19.580000 184 182 165 0
2.640000 7.920000 19.580000 184 182 165 0
2.860000 7.920000 19.580000 186 182 166 0
3.080000 7.920000 19.690000 185 181 165 0
3.300000 7.920000 20.350000 186 182 166 0
3.520000 7.920000 20.350000 185 181 165 0
3.740000 7.920000 20.460000 185 181 165 0
3.960000 7.920000 20.460000 186 182 166 0
4.180000 7.920000 20.460000 185 183 166 0
4.400000 7.920000 20.460000 184 182 165 0
4.620000 7.920000 14.960000 189 182 167 0
4.840000 7.920000 4.730000 189 182 167 0
5.940000 7.920000 0.220000 185 182 168 0
6.160000 7.920000 1.430000 185 182 168 0
6.380000 7.920000 2.860000 187 183 169 0
6.600000 7.920000 1.540000 186 182 168 0
6.820000 7.920000 0.220000 185 181 167 0
7.040000 7.920000 5.170000 186 182 168 0
7.260000 7.920000 12.760000 185 182 170 0
7.480000 7.920000 15.620000 184 181 169 0
7.700000 7.920000 14.300000 184 184 171 0
7.920000 7.920000 7.370000 183 183 170 0
8.140000 7.920000 6.050000 185 180 169 0
8.360000 7.920000 13.640000 186 181 170 0
8.580000 7.920000 12.320000 185 182 170 0
8.800000 7.920000 2.750000 185 182 170 0
9.020000 7.920000 4.620000 183 183 170 0
9.240000 7.920000 10.560000 183 183 170 0
9.460000 7.920000 9.020000 182 183 172 0
9.680000 7.920000 7.700000 182 183 172 0
9.900000 7.920000 3.630000 185 182 172 0
10.120000 7.920000 0.220000 185 182 172 0
10.340000 7.920000 0.220000 182 183 172 0
10.560000 7.920000 0.220000 182 183 172 0
10.780000 7.920000 0.220000 181 182 172 0
11.000000 7.920000 0.990000 181 182 172 0
11.220000 7.920000 0.990000 182 183 173 0
11.440000 7.920000 0.990000 182 183 173 0
11.660000 7.920000 1.100000 183 182 173 0
11.880000 7.920000 1.100000 183 182 173 0
12.100000 7.920000 1.100000 183 183 176 0
12.320000 7.920000 1.870000 184 184 177 0
12.540000 7.920000 1.870000 183 185 177 0
12.760000 7.920000 1.870000 184 186 178 0
12.980000 7.920000 1.870000 182 186 180 0
13.200000 7.920000 1.980000 181 185 179 0
13.420000 7.920000 1.980000 182 186 180 0
13.640000 7.920000 1.980000 184 188 182 0
13.860000 7.920000 1.980000 182 188 183 0
14.080000 7.920000 2.090000 182 188 183 0
14.300000 7.920000 2.530000 184 188 184 0
14.520000 7.920000 2.970000 184 188 184 0
14.740000 7.920000 3.520000 184 190 187 0
14.960000 7.920000 4.180000 184 190 187 0
15.180000 7.920000 4.950000 182 193 192 0
15.400000 7.920000 5.610000 185 196 195 0
15.620000 7.920000 7.040000 190 198 196 0
15.840000 7.920000 7.810000 191 199 197 0
16.060000 7.920000 7.810000 190 199 199 0
16.280000 7.920000 7.810000 189 198 198 0
16.500000 7.920000 8.580000 186 199 200 0
16.720000 7.920000 8.580000 186 199 200 0
16.940000 7.920000 8.580000 189 200 201 0
17.160000 7.920000 8.580000 190 201 202 0
17.380000 7.920000 8.690000 191 200 200 0
17.600000 7.920000 8.690000 189 198 198 0
17.820000 7.920000 8.690000 185 198 199 0
18.040000 7.920000 9.460000 186 199 200 0
18.260000 7.920000 9.460000 184 199 201 0
18.480000 7.920000 9.460000 184 199 201 0
18.700000 7.920000 9.570000 184 197 198 0
18.920000 7.920000 8.910000 184 197 198 0
19.140000 7.920000 8.910000 182 197 199 0
19.360000 7.920000 8.910000 183 198 200 0
19.580000 7.920000 8.910000 183 198 200 0
19.800000 7.920000 8.800000 183 198 200 0
20.020000 7.920000 9.900000 182 197 199 0
20.240000 7.920000 10.450000 184 199 201 0
20.460000 7.920000 10.450000 185 198 201 0
20.680000 7.920000 9.790000 187 200 203 0
20.900000 7.920000 9.790000 185 200 202 0
21.120000 7.920000 9.790000 185 200 202 0
21.340000 7.920000 9.900000 185 200 202 0
21.560000 7.920000 9.900000 185 200 202 0
21.780000 7.920000 9.900000 186 201 203 0
22.000000 7.920000 10.010000 187 202 204 0
22.220000 7.920000 10.010000 188 201 204 0
22.440000 7.920000 10.010000 187 200 203 0
22.660000 7.920000 10.010000 186 200 204 0
22.880000 7.920000 10.010000 186 200 204 0
23.100000 7.920000 10.120000 187 202 204 0
23.320000 7.920000 10.120000 187 202 204 0
23.540000 7.920000 10.120000 189 202 205 0
23.760000 7.920000 10.230000 190 203 206 0
23.980000 7.920000 10.890000 190 203 206 0
24.200000 7.920000 10.890000 190 203 206 0
24.420000 7.920000 11.000000 187 202 204 0
24.640000 7.920000 11.000000 188 203 205 0
24.860000 7.920000 11.000000 187 202 204 0
25.080000 7.920000 11.550000 187 202 204 0
25.300000 7.920000 12.650000 189 202 205 0
25.520000 7.920000 13.200000 189 202 205 0
25.740000 7.920000 13.200000 188 203 205 0
25.960000 7.920000 13.200000 188 203 205 0
26.180000 7.920000 13.310000 189 204 206 0
26.400000 7.920000 13.310000 188 203 205 0
26.620000 7.920000 13.310000 188 203 205 0
26.840000 7.920000 14.080000 188 203 205 0
27.060000 7.920000 14.080000 189 202 205 0
27.280000 7.920000 14.080000 189 202 205 0
27.500000 7.920000 14.080000 187 202 204 0
27.720000 7.920000 14.190000 186 201 203 0
27.940000 7.920000 14.850000 187 202 204 0
28.160000 7.920000 14.850000 186 201 203 0
28.380000 7.920000 14.960000 186 200 204 0
28.600000 7.920000 14.960000 187 201 205 0
28.820000 7.920000 14.960000 186 200 204 0
29.040000 7.920000 14.960000 187 201 205 0
29.260000 7.920000 15.730000 186 201 203 0
29.480000 7.920000 15.730000 187 202 204 0
29.700000 7.920000 15.840000 186 200 204 0
29.920000 7.920000 15.840000 188 202 206 0
30.140000 7.920000 15.840000 187 201 205 0
30.360000 7.920000 16.390000 186 200 204 0
30.580000 7.920000 17.490000 184 201 204 0
30.800000 7.920000 18.040000 184 201 204 0
31.020000 7.920000 18.700000 186 203 206 0
31.240000 7.920000 18.810000 186 203 206 0
31.460000 7.920000 18.810000 185 203 208 0
31.680000 7.920000 19.470000 186 204 209 0
31.900000 7.920000 19.580000 186 203 206 0
32.120000 7.920000 20.240000 188 205 208 0
32.340000 7.920000 20.350000 184 204 208 0
32.560000 7.920000 20.350000 185 205 209 0
32.780000 7.920000 20.350000 185 205 209 0
33.000000 7.920000 20.350000 185 205 209 0
33.220000 7.920000 16.940000 185 207 215 0
33.440000 7.920000 7.260000 185 207 215 0
33.660000 7.920000 1.100000 187 209 218 0
34.320000 7.920000 1.100000 185 211 221 0
34.540000 7.920000 7.370000 185 214 225 0
34.760000 7.920000 11.440000 186 215 226 0
34.980000 7.920000 10.120000 183 214 229 0
35.200000 7.920000 10.890000 185 216 231 0
35.420000 7.920000 10.890000 183 218 233 0
35.640000 7.920000 12.210000 183 218 233 0
35.860000 7.920000 14.960000 179 220 237 0
36.080000 7.920000 11.440000 179 220 237 0
36.300000 7.920000 4.620000 181 219 237 0
36.520000 7.920000 2.530000 182 220 238 0
36.740000 7.920000 2.530000 181 224 238 0
36.960000 7.920000 2.530000 183 226 240 0
37.180000 7.920000 2.530000 179 228 240 0
0.000000 8.140000 17.270000 181 177 161 0
0.220000 8.140000 16.610000 183 176 161 0
0.440000 8.140000 17.050000 184 177 162 0
0.660000 8.140000 17.490000 181 179 161 0
0.880000 8.140000 18.040000 182 180 162 0
1.100000 8.140000 18.700000 183 179 162 0
1.320000 8.140000 18.810000 183 179 162 0
1.540000 8.140000 18.810000 183 179 163 0
1.760000 8.140000 18.810000 184 180 164 0
1.980000 8.140000 18.810000 184 180 164 0
2.200000 8.140000 19.580000 184 180 164 0
2.420000 8.140000 19.580000 183 181 164 0
2.640000 8.140000 19.580000 183 181 164 0
2.860000 8.140000 19.580000 185 181 165 0
3.080000 8.140000 19.690000 185 181 165 0
3.300000 8.140000 20.350000 185 181 165 0
3.520000 8.140000 20.350000 184 180 164 0
3.740000 8.140000 20.460000 185 181 165 0
3.960000 8.140000 20.460000 184 180 164 0
4.180000 8.140000 20.460000 183 181 164 0
4.400000 8.140000 20.460000 185 183 166 0
4.620000 8.140000 14.960000 188 181 166 0
4.840000 8.140000 4.730000 190 183 168 0
6.160000 8.140000 0.110000 183 180 166 0
6.380000 8.140000 0.110000 186 182 168 0
6.600000 8.140000 0.220000 185 181 167 0
6.820000 8.140000 0.220000 185 181 167 0
7.040000 8.140000 5.170000 185 181 167 0
7.260000 8.140000 12.760000 184 181 169 0
7.480000 8.140000 15.620000 183 180 168 0
7.700000 8.140000 16.280000 182 182 169 0
7.920000 8.140000 12.210000 181 181 168 0
8.140000 8.140000 8.140000 185 180 169 0
8.360000 8.140000 15.070000 184 179 168 0
8.580000 8.140000 15.070000 183 180 168 0
8.800000 8.140000 4.070000 184 181 169 0
9.020000 8.140000 4.620000 181 181 168 0
9.240000 8.140000 10.560000 182 182 169 0
9.460000 8.140000 10.450000 181 182 171 0
9.680000 8.140000 10.450000 182 183 172 0
9.900000 8.140000 4.950000 184 181 171 0
10.120000 8.140000 0.110000 184 181 171 0
10.340000 8.140000 0.220000 181 182 171 0
10.560000 8.140000 0.220000 181 182 171 0
10.780000 8.140000 0.220000 180 181 171 0
11.000000 8.140000 0.990000 180 181 171 0
11.220000 8.140000 0.990000 181 182 172 0
11.440000 8.140000 0.990000 181 182 172 0
11.660000 8.140000 1.100000 183 182 173 0
11.880000 8.140000 1.100000 182 181 172 0
12.100000 8.140000 1.100000 183 183 176 0
12.320000 8.140000 1.870000 183 183 176 0
12.540000 8.140000 1.870000 181 183 175 0
12.760000 8.140000 1.870000 180 182 174 0
12.980000 8.140000 1.870000 180 184 178 0
13.200000 8.140000 1.980000 180 184 178 0
13.420000 8.140000 1.980000 181 185 179 0
13.640000 8.140000 1.980000 182 186 180 0
13.860000 8.140000 1.980000 179 185 180 0
14.080000 8.140000 2.090000 179 185 180 0
14.300000 8.140000 2.530000 181 185 181 0
14.520000 8.140000 2.970000 182 186 182 0
14.740000 8.140000 3.520000 180 186 183 0
14.960000 8.140000 3.520000 180 186 183 0
15.180000 8.140000 4.290000 178 189 188 0
15.400000 8.140000 4.950000 183 194 193 0
15.620000 8.140000 6.380000 188 196 194 0
15.840000 8.140000 7.810000 191 199 197 0
16.060000 8.140000 7.810000 190 199 199 0
16.280000 8.140000 7.810000 190 199 199 0
16.500000 8.140000 7.810000 185 198 199 0
16.720000 8.140000 8.580000 185 198 199 0
16.940000 8.140000 8.580000 189 200 201 0
17.160000 8.140000 8.580000 188 199 200 0
17.380000 8.140000 8.690000 189 198 198 0
17.600000 8.140000 8.690000 188 197 197 0
17.820000 8.140000 8.690000 184 197 198 0
18.040000 8.140000 8.690000 184 197 198 0
18.260000 8.140000 9.460000 183 198 200 0
18.480000 8.140000 9.460000 182 197 199 0
18.700000 8.140000 9.570000 182 195 196 0
18.920000 8.140000 8.910000 181 194 195 0
19.140000 8.140000 8.910000 180 195 197 0
19.360000 8.140000 8.910000 179 194 196 0
19.580000 8.140000 8.910000 179 194 196 0
19.800000 8.140000 8.800000 182 197 199 0
20.020000 8.140000 9.900000 181 196 198 0
20.240000 8.140000 10.450000 181 196 198 0
20.460000 8.140000 9.790000 184 197 200 0
20.680000 8.140000 9.790000 186 199 202 0
20.900000 8.140000 9.790000 184 199 201 0
21.120000 8.140000 9.790000 182 197 199 0
21.340000 8.140000 9.900000 183 198 200 0
21.560000 8.140000 9.900000 184 199 201 0
21.780000 8.140000 9.900000 185 200 202 0
22.000000 8.140000 10.010000 184 199 201 0
22.220000 8.140000 9.240000 186 199 202 0
22.440000 8.140000 9.350000 186 199 202 0
22.660000 8.140000 10.010000 186 200 204 0
22.880000 8.140000 10.010000 185 199 203 0
23.100000 8.140000 10.120000 185 200 202 0
23.320000 8.140000 10.120000 186 201 203 0
23.540000 8.140000 10.120000 188 201 204 0
23.760000 8.140000 10.230000 189 202 205 0
23.980000 8.140000 10.890000 189 202 205 0
24.200000 8.140000 10.890000 188 201 204 0
24.420000 8.140000 11.000000 186 201 203 0
24.640000 8.140000 11.000000 186 201 203 0
24.860000 8.140000 11.660000 187 202 204 0
25.080000 8.140000 11.550000 186 201 203 0
25.300000 8.140000 12.650000 188 201 204 0
25.520000 8.140000 13.200000 189 202 205 0
25.740000 8.140000 13.200000 188 203 205 0
25.960000 8.140000 13.200000 188 203 205 0
26.180000 8.140000 13.310000 187 202 204 0
26.400000 8.140000 13.310000 187 202 204 0
26.620000 8.140000 13.970000 187 202 204 0
26.840000 8.140000 14.080000 188 203 205 0
27.060000 8.140000 14.080000 188 201 204 0
27.280000 8.140000 14.080000 188 201 204 0
27.500000 8.140000 14.080000 186 201 203 0
27.720000 8.140000 14.190000 186 201 203 0
27.940000 8.140000 14.850000 186 201 203 0
28.160000 8.140000 14.850000 185 200 202 0
28.380000 8.140000 14.960000 186 200 204 0
28.600000 8.140000 14.960000 186 200 204 0
28.820000 8.140000 14.960000 185 199 203 0
29.040000 8.140000 14.960000 185 199 203 0
29.260000 8.140000 15.070000 185 200 202 0
29.480000 8.140000 15.070000 186 201 203 0
29.700000 8.140000 15.070000 186 200 204 0
29.920000 8.140000 15.840000 187 201 205 0
30.140000 8.140000 15.840000 187 201 205 0
30.360000 8.140000 16.390000 186 200 204 0
30.580000 8.140000 17.490000 183 200 203 0
30.800000 8.140000 18.040000 183 200 203 0
31.020000 8.140000 18.040000 184 201 204 0
31.240000 8.140000 18.040000 185 202 205 0
31.460000 8.140000 18.810000 184 202 207 0
31.680000 8.140000 18.810000 185 203 208 0
31.900000 8.140000 19.580000 185 202 205 0
32.120000 8.140000 19.580000 186 203 206 0
32.340000 8.140000 20.350000 184 204 208 0
32.560000 8.140000 20.350000 183 203 207 0
32.780000 8.140000 20.350000 183 203 207 0
33.000000 8.140000 20.350000 183 203 207 0
33.220000 8.140000 15.510000 182 204 212 0
33.440000 8.140000 5.170000 183 205 213 0
34.540000 8.140000 3.190000 180 209 220 0
34.760000 8.140000 7.370000 181 210 221 0
34.980000 8.140000 7.370000 181 212 227 0
35.200000 8.140000 6.820000 182 213 228 0
35.420000 8.140000 4.730000 180 215 230 0
35.640000 8.140000 5.940000 181 216 231 0
35.860000 8.140000 13.530000 177 218 235 0
36.080000 8.140000 13.530000 179 220 237 0
36.300000 8.140000 5.940000 182 220 238 0
36.520000 8.140000 2.530000 181 219 237 0
36.740000 8.140000 2.530000 178 221 235 0
36.960000 8.140000 2.530000 179 222 236 0
37.180000 8.140000 2.530000 176 225 237 0
0.000000 8.360000 17.270000 180 176 159 0
0.220000 8.360000 16.610000 181 177 160 0
0.440000 8.360000 17.050000 181 177 160 0
0.660000 8.360000 17.490000 180 176 160 0
0.880000 8.360000 18.040000 182 178 162 0
1.100000 8.360000 18.700000 184 178 161 0
1.320000 8.360000 18.810000 185 179 162 0
1.540000 8.360000 18.810000 185 179 162 0
1.760000 8.360000 18.810000 185 179 162 0
1.980000 8.360000 18.810000 184 180 163 0
2.200000 8.360000 19.580000 182 178 161 0
2.420000 8.360000 19.580000 184 180 164 0
2.640000 8.360000 19.580000 184 180 164 0
2.860000 8.360000 19.580000 184 180 163 0
3.080000 8.360000 19.690000 185 181 164 0
3.300000 8.360000 20.350000 185 181 165 0
3.520000 8.360000 20.350000 185 181 165 0
3.740000 8.360000 20.460000 185 181 164 0
3.960000 8.360000 20.460000 185 181 164 0
4.180000 8.360000 20.460000 185 181 164 0
4.400000 8.360000 20.460000 186 182 165 0
4.620000 8.360000 14.960000 189 183 166 0
4.840000 8.360000 4.730000 189 183 166 0
6.160000 8.360000 0.220000 185 181 165 0
6.380000 8.360000 0.110000 186 182 166 0
6.600000 8.360000 0.220000 184 180 164 0
6.820000 8.360000 0.220000 185 181 165 0
7.040000 8.360000 5.830000 185 181 165 0
7.260000 8.360000 11.440000 183 179 163 0
7.480000 8.360000 12.870000 184 180 164 0
7.700000 8.360000 16.280000 183 181 164 0
7.920000 8.360000 14.960000 183 181 164 0
8.140000 8.360000 9.460000 183 180 166 0
8.360000 8.360000 15.070000 183 180 166 0
8.580000 8.360000 15.070000 183 180 166 0
8.800000 8.360000 4.070000 183 180 166 0
9.020000 8.360000 4.620000 182 180 163 0
9.240000 8.360000 10.560000 183 181 164 0
9.460000 8.360000 10.450000 184 181 167 0
9.680000 8.360000 10.450000 184 181 167 0
9.900000 8.360000 4.950000 185 182 168 0
10.120000 8.360000 0.110000 185 182 168 0
10.340000 8.360000 0.220000 181 181 168 0
10.560000 8.360000 0.220000 181 181 168 0
10.780000 8.360000 0.990000 181 181 168 0
11.000000 8.360000 0.990000 181 181 168 0
11.220000 8.360000 0.990000 181 181 168 0
11.440000 8.360000 0.990000 182 182 169 0
11.660000 8.360000 1.100000 183 183 170 0
11.880000 8.360000 1.100000 182 182 169 0
12.100000 8.360000 1.760000 182 183 170 0
12.320000 8.360000 1.870000 182 183 170 0
12.540000 8.360000 1.870000 181 182 169 0
12.760000 8.360000 1.870000 181 182 169 0
12.980000 8.360000 1.870000 182 183 172 0
13.200000 8.360000 1.980000 183 184 173 0
13.420000 8.360000 1.980000 183 182 172 0
13.640000 8.360000 1.980000 183 182 172 0
13.860000 8.360000 1.980000 181 183 173 0
14.080000 8.360000 2.090000 181 183 173 0
14.300000 8.360000 1.870000 182 184 174 0
14.520000 8.360000 2.970000 183 185 175 0
14.740000 8.360000 3.520000 183 185 179 0
14.960000 8.360000 3.520000 182 184 178 0
15.180000 8.360000 3.520000 181 185 181 0
15.400000 8.360000 4.950000 183 187 183 0
15.620000 8.360000 6.380000 187 195 192 0
15.840000 8.360000 7.040000 190 198 195 0
16.060000 8.360000 7.810000 192 200 198 0
16.280000 8.360000 7.810000 190 198 196 0
16.500000 8.360000 7.810000 187 198 195 0
16.720000 8.360000 7.920000 187 198 195 0
16.940000 8.360000 8.580000 188 198 194 0
17.160000 8.360000 8.580000 190 200 196 0
17.380000 8.360000 8.690000 188 199 196 0
17.600000 8.360000 8.690000 186 197 194 0
17.820000 8.360000 8.690000 184 197 200 0
18.040000 8.360000 8.690000 182 195 198 0
18.260000 8.360000 8.800000 177 194 197 0
18.480000 8.360000 8.800000 175 192 195 0
18.700000 8.360000 8.800000 174 191 194 0
18.920000 8.360000 8.910000 173 190 193 0
19.140000 8.360000 8.910000 173 192 194 0
19.360000 8.360000 8.910000 172 191 193 0
19.580000 8.360000 8.910000 176 190 194 0
19.800000 8.360000 8.800000 177 191 195 0
20.020000 8.360000 9.900000 175 194 196 0
20.240000 8.360000 9.680000 175 194 196 0
20.460000 8.360000 10.450000 175 196 197 0
20.680000 8.360000 10.450000 175 196 197 0
20.900000 8.360000 10.450000 174 195 196 0
21.120000 8.360000 10.560000 174 195 196 0
21.340000 8.360000 9.900000 180 195 197 0
21.560000 8.360000 9.900000 183 198 200 0
21.780000 8.360000 9.900000 181 198 201 0
22.000000 8.360000 9.240000 181 198 201 0
22.220000 8.360000 9.240000 180 199 201 0
22.440000 8.360000 9.350000 180 199 201 0
22.660000 8.360000 9.350000 181 200 202 0
22.880000 8.360000 9.350000 181 200 202 0
23.100000 8.360000 9.350000 185 200 202 0
23.320000 8.360000 10.120000 186 201 203 0
23.540000 8.360000 10.120000 184 199 201 0
23.760000 8.360000 10.120000 185 200 202 0
23.980000 8.360000 10.890000 184 201 203 0
24.200000 8.360000 10.890000 183 200 202 0
24.420000 8.360000 11.000000 183 200 202 0
24.640000 8.360000 11.000000 183 200 202 0
24.860000 8.360000 11.660000 186 201 201 0
25.080000 8.360000 11.550000 185 200 200 0
25.300000 8.360000 12.650000 186 201 203 0
25.520000 8.360000 13.200000 186 201 203 0
25.740000 8.360000 13.200000 188 203 205 0
25.960000 8.360000 13.200000 186 201 203 0
26.180000 8.360000 13.310000 184 201 203 0
26.400000 8.360000 13.310000 183 200 202 0
26.620000 8.360000 13.970000 186 201 201 0
26.840000 8.360000 14.080000 186 201 201 0
27.060000 8.360000 14.080000 186 201 201 0
27.280000 8.360000 14.080000 186 201 201 0
27.500000 8.360000 14.080000 186 201 201 0
27.720000 8.360000 14.850000 186 201 201 0
27.940000 8.360000 14.850000 186 201 203 0
28.160000 8.360000 14.850000 185 200 202 0
28.380000 8.360000 14.960000 184 199 199 0
28.600000 8.360000 14.960000 185 200 200 0
28.820000 8.360000 14.960000 185 200 200 0
29.040000 8.360000 15.730000 184 199 199 0
29.260000 8.360000 15.730000 185 200 200 0
29.480000 8.360000 15.730000 185 200 200 0
29.700000 8.360000 15.840000 183 200 202 0
29.920000 8.360000 15.840000 184 201 203 0
30.140000 8.360000 15.840000 186 201 201 0
30.360000 8.360000 16.390000 185 200 200 0
30.580000 8.360000 17.490000 184 199 199 0
30.800000 8.360000 18.040000 184 199 199 0
31.020000 8.360000 18.040000 184 199 199 0
31.240000 8.360000 18.040000 186 201 201 0
31.460000 8.360000 18.150000 184 201 203 0
31.680000 8.360000 18.810000 184 201 203 0
31.900000 8.360000 18.810000 186 201 201 0
32.120000 8.360000 19.580000 186 201 201 0
32.340000 8.360000 20.350000 184 201 203 0
32.560000 8.360000 20.350000 185 202 204 0
32.780000 8.360000 20.350000 184 203 204 0
33.000000 8.360000 20.350000 184 203 204 0
33.220000 8.360000 16.280000 184 203 205 0
33.440000 8.360000 8.690000 185 204 206 0
33.660000 8.360000 3.850000 187 204 206 0
33.880000 8.360000 1.100000 187 204 206 0
34.540000 8.360000 1.210000 184 207 210 0
34.760000 8.360000 1.870000 185 208 211 0
34.980000 8.360000 1.870000 186 206 210 0
35.200000 8.360000 1.980000 188 208 212 0
35.420000 8.360000 1.100000 185 211 219 0
35.640000 8.360000 0.990000 186 212 220 0
35.860000 8.360000 7.260000 185 213 220 0
36.080000 8.360000 10.780000 186 214 221 0
36.300000 8.360000 5.940000 187 215 224 0
36.520000 8.360000 2.530000 186 214 223 0
36.740000 8.360000 2.530000 186 215 224 0
36.960000 8.360000 2.530000 186 215 224 0
37.180000 8.360000 2.530000 185 216 231 0
0.000000 8.580000 17.270000 179 175 158 0
0.220000 8.580000 16.610000 179 175 158 0
0.440000 8.580000 17.050000 181 177 160 0
0.660000 8.580000 17.490000 181 177 161 0
0.880000 8.580000 18.040000 181 177 161 0
1.100000 8.580000 18.700000 185 179 162 0
1.320000 8.580000 18.810000 185 179 162 0
1.540000 8.580000 18.810000 185 179 162 0
1.760000 8.580000 18.810000 185 179 162 0
1.980000 8.580000 18.810000 183 179 162 0
2.200000 8.580000 19.580000 183 179 162 0
2.420000 8.580000 19.580000 183 179 163 0
2.640000 8.580000 19.580000 183 179 163 0
2.860000 8.580000 19.580000 183 179 162 0
3.080000 8.580000 19.690000 183 179 162 0
3.300000 8.580000 20.350000 185 181 165 0
3.520000 8.580000 20.350000 185 181 165 0
3.740000 8.580000 20.460000 185 181 164 0
3.960000 8.580000 20.460000 185 181 164 0
4.180000 8.580000 20.460000 185 181 164 0
4.400000 8.580000 20.460000 186 182 165 0
4.620000 8.580000 14.960000 188 182 165 0
4.840000 8.580000 4.620000 189 183 166 0
6.160000 8.580000 0.220000 185 181 165 0
6.380000 8.580000 0.110000 185 181 165 0
6.600000 8.580000 0.220000 185 181 165 0
6.820000 8.580000 0.220000 184 180 164 0
7.040000 8.580000 5.830000 184 180 164 0
7.260000 8.580000 11.440000 184 180 164 0
7.480000 8.580000 12.870000 185 181 165 0
7.700000 8.580000 16.280000 183 181 164 0
7.920000 8.580000 14.960000 184 182 165 0
8.140000 8.580000 8.140000 184 181 167 0
8.360000 8.580000 12.320000 182 179 165 0
8.580000 8.580000 13.750000 182 179 165 0
8.800000 8.580000 4.070000 182 179 165 0
9.020000 8.580000 3.300000 182 180 163 0
9.240000 8.580000 7.810000 183 181 164 0
9.460000 8.580000 9.020000 183 180 166 0
9.680000 8.580000 10.450000 183 180 166 0
9.900000 8.580000 4.950000 184 181 167 0
10.120000 8.580000 0.110000 184 181 167 0
10.340000 8.580000 0.220000 182 182 169 0
10.560000 8.580000 0.220000 181 181 168 0
10.780000 8.580000 0.990000 180 180 167 0
11.000000 8.580000 0.990000 181 181 168 0
11.220000 8.580000 0.990000 181 181 168 0
11.440000 8.580000 0.990000 182 182 169 0
11.660000 8.580000 1.100000 182 182 169 0
11.880000 8.580000 1.100000 182 182 169 0
12.100000 8.580000 1.760000 181 182 169 0
12.320000 8.580000 1.870000 181 182 169 0
12.540000 8.580000 1.870000 181 182 169 0
12.760000 8.580000 1.870000 182 183 170 0
12.980000 8.580000 1.870000 182 183 172 0
13.200000 8.580000 1.980000 182 183 172 0
13.420000 8.580000 1.980000 183 182 172 0
13.640000 8.580000 1.980000 184 183 173 0
13.860000 8.580000 1.980000 182 184 174 0
14.080000 8.580000 2.090000 181 183 173 0
14.300000 8.580000 2.530000 182 184 174 0
14.520000 8.580000 2.970000 182 184 174 0
14.740000 8.580000 3.520000 182 184 178 0
14.960000 8.580000 3.520000 182 184 178 0
15.180000 8.580000 3.520000 181 185 181 0
15.400000 8.580000 4.290000 184 188 184 0
15.620000 8.580000 5.720000 188 196 193 0
15.840000 8.580000 7.040000 190 198 195 0
16.060000 8.580000 7.810000 190 198 196 0
16.280000 8.580000 7.810000 191 199 197 0
16.500000 8.580000 7.810000 189 200 197 0
16.720000 8.580000 7.920000 188 199 196 0
16.940000 8.580000 8.580000 189 199 195 0
17.160000 8.580000 8.580000 188 198 194 0
17.380000 8.580000 8.690000 187 198 195 0
17.600000 8.580000 8.690000 187 198 195 0
17.820000 8.580000 8.690000 183 196 199 0
18.040000 8.580000 8.690000 180 193 196 0
18.260000 8.580000 8.800000 172 189 192 0
18.480000 8.580000 8.800000 170 187 190 0
18.700000 8.580000 8.800000 167 184 187 0
18.920000 8.580000 8.910000 167 184 187 0
19.140000 8.580000 8.910000 167 186 188 0
19.360000 8.580000 8.910000 167 186 188 0
19.580000 8.580000 8.250000 167 181 185 0
19.800000 8.580000 8.800000 170 184 188 0
20.020000 8.580000 9.900000 168 187 189 0
20.240000 8.580000 10.450000 170 189 191 0
20.460000 8.580000 10.450000 168 189 190 0
20.680000 8.580000 10.450000 172 193 194 0
20.900000 8.580000 10.450000 172 193 194 0
21.120000 8.580000 10.560000 172 193 194 0
21.340000 8.580000 9.900000 176 191 193 0
21.560000 8.580000 9.900000 180 195 197 0
21.780000 8.580000 9.900000 178 195 198 0
22.000000 8.580000 9.240000 178 195 198 0
22.220000 8.580000 9.240000 177 196 198 0
22.440000 8.580000 9.350000 178 197 199 0
22.660000 8.580000 9.350000 177 196 198 0
22.880000 8.580000 9.350000 180 199 201 0
23.100000 8.580000 9.350000 185 200 202 0
23.320000 8.580000 9.460000 183 198 200 0
23.540000 8.580000 10.120000 183 198 200 0
23.760000 8.580000 10.120000 183 198 200 0
23.980000 8.580000 10.230000 182 199 201 0
24.200000 8.580000 10.890000 181 198 200 0
24.420000 8.580000 11.000000 182 199 201 0
24.640000 8.580000 11.000000 183 200 202 0
24.860000 8.580000 11.000000 184 199 199 0
25.080000 8.580000 11.550000 184 199 199 0
25.300000 8.580000 12.650000 185 200 202 0
25.520000 8.580000 13.200000 185 200 202 0
25.740000 8.580000 13.200000 185 200 202 0
25.960000 8.580000 13.200000 185 200 202 0
26.180000 8.580000 13.200000 183 200 202 0
26.400000 8.580000 13.970000 183 200 202 0
26.620000 8.580000 13.970000 184 199 199 0
26.840000 8.580000 14.080000 186 201 201 0
27.060000 8.580000 14.080000 186 201 201 0
27.280000 8.580000 14.080000 185 200 200 0
27.500000 8.580000 14.850000 185 200 200 0
27.720000 8.580000 14.850000 185 200 200 0
27.940000 8.580000 14.850000 184 199 201 0
28.160000 8.580000 14.850000 184 199 201 0
28.380000 8.580000 14.960000 184 199 199 0
28.600000 8.580000 14.960000 184 199 199 0
28.820000 8.580000 15.620000 183 198 198 0
29.040000 8.580000 15.730000 184 199 199 0
29.260000 8.580000 15.730000 184 199 199 0
29.480000 8.580000 15.730000 185 200 200 0
29.700000 8.580000 15.840000 182 199 201 0
29.920000 8.580000 15.840000 182 199 201 0
30.140000 8.580000 15.840000 184 199 199 0
30.360000 8.580000 16.390000 184 199 199 0
30.580000 8.580000 17.490000 184 199 199 0
30.800000 8.580000 18.040000 183 198 198 0
31.020000 8.580000 18.040000 183 198 198 0
31.240000 8.580000 18.040000 184 199 199 0
31.460000 8.580000 18.150000 182 199 201 0
31.680000 8.580000 18.810000 184 201 203 0
31.900000 8.580000 18.810000 186 201 201 0
32.120000 8.580000 19.580000 186 201 201 0
32.340000 8.580000 20.240000 184 201 203 0
32.560000 8.580000 20.350000 185 202 204 0
32.780000 8.580000 19.690000 183 202 203 0
33.000000 8.580000 19.690000 183 202 203 0
33.220000 8.580000 19.030000 183 202 204 0
33.440000 8.580000 16.280000 184 203 205 0
33.660000 8.580000 12.870000 186 203 205 0
33.880000 8.580000 5.940000 187 204 206 0
34.100000 8.580000 1.100000 186 205 206 0
34.540000 8.580000 0.550000 183 206 209 0
34.760000 8.580000 1.980000 183 206 209 0
34.980000 8.580000 1.320000 186 206 210 0
35.200000 8.580000 1.870000 186 206 210 0
35.420000 8.580000 1.650000 182 208 216 0
35.640000 8.580000 0.880000 183 209 217 0
35.860000 8.580000 5.060000 183 211 218 0
36.080000 8.580000 10.010000 185 213 220 0
36.300000 8.580000 5.830000 185 213 222 0
36.520000 8.580000 2.420000 184 212 221 0
36.740000 8.580000 2.530000 183 212 221 0
36.960000 8.580000 2.530000 183 212 221 0
37.180000 8.580000 2.530000 182 213 228 0
0.000000 8.800000 17.270000 177 175 157 0
0.220000 8.800000 16.610000 180 176 159 0
0.440000 8.800000 17.050000 181 177 160 0
0.660000 8.800000 17.490000 181 179 162 0
0.880000 8.800000 18.040000 182 180 163 0
1.100000 8.800000 18.700000 182 180 163 0
1.320000 8.800000 18.700000 182 180 163 0
1.540000 8.800000 18.810000 184 180 163 0
1.760000 8.800000 18.810000 183 179 162 0
1.980000 8.800000 18.810000 182 178 161 0
2.200000 8.800000 19.580000 183 179 162 0
2.420000 8.800000 19.580000 182 180 163 0
2.640000 8.800000 19.580000 182 180 163 0
2.860000 8.800000 19.580000 182 180 163 0
3.080000 8.800000 19.690000 184 182 165 0
3.300000 8.800000 20.350000 185 181 164 0
3.520000 8.800000 20.350000 184 180 163 0
3.740000 8.800000 20.460000 183 179 163 0
3.960000 8.800000 20.460000 184 180 164 0
4.180000 8.800000 20.460000 184 182 165 0
4.400000 8.800000 20.460000 184 182 165 0
4.620000 8.800000 14.960000 186 182 166 0
4.840000 8.800000 4.620000 185 181 165 0
6.160000 8.800000 0.220000 183 181 164 0
6.380000 8.800000 0.110000 185 181 165 0
6.600000 8.800000 0.220000 185 181 165 0
6.820000 8.800000 0.220000 185 181 164 0
7.040000 8.800000 5.830000 185 181 164 0
7.260000 8.800000 12.760000 182 180 162 0
7.480000 8.800000 15.620000 183 181 163 0
7.700000 8.800000 17.710000 182 180 162 0
7.920000 8.800000 14.960000 183 181 163 0
8.140000 8.800000 6.050000 185 181 165 0
8.360000 8.800000 6.820000 184 180 164 0
8.580000 8.800000 11.000000 183 181 164 0
8.800000 8.800000 4.070000 183 181 164 0
9.020000 8.800000 0.550000 182 180 163 0
9.240000 8.800000 2.310000 183 181 164 0
9.460000 8.800000 6.270000 183 181 164 0
9.680000 8.800000 10.450000 183 181 164 0
9.900000 8.800000 4.950000 184 180 164 0
10.120000 8.800000 0.110000 184 180 164 0
10.340000 8.800000 0.220000 182 180 163 0
10.560000 8.800000 0.220000 183 181 164 0
10.780000 8.800000 0.220000 181 181 166 0
11.000000 8.800000 0.990000 180 180 165 0
11.220000 8.800000 0.990000 181 181 166 0
11.440000 8.800000 0.990000 181 181 166 0
11.660000 8.800000 1.100000 181 181 168 0
11.880000 8.800000 1.100000 182 182 169 0
12.100000 8.800000 1.760000 183 183 166 0
12.320000 8.800000 1.870000 182 182 165 0
12.540000 8.800000 1.870000 181 181 166 0
12.760000 8.800000 1.870000 182 182 167 0
12.980000 8.800000 1.870000 183 183 170 0
13.200000 8.800000 1.980000 182 182 169 0
13.420000 8.800000 1.980000 181 182 171 0
13.640000 8.800000 1.980000 182 183 172 0
13.860000 8.800000 1.980000 182 183 172 0
14.080000 8.800000 2.090000 182 183 172 0
14.300000 8.800000 2.530000 182 184 176 0
14.520000 8.800000 2.970000 182 184 176 0
14.740000 8.800000 3.520000 182 185 173 0
14.960000 8.800000 3.520000 182 185 173 0
15.180000 8.800000 3.520000 181 185 179 0
15.400000 8.800000 4.290000 183 187 181 0
15.620000 8.800000 5.720000 183 193 190 0
15.840000 8.800000 7.040000 188 198 195 0
16.060000 8.800000 7.810000 189 200 199 0
16.280000 8.800000 7.810000 189 200 199 0
16.500000 8.800000 7.810000 189 198 198 0
16.720000 8.800000 7.920000 188 197 197 0
16.940000 8.800000 7.920000 188 198 195 0
17.160000 8.800000 8.580000 188 198 195 0
17.380000 8.800000 8.690000 187 197 194 0
17.600000 8.800000 8.690000 186 196 193 0
17.820000 8.800000 8.690000 183 194 191 0
18.040000 8.800000 8.690000 180 191 188 0
18.260000 8.800000 8.800000 169 184 182 0
18.480000 8.800000 8.800000 167 182 180 0
18.700000 8.800000 8.800000 162 177 177 0
18.920000 8.800000 8.910000 160 175 175 0
19.140000 8.800000 8.910000 162 175 176 0
19.360000 8.800000 8.910000 163 176 177 0
19.580000 8.800000 8.910000 162 180 179 0
19.800000 8.800000 8.690000 161 179 178 0
20.020000 8.800000 9.790000 162 179 181 0
20.240000 8.800000 10.450000 163 180 182 0
20.460000 8.800000 10.450000 162 181 183 0
20.680000 8.800000 10.450000 163 182 184 0
20.900000 8.800000 10.560000 167 186 187 0
21.120000 8.800000 10.560000 167 186 187 0
21.340000 8.800000 9.900000 167 186 187 0
21.560000 8.800000 9.900000 169 188 189 0
21.780000 8.800000 9.240000 170 189 190 0
22.000000 8.800000 9.240000 169 188 189 0
22.220000 8.800000 9.240000 169 190 191 0
22.440000 8.800000 9.350000 171 192 193 0
22.660000 8.800000 9.350000 177 194 197 0
22.880000 8.800000 8.690000 175 192 195 0
23.100000 8.800000 8.690000 177 194 197 0
23.320000 8.800000 9.460000 178 195 198 0
23.540000 8.800000 9.460000 177 196 198 0
23.760000 8.800000 10.230000 178 197 199 0
23.980000 8.800000 10.230000 179 197 196 0
24.200000 8.800000 10.230000 181 199 198 0
24.420000 8.800000 11.000000 181 198 200 0
24.640000 8.800000 11.000000 181 198 200 0
24.860000 8.800000 11.000000 184 199 201 0
25.080000 8.800000 11.550000 184 199 201 0
25.300000 8.800000 11.880000 184 199 201 0
25.520000 8.800000 12.430000 183 198 200 0
25.740000 8.800000 13.200000 184 199 199 0
25.960000 8.800000 13.200000 185 200 200 0
26.180000 8.800000 13.200000 182 199 201 0
26.400000 8.800000 13.310000 180 197 199 0
26.620000 8.800000 13.970000 184 199 199 0
26.840000 8.800000 14.080000 184 199 199 0
27.060000 8.800000 14.080000 184 199 199 0
27.280000 8.800000 14.080000 184 199 199 0
27.500000 8.800000 14.850000 184 199 199 0
27.720000 8.800000 14.850000 183 198 198 0
27.940000 8.800000 14.850000 183 198 198 0
28.160000 8.800000 14.850000 182 197 197 0
28.380000 8.800000 14.960000 184 197 198 0
28.600000 8.800000 14.960000 183 196 197 0
28.820000 8.800000 15.620000 182 197 197 0
29.040000 8.800000 15.730000 182 197 197 0
29.260000 8.800000 15.730000 183 198 198 0
29.480000 8.800000 15.730000 183 198 198 0
29.700000 8.800000 16.500000 183 198 196 0
29.920000 8.800000 16.500000 183 198 196 0
30.140000 8.800000 16.500000 183 198 198 0
30.360000 8.800000 16.390000 183 198 198 0
30.580000 8.800000 17.490000 183 198 196 0
30.800000 8.800000 18.040000 183 198 196 0
31.020000 8.800000 18.040000 182 197 197 0
31.240000 8.800000 18.040000 183 198 198 0
31.460000 8.800000 18.810000 185 200 198 0
31.680000 8.800000 18.810000 186 201 199 0
31.900000 8.800000 18.810000 185 200 200 0
32.120000 8.800000 19.580000 185 200 200 0
32.340000 8.800000 19.580000 185 200 200 0
32.560000 8.800000 20.350000 185 200 200 0
32.780000 8.800000 19.690000 183 200 202 0
33.000000 8.800000 19.690000 183 200 202 0
33.220000 8.800000 19.690000 182 200 199 0
33.440000 8.800000 20.460000 184 202 201 0
33.660000 8.800000 19.030000 185 202 204 0
33.880000 8.800000 13.530000 186 203 205 0
34.100000 8.800000 7.370000 186 204 203 0
34.320000 8.800000 4.620000 186 204 203 0
34.540000 8.800000 7.480000 185 204 205 0
34.760000 8.800000 9.570000 185 204 205 0
34.980000 8.800000 9.570000 187 204 206 0
35.200000 8.800000 8.800000 187 204 206 0
35.420000 8.800000 4.290000 186 205 207 0
35.640000 8.800000 0.770000 187 206 208 0
35.860000 8.800000 5.720000 186 207 208 0
36.080000 8.800000 10.560000 189 210 211 0
36.300000 8.800000 6.490000 189 209 213 0
36.520000 8.800000 2.420000 187 207 211 0
36.740000 8.800000 2.530000 186 209 212 0
36.960000 8.800000 2.530000 186 209 212 0
37.180000 8.800000 3.190000 186 210 215 0
0.000000 9.020000 17.270000 178 176 158 0
0.220000 9.020000 16.500000 178 174 157 0
0.440000 9.020000 17.050000 180 176 159 0
0.660000 9.020000 17.490000 181 179 162 0
0.880000 9.020000 18.040000 182 180 163 0
1.100000 9.020000 18.700000 181 179 162 0
1.320000 9.020000 18.700000 181 179 162 0
1.540000 9.020000 18.810000 183 179 162 0
1.760000 9.020000 18.810000 182 178 161 0
1.980000 9.020000 18.810000 183 179 162 0
2.200000 9.020000 19.580000 181 177 160 0
2.420000 9.020000 19.580000 181 179 162 0
2.640000 9.020000 19.580000 182 180 163 0
2.860000 9.020000 19.580000 182 180 163 0
3.080000 9.020000 19.690000 183 181 164 0
3.300000 9.020000 20.350000 184 180 163 0
3.520000 9.020000 20.350000 183 179 162 0
3.740000 9.020000 20.460000 182 178 162 0
3.960000 9.020000 20.460000 184 180 164 0
4.180000 9.020000 20.460000 182 180 163 0
4.400000 9.020000 20.460000 183 181 164 0
4.620000 9.020000 14.960000 184 180 164 0
4.840000 9.020000 4.620000 184 180 164 0
6.160000 9.020000 0.220000 183 181 164 0
6.380000 9.020000 0.110000 184 180 164 0
6.600000 9.020000 0.220000 184 180 164 0
6.820000 9.020000 0.220000 184 180 163 0
7.040000 9.020000 5.830000 183 179 162 0
7.260000 9.020000 11.440000 182 180 162 0
7.480000 9.020000 12.870000 184 182 164 0
7.700000 9.020000 16.280000 183 181 163 0
7.920000 9.020000 14.960000 182 180 162 0
8.140000 9.020000 4.620000 183 179 163 0
8.360000 9.020000 4.730000 184 180 164 0
8.580000 9.020000 9.570000 183 181 164 0
8.800000 9.020000 4.070000 182 180 163 0
9.460000 9.020000 4.840000 182 180 163 0
9.680000 9.020000 10.450000 182 180 163 0
9.900000 9.020000 4.950000 184 180 164 0
10.120000 9.020000 0.110000 183 179 163 0
10.340000 9.020000 0.220000 182 180 163 0
10.560000 9.020000 0.220000 182 180 163 0
10.780000 9.020000 0.220000 180 180 165 0
11.000000 9.020000 0.990000 181 181 166 0
11.220000 9.020000 0.990000 181 181 166 0
11.440000 9.020000 0.990000 180 180 165 0
11.660000 9.020000 1.100000 181 181 168 0
11.880000 9.020000 1.100000 180 180 167 0
12.100000 9.020000 1.100000 182 182 165 0
12.320000 9.020000 1.870000 181 181 164 0
12.540000 9.020000 1.870000 181 181 166 0
12.760000 9.020000 1.870000 181 181 166 0
12.980000 9.020000 1.870000 181 181 168 0
13.200000 9.020000 1.980000 181 181 168 0
13.420000 9.020000 1.980000 180 181 170 0
13.640000 9.020000 1.980000 181 182 171 0
13.860000 9.020000 1.980000 182 183 172 0
14.080000 9.020000 2.090000 183 184 173 0
14.300000 9.020000 2.640000 181 183 175 0
14.520000 9.020000 3.630000 180 182 174 0
14.740000 9.020000 3.520000 181 184 172 0
14.960000 9.020000 3.520000 181 184 172 0
15.180000 9.020000 3.520000 180 184 178 0
15.400000 9.020000 4.290000 182 186 180 0
15.620000 9.020000 5.720000 183 193 190 0
15.840000 9.020000 7.040000 188 198 195 0
16.060000 9.020000 7.810000 188 199 198 0
16.280000 9.020000 7.810000 189 200 199 0
16.500000 9.020000 7.810000 189 198 198 0
16.720000 9.020000 7.920000 189 198 198 0
16.940000 9.020000 7.920000 187 197 194 0
17.160000 9.020000 8.580000 187 197 194 0
17.380000 9.020000 8.690000 186 196 193 0
17.600000 9.020000 8.690000 184 194 191 0
17.820000 9.020000 8.690000 182 193 190 0
18.040000 9.020000 8.690000 177 188 185 0
18.260000 9.020000 8.800000 168 183 181 0
18.480000 9.020000 8.800000 162 177 175 0
18.700000 9.020000 8.800000 159 174 174 0
18.920000 9.020000 8.910000 159 174 174 0
19.140000 9.020000 8.910000 158 171 172 0
19.360000 9.020000 8.910000 159 172 173 0
19.580000 9.020000 8.800000 158 176 175 0
19.800000 9.020000 9.240000 157 175 174 0
20.020000 9.020000 9.790000 157 174 176 0
20.240000 9.020000 10.450000 157 174 176 0
20.460000 9.020000 10.450000 157 176 178 0
20.680000 9.020000 10.450000 159 178 180 0
20.900000 9.020000 10.560000 158 177 178 0
21.120000 9.020000 10.560000 160 179 180 0
21.340000 9.020000 9.900000 161 180 181 0
21.560000 9.020000 9.900000 159 178 179 0
21.780000 9.020000 9.240000 163 182 183 0
22.000000 9.020000 9.240000 164 183 184 0
22.220000 9.020000 8.580000 166 187 188 0
22.440000 9.020000 8.580000 165 186 187 0
22.660000 9.020000 8.690000 169 186 189 0
22.880000 9.020000 8.690000 171 188 191 0
23.100000 9.020000 8.690000 172 189 192 0
23.320000 9.020000 8.690000 173 190 193 0
23.540000 9.020000 9.460000 174 193 195 0
23.760000 9.020000 9.460000 174 193 195 0
23.980000 9.020000 10.230000 176 194 193 0
24.200000 9.020000 10.230000 179 197 196 0
24.420000 9.020000 10.230000 179 196 198 0
24.640000 9.020000 10.340000 180 197 199 0
24.860000 9.020000 10.340000 182 197 199 0
25.080000 9.020000 10.890000 183 198 200 0
25.300000 9.020000 11.880000 182 197 199 0
25.520000 9.020000 12.430000 181 196 198 0
25.740000 9.020000 12.540000 181 196 196 0
25.960000 9.020000 12.540000 182 197 197 0
26.180000 9.020000 13.200000 180 197 199 0
26.400000 9.020000 13.310000 181 198 200 0
26.620000 9.020000 13.310000 182 197 197 0
26.840000 9.020000 14.080000 182 197 197 0
27.060000 9.020000 14.080000 182 197 197 0
27.280000 9.020000 14.080000 183 198 198 0
27.500000 9.020000 14.850000 182 197 197 0
27.720000 9.020000 14.850000 182 197 197 0
27.940000 9.020000 14.850000 182 197 197 0
28.160000 9.020000 14.850000 181 196 196 0
28.380000 9.020000 14.960000 182 195 196 0
28.600000 9.020000 14.960000 182 195 196 0
28.820000 9.020000 15.620000 180 195 195 0
29.040000 9.020000 15.730000 181 196 196 0
29.260000 9.020000 15.730000 181 196 196 0
29.480000 9.020000 16.500000 181 196 196 0
29.700000 9.020000 16.500000 182 197 195 0
29.920000 9.020000 16.500000 182 197 195 0
30.140000 9.020000 16.500000 182 197 197 0
30.360000 9.020000 17.050000 183 198 198 0
30.580000 9.020000 17.490000 182 197 195 0
30.800000 9.020000 18.040000 182 197 195 0
31.020000 9.020000 18.040000 181 196 196 0
31.240000 9.020000 18.700000 183 198 198 0
31.460000 9.020000 18.810000 182 197 195 0
31.680000 9.020000 18.810000 185 200 198 0
31.900000 9.020000 18.810000 184 199 199 0
32.120000 9.020000 19.580000 184 199 199 0
32.340000 9.020000 19.580000 184 199 199 0
32.560000 9.020000 19.580000 183 198 198 0
32.780000 9.020000 19.690000 182 199 201 0
33.000000 9.020000 19.690000 182 199 201 0
33.220000 9.020000 19.690000 182 200 199 0
33.440000 9.020000 19.690000 183 201 200 0
33.660000 9.020000 20.460000 185 202 204 0
33.880000 9.020000 19.140000 185 202 204 0
34.100000 9.020000 16.390000 185 203 202 0
34.320000 9.020000 13.640000 183 201 200 0
34.540000 9.020000 12.320000 184 203 204 0
34.760000 9.020000 12.320000 183 202 203 0
34.980000 9.020000 13.750000 185 202 204 0
35.200000 9.020000 12.870000 187 204 206 0
35.420000 9.020000 5.720000 186 205 207 0
35.640000 9.020000 0.770000 186 205 207 0
35.860000 9.020000 4.290000 186 207 208 0
36.080000 9.020000 8.470000 186 207 208 0
36.300000 9.020000 5.170000 187 207 211 0
36.520000 9.020000 2.420000 187 207 211 0
36.740000 9.020000 2.420000 184 207 210 0
36.960000 9.020000 3.190000 184 207 210 0
37.180000 9.020000 3.190000 183 207 212 0
0.000000 9.240000 17.270000 178 174 158 0
0.220000 9.240000 16.500000 179 175 158 0
0.440000 9.240000 17.050000 179 175 158 0
0.660000 9.240000 17.490000 183 177 160 0
0.880000 9.240000 18.700000 183 177 160 0
1.100000 9.240000 18.700000 182 178 161 0
1.320000 9.240000 18.700000 182 178 161 0
1.540000 9.240000 18.810000 184 178 161 0
1.760000 9.240000 18.810000 184 178 161 0
1.980000 9.240000 18.810000 183 179 162 0
2.200000 9.240000 19.580000 183 179 162 0
2.420000 9.240000 19.580000 183 179 163 0
2.640000 9.240000 19.580000 182 178 162 0
2.860000 9.240000 19.580000 183 179 163 0
3.080000 9.240000 20.350000 184 180 164 0
3.300000 9.240000 20.350000 184 180 164 0
3.520000 9.240000 20.350000 183 179 163 0
3.740000 9.240000 20.460000 183 179 162 0
3.960000 9.240000 20.460000 182 178 161 0
4.180000 9.240000 20.460000 185 179 162 0
4.400000 9.240000 19.140000 186 180 163 0
4.620000 9.240000 12.210000 186 180 163 0
4.840000 9.240000 3.300000 187 181 164 0
6.160000 9.240000 0.220000 185 179 162 0
6.380000 9.240000 0.110000 186 180 163 0
6.600000 9.240000 0.220000 185 179 162 0
6.820000 9.240000 0.220000 183 179 163 0
7.040000 9.240000 5.830000 182 178 162 0
7.260000 9.240000 10.010000 182 178 161 0
7.480000 9.240000 10.010000 181 177 160 0
7.700000 9.240000 15.620000 185 178 163 0
7.920000 9.240000 14.960000 185 178 163 0
8.140000 9.240000 4.620000 183 179 163 0
8.360000 9.240000 3.300000 183 179 163 0
8.580000 9.240000 6.820000 183 179 163 0
8.800000 9.240000 2.750000 182 178 162 0
9.460000 9.240000 4.840000 184 180 164 0
9.680000 9.240000 10.450000 184 180 164 0
9.900000 9.240000 4.950000 183 179 163 0
10.120000 9.240000 0.110000 183 179 163 0
10.340000 9.240000 0.220000 182 179 165 0
10.560000 9.240000 0.220000 182 179 165 0
10.780000 9.240000 0.220000 182 179 165 0
11.000000 9.240000 0.990000 181 178 164 0
11.220000 9.240000 0.990000 184 181 167 0
11.440000 9.240000 0.990000 182 179 165 0
11.660000 9.240000 1.100000 182 179 165 0
11.880000 9.240000 1.100000 182 179 165 0
12.100000 9.240000 1.100000 183 180 166 0
12.320000 9.240000 1.870000 182 179 165 0
12.540000 9.240000 1.870000 181 181 166 0
12.760000 9.240000 1.870000 181 181 166 0
12.980000 9.240000 1.870000 183 180 168 0
13.200000 9.240000 1.980000 183 180 168 0
13.420000 9.240000 1.980000 182 182 169 0
13.640000 9.240000 1.980000 181 181 168 0
13.860000 9.240000 1.980000 182 181 171 0
14.080000 9.240000 2.090000 181 180 170 0
14.300000 9.240000 2.640000 180 181 171 0
14.520000 9.240000 3.630000 180 181 171 0
14.740000 9.240000 3.520000 180 182 172 0
14.960000 9.240000 3.520000 180 182 172 0
15.180000 9.240000 3.520000 178 182 176 0
15.400000 9.240000 4.290000 179 183 177 0
15.620000 9.240000 5.720000 185 191 188 0
15.840000 9.240000 7.040000 189 195 192 0
16.060000 9.240000 7.810000 189 197 195 0
16.280000 9.240000 7.810000 191 199 197 0
16.500000 9.240000 7.810000 188 198 195 0
16.720000 9.240000 7.920000 188 198 195 0
16.940000 9.240000 7.920000 188 196 194 0
17.160000 9.240000 8.580000 188 196 194 0
17.380000 9.240000 8.690000 187 195 192 0
17.600000 9.240000 8.690000 184 192 189 0
17.820000 9.240000 8.690000 179 190 187 0
18.040000 9.240000 8.690000 176 187 184 0
18.260000 9.240000 8.800000 166 181 181 0
18.480000 9.240000 8.800000 160 175 175 0
18.700000 9.240000 8.800000 159 170 169 0
18.920000 9.240000 8.910000 158 169 168 0
19.140000 9.240000 8.910000 155 168 169 0
19.360000 9.240000 8.910000 156 169 170 0
19.580000 9.240000 8.800000 156 169 170 0
19.800000 9.240000 9.240000 156 169 170 0
20.020000 9.240000 10.450000 156 170 168 0
20.240000 9.240000 10.450000 156 170 168 0
20.460000 9.240000 10.450000 153 170 172 0
20.680000 9.240000 11.110000 154 171 173 0
20.900000 9.240000 11.220000 154 172 177 0
21.120000 9.240000 10.560000 155 173 178 0
21.340000 9.240000 9.900000 156 173 176 0
21.560000 9.240000 9.240000 157 174 177 0
21.780000 9.240000 9.240000 159 176 178 0
22.000000 9.240000 8.580000 160 177 179 0
22.220000 9.240000 8.580000 161 178 180 0
22.440000 9.240000 8.690000 162 179 181 0
22.660000 9.240000 8.690000 164 181 184 0
22.880000 9.240000 8.690000 164 181 184 0
23.100000 9.240000 8.030000 167 186 188 0
23.320000 9.240000 8.800000 168 187 189 0
23.540000 9.240000 8.800000 175 190 190 0
23.760000 9.240000 9.460000 175 190 190 0
23.980000 9.240000 9.570000 177 192 192 0
24.200000 9.240000 9.570000 178 193 193 0
24.420000 9.240000 9.570000 179 192 193 0
24.640000 9.240000 9.570000 181 194 195 0
24.860000 9.240000 9.680000 182 197 199 0
25.080000 9.240000 10.230000 182 197 199 0
25.300000 9.240000 11.220000 181 196 198 0
25.520000 9.240000 11.770000 181 196 198 0
25.740000 9.240000 11.770000 181 196 198 0
25.960000 9.240000 12.540000 182 197 199 0
26.180000 9.240000 12.540000 181 196 198 0
26.400000 9.240000 13.310000 181 196 198 0
26.620000 9.240000 13.310000 184 197 198 0
26.840000 9.240000 13.310000 183 196 197 0
27.060000 9.240000 14.080000 181 196 196 0
27.280000 9.240000 14.080000 182 197 197 0
27.500000 9.240000 14.080000 182 197 199 0
27.720000 9.240000 14.850000 182 197 199 0
27.940000 9.240000 14.850000 181 194 195 0
28.160000 9.240000 14.850000 181 194 195 0
28.380000 9.240000 14.960000 179 194 194 0
28.600000 9.240000 14.960000 180 195 195 0
28.820000 9.240000 15.620000 180 195 195 0
29.040000 9.240000 15.730000 179 194 194 0
29.260000 9.240000 15.730000 181 194 195 0
29.480000 9.240000 15.730000 181 194 195 0
29.700000 9.240000 16.500000 182 195 196 0
29.920000 9.240000 16.500000 182 195 196 0
30.140000 9.240000 16.500000 181 196 194 0
30.360000 9.240000 17.050000 181 196 194 0
30.580000 9.240000 17.490000 180 195 195 0
30.800000 9.240000 18.040000 181 196 196 0
31.020000 9.240000 18.040000 182 195 196 0
31.240000 9.240000 18.700000 182 195 196 0
31.460000 9.240000 18.810000 183 196 197 0
