ply
format ascii 1.0
element vertex 1108
property float x
property float y
property float z
property uchar red
property uchar green
property uchar blue
property uchar alpha
end_header
25.740000 31.460000 16.390000 199 183 145 0
25.960000 31.460000 16.390000 199 183 145 0
26.180000 31.460000 16.500000 199 183 145 0
26.400000 31.460000 16.500000 199 183 145 0
26.620000 31.460000 16.500000 199 183 144 0
26.840000 31.460000 16.500000 199 183 144 0
27.060000 31.460000 17.050000 198 181 146 0
27.280000 31.460000 17.490000 198 181 146 0
27.500000 31.460000 18.040000 199 182 147 0
27.720000 31.460000 18.700000 199 182 147 0
27.940000 31.460000 18.810000 199 183 144 0
28.160000 31.460000 18.810000 199 183 144 0
28.380000 31.460000 18.810000 199 182 147 0
28.600000 31.460000 18.920000 199 182 147 0
28.820000 31.460000 19.580000 199 182 147 0
29.040000 31.460000 18.920000 200 183 148 0
29.260000 31.460000 14.080000 199 182 149 0
29.480000 31.460000 7.260000 200 183 150 0
29.700000 31.460000 3.850000 199 184 150 0
29.920000 31.460000 1.100000 199 184 150 0
31.020000 31.460000 0.660000 193 174 136 0
31.240000 31.460000 0.660000 190 171 133 0
31.460000 31.460000 0.660000 191 171 133 0
31.680000 31.460000 1.320000 193 173 135 0
31.900000 31.460000 1.210000 194 175 138 0
32.120000 31.460000 0.440000 196 177 140 0
32.340000 31.460000 0.880000 195 179 140 0
32.560000 31.460000 1.430000 196 180 141 0
32.780000 31.460000 2.200000 197 181 142 0
33.000000 31.460000 7.810000 197 181 142 0
33.220000 31.460000 16.830000 199 181 140 0
33.440000 31.460000 15.620000 201 183 142 0
33.660000 31.460000 4.620000 199 182 147 0
34.980000 31.460000 0.220000 202 184 143 0
35.200000 31.460000 0.110000 202 184 143 0
35.420000 31.460000 5.610000 201 186 152 0
35.640000 31.460000 14.630000 200 185 151 0
35.860000 31.460000 13.310000 200 185 151 0
36.080000 31.460000 3.630000 199 184 150 0
36.300000 31.460000 0.220000 200 185 151 0
36.520000 31.460000 0.990000 200 185 151 0
36.740000 31.460000 0.990000 201 184 151 0
36.960000 31.460000 0.330000 201 184 151 0
37.180000 31.460000 0.330000 201 185 155 0
0.000000 31.680000 9.020000 198 181 146 0
0.220000 31.680000 9.460000 198 182 144 0
0.440000 31.680000 10.560000 198 182 144 0
0.660000 31.680000 10.560000 199 182 147 0
0.880000 31.680000 10.010000 199 182 147 0
1.100000 31.680000 14.850000 199 183 145 0
1.320000 31.680000 14.960000 199 183 145 0
1.540000 31.680000 4.620000 199 183 145 0
2.860000 31.680000 0.220000 197 180 145 0
3.300000 31.680000 5.610000 197 182 148 0
3.520000 31.680000 10.450000 197 182 148 0
3.740000 31.680000 5.720000 196 181 143 0
3.960000 31.680000 0.220000 197 182 144 0
4.180000 31.680000 0.220000 197 181 140 0
4.400000 31.680000 0.990000 197 181 140 0
4.620000 31.680000 0.990000 196 180 139 0
4.840000 31.680000 0.990000 197 181 140 0
5.060000 31.680000 0.990000 196 181 145 0
5.280000 31.680000 1.100000 197 182 146 0
5.500000 31.680000 1.760000 197 182 146 0
5.720000 31.680000 1.870000 197 182 146 0
5.940000 31.680000 1.870000 198 181 146 0
6.160000 31.680000 1.870000 198 181 146 0
6.380000 31.680000 1.870000 195 180 146 0
6.600000 31.680000 1.980000 196 181 147 0
6.820000 31.680000 1.980000 197 181 150 0
7.040000 31.680000 1.980000 197 181 150 0
7.260000 31.680000 1.980000 198 183 149 0
7.480000 31.680000 2.090000 198 183 149 0
7.700000 31.680000 2.640000 199 183 145 0
7.920000 31.680000 2.970000 198 182 144 0
8.140000 31.680000 3.520000 199 182 147 0
8.360000 31.680000 3.520000 198 181 146 0
8.580000 31.680000 3.520000 198 182 144 0
8.800000 31.680000 3.630000 198 182 144 0
9.020000 31.680000 3.630000 197 180 145 0
9.240000 31.680000 3.630000 194 177 142 0
9.460000 31.680000 3.630000 192 173 135 0
9.680000 31.680000 3.740000 188 169 131 0
9.900000 31.680000 3.740000 189 168 132 0
10.120000 31.680000 3.740000 190 169 133 0
10.340000 31.680000 3.740000 191 172 135 0
10.560000 31.680000 3.740000 192 173 136 0
10.780000 31.680000 3.740000 195 176 139 0
11.000000 31.680000 4.510000 195 176 139 0
11.220000 31.680000 4.510000 194 178 137 0
11.440000 31.680000 4.510000 196 180 139 0
11.660000 31.680000 4.510000 196 180 142 0
11.880000 31.680000 4.620000 197 181 143 0
12.100000 31.680000 5.280000 197 181 143 0
12.320000 31.680000 5.390000 198 182 144 0
12.540000 31.680000 5.390000 198 181 146 0
12.760000 31.680000 5.390000 199 182 147 0
12.980000 31.680000 5.390000 199 183 145 0
13.200000 31.680000 5.500000 199 183 145 0
13.420000 31.680000 5.500000 200 184 145 0
13.640000 31.680000 6.050000 199 183 144 0
13.860000 31.680000 6.380000 198 181 146 0
14.080000 31.680000 6.930000 199 182 147 0
14.300000 31.680000 7.700000 198 183 149 0
14.520000 31.680000 7.700000 198 183 149 0
14.740000 31.680000 7.700000 198 183 147 0
14.960000 31.680000 7.810000 198 183 147 0
15.180000 31.680000 7.810000 198 182 144 0
15.400000 31.680000 7.810000 198 182 144 0
15.620000 31.680000 7.920000 199 183 145 0
15.840000 31.680000 7.920000 198 182 144 0
16.060000 31.680000 7.920000 199 183 144 0
16.280000 31.680000 7.920000 198 182 143 0
16.500000 31.680000 8.030000 199 183 144 0
16.720000 31.680000 8.030000 199 183 144 0
16.940000 31.680000 8.030000 198 182 143 0
17.160000 31.680000 8.140000 198 182 143 0
17.380000 31.680000 8.140000 197 181 142 0
17.600000 31.680000 8.140000 197 181 142 0
17.820000 31.680000 8.250000 197 181 140 0
18.040000 31.680000 8.250000 196 180 139 0
18.260000 31.680000 8.800000 196 180 141 0
18.480000 31.680000 9.900000 195 179 140 0
18.700000 31.680000 10.450000 195 178 145 0
18.920000 31.680000 10.450000 193 176 143 0
19.140000 31.680000 10.450000 196 180 141 0
19.360000 31.680000 10.560000 197 181 142 0
19.580000 31.680000 10.560000 198 182 141 0
19.800000 31.680000 10.670000 198 182 141 0
20.020000 31.680000 11.330000 197 183 143 0
20.240000 31.680000 11.440000 197 183 143 0
20.460000 31.680000 11.440000 198 181 148 0
20.680000 31.680000 11.440000 199 182 149 0
20.900000 31.680000 11.550000 198 182 144 0
21.120000 31.680000 11.550000 198 182 144 0
21.340000 31.680000 11.660000 197 181 143 0
21.560000 31.680000 12.320000 199 183 145 0
21.780000 31.680000 12.320000 198 184 144 0
22.000000 31.680000 12.430000 197 183 143 0
22.220000 31.680000 12.980000 198 182 144 0
22.440000 31.680000 13.970000 198 182 144 0
22.660000 31.680000 14.520000 198 182 141 0
22.880000 31.680000 14.520000 199 183 142 0
23.100000 31.680000 14.630000 198 183 139 0
23.320000 31.680000 14.630000 198 183 139 0
23.540000 31.680000 15.400000 199 183 144 0
23.760000 31.680000 15.400000 198 182 143 0
23.980000 31.680000 15.400000 198 182 143 0
24.200000 31.680000 15.510000 198 182 143 0
24.420000 31.680000 15.510000 198 182 144 0
24.640000 31.680000 15.510000 198 182 144 0
24.860000 31.680000 15.510000 198 182 141 0
25.080000 31.680000 15.620000 198 182 141 0
25.300000 31.680000 16.280000 198 182 143 0
25.520000 31.680000 16.390000 198 182 143 0
25.740000 31.680000 16.390000 198 182 144 0
25.960000 31.680000 16.390000 199 183 145 0
26.180000 31.680000 16.500000 198 182 144 0
26.400000 31.680000 16.500000 198 182 144 0
26.620000 31.680000 16.500000 198 182 143 0
26.840000 31.680000 16.500000 199 183 144 0
27.060000 31.680000 17.050000 199 182 147 0
27.280000 31.680000 17.490000 198 181 146 0
27.500000 31.680000 18.040000 199 182 147 0
27.720000 31.680000 18.700000 199 182 147 0
27.940000 31.680000 18.810000 199 183 144 0
28.160000 31.680000 18.810000 198 182 143 0
28.380000 31.680000 18.810000 198 181 146 0
28.600000 31.680000 18.920000 200 183 148 0
28.820000 31.680000 19.580000 199 182 147 0
29.040000 31.680000 19.580000 198 181 146 0
29.260000 31.680000 18.920000 199 182 149 0
29.480000 31.680000 16.940000 200 183 150 0
29.700000 31.680000 12.870000 199 184 150 0
29.920000 31.680000 5.940000 198 183 149 0
30.140000 31.680000 1.100000 198 183 149 0
31.240000 31.680000 0.660000 193 174 136 0
31.460000 31.680000 0.660000 192 172 134 0
31.680000 31.680000 1.100000 192 172 134 0
31.900000 31.680000 1.650000 191 172 135 0
32.120000 31.680000 1.540000 193 174 137 0
32.340000 31.680000 1.430000 194 178 139 0
32.560000 31.680000 1.430000 196 180 141 0
32.780000 31.680000 0.880000 196 180 141 0
33.000000 31.680000 4.400000 197 181 142 0
33.220000 31.680000 11.330000 199 181 140 0
33.440000 31.680000 11.440000 200 182 141 0
33.660000 31.680000 3.850000 199 182 147 0
34.100000 31.680000 0.550000 198 183 149 0
34.320000 31.680000 1.320000 199 184 150 0
34.980000 31.680000 0.220000 202 184 143 0
35.200000 31.680000 0.110000 202 184 143 0
35.420000 31.680000 5.610000 200 185 151 0
35.640000 31.680000 16.060000 200 185 151 0
35.860000 31.680000 16.060000 201 186 152 0
36.080000 31.680000 5.060000 200 185 151 0
36.300000 31.680000 0.220000 199 184 150 0
36.520000 31.680000 0.990000 200 185 151 0
36.740000 31.680000 0.990000 201 184 151 0
36.960000 31.680000 0.330000 202 185 152 0
37.180000 31.680000 0.330000 201 185 155 0
0.000000 31.900000 9.020000 197 181 151 0
0.220000 31.900000 9.460000 197 181 153 0
0.440000 31.900000 10.560000 197 181 153 0
0.660000 31.900000 10.560000 198 180 153 0
0.880000 31.900000 10.010000 199 181 154 0
1.100000 31.900000 14.850000 200 184 154 0
1.320000 31.900000 14.960000 199 183 153 0
1.540000 31.900000 4.620000 198 182 152 0
2.860000 31.900000 0.220000 196 180 150 0
3.300000 31.900000 4.180000 197 181 153 0
3.520000 31.900000 8.360000 197 181 153 0
3.740000 31.900000 4.290000 197 181 153 0
3.960000 31.900000 0.220000 196 180 152 0
4.180000 31.900000 0.220000 197 181 153 0
4.400000 31.900000 0.990000 196 180 152 0
4.620000 31.900000 0.990000 196 180 150 0
4.840000 31.900000 0.990000 196 180 150 0
5.060000 31.900000 0.990000 195 179 149 0
5.280000 31.900000 1.100000 197 181 151 0
5.500000 31.900000 1.760000 197 181 151 0
5.720000 31.900000 1.870000 197 181 151 0
5.940000 31.900000 1.870000 197 181 151 0
6.160000 31.900000 1.870000 196 180 150 0
6.380000 31.900000 1.870000 197 181 151 0
6.600000 31.900000 1.980000 195 179 149 0
6.820000 31.900000 1.980000 196 180 152 0
7.040000 31.900000 1.980000 197 181 153 0
7.260000 31.900000 1.980000 198 182 154 0
7.480000 31.900000 2.090000 197 181 153 0
7.700000 31.900000 2.640000 198 182 154 0
7.920000 31.900000 3.630000 198 182 154 0
8.140000 31.900000 3.520000 198 182 152 0
8.360000 31.900000 3.520000 197 181 151 0
8.580000 31.900000 3.520000 198 182 152 0
8.800000 31.900000 3.630000 198 182 152 0
9.020000 31.900000 3.630000 197 181 153 0
9.240000 31.900000 3.630000 196 180 152 0
9.460000 31.900000 3.630000 195 179 149 0
9.680000 31.900000 4.400000 189 173 143 0
9.900000 31.900000 4.400000 187 169 140 0
10.120000 31.900000 4.400000 186 168 139 0
10.340000 31.900000 3.740000 189 169 137 0
10.560000 31.900000 3.740000 192 172 140 0
10.780000 31.900000 3.740000 191 174 143 0
11.000000 31.900000 4.510000 192 175 144 0
11.220000 31.900000 4.510000 194 176 147 0
11.440000 31.900000 4.510000 195 177 148 0
11.660000 31.900000 4.510000 196 178 151 0
11.880000 31.900000 5.280000 196 178 151 0
12.100000 31.900000 5.280000 197 181 150 0
12.320000 31.900000 5.390000 197 181 150 0
12.540000 31.900000 5.390000 198 182 152 0
12.760000 31.900000 5.390000 198 182 152 0
12.980000 31.900000 5.390000 198 182 152 0
13.200000 31.900000 5.500000 199 183 153 0
13.420000 31.900000 5.500000 200 182 153 0
13.640000 31.900000 6.050000 200 182 153 0
13.860000 31.900000 7.150000 198 182 152 0
14.080000 31.900000 7.700000 198 182 152 0
14.300000 31.900000 7.700000 198 182 152 0
14.520000 31.900000 7.700000 197 181 151 0
14.740000 31.900000 7.700000 198 182 152 0
14.960000 31.900000 7.810000 198 182 152 0
15.180000 31.900000 7.810000 199 182 151 0
15.400000 31.900000 7.810000 199 182 151 0
15.620000 31.900000 7.920000 197 181 151 0
15.840000 31.900000 7.920000 197 181 151 0
16.060000 31.900000 7.920000 198 182 154 0
16.280000 31.900000 7.920000 199 183 155 0
16.500000 31.900000 8.030000 198 182 152 0
16.720000 31.900000 8.030000 198 182 152 0
16.940000 31.900000 8.030000 197 181 151 0
17.160000 31.900000 8.140000 197 181 151 0
17.380000 31.900000 8.140000 196 180 152 0
17.600000 31.900000 8.140000 195 179 151 0
17.820000 31.900000 8.250000 196 178 149 0
18.040000 31.900000 8.250000 196 178 149 0
18.260000 31.900000 8.800000 194 178 147 0
18.480000 31.900000 9.900000 193 177 146 0
18.700000 31.900000 10.450000 193 177 149 0
18.920000 31.900000 10.450000 195 179 151 0
19.140000 31.900000 10.560000 197 181 153 0
19.360000 31.900000 10.560000 197 181 153 0
19.580000 31.900000 10.670000 197 181 153 0
19.800000 31.900000 10.670000 197 181 153 0
20.020000 31.900000 10.670000 196 180 152 0
20.240000 31.900000 10.780000 195 179 151 0
20.460000 31.900000 10.780000 197 181 153 0
20.680000 31.900000 11.550000 197 181 153 0
20.900000 31.900000 11.550000 197 181 153 0
21.120000 31.900000 11.550000 198 182 154 0
21.340000 31.900000 12.320000 197 181 153 0
21.560000 31.900000 12.320000 197 181 153 0
21.780000 31.900000 12.320000 197 181 151 0
22.000000 31.900000 13.090000 198 182 152 0
22.220000 31.900000 13.640000 197 181 153 0
22.440000 31.900000 13.970000 197 181 153 0
22.660000 31.900000 14.520000 197 181 153 0
22.880000 31.900000 14.520000 198 182 154 0
23.100000 31.900000 14.630000 198 182 154 0
23.320000 31.900000 14.630000 198 182 154 0
23.540000 31.900000 14.630000 198 182 154 0
23.760000 31.900000 15.400000 197 181 153 0
23.980000 31.900000 15.400000 197 181 153 0
24.200000 31.900000 15.510000 198 182 154 0
24.420000 31.900000 15.510000 196 181 153 0
24.640000 31.900000 15.510000 197 182 154 0
24.860000 31.900000 15.510000 197 182 154 0
25.080000 31.900000 15.620000 197 182 154 0
25.300000 31.900000 15.620000 198 182 152 0
25.520000 31.900000 16.390000 198 182 152 0
25.740000 31.900000 16.390000 196 181 155 0
25.960000 31.900000 16.390000 197 182 156 0
26.180000 31.900000 16.500000 198 183 155 0
26.400000 31.900000 16.500000 196 181 153 0
26.620000 31.900000 16.500000 197 182 154 0
26.840000 31.900000 16.500000 197 182 154 0
27.060000 31.900000 17.050000 198 182 152 0
27.280000 31.900000 18.150000 198 182 152 0
27.500000 31.900000 18.040000 198 182 154 0
27.720000 31.900000 18.700000 198 182 154 0
27.940000 31.900000 18.810000 197 182 154 0
28.160000 31.900000 18.810000 197 182 154 0
28.380000 31.900000 18.810000 197 182 154 0
28.600000 31.900000 18.920000 196 181 153 0
28.820000 31.900000 19.580000 199 183 153 0
29.040000 31.900000 19.580000 198 182 152 0
29.260000 31.900000 19.690000 197 182 156 0
29.480000 31.900000 20.350000 199 184 158 0
29.700000 31.900000 19.030000 199 184 158 0
29.920000 31.900000 14.190000 198 183 157 0
30.140000 31.900000 5.940000 198 183 157 0
30.360000 31.900000 1.210000 198 183 157 0
31.460000 31.900000 0.550000 191 175 145 0
31.680000 31.900000 0.990000 187 171 141 0
31.900000 31.900000 1.430000 191 169 140 0
32.120000 31.900000 1.430000 191 169 140 0
32.340000 31.900000 1.430000 192 172 142 0
32.560000 31.900000 1.540000 195 175 145 0
32.780000 31.900000 0.880000 194 178 148 0
33.000000 31.900000 1.650000 194 178 148 0
33.220000 31.900000 3.740000 196 180 150 0
33.440000 31.900000 3.850000 197 181 151 0
33.660000 31.900000 1.100000 197 181 153 0
33.880000 31.900000 0.440000 197 181 153 0
34.100000 31.900000 6.050000 198 181 156 0
34.320000 31.900000 8.250000 198 181 156 0
34.540000 31.900000 2.750000 198 181 156 0
34.980000 31.900000 0.220000 198 183 157 0
35.200000 31.900000 0.770000 199 184 158 0
35.420000 31.900000 5.610000 198 183 157 0
35.640000 31.900000 14.630000 199 184 158 0
35.860000 31.900000 13.310000 200 183 158 0
36.080000 31.900000 3.630000 200 183 158 0
36.300000 31.900000 0.220000 199 184 158 0
36.520000 31.900000 0.990000 200 185 159 0
36.740000 31.900000 0.990000 200 185 161 0
36.960000 31.900000 0.990000 199 184 160 0
37.180000 31.900000 0.990000 199 184 158 0
0.000000 32.120000 9.570000 197 181 151 0
0.220000 32.120000 9.460000 197 181 153 0
0.440000 32.120000 10.560000 198 182 154 0
0.660000 32.120000 10.560000 198 180 153 0
0.880000 32.120000 10.010000 199 181 154 0
1.100000 32.120000 14.850000 199 183 153 0
1.320000 32.120000 14.960000 199 183 153 0
1.540000 32.120000 4.620000 200 184 154 0
2.860000 32.120000 0.220000 197 181 151 0
3.300000 32.120000 1.430000 197 181 153 0
3.520000 32.120000 2.860000 197 181 153 0
3.740000 32.120000 1.540000 198 182 154 0
3.960000 32.120000 0.220000 197 181 153 0
4.180000 32.120000 0.220000 198 182 154 0
4.400000 32.120000 0.990000 198 182 154 0
4.620000 32.120000 0.990000 197 181 151 0
4.840000 32.120000 0.990000 197 181 151 0
5.060000 32.120000 0.990000 197 181 151 0
5.280000 32.120000 1.100000 198 182 152 0
5.500000 32.120000 1.100000 198 182 152 0
5.720000 32.120000 1.870000 198 182 152 0
5.940000 32.120000 1.870000 198 182 152 0
6.160000 32.120000 1.870000 199 183 153 0
6.380000 32.120000 1.870000 198 182 152 0
6.600000 32.120000 1.980000 197 181 151 0
6.820000 32.120000 1.980000 197 181 153 0
7.040000 32.120000 1.980000 197 181 153 0
7.260000 32.120000 1.980000 199 183 155 0
7.480000 32.120000 2.090000 199 183 155 0
7.700000 32.120000 2.640000 198 182 154 0
7.920000 32.120000 3.630000 198 182 154 0
8.140000 32.120000 3.520000 198 182 152 0
8.360000 32.120000 4.180000 199 183 153 0
8.580000 32.120000 3.520000 199 183 153 0
8.800000 32.120000 3.630000 199 183 153 0
9.020000 32.120000 3.630000 199 183 155 0
9.240000 32.120000 3.630000 199 183 155 0
9.460000 32.120000 4.400000 198 182 152 0
9.680000 32.120000 4.400000 195 179 149 0
9.900000 32.120000 4.400000 195 177 148 0
10.120000 32.120000 4.400000 190 172 143 0
10.340000 32.120000 4.400000 190 170 138 0
10.560000 32.120000 4.510000 190 170 138 0
10.780000 32.120000 4.510000 191 174 143 0
11.000000 32.120000 4.510000 193 176 145 0
11.220000 32.120000 4.510000 194 176 147 0
11.440000 32.120000 4.510000 195 177 148 0
11.660000 32.120000 5.280000 196 178 151 0
11.880000 32.120000 5.280000 196 178 151 0
12.100000 32.120000 5.280000 197 181 150 0
12.320000 32.120000 5.390000 197 181 150 0
12.540000 32.120000 5.390000 198 182 152 0
12.760000 32.120000 5.390000 199 183 153 0
12.980000 32.120000 5.390000 198 182 152 0
13.200000 32.120000 5.500000 198 182 152 0
13.420000 32.120000 5.500000 200 182 153 0
13.640000 32.120000 6.050000 200 182 153 0
13.860000 32.120000 7.150000 200 184 154 0
14.080000 32.120000 7.700000 199 183 153 0
14.300000 32.120000 7.700000 199 183 153 0
14.520000 32.120000 7.700000 199 183 153 0
14.740000 32.120000 7.700000 199 183 153 0
14.960000 32.120000 7.810000 198 182 152 0
15.180000 32.120000 7.810000 199 182 151 0
15.400000 32.120000 7.810000 200 183 152 0
15.620000 32.120000 7.920000 198 182 152 0
15.840000 32.120000 7.920000 199 183 153 0
16.060000 32.120000 7.920000 199 183 155 0
16.280000 32.120000 7.920000 200 184 156 0
16.500000 32.120000 8.030000 199 183 153 0
16.720000 32.120000 8.030000 199 183 153 0
16.940000 32.120000 8.030000 198 182 152 0
17.160000 32.120000 7.370000 199 183 153 0
17.380000 32.120000 7.480000 197 181 153 0
17.600000 32.120000 8.140000 196 180 152 0
17.820000 32.120000 8.250000 196 178 149 0
18.040000 32.120000 8.250000 195 177 148 0
18.260000 32.120000 9.460000 193 177 146 0
18.480000 32.120000 9.790000 194 178 147 0
18.700000 32.120000 10.450000 194 178 150 0
18.920000 32.120000 10.450000 196 180 152 0
19.140000 32.120000 10.560000 198 182 154 0
19.360000 32.120000 10.560000 198 182 154 0
19.580000 32.120000 10.670000 198 182 154 0
19.800000 32.120000 10.670000 196 180 152 0
20.020000 32.120000 10.670000 194 178 150 0
20.240000 32.120000 10.780000 196 180 152 0
20.460000 32.120000 10.780000 198 182 154 0
20.680000 32.120000 11.550000 199 183 155 0
20.900000 32.120000 11.550000 199 183 155 0
21.120000 32.120000 11.550000 199 183 155 0
21.340000 32.120000 12.320000 199 183 155 0
21.560000 32.120000 12.320000 199 183 155 0
21.780000 32.120000 12.320000 199 183 153 0
22.000000 32.120000 13.090000 198 182 152 0
22.220000 32.120000 13.640000 198 182 154 0
22.440000 32.120000 13.970000 198 182 154 0
22.660000 32.120000 14.520000 199 183 155 0
22.880000 32.120000 14.520000 198 182 154 0
23.100000 32.120000 14.630000 199 183 155 0
23.320000 32.120000 14.630000 199 183 155 0
23.540000 32.120000 14.630000 198 182 154 0
23.760000 32.120000 15.400000 198 182 154 0
23.980000 32.120000 15.400000 198 182 154 0
24.200000 32.120000 15.510000 199 183 155 0
24.420000 32.120000 15.510000 198 183 155 0
24.640000 32.120000 15.510000 198 183 155 0
24.860000 32.120000 15.510000 198 183 155 0
25.080000 32.120000 15.620000 198 183 155 0
25.300000 32.120000 15.620000 198 182 152 0
25.520000 32.120000 16.390000 199 183 153 0
25.740000 32.120000 16.390000 198 183 157 0
25.960000 32.120000 16.390000 198 183 157 0
26.180000 32.120000 16.500000 198 183 155 0
26.400000 32.120000 16.500000 198 183 155 0
26.620000 32.120000 16.500000 198 183 155 0
26.840000 32.120000 16.500000 199 184 156 0
27.060000 32.120000 17.050000 199 183 153 0
27.280000 32.120000 18.150000 200 184 154 0
27.500000 32.120000 18.700000 199 183 155 0
27.720000 32.120000 18.700000 199 183 155 0
27.940000 32.120000 18.810000 199 184 156 0
28.160000 32.120000 18.810000 197 182 154 0
28.380000 32.120000 18.810000 198 183 155 0
28.600000 32.120000 19.580000 198 183 155 0
28.820000 32.120000 19.580000 199 183 153 0
29.040000 32.120000 19.580000 200 184 154 0
29.260000 32.120000 19.690000 199 184 158 0
29.480000 32.120000 20.350000 199 184 158 0
29.700000 32.120000 20.460000 200 185 159 0
29.920000 32.120000 19.030000 199 184 158 0
30.140000 32.120000 13.530000 200 185 159 0
30.360000 32.120000 6.050000 200 185 159 0
30.580000 32.120000 0.550000 200 184 156 0
31.680000 32.120000 0.880000 195 179 149 0
31.900000 32.120000 0.770000 196 174 145 0
32.120000 32.120000 1.540000 193 171 142 0
32.340000 32.120000 1.540000 192 172 142 0
32.560000 32.120000 0.880000 192 172 142 0
32.780000 32.120000 1.650000 191 175 145 0
33.000000 32.120000 3.740000 195 179 149 0
33.220000 32.120000 5.170000 195 179 149 0
33.440000 32.120000 4.510000 196 180 150 0
33.660000 32.120000 4.510000 197 181 153 0
33.880000 32.120000 7.370000 197 181 153 0
34.100000 32.120000 13.640000 198 181 156 0
34.320000 32.120000 13.750000 200 183 158 0
34.540000 32.120000 4.070000 199 182 157 0
34.980000 32.120000 0.220000 198 183 157 0
35.420000 32.120000 5.610000 199 184 158 0
35.640000 32.120000 11.880000 199 184 158 0
35.860000 32.120000 7.700000 200 183 158 0
36.080000 32.120000 1.540000 200 183 158 0
36.300000 32.120000 0.220000 199 184 158 0
36.520000 32.120000 0.990000 200 185 159 0
36.740000 32.120000 0.990000 199 184 160 0
36.960000 32.120000 0.990000 199 184 160 0
37.180000 32.120000 0.990000 199 184 158 0
0.000000 32.340000 9.460000 198 183 159 0
0.220000 32.340000 9.900000 199 184 160 0
0.440000 32.340000 9.130000 199 184 160 0
0.660000 32.340000 7.700000 199 184 160 0
0.880000 32.340000 8.580000 198 183 159 0
1.100000 32.340000 14.850000 198 183 159 0
1.320000 32.340000 14.960000 199 184 160 0
1.540000 32.340000 4.620000 199 184 160 0
2.860000 32.340000 0.220000 200 183 160 0
3.080000 32.340000 0.110000 200 183 160 0
3.300000 32.340000 0.110000 199 184 160 0
3.520000 32.340000 0.110000 198 183 159 0
3.740000 32.340000 0.110000 198 183 159 0
3.960000 32.340000 0.220000 198 183 159 0
4.180000 32.340000 0.880000 198 183 159 0
4.400000 32.340000 0.990000 198 183 159 0
4.620000 32.340000 0.990000 197 182 158 0
4.840000 32.340000 0.990000 198 183 159 0
5.060000 32.340000 0.990000 197 182 158 0
5.280000 32.340000 1.100000 198 183 159 0
5.500000 32.340000 1.100000 198 183 159 0
5.720000 32.340000 1.870000 198 183 159 0
5.940000 32.340000 1.870000 199 184 160 0
6.160000 32.340000 1.870000 198 183 159 0
6.380000 32.340000 1.870000 198 183 159 0
6.600000 32.340000 1.980000 198 183 159 0
6.820000 32.340000 1.980000 197 182 158 0
7.040000 32.340000 1.980000 198 183 159 0
7.260000 32.340000 1.980000 197 182 158 0
7.480000 32.340000 2.090000 197 182 158 0
7.700000 32.340000 2.640000 199 184 160 0
7.920000 32.340000 3.630000 199 184 160 0
8.140000 32.340000 4.180000 199 184 160 0
8.360000 32.340000 4.180000 199 184 160 0
8.580000 32.340000 4.290000 199 184 160 0
8.800000 32.340000 4.290000 199 184 160 0
9.020000 32.340000 4.290000 200 185 161 0
9.240000 32.340000 4.400000 200 185 161 0
9.460000 32.340000 4.400000 199 184 160 0
9.680000 32.340000 4.400000 198 183 159 0
9.900000 32.340000 4.400000 197 182 158 0
10.120000 32.340000 4.400000 194 179 155 0
10.340000 32.340000 4.510000 192 177 151 0
10.560000 32.340000 4.510000 189 174 148 0
10.780000 32.340000 4.510000 190 173 148 0
11.000000 32.340000 4.510000 191 174 149 0
11.220000 32.340000 5.170000 192 175 150 0
11.440000 32.340000 5.280000 194 177 152 0
11.660000 32.340000 5.280000 195 180 156 0
11.880000 32.340000 5.280000 195 180 156 0
12.100000 32.340000 5.280000 196 181 155 0
12.320000 32.340000 5.390000 197 182 156 0
12.540000 32.340000 5.390000 198 183 159 0
12.760000 32.340000 5.390000 199 184 160 0
12.980000 32.340000 5.500000 199 184 160 0
13.200000 32.340000 5.500000 199 184 160 0
13.420000 32.340000 5.500000 200 185 161 0
13.640000 32.340000 6.050000 199 184 160 0
13.860000 32.340000 7.150000 199 184 158 0
14.080000 32.340000 7.700000 200 185 159 0
14.300000 32.340000 7.700000 198 183 157 0
14.520000 32.340000 7.700000 199 184 158 0
14.740000 32.340000 7.700000 199 184 158 0
14.960000 32.340000 7.810000 199 184 158 0
15.180000 32.340000 7.810000 199 184 160 0
15.400000 32.340000 7.810000 198 183 159 0
15.620000 32.340000 7.920000 198 183 157 0
15.840000 32.340000 7.920000 198 183 157 0
16.060000 32.340000 7.920000 199 184 160 0
16.280000 32.340000 7.920000 199 184 160 0
16.500000 32.340000 8.030000 199 184 160 0
16.720000 32.340000 7.370000 200 185 161 0
16.940000 32.340000 7.370000 199 184 160 0
17.160000 32.340000 7.370000 197 182 158 0
17.380000 32.340000 7.480000 196 181 155 0
17.600000 32.340000 8.140000 195 180 154 0
17.820000 32.340000 8.250000 194 179 155 0
18.040000 32.340000 8.800000 194 179 155 0
18.260000 32.340000 9.900000 195 180 156 0
18.480000 32.340000 10.450000 196 181 157 0
18.700000 32.340000 10.450000 197 182 158 0
18.920000 32.340000 10.560000 197 182 158 0
19.140000 32.340000 10.560000 198 183 159 0
19.360000 32.340000 10.560000 198 183 159 0
19.580000 32.340000 10.670000 196 181 157 0
19.800000 32.340000 10.670000 195 180 156 0
20.020000 32.340000 10.670000 197 182 158 0
20.240000 32.340000 10.780000 198 183 159 0
20.460000 32.340000 10.780000 197 182 158 0
20.680000 32.340000 11.550000 199 184 160 0
20.900000 32.340000 11.550000 201 186 162 0
21.120000 32.340000 11.550000 198 183 159 0
21.340000 32.340000 12.320000 200 185 161 0
21.560000 32.340000 12.320000 200 185 161 0
21.780000 32.340000 12.320000 199 184 160 0
22.000000 32.340000 13.090000 200 185 161 0
22.220000 32.340000 13.640000 199 184 160 0
22.440000 32.340000 13.970000 199 184 160 0
22.660000 32.340000 14.520000 199 184 160 0
22.880000 32.340000 14.520000 199 184 160 0
23.100000 32.340000 14.630000 199 184 160 0
23.320000 32.340000 14.630000 198 183 159 0
23.540000 32.340000 14.630000 199 184 160 0
23.760000 32.340000 14.740000 199 184 160 0
23.980000 32.340000 15.400000 198 183 159 0
24.200000 32.340000 15.510000 199 184 160 0
24.420000 32.340000 15.510000 198 183 159 0
24.640000 32.340000 15.510000 199 184 160 0
24.860000 32.340000 15.510000 199 184 160 0
25.080000 32.340000 15.620000 200 185 161 0
25.300000 32.340000 15.620000 199 184 160 0
25.520000 32.340000 15.620000 198 183 159 0
25.740000 32.340000 16.390000 198 183 159 0
25.960000 32.340000 16.390000 199 184 160 0
26.180000 32.340000 16.500000 199 184 160 0
26.400000 32.340000 16.500000 199 184 160 0
26.620000 32.340000 16.500000 199 184 160 0
26.840000 32.340000 16.500000 199 184 160 0
27.060000 32.340000 17.050000 199 184 160 0
27.280000 32.340000 18.150000 200 185 161 0
27.500000 32.340000 18.700000 200 185 161 0
27.720000 32.340000 18.700000 199 184 160 0
27.940000 32.340000 18.810000 200 185 161 0
28.160000 32.340000 18.810000 200 185 161 0
28.380000 32.340000 18.810000 200 185 161 0
28.600000 32.340000 19.580000 199 184 160 0
28.820000 32.340000 19.580000 198 183 159 0
29.040000 32.340000 19.580000 199 184 160 0
29.260000 32.340000 19.690000 198 185 161 0
29.480000 32.340000 19.690000 198 185 161 0
29.700000 32.340000 19.690000 201 186 162 0
29.920000 32.340000 20.460000 200 185 161 0
30.140000 32.340000 19.140000 200 185 161 0
30.360000 32.340000 13.640000 201 186 162 0
30.580000 32.340000 6.050000 201 186 162 0
30.800000 32.340000 0.550000 200 185 161 0
31.460000 32.340000 1.210000 200 184 163 0
31.680000 32.340000 4.400000 198 182 161 0
31.900000 32.340000 4.180000 197 182 158 0
32.120000 32.340000 2.200000 194 179 155 0
32.340000 32.340000 0.880000 190 175 151 0
32.560000 32.340000 1.650000 187 172 148 0
32.780000 32.340000 6.490000 188 167 141 0
33.000000 32.340000 12.760000 192 171 145 0
33.220000 32.340000 15.510000 194 177 152 0
33.440000 32.340000 15.620000 196 179 154 0
33.660000 32.340000 14.960000 196 181 157 0
33.880000 32.340000 16.390000 196 181 157 0
34.100000 32.340000 17.820000 196 181 157 0
34.320000 32.340000 12.320000 198 183 159 0
34.540000 32.340000 2.640000 198 183 159 0
34.980000 32.340000 1.540000 199 183 162 0
35.200000 32.340000 2.860000 199 183 162 0
35.420000 32.340000 5.610000 199 184 160 0
35.640000 32.340000 7.700000 199 184 160 0
35.860000 32.340000 4.290000 200 185 161 0
36.080000 32.340000 0.220000 200 185 161 0
36.300000 32.340000 0.220000 199 184 160 0
36.520000 32.340000 0.990000 199 184 160 0
36.740000 32.340000 0.990000 200 184 163 0
36.960000 32.340000 0.990000 200 184 163 0
37.180000 32.340000 1.100000 199 184 160 0
0.000000 32.560000 10.010000 199 184 160 0
0.220000 32.560000 10.560000 200 185 161 0
0.440000 32.560000 6.930000 200 185 161 0
0.660000 32.560000 2.970000 199 184 160 0
0.880000 32.560000 6.490000 198 183 159 0
1.100000 32.560000 14.850000 199 184 160 0
1.320000 32.560000 14.960000 198 183 159 0
1.540000 32.560000 4.620000 199 184 160 0
2.200000 32.560000 0.550000 198 183 159 0
2.420000 32.560000 1.320000 196 181 157 0
2.640000 32.560000 0.660000 197 182 158 0
3.080000 32.560000 0.220000 200 183 160 0
3.300000 32.560000 0.110000 199 184 160 0
3.520000 32.560000 0.110000 198 183 159 0
3.740000 32.560000 0.110000 198 183 159 0
3.960000 32.560000 0.220000 198 183 159 0
4.180000 32.560000 0.880000 198 183 159 0
4.400000 32.560000 0.990000 198 183 159 0
4.620000 32.560000 0.990000 198 183 159 0
4.840000 32.560000 0.990000 198 183 159 0
5.060000 32.560000 0.990000 197 182 158 0
5.280000 32.560000 1.100000 199 184 160 0
5.500000 32.560000 1.100000 198 183 159 0
5.720000 32.560000 1.100000 198 183 159 0
5.940000 32.560000 1.870000 197 182 158 0
6.160000 32.560000 1.870000 198 183 159 0
6.380000 32.560000 1.870000 198 183 159 0
6.600000 32.560000 1.980000 197 182 158 0
6.820000 32.560000 1.980000 197 182 158 0
7.040000 32.560000 1.980000 197 182 158 0
7.260000 32.560000 1.980000 197 182 158 0
7.480000 32.560000 2.090000 198 183 159 0
7.700000 32.560000 2.640000 198 183 159 0
7.920000 32.560000 3.630000 199 184 160 0
8.140000 32.560000 4.180000 198 183 159 0
8.360000 32.560000 4.180000 199 184 160 0
8.580000 32.560000 4.290000 199 184 160 0
8.800000 32.560000 4.290000 199 184 160 0
9.020000 32.560000 4.290000 199 184 160 0
9.240000 32.560000 4.400000 200 185 161 0
9.460000 32.560000 4.400000 200 185 161 0
9.680000 32.560000 4.400000 200 185 161 0
9.900000 32.560000 4.400000 198 183 159 0
10.120000 32.560000 4.510000 197 182 158 0
10.340000 32.560000 4.510000 196 181 155 0
10.560000 32.560000 4.510000 196 181 155 0
10.780000 32.560000 5.170000 195 178 153 0
11.000000 32.560000 5.170000 192 175 150 0
11.220000 32.560000 5.280000 192 175 150 0
11.440000 32.560000 5.280000 192 175 150 0
11.660000 32.560000 5.280000 194 179 155 0
11.880000 32.560000 5.280000 196 181 157 0
12.100000 32.560000 5.390000 196 181 155 0
12.320000 32.560000 5.390000 197 182 156 0
12.540000 32.560000 5.390000 198 183 159 0
12.760000 32.560000 5.390000 199 184 160 0
12.980000 32.560000 5.500000 199 184 160 0
13.200000 32.560000 5.500000 200 185 161 0
13.420000 32.560000 5.500000 199 184 160 0
13.640000 32.560000 6.050000 200 185 161 0
13.860000 32.560000 7.150000 199 184 158 0
14.080000 32.560000 7.700000 198 183 157 0
14.300000 32.560000 7.700000 199 184 158 0
14.520000 32.560000 7.700000 199 184 158 0
14.740000 32.560000 7.700000 198 183 157 0
14.960000 32.560000 7.810000 199 184 158 0
15.180000 32.560000 7.810000 199 184 160 0
15.400000 32.560000 7.810000 198 183 159 0
15.620000 32.560000 7.920000 199 184 158 0
15.840000 32.560000 7.920000 197 182 156 0
16.060000 32.560000 7.920000 199 184 160 0
16.280000 32.560000 7.920000 197 182 158 0
16.500000 32.560000 7.260000 199 184 160 0
16.720000 32.560000 7.370000 199 184 160 0
16.940000 32.560000 7.370000 198 183 159 0
17.160000 32.560000 7.370000 197 182 158 0
17.380000 32.560000 8.140000 195 180 154 0
17.600000 32.560000 8.250000 194 179 153 0
17.820000 32.560000 8.250000 196 181 157 0
18.040000 32.560000 8.800000 197 182 158 0
18.260000 32.560000 9.900000 198 183 159 0
18.480000 32.560000 10.450000 198 183 159 0
18.700000 32.560000 10.450000 198 183 159 0
18.920000 32.560000 10.560000 198 183 159 0
19.140000 32.560000 10.560000 196 181 157 0
19.360000 32.560000 10.560000 196 181 157 0
19.580000 32.560000 10.670000 196 181 157 0
19.800000 32.560000 10.670000 197 182 158 0
20.020000 32.560000 10.670000 199 184 160 0
20.240000 32.560000 10.780000 198 183 159 0
20.460000 32.560000 10.780000 198 183 159 0
20.680000 32.560000 11.550000 199 184 160 0
20.900000 32.560000 11.550000 199 184 160 0
21.120000 32.560000 12.210000 200 185 161 0
21.340000 32.560000 12.320000 200 185 161 0
21.560000 32.560000 12.320000 202 187 163 0
21.780000 32.560000 12.320000 201 186 162 0
22.000000 32.560000 13.090000 201 186 162 0
22.220000 32.560000 13.640000 199 184 160 0
22.440000 32.560000 13.970000 200 185 161 0
22.660000 32.560000 14.520000 199 184 160 0
22.880000 32.560000 14.630000 199 184 160 0
23.100000 32.560000 14.630000 199 184 160 0
23.320000 32.560000 14.630000 198 183 159 0
23.540000 32.560000 14.630000 200 185 161 0
23.760000 32.560000 14.740000 199 184 160 0
23.980000 32.560000 14.740000 200 185 161 0
24.200000 32.560000 15.510000 199 184 160 0
24.420000 32.560000 15.510000 200 185 161 0
24.640000 32.560000 15.510000 200 185 161 0
24.860000 32.560000 15.510000 199 184 160 0
25.080000 32.560000 15.620000 199 184 160 0
25.300000 32.560000 15.620000 199 184 160 0
25.520000 32.560000 15.620000 199 184 160 0
25.740000 32.560000 16.390000 199 184 160 0
25.960000 32.560000 16.390000 200 185 161 0
26.180000 32.560000 16.500000 199 184 160 0
26.400000 32.560000 16.500000 199 184 160 0
26.620000 32.560000 16.500000 200 185 161 0
26.840000 32.560000 16.500000 199 184 160 0
27.060000 32.560000 17.050000 199 184 160 0
27.280000 32.560000 18.150000 199 184 160 0
27.500000 32.560000 18.700000 199 184 160 0
27.720000 32.560000 18.700000 199 184 160 0
27.940000 32.560000 18.810000 200 185 161 0
28.160000 32.560000 19.470000 200 185 161 0
28.380000 32.560000 19.580000 199 184 160 0
28.600000 32.560000 19.580000 199 184 160 0
28.820000 32.560000 19.580000 199 184 160 0
29.040000 32.560000 19.580000 199 184 160 0
29.260000 32.560000 19.690000 197 184 160 0
29.480000 32.560000 19.690000 198 185 161 0
29.700000 32.560000 19.690000 201 186 162 0
29.920000 32.560000 20.460000 200 185 161 0
30.140000 32.560000 20.460000 200 185 161 0
30.360000 32.560000 19.140000 201 186 162 0
30.580000 32.560000 12.320000 201 186 162 0
30.800000 32.560000 3.300000 202 187 163 0
31.460000 32.560000 3.300000 200 184 163 0
31.680000 32.560000 11.990000 200 184 163 0
31.900000 32.560000 11.880000 198 183 159 0
32.120000 32.560000 4.290000 198 183 159 0
32.340000 32.560000 0.220000 196 181 157 0
32.560000 32.560000 3.740000 193 178 154 0
32.780000 32.560000 12.760000 192 171 145 0
33.000000 32.560000 18.260000 189 168 142 0
33.220000 32.560000 18.370000 185 168 143 0
33.440000 32.560000 19.030000 189 172 147 0
33.660000 32.560000 20.460000 194 179 155 0
33.880000 32.560000 20.570000 195 180 156 0
34.100000 32.560000 16.390000 196 181 157 0
34.320000 32.560000 6.820000 196 181 157 0
34.540000 32.560000 0.660000 197 182 158 0
34.760000 32.560000 1.210000 197 182 158 0
34.980000 32.560000 6.380000 198 182 161 0
35.200000 32.560000 9.680000 198 182 161 0
35.420000 32.560000 5.610000 198 183 159 0
35.640000 32.560000 2.860000 200 185 161 0
35.860000 32.560000 1.540000 198 183 159 0
36.080000 32.560000 0.220000 199 184 160 0
36.300000 32.560000 0.220000 199 184 160 0
36.520000 32.560000 0.330000 200 185 161 0
36.740000 32.560000 0.990000 199 183 162 0
36.960000 32.560000 1.100000 198 182 161 0
37.180000 32.560000 1.100000 198 183 159 0
0.000000 32.780000 10.010000 199 182 159 0
0.220000 32.780000 10.560000 200 183 160 0
0.440000 32.780000 5.610000 200 183 160 0
0.660000 32.780000 0.110000 200 183 160 0
0.880000 32.780000 5.170000 199 182 159 0
1.100000 32.780000 14.850000 199 182 159 0
1.320000 32.780000 15.620000 200 183 160 0
1.540000 32.780000 7.370000 200 183 160 0
1.760000 32.780000 1.210000 199 182 159 0
2.200000 32.780000 3.300000 199 182 159 0
2.420000 32.780000 6.820000 199 182 159 0
2.640000 32.780000 2.750000 198 181 158 0
3.080000 32.780000 0.220000 200 183 158 0
3.300000 32.780000 0.110000 200 183 160 0
3.520000 32.780000 0.110000 200 183 160 0
3.740000 32.780000 0.110000 200 183 158 0
3.960000 32.780000 0.220000 199 182 157 0
4.180000 32.780000 0.880000 200 183 160 0
4.400000 32.780000 0.990000 198 181 158 0
4.620000 32.780000 0.990000 200 183 160 0
4.840000 32.780000 0.990000 199 182 159 0
5.060000 32.780000 0.990000 199 182 159 0
5.280000 32.780000 1.100000 199 182 159 0
5.500000 32.780000 1.100000 199 182 159 0
5.720000 32.780000 1.100000 198 181 158 0
5.940000 32.780000 1.870000 199 182 159 0
6.160000 32.780000 1.870000 199 182 159 0
6.380000 32.780000 1.870000 199 182 159 0
6.600000 32.780000 1.980000 199 182 159 0
6.820000 32.780000 1.980000 198 181 158 0
7.040000 32.780000 1.980000 198 181 158 0
7.260000 32.780000 1.980000 199 182 159 0
7.480000 32.780000 2.090000 198 181 158 0
7.700000 32.780000 2.640000 198 181 158 0
7.920000 32.780000 3.630000 200 183 160 0
8.140000 32.780000 4.180000 199 184 160 0
8.360000 32.780000 4.180000 198 183 159 0
8.580000 32.780000 4.290000 199 184 160 0
8.800000 32.780000 4.290000 199 184 160 0
9.020000 32.780000 4.290000 200 183 160 0
9.240000 32.780000 4.400000 200 183 160 0
9.460000 32.780000 4.400000 198 183 159 0
9.680000 32.780000 4.400000 200 185 161 0
9.900000 32.780000 4.400000 201 186 162 0
10.120000 32.780000 4.510000 199 184 160 0
10.340000 32.780000 4.510000 199 184 160 0
10.560000 32.780000 4.510000 200 185 161 0
10.780000 32.780000 5.170000 199 184 160 0
11.000000 32.780000 5.280000 197 182 158 0
11.220000 32.780000 5.280000 194 179 155 0
11.440000 32.780000 5.280000 194 179 155 0
11.660000 32.780000 5.280000 193 178 154 0
11.880000 32.780000 5.390000 194 179 155 0
12.100000 32.780000 5.390000 197 180 155 0
12.320000 32.780000 5.390000 198 181 156 0
12.540000 32.780000 5.390000 198 183 159 0
12.760000 32.780000 5.390000 199 184 160 0
12.980000 32.780000 5.500000 200 185 161 0
13.200000 32.780000 5.500000 199 184 160 0
13.420000 32.780000 6.160000 200 185 159 0
13.640000 32.780000 6.600000 199 184 158 0
13.860000 32.780000 7.040000 198 183 157 0
14.080000 32.780000 7.700000 199 184 158 0
14.300000 32.780000 7.700000 200 183 160 0
14.520000 32.780000 7.700000 199 182 159 0
14.740000 32.780000 7.700000 198 181 156 0
14.960000 32.780000 7.810000 199 182 157 0
15.180000 32.780000 7.810000 198 183 157 0
15.400000 32.780000 7.810000 197 182 156 0
15.620000 32.780000 7.920000 198 181 156 0
15.840000 32.780000 7.920000 198 181 156 0
16.060000 32.780000 7.920000 198 181 156 0
16.280000 32.780000 7.260000 198 181 156 0
16.500000 32.780000 7.370000 198 181 158 0
16.720000 32.780000 7.370000 198 181 158 0
16.940000 32.780000 7.370000 198 181 156 0
17.160000 32.780000 8.140000 197 180 155 0
17.380000 32.780000 8.140000 196 179 154 0
17.600000 32.780000 8.250000 198 181 156 0
17.820000 32.780000 8.910000 197 180 157 0
18.040000 32.780000 9.460000 198 181 158 0
18.260000 32.780000 9.790000 199 182 159 0
18.480000 32.780000 10.450000 199 182 159 0
18.700000 32.780000 10.450000 198 183 159 0
18.920000 32.780000 10.560000 198 183 159 0
19.140000 32.780000 10.560000 194 179 155 0
19.360000 32.780000 10.560000 195 180 156 0
19.580000 32.780000 10.670000 198 181 158 0
19.800000 32.780000 10.670000 200 183 160 0
20.020000 32.780000 10.670000 200 183 160 0
20.240000 32.780000 10.780000 200 183 160 0
20.460000 32.780000 11.440000 199 182 159 0
20.680000 32.780000 11.550000 200 183 160 0
20.900000 32.780000 11.550000 199 184 160 0
21.120000 32.780000 12.210000 199 184 160 0
21.340000 32.780000 12.320000 201 184 161 0
21.560000 32.780000 12.320000 202 185 162 0
21.780000 32.780000 12.320000 202 185 162 0
22.000000 32.780000 13.090000 201 184 161 0
22.220000 32.780000 12.980000 201 184 161 0
22.440000 32.780000 13.970000 201 184 161 0
22.660000 32.780000 14.520000 201 184 161 0
22.880000 32.780000 14.630000 200 183 160 0
23.100000 32.780000 14.630000 199 182 159 0
23.320000 32.780000 14.630000 201 184 161 0
23.540000 32.780000 14.630000 200 183 158 0
23.760000 32.780000 14.740000 200 183 158 0
23.980000 32.780000 14.740000 201 184 161 0
24.200000 32.780000 15.510000 200 183 160 0
24.420000 32.780000 15.510000 201 184 161 0
24.640000 32.780000 15.510000 201 184 161 0
24.860000 32.780000 15.510000 200 183 160 0
25.080000 32.780000 15.620000 201 184 161 0
25.300000 32.780000 15.620000 199 182 157 0
25.520000 32.780000 15.620000 201 184 159 0
25.740000 32.780000 16.390000 199 182 159 0
25.960000 32.780000 16.390000 201 184 161 0
26.180000 32.780000 16.500000 199 184 160 0
26.400000 32.780000 16.500000 199 184 160 0
26.620000 32.780000 16.500000 201 184 161 0
26.840000 32.780000 16.500000 202 185 162 0
27.060000 32.780000 17.050000 200 183 160 0
27.280000 32.780000 18.150000 202 185 162 0
27.500000 32.780000 18.700000 200 183 160 0
27.720000 32.780000 18.700000 200 183 160 0
27.940000 32.780000 18.810000 200 185 161 0
28.160000 32.780000 19.470000 199 184 160 0
28.380000 32.780000 19.580000 200 185 161 0
28.600000 32.780000 19.580000 199 184 160 0
28.820000 32.780000 19.580000 200 183 160 0
29.040000 32.780000 20.350000 201 184 161 0
29.260000 32.780000 20.350000 199 184 160 0
29.480000 32.780000 20.350000 199 184 160 0
29.700000 32.780000 20.460000 200 185 161 0
29.920000 32.780000 20.460000 200 185 161 0
30.140000 32.780000 20.460000 200 184 163 0
30.360000 32.780000 20.570000 201 185 164 0
30.580000 32.780000 16.390000 202 185 162 0
30.800000 32.780000 6.820000 202 185 162 0
31.460000 32.780000 4.070000 200 185 161 0
31.680000 32.780000 14.960000 200 185 161 0
31.900000 32.780000 16.830000 199 184 160 0
32.120000 32.780000 7.700000 199 184 160 0
32.340000 32.780000 1.650000 199 184 160 0
32.560000 32.780000 5.170000 198 183 159 0
32.780000 32.780000 15.620000 197 182 158 0
33.000000 32.780000 16.940000 195 180 156 0
33.220000 32.780000 12.870000 193 178 154 0
33.440000 32.780000 14.960000 192 177 153 0
33.660000 32.780000 16.390000 191 176 152 0
33.880000 32.780000 15.070000 192 177 153 0
34.100000 32.780000 10.890000 194 177 154 0
34.320000 32.780000 3.300000 194 177 154 0
34.540000 32.780000 1.210000 195 180 156 0
34.760000 32.780000 5.940000 197 182 158 0
34.980000 32.780000 14.740000 197 182 158 0
35.200000 32.780000 15.950000 197 182 158 0
35.420000 32.780000 7.700000 197 182 158 0
35.640000 32.780000 1.540000 198 183 159 0
35.860000 32.780000 0.220000 199 184 160 0
36.080000 32.780000 0.220000 198 183 159 0
36.300000 32.780000 0.330000 199 184 160 0
36.520000 32.780000 0.330000 198 183 159 0
36.740000 32.780000 1.100000 199 184 160 0
36.960000 32.780000 1.100000 199 184 160 0
37.180000 32.780000 1.100000 198 183 159 0
0.000000 33.000000 10.010000 198 181 158 0
0.220000 33.000000 10.560000 198 181 158 0
0.440000 33.000000 6.930000 199 182 159 0
0.660000 33.000000 2.970000 200 183 160 0
0.880000 33.000000 6.490000 200 183 160 0
1.100000 33.000000 14.850000 199 182 159 0
1.320000 33.000000 18.370000 199 182 159 0
1.540000 33.000000 12.210000 199 182 159 0
1.760000 33.000000 3.960000 198 181 158 0
2.200000 33.000000 4.730000 200 183 160 0
2.420000 33.000000 9.570000 198 181 158 0
2.640000 33.000000 4.070000 198 181 158 0
3.080000 33.000000 0.220000 199 182 157 0
3.300000 33.000000 0.110000 199 182 159 0
3.520000 33.000000 0.110000 200 183 160 0
3.740000 33.000000 0.110000 199 182 157 0
3.960000 33.000000 0.220000 199 182 157 0
4.180000 33.000000 0.880000 199 182 159 0
4.400000 33.000000 0.990000 199 182 159 0
4.620000 33.000000 0.990000 199 182 159 0
4.840000 33.000000 0.990000 199 182 159 0
5.060000 33.000000 0.990000 199 182 159 0
5.280000 33.000000 1.100000 198 181 158 0
5.500000 33.000000 1.100000 199 182 159 0
5.720000 33.000000 1.100000 199 182 159 0
5.940000 33.000000 1.870000 199 182 159 0
6.160000 33.000000 1.870000 199 182 159 0
6.380000 33.000000 1.870000 199 182 159 0
6.600000 33.000000 1.980000 199 182 159 0
6.820000 33.000000 1.980000 198 181 158 0
7.040000 33.000000 1.980000 198 181 158 0
7.260000 33.000000 1.980000 198 181 158 0
7.480000 33.000000 2.090000 199 182 159 0
7.700000 33.000000 2.640000 199 182 159 0
7.920000 33.000000 3.630000 199 182 159 0
8.140000 33.000000 4.180000 199 184 160 0
8.360000 33.000000 4.180000 199 184 160 0
8.580000 33.000000 4.290000 198 183 159 0
8.800000 33.000000 4.290000 198 183 159 0
9.020000 33.000000 4.290000 199 182 159 0
9.240000 33.000000 4.400000 200 183 160 0
9.460000 33.000000 4.400000 199 184 160 0
9.680000 33.000000 4.400000 201 186 162 0
9.900000 33.000000 4.400000 200 185 161 0
10.120000 33.000000 4.510000 201 186 162 0
10.340000 33.000000 4.510000 201 186 162 0
10.560000 33.000000 4.510000 201 186 162 0
10.780000 33.000000 5.280000 201 186 162 0
11.000000 33.000000 5.280000 202 187 163 0
11.220000 33.000000 5.280000 202 187 163 0
11.440000 33.000000 5.280000 204 189 165 0
11.660000 33.000000 5.390000 205 190 166 0
11.880000 33.000000 5.390000 202 187 163 0
12.100000 33.000000 5.390000 200 183 158 0
12.320000 33.000000 5.390000 199 182 157 0
12.540000 33.000000 5.390000 198 183 159 0
12.760000 33.000000 5.500000 199 184 160 0
12.980000 33.000000 5.500000 199 184 160 0
13.200000 33.000000 6.160000 199 184 160 0
13.420000 33.000000 5.940000 199 184 158 0
13.640000 33.000000 6.490000 199 184 158 0
13.860000 33.000000 7.040000 199 184 158 0
14.080000 33.000000 7.700000 198 183 157 0
14.300000 33.000000 7.700000 199 182 159 0
14.520000 33.000000 7.700000 199 182 159 0
14.740000 33.000000 7.810000 199 182 157 0
14.960000 33.000000 7.150000 198 181 156 0
15.180000 33.000000 7.150000 197 182 156 0
15.400000 33.000000 7.150000 198 183 157 0
15.620000 33.000000 7.260000 198 181 156 0
15.840000 33.000000 7.260000 198 181 156 0
16.060000 33.000000 7.260000 199 182 157 0
16.280000 33.000000 7.260000 197 180 155 0
16.500000 33.000000 7.370000 197 180 157 0
16.720000 33.000000 8.030000 198 181 158 0
16.940000 33.000000 8.140000 197 180 155 0
17.160000 33.000000 8.140000 197 180 155 0
17.380000 33.000000 8.250000 197 180 155 0
17.600000 33.000000 8.250000 198 181 156 0
17.820000 33.000000 8.800000 199 182 159 0
18.040000 33.000000 9.900000 197 180 157 0
18.260000 33.000000 9.790000 199 182 159 0
18.480000 33.000000 9.790000 199 182 159 0
18.700000 33.000000 10.450000 198 183 159 0
18.920000 33.000000 10.560000 196 181 157 0
19.140000 33.000000 10.560000 196 181 157 0
19.360000 33.000000 10.560000 197 182 158 0
19.580000 33.000000 10.670000 199 182 159 0
19.800000 33.000000 10.670000 200 183 160 0
20.020000 33.000000 10.670000 200 183 160 0
20.240000 33.000000 11.440000 200 183 160 0
20.460000 33.000000 11.440000 200 183 160 0
20.680000 33.000000 11.440000 200 183 160 0
20.900000 33.000000 11.550000 198 183 159 0
21.120000 33.000000 12.210000 200 185 161 0
21.340000 33.000000 12.320000 201 184 161 0
21.560000 33.000000 12.320000 202 185 162 0
