ply
format ascii 1.0
element vertex 1123
property float x
property float y
property float z
property uchar red
property uchar green
property uchar blue
property uchar alpha
end_header
33.660000 24.200000 12.540000 147 66 40 0
33.880000 24.200000 12.760000 148 67 41 0
34.100000 24.200000 12.760000 147 69 42 0
34.320000 24.200000 12.760000 147 69 42 0
34.540000 24.200000 12.760000 148 70 45 0
34.760000 24.200000 14.300000 147 69 44 0
34.980000 24.200000 14.300000 148 70 43 0
35.200000 24.200000 15.840000 149 71 44 0
35.420000 24.200000 15.840000 151 73 46 0
35.640000 24.200000 15.840000 152 74 47 0
35.860000 24.200000 15.840000 153 75 48 0
36.080000 24.200000 15.840000 155 77 50 0
36.300000 24.200000 14.740000 154 76 49 0
36.520000 24.200000 13.200000 152 74 47 0
36.740000 24.200000 14.740000 153 72 46 0
36.960000 24.200000 18.920000 152 71 45 0
37.180000 24.200000 20.240000 150 69 43 0
0.000000 24.420000 1.760000 221 216 192 0
0.220000 24.420000 1.980000 220 215 191 0
0.440000 24.420000 1.980000 221 216 192 0
0.660000 24.420000 0.660000 222 215 191 0
0.880000 24.420000 0.880000 222 215 191 0
2.420000 24.420000 9.240000 220 213 189 0
2.640000 24.420000 21.120000 221 214 190 0
2.860000 24.420000 22.220000 221 214 191 0
3.080000 24.420000 20.900000 221 214 191 0
3.300000 24.420000 9.900000 220 215 191 0
3.520000 24.420000 0.220000 219 214 190 0
3.740000 24.420000 0.440000 219 214 190 0
3.960000 24.420000 0.440000 220 215 191 0
4.180000 24.420000 1.760000 221 214 190 0
4.400000 24.420000 1.980000 221 214 190 0
4.620000 24.420000 1.980000 220 213 190 0
4.840000 24.420000 1.980000 219 212 189 0
5.060000 24.420000 2.200000 219 214 189 0
5.280000 24.420000 2.200000 216 211 186 0
5.500000 24.420000 2.200000 218 213 188 0
5.720000 24.420000 2.200000 217 212 187 0
5.940000 24.420000 2.420000 217 210 186 0
6.160000 24.420000 3.740000 215 208 184 0
6.380000 24.420000 3.740000 215 208 184 0
6.600000 24.420000 3.960000 213 206 182 0
6.820000 24.420000 3.960000 210 205 180 0
7.040000 24.420000 3.960000 209 204 179 0
7.260000 24.420000 3.960000 206 201 174 0
7.480000 24.420000 5.060000 204 199 172 0
7.700000 24.420000 7.260000 206 188 159 0
7.920000 24.420000 8.360000 198 180 151 0
8.140000 24.420000 8.360000 192 172 140 0
8.360000 24.420000 8.580000 182 162 130 0
8.580000 24.420000 8.580000 181 155 125 0
8.800000 24.420000 7.260000 177 151 121 0
9.020000 24.420000 7.260000 177 147 118 0
9.240000 24.420000 5.940000 174 144 115 0
9.460000 24.420000 7.260000 170 142 113 0
9.680000 24.420000 8.800000 168 140 111 0
9.900000 24.420000 8.800000 165 139 109 0
10.120000 24.420000 10.120000 164 138 108 0
10.340000 24.420000 11.660000 159 137 111 0
10.560000 24.420000 12.980000 155 133 107 0
10.780000 24.420000 12.980000 147 128 106 0
11.000000 24.420000 11.660000 147 128 106 0
11.220000 24.420000 11.660000 146 127 105 0
11.440000 24.420000 11.880000 145 126 104 0
11.660000 24.420000 12.100000 144 127 104 0
11.880000 24.420000 12.320000 144 127 104 0
12.100000 24.420000 13.420000 146 128 103 0
12.320000 24.420000 15.840000 145 127 102 0
12.540000 24.420000 17.160000 145 126 106 0
12.760000 24.420000 17.380000 145 126 106 0
12.980000 24.420000 16.060000 145 126 104 0
13.200000 24.420000 16.280000 144 125 103 0
13.420000 24.420000 16.500000 143 126 103 0
13.640000 24.420000 16.280000 143 126 103 0
13.860000 24.420000 17.160000 143 125 100 0
14.080000 24.420000 18.260000 143 125 100 0
14.300000 24.420000 19.580000 142 125 104 0
14.520000 24.420000 19.580000 144 127 106 0
14.740000 24.420000 19.580000 147 131 110 0
14.960000 24.420000 20.900000 151 135 114 0
15.180000 24.420000 22.440000 154 138 117 0
15.400000 24.420000 21.120000 154 138 117 0
15.620000 24.420000 19.800000 156 139 116 0
15.840000 24.420000 18.480000 157 140 117 0
16.060000 24.420000 18.260000 155 140 116 0
16.280000 24.420000 18.260000 156 141 117 0
16.500000 24.420000 18.260000 156 141 117 0
16.720000 24.420000 18.260000 156 141 117 0
16.940000 24.420000 16.720000 157 142 118 0
17.160000 24.420000 16.940000 158 143 119 0
17.380000 24.420000 16.940000 159 142 117 0
17.600000 24.420000 16.940000 160 143 118 0
17.820000 24.420000 16.940000 160 143 118 0
18.040000 24.420000 17.160000 160 143 118 0
18.260000 24.420000 17.160000 161 143 116 0
18.480000 24.420000 17.380000 160 142 115 0
18.700000 24.420000 18.700000 164 139 112 0
18.920000 24.420000 20.240000 162 137 110 0
19.140000 24.420000 21.560000 163 132 106 0
19.360000 24.420000 23.100000 161 130 104 0
19.580000 24.420000 23.100000 164 123 98 0
19.800000 24.420000 21.780000 159 118 93 0
20.020000 24.420000 20.460000 156 113 91 0
20.240000 24.420000 21.780000 155 112 90 0
20.460000 24.420000 22.000000 157 111 90 0
20.680000 24.420000 22.000000 157 111 90 0
20.900000 24.420000 21.780000 157 112 88 0
21.120000 24.420000 21.340000 158 113 89 0
21.340000 24.420000 19.800000 160 113 90 0
21.560000 24.420000 20.240000 161 114 91 0
21.780000 24.420000 21.780000 172 114 85 0
22.000000 24.420000 21.780000 171 113 84 0
22.220000 24.420000 21.780000 171 110 84 0
22.440000 24.420000 20.460000 166 105 79 0
22.660000 24.420000 19.140000 161 98 75 0
22.880000 24.420000 16.280000 159 96 73 0
23.100000 24.420000 11.880000 158 96 70 0
23.320000 24.420000 11.440000 156 94 68 0
23.540000 24.420000 11.220000 158 93 66 0
23.760000 24.420000 11.220000 158 93 66 0
23.980000 24.420000 11.220000 157 91 64 0
24.200000 24.420000 11.440000 157 91 64 0
24.420000 24.420000 12.760000 158 90 62 0
24.640000 24.420000 12.760000 159 91 63 0
24.860000 24.420000 14.080000 158 90 62 0
25.080000 24.420000 14.080000 157 89 61 0
25.300000 24.420000 14.080000 158 90 62 0
25.520000 24.420000 14.300000 157 89 61 0
25.740000 24.420000 15.620000 157 90 59 0
25.960000 24.420000 15.620000 158 91 60 0
26.180000 24.420000 15.620000 159 89 59 0
26.400000 24.420000 17.160000 159 89 59 0
26.620000 24.420000 17.160000 158 88 58 0
26.840000 24.420000 18.480000 159 89 59 0
27.060000 24.420000 21.340000 159 89 61 0
27.280000 24.420000 24.200000 159 89 61 0
27.500000 24.420000 26.840000 161 91 61 0
27.720000 24.420000 28.380000 160 90 60 0
27.940000 24.420000 29.700000 160 88 59 0
28.160000 24.420000 31.240000 158 86 57 0
28.380000 24.420000 31.240000 157 82 56 0
28.600000 24.420000 29.920000 154 79 53 0
28.820000 24.420000 28.600000 153 75 48 0
29.040000 24.420000 24.420000 150 72 45 0
29.260000 24.420000 17.600000 151 73 46 0
29.480000 24.420000 12.100000 149 71 44 0
29.700000 24.420000 9.240000 148 70 42 0
29.920000 24.420000 10.780000 148 70 42 0
30.140000 24.420000 10.780000 147 69 41 0
30.360000 24.420000 10.780000 147 69 41 0
30.580000 24.420000 10.780000 147 69 42 0
30.800000 24.420000 9.460000 147 69 42 0
31.020000 24.420000 9.460000 146 68 41 0
31.240000 24.420000 9.460000 146 68 41 0
31.460000 24.420000 9.460000 146 68 40 0
31.680000 24.420000 9.460000 145 67 39 0
31.900000 24.420000 9.460000 148 67 41 0
32.120000 24.420000 9.460000 147 66 40 0
32.340000 24.420000 9.680000 147 66 40 0
32.560000 24.420000 9.680000 146 65 39 0
32.780000 24.420000 10.560000 145 67 40 0
33.000000 24.420000 11.440000 146 68 41 0
33.220000 24.420000 12.540000 146 68 41 0
33.440000 24.420000 12.540000 146 68 41 0
33.660000 24.420000 12.540000 147 66 40 0
33.880000 24.420000 12.760000 147 66 40 0
34.100000 24.420000 12.760000 145 67 40 0
34.320000 24.420000 12.760000 146 68 41 0
34.540000 24.420000 12.760000 147 69 44 0
34.760000 24.420000 14.300000 147 69 44 0
34.980000 24.420000 14.300000 148 70 43 0
35.200000 24.420000 14.300000 149 71 44 0
35.420000 24.420000 14.520000 150 72 45 0
35.640000 24.420000 14.520000 151 73 46 0
35.860000 24.420000 14.520000 153 75 48 0
36.080000 24.420000 15.840000 153 75 48 0
36.300000 24.420000 14.740000 152 74 47 0
36.520000 24.420000 13.420000 151 73 46 0
36.740000 24.420000 14.740000 152 71 45 0
36.960000 24.420000 18.920000 149 68 42 0
37.180000 24.420000 20.240000 148 67 41 0
0.000000 24.640000 5.940000 221 214 191 0
0.220000 24.640000 4.620000 222 215 192 0
0.440000 24.640000 1.980000 222 215 192 0
0.660000 24.640000 0.660000 222 215 191 0
0.880000 24.640000 0.880000 223 216 192 0
1.100000 24.640000 2.420000 222 215 192 0
1.320000 24.640000 3.740000 221 214 191 0
1.540000 24.640000 1.100000 221 214 191 0
2.420000 24.640000 9.240000 220 213 189 0
2.640000 24.640000 21.120000 221 214 190 0
2.860000 24.640000 22.220000 220 213 189 0
3.080000 24.640000 20.900000 221 214 190 0
3.300000 24.640000 9.900000 220 213 190 0
3.520000 24.640000 0.220000 220 213 190 0
3.740000 24.640000 0.440000 221 214 191 0
3.960000 24.640000 0.440000 220 213 190 0
4.180000 24.640000 1.760000 220 215 190 0
4.400000 24.640000 1.980000 218 213 188 0
4.620000 24.640000 1.980000 219 212 188 0
4.840000 24.640000 1.980000 219 212 188 0
5.060000 24.640000 2.200000 218 211 188 0
5.280000 24.640000 2.200000 219 212 189 0
5.500000 24.640000 2.200000 218 211 187 0
5.720000 24.640000 2.200000 217 210 186 0
5.940000 24.640000 2.420000 216 211 186 0
6.160000 24.640000 3.740000 215 210 185 0
6.380000 24.640000 3.740000 215 208 184 0
6.600000 24.640000 3.960000 213 206 182 0
6.820000 24.640000 3.960000 210 205 178 0
7.040000 24.640000 3.960000 208 203 176 0
7.260000 24.640000 3.960000 209 199 171 0
7.480000 24.640000 5.060000 206 196 168 0
7.700000 24.640000 7.260000 203 183 153 0
7.920000 24.640000 9.680000 194 174 144 0
8.140000 24.640000 8.360000 189 165 132 0
8.360000 24.640000 8.580000 183 159 126 0
8.580000 24.640000 7.260000 182 154 125 0
8.800000 24.640000 7.260000 176 148 119 0
9.020000 24.640000 5.940000 175 145 116 0
9.240000 24.640000 5.940000 172 142 113 0
9.460000 24.640000 7.480000 170 140 109 0
9.680000 24.640000 8.800000 170 140 109 0
9.900000 24.640000 10.120000 167 137 108 0
10.120000 24.640000 11.660000 166 136 107 0
10.340000 24.640000 11.660000 160 135 110 0
10.560000 24.640000 11.660000 157 132 107 0
10.780000 24.640000 11.660000 150 129 107 0
11.000000 24.640000 11.660000 148 127 105 0
11.220000 24.640000 11.660000 143 124 102 0
11.440000 24.640000 11.880000 145 126 104 0
11.660000 24.640000 12.100000 144 125 103 0
11.880000 24.640000 12.100000 144 125 103 0
12.100000 24.640000 14.520000 144 125 103 0
12.320000 24.640000 16.940000 145 126 104 0
12.540000 24.640000 17.160000 145 126 104 0
12.760000 24.640000 17.380000 145 126 104 0
12.980000 24.640000 17.380000 144 127 104 0
13.200000 24.640000 16.280000 143 126 103 0
13.420000 24.640000 16.280000 145 126 104 0
13.640000 24.640000 16.280000 143 124 102 0
13.860000 24.640000 17.380000 142 123 101 0
14.080000 24.640000 18.260000 143 124 102 0
14.300000 24.640000 19.580000 143 124 102 0
14.520000 24.640000 19.580000 144 125 103 0
14.740000 24.640000 19.580000 146 131 107 0
14.960000 24.640000 20.900000 149 134 110 0
15.180000 24.640000 21.120000 153 136 113 0
15.400000 24.640000 21.120000 154 137 114 0
15.620000 24.640000 19.800000 155 138 115 0
15.840000 24.640000 18.480000 156 139 116 0
16.060000 24.640000 18.260000 156 139 114 0
16.280000 24.640000 18.260000 156 139 114 0
16.500000 24.640000 18.260000 155 140 116 0
16.720000 24.640000 18.260000 156 141 117 0
16.940000 24.640000 16.940000 157 140 115 0
17.160000 24.640000 16.940000 158 141 116 0
17.380000 24.640000 16.940000 158 141 118 0
17.600000 24.640000 16.940000 158 141 118 0
17.820000 24.640000 16.940000 158 143 117 0
18.040000 24.640000 17.160000 158 143 117 0
18.260000 24.640000 17.380000 158 141 116 0
18.480000 24.640000 18.700000 157 140 115 0
18.700000 24.640000 20.240000 162 137 110 0
18.920000 24.640000 21.560000 160 135 108 0
19.140000 24.640000 23.100000 167 129 105 0
19.360000 24.640000 23.100000 163 125 101 0
19.580000 24.640000 21.780000 161 118 96 0
19.800000 24.640000 21.780000 156 113 91 0
20.020000 24.640000 21.780000 156 110 89 0
20.240000 24.640000 22.000000 156 110 89 0
20.460000 24.640000 22.000000 157 112 88 0
20.680000 24.640000 21.780000 157 112 88 0
20.900000 24.640000 20.020000 157 114 90 0
21.120000 24.640000 21.120000 158 115 91 0
21.340000 24.640000 21.120000 162 114 87 0
21.560000 24.640000 21.560000 168 120 93 0
21.780000 24.640000 21.780000 172 118 89 0
22.000000 24.640000 20.460000 169 115 86 0
22.220000 24.640000 18.920000 172 109 86 0
22.440000 24.640000 17.600000 164 101 78 0
22.660000 24.640000 16.280000 158 96 70 0
22.880000 24.640000 13.420000 157 95 69 0
23.100000 24.640000 11.660000 159 94 69 0
23.320000 24.640000 11.220000 159 94 69 0
23.540000 24.640000 11.220000 159 93 66 0
23.760000 24.640000 11.220000 158 92 65 0
23.980000 24.640000 11.440000 158 92 65 0
24.200000 24.640000 11.440000 157 91 64 0
24.420000 24.640000 11.660000 156 90 61 0
24.640000 24.640000 12.760000 156 90 61 0
24.860000 24.640000 14.080000 158 90 62 0
25.080000 24.640000 14.080000 158 90 62 0
25.300000 24.640000 14.300000 158 91 60 0
25.520000 24.640000 14.300000 157 90 59 0
25.740000 24.640000 15.620000 159 89 59 0
25.960000 24.640000 15.620000 158 88 58 0
26.180000 24.640000 15.620000 158 88 58 0
26.400000 24.640000 17.160000 159 89 59 0
26.620000 24.640000 18.700000 159 89 61 0
26.840000 24.640000 20.020000 158 88 60 0
27.060000 24.640000 22.880000 160 88 59 0
27.280000 24.640000 25.520000 161 89 60 0
27.500000 24.640000 27.060000 161 89 60 0
27.720000 24.640000 29.700000 161 89 60 0
27.940000 24.640000 31.240000 159 87 58 0
28.160000 24.640000 31.240000 157 85 56 0
28.380000 24.640000 31.240000 158 80 53 0
28.600000 24.640000 29.920000 154 76 49 0
28.820000 24.640000 25.740000 151 73 45 0
29.040000 24.640000 17.600000 151 73 45 0
29.260000 24.640000 12.100000 151 70 44 0
29.480000 24.640000 9.240000 150 69 43 0
29.700000 24.640000 9.460000 150 69 43 0
29.920000 24.640000 10.780000 149 68 42 0
30.140000 24.640000 10.780000 148 68 40 0
30.360000 24.640000 10.780000 149 69 41 0
30.580000 24.640000 9.460000 147 66 40 0
30.800000 24.640000 9.460000 147 66 40 0
31.020000 24.640000 9.460000 147 66 40 0
31.240000 24.640000 9.460000 147 66 40 0
31.460000 24.640000 9.460000 148 67 41 0
31.680000 24.640000 9.460000 147 66 40 0
31.900000 24.640000 9.460000 147 66 40 0
32.120000 24.640000 9.460000 147 66 40 0
32.340000 24.640000 9.680000 147 66 40 0
32.560000 24.640000 9.680000 145 64 38 0
32.780000 24.640000 10.780000 146 65 39 0
33.000000 24.640000 11.440000 147 66 40 0
33.220000 24.640000 12.540000 147 66 40 0
33.440000 24.640000 12.540000 148 67 41 0
33.660000 24.640000 12.540000 147 66 40 0
33.880000 24.640000 12.760000 146 65 39 0
34.100000 24.640000 14.080000 145 67 40 0
34.320000 24.640000 14.080000 146 68 41 0
34.540000 24.640000 14.300000 149 68 42 0
34.760000 24.640000 14.300000 149 68 42 0
34.980000 24.640000 12.980000 149 68 42 0
35.200000 24.640000 12.980000 152 71 45 0
35.420000 24.640000 12.980000 152 71 45 0
35.640000 24.640000 12.980000 153 72 46 0
35.860000 24.640000 14.520000 151 73 45 0
36.080000 24.640000 14.520000 151 73 45 0
36.300000 24.640000 13.200000 153 72 46 0
36.520000 24.640000 11.880000 152 71 45 0
36.740000 24.640000 14.740000 149 68 42 0
36.960000 24.640000 18.920000 147 66 40 0
37.180000 24.640000 20.240000 146 65 39 0
0.000000 24.860000 17.160000 221 214 191 0
0.220000 24.860000 8.800000 222 215 192 0
0.440000 24.860000 0.660000 222 215 192 0
0.660000 24.860000 0.660000 222 215 191 0
0.880000 24.860000 0.880000 221 214 190 0
1.100000 24.860000 7.920000 221 214 191 0
1.320000 24.860000 14.740000 221 214 191 0
1.540000 24.860000 6.600000 221 214 191 0
2.420000 24.860000 10.120000 220 213 189 0
2.640000 24.860000 22.220000 221 214 190 0
2.860000 24.860000 22.220000 221 214 190 0
3.080000 24.860000 20.900000 220 213 189 0
3.300000 24.860000 9.900000 220 213 190 0
3.520000 24.860000 0.220000 221 214 191 0
3.740000 24.860000 0.440000 221 214 191 0
3.960000 24.860000 0.440000 220 213 190 0
4.180000 24.860000 1.760000 220 215 190 0
4.400000 24.860000 1.980000 217 212 187 0
4.620000 24.860000 1.980000 218 211 187 0
4.840000 24.860000 1.980000 218 211 187 0
5.060000 24.860000 2.200000 219 212 189 0
5.280000 24.860000 2.200000 219 212 189 0
5.500000 24.860000 2.200000 218 211 187 0
5.720000 24.860000 2.200000 217 210 186 0
5.940000 24.860000 2.200000 214 209 184 0
6.160000 24.860000 3.740000 213 208 183 0
6.380000 24.860000 3.740000 214 207 183 0
6.600000 24.860000 3.960000 212 205 181 0
6.820000 24.860000 3.960000 209 204 177 0
7.040000 24.860000 3.960000 206 201 174 0
7.260000 24.860000 3.960000 207 197 169 0
7.480000 24.860000 6.600000 200 190 162 0
7.700000 24.860000 8.580000 198 178 148 0
7.920000 24.860000 8.360000 192 172 142 0
8.140000 24.860000 8.360000 188 164 131 0
8.360000 24.860000 8.580000 180 156 123 0
8.580000 24.860000 7.260000 177 149 120 0
8.800000 24.860000 7.260000 175 147 118 0
9.020000 24.860000 5.940000 174 144 115 0
9.240000 24.860000 7.260000 171 141 112 0
9.460000 24.860000 7.480000 171 141 110 0
9.680000 24.860000 8.800000 168 138 107 0
9.900000 24.860000 10.120000 167 137 108 0
10.120000 24.860000 11.660000 165 135 106 0
10.340000 24.860000 11.660000 159 134 109 0
10.560000 24.860000 11.660000 156 131 106 0
10.780000 24.860000 11.660000 149 128 106 0
11.000000 24.860000 11.660000 146 125 103 0
11.220000 24.860000 11.880000 143 124 102 0
11.440000 24.860000 11.880000 143 124 102 0
11.660000 24.860000 12.100000 143 124 102 0
11.880000 24.860000 13.200000 144 125 103 0
12.100000 24.860000 15.620000 144 125 103 0
12.320000 24.860000 16.940000 144 125 103 0
12.540000 24.860000 17.160000 144 125 103 0
12.760000 24.860000 17.380000 144 125 103 0
12.980000 24.860000 17.380000 143 126 103 0
13.200000 24.860000 16.280000 143 126 103 0
13.420000 24.860000 16.280000 143 124 102 0
13.640000 24.860000 16.500000 143 124 102 0
13.860000 24.860000 16.280000 142 123 101 0
14.080000 24.860000 18.480000 141 122 100 0
14.300000 24.860000 19.580000 143 124 102 0
14.520000 24.860000 19.580000 144 125 103 0
14.740000 24.860000 19.580000 146 131 107 0
14.960000 24.860000 20.900000 148 133 109 0
15.180000 24.860000 20.900000 152 135 112 0
15.400000 24.860000 21.120000 153 136 113 0
15.620000 24.860000 19.800000 154 137 114 0
15.840000 24.860000 18.480000 155 138 115 0
16.060000 24.860000 18.260000 156 139 114 0
16.280000 24.860000 18.260000 155 138 113 0
16.500000 24.860000 19.580000 155 140 116 0
16.720000 24.860000 18.260000 155 140 116 0
16.940000 24.860000 18.260000 157 140 115 0
17.160000 24.860000 16.940000 157 140 115 0
17.380000 24.860000 16.940000 158 141 118 0
17.600000 24.860000 16.940000 158 141 118 0
17.820000 24.860000 17.160000 157 142 116 0
18.040000 24.860000 17.160000 158 143 117 0
18.260000 24.860000 18.700000 158 141 116 0
18.480000 24.860000 18.700000 157 140 115 0
18.700000 24.860000 20.240000 162 137 110 0
18.920000 24.860000 21.560000 158 133 106 0
19.140000 24.860000 23.100000 162 124 100 0
19.360000 24.860000 23.100000 158 120 96 0
19.580000 24.860000 21.780000 155 112 90 0
19.800000 24.860000 21.780000 153 110 88 0
20.020000 24.860000 22.000000 155 109 88 0
20.240000 24.860000 22.000000 156 110 89 0
20.460000 24.860000 21.780000 157 112 88 0
20.680000 24.860000 21.340000 158 113 89 0
20.900000 24.860000 21.120000 157 114 90 0
21.120000 24.860000 20.900000 159 116 92 0
21.340000 24.860000 21.120000 165 117 90 0
21.560000 24.860000 21.560000 170 122 95 0
21.780000 24.860000 21.560000 173 119 90 0
22.000000 24.860000 20.460000 169 115 86 0
22.220000 24.860000 17.600000 171 108 85 0
22.440000 24.860000 16.280000 160 97 74 0
22.660000 24.860000 13.640000 158 96 70 0
22.880000 24.860000 13.200000 157 95 69 0
23.100000 24.860000 11.440000 159 94 69 0
23.320000 24.860000 11.220000 158 93 68 0
23.540000 24.860000 11.220000 159 93 66 0
23.760000 24.860000 11.440000 158 92 65 0
23.980000 24.860000 11.440000 157 91 64 0
24.200000 24.860000 11.660000 157 91 64 0
24.420000 24.860000 12.980000 157 91 62 0
24.640000 24.860000 12.980000 157 91 62 0
24.860000 24.860000 14.080000 158 90 62 0
25.080000 24.860000 14.080000 157 89 61 0
25.300000 24.860000 14.300000 157 90 59 0
25.520000 24.860000 14.300000 157 90 59 0
25.740000 24.860000 15.620000 158 88 58 0
25.960000 24.860000 15.620000 157 87 57 0
26.180000 24.860000 17.160000 158 88 58 0
26.400000 24.860000 17.160000 157 87 57 0
26.620000 24.860000 18.700000 158 88 60 0
26.840000 24.860000 21.340000 158 88 60 0
27.060000 24.860000 24.200000 161 89 60 0
27.280000 24.860000 27.060000 161 89 60 0
27.500000 24.860000 28.380000 160 88 59 0
27.720000 24.860000 29.700000 158 86 57 0
27.940000 24.860000 31.240000 157 85 56 0
28.160000 24.860000 31.240000 156 84 55 0
28.380000 24.860000 31.240000 155 77 50 0
28.600000 24.860000 28.600000 152 74 47 0
28.820000 24.860000 20.240000 150 72 44 0
29.040000 24.860000 13.420000 150 72 44 0
29.260000 24.860000 10.780000 149 68 42 0
29.480000 24.860000 10.780000 150 69 43 0
29.700000 24.860000 10.780000 149 68 42 0
29.920000 24.860000 10.780000 149 68 42 0
30.140000 24.860000 10.780000 149 69 41 0
30.360000 24.860000 10.780000 147 67 39 0
30.580000 24.860000 9.460000 148 67 41 0
30.800000 24.860000 9.460000 147 66 40 0
31.020000 24.860000 9.460000 147 66 40 0
31.240000 24.860000 9.460000 146 65 39 0
31.460000 24.860000 9.460000 148 67 41 0
31.680000 24.860000 9.460000 148 67 41 0
31.900000 24.860000 9.460000 148 67 41 0
32.120000 24.860000 9.460000 147 66 40 0
32.340000 24.860000 9.680000 147 66 40 0
32.560000 24.860000 9.680000 145 64 38 0
32.780000 24.860000 10.780000 146 65 39 0
33.000000 24.860000 11.440000 145 64 38 0
33.220000 24.860000 12.540000 147 66 40 0
33.440000 24.860000 12.540000 146 65 39 0
33.660000 24.860000 12.760000 146 65 39 0
33.880000 24.860000 12.760000 146 65 39 0
34.100000 24.860000 14.080000 145 67 40 0
34.320000 24.860000 14.080000 146 68 41 0
34.540000 24.860000 14.300000 148 67 41 0
34.760000 24.860000 12.980000 150 69 43 0
34.980000 24.860000 12.980000 150 69 43 0
35.200000 24.860000 12.980000 151 70 44 0
35.420000 24.860000 13.200000 152 71 45 0
35.640000 24.860000 13.200000 152 71 45 0
35.860000 24.860000 13.200000 149 71 43 0
36.080000 24.860000 13.200000 149 71 43 0
36.300000 24.860000 13.420000 151 70 44 0
36.520000 24.860000 11.880000 150 69 43 0
36.740000 24.860000 14.740000 149 68 42 0
36.960000 24.860000 18.700000 146 65 39 0
37.180000 24.860000 20.240000 145 64 38 0
0.000000 25.080000 22.660000 221 214 191 0
0.220000 25.080000 11.660000 222 215 192 0
0.440000 25.080000 0.660000 221 214 191 0
0.660000 25.080000 0.660000 221 214 190 0
1.100000 25.080000 10.560000 221 214 190 0
1.320000 25.080000 20.460000 221 214 190 0
1.540000 25.080000 9.460000 221 214 190 0
2.420000 25.080000 11.440000 221 214 190 0
2.640000 25.080000 22.220000 221 214 190 0
2.860000 25.080000 20.900000 220 213 189 0
3.080000 25.080000 20.900000 221 214 190 0
3.300000 25.080000 9.900000 221 214 190 0
3.520000 25.080000 0.220000 220 213 189 0
3.740000 25.080000 0.440000 220 213 190 0
3.960000 25.080000 0.440000 220 213 190 0
4.180000 25.080000 1.760000 220 213 189 0
4.400000 25.080000 1.980000 219 212 188 0
4.620000 25.080000 1.980000 219 212 188 0
4.840000 25.080000 1.980000 218 211 187 0
5.060000 25.080000 2.200000 218 211 187 0
5.280000 25.080000 2.200000 218 211 187 0
5.500000 25.080000 2.200000 218 211 187 0
5.720000 25.080000 2.200000 218 211 187 0
5.940000 25.080000 2.200000 215 208 184 0
6.160000 25.080000 3.740000 214 207 183 0
6.380000 25.080000 3.740000 212 207 180 0
6.600000 25.080000 3.960000 210 205 178 0
6.820000 25.080000 3.960000 209 203 176 0
7.040000 25.080000 3.960000 207 201 174 0
7.260000 25.080000 3.960000 208 193 165 0
7.480000 25.080000 6.600000 200 185 157 0
7.700000 25.080000 8.580000 198 173 140 0
7.920000 25.080000 8.360000 190 165 132 0
8.140000 25.080000 8.360000 187 157 126 0
8.360000 25.080000 7.040000 182 152 121 0
8.580000 25.080000 7.260000 179 147 119 0
8.800000 25.080000 7.260000 177 145 117 0
9.020000 25.080000 5.940000 173 141 111 0
9.240000 25.080000 7.260000 172 140 110 0
9.460000 25.080000 7.480000 169 139 108 0
9.680000 25.080000 8.800000 168 138 107 0
9.900000 25.080000 10.120000 166 138 111 0
10.120000 25.080000 11.660000 163 135 108 0
10.340000 25.080000 11.660000 159 134 109 0
10.560000 25.080000 11.660000 156 131 106 0
10.780000 25.080000 11.660000 148 127 103 0
11.000000 25.080000 11.660000 145 124 100 0
11.220000 25.080000 11.880000 145 124 100 0
11.440000 25.080000 12.100000 145 124 100 0
11.660000 25.080000 12.100000 144 125 103 0
11.880000 25.080000 12.980000 143 124 102 0
12.100000 25.080000 15.400000 143 125 100 0
12.320000 25.080000 16.940000 142 124 99 0
12.540000 25.080000 17.160000 144 125 103 0
12.760000 25.080000 17.380000 144 125 103 0
12.980000 25.080000 17.380000 143 124 102 0
13.200000 25.080000 16.280000 144 125 103 0
13.420000 25.080000 16.280000 143 124 102 0
13.640000 25.080000 16.500000 143 124 102 0
13.860000 25.080000 16.060000 141 123 98 0
14.080000 25.080000 18.260000 141 123 98 0
14.300000 25.080000 19.580000 142 123 101 0
14.520000 25.080000 19.580000 144 125 103 0
14.740000 25.080000 19.580000 146 129 106 0
14.960000 25.080000 20.900000 149 132 109 0
15.180000 25.080000 20.900000 151 134 111 0
15.400000 25.080000 21.120000 151 134 111 0
15.620000 25.080000 19.800000 154 136 111 0
15.840000 25.080000 18.480000 154 136 111 0
16.060000 25.080000 18.260000 155 138 113 0
16.280000 25.080000 19.580000 155 138 113 0
16.500000 25.080000 19.580000 156 139 114 0
16.720000 25.080000 18.260000 156 139 114 0
16.940000 25.080000 18.260000 157 142 116 0
17.160000 25.080000 18.260000 156 141 115 0
17.380000 25.080000 16.940000 159 141 116 0
17.600000 25.080000 17.160000 159 141 116 0
17.820000 25.080000 17.160000 159 142 117 0
18.040000 25.080000 18.700000 157 140 115 0
18.260000 25.080000 18.700000 156 139 114 0
18.480000 25.080000 20.240000 157 140 115 0
18.700000 25.080000 21.560000 165 134 108 0
18.920000 25.080000 21.780000 161 130 104 0
19.140000 25.080000 23.100000 159 118 95 0
19.360000 25.080000 21.780000 155 114 91 0
19.580000 25.080000 21.780000 152 109 87 0
19.800000 25.080000 21.780000 153 110 88 0
20.020000 25.080000 22.000000 156 109 86 0
20.240000 25.080000 22.000000 158 111 88 0
20.460000 25.080000 21.780000 158 113 89 0
20.680000 25.080000 21.120000 159 114 90 0
20.900000 25.080000 20.900000 161 113 88 0
21.120000 25.080000 20.900000 162 114 89 0
21.340000 25.080000 21.120000 171 117 88 0
21.560000 25.080000 21.560000 173 119 90 0
21.780000 25.080000 20.240000 174 118 92 0
22.000000 25.080000 18.920000 173 117 91 0
22.220000 25.080000 16.280000 166 104 78 0
22.440000 25.080000 14.960000 158 96 70 0
22.660000 25.080000 13.420000 158 96 70 0
22.880000 25.080000 12.980000 158 96 70 0
23.100000 25.080000 12.760000 158 96 70 0
23.320000 25.080000 11.220000 157 95 69 0
23.540000 25.080000 11.440000 160 94 65 0
23.760000 25.080000 11.440000 158 92 63 0
23.980000 25.080000 11.660000 158 92 63 0
24.200000 25.080000 12.980000 157 91 62 0
24.420000 25.080000 12.980000 158 90 62 0
24.640000 25.080000 12.980000 157 89 61 0
24.860000 25.080000 14.300000 157 89 63 0
25.080000 25.080000 14.080000 156 88 62 0
25.300000 25.080000 14.300000 159 89 59 0
25.520000 25.080000 15.620000 158 88 58 0
25.740000 25.080000 15.620000 158 88 58 0
25.960000 25.080000 15.620000 157 87 57 0
26.180000 25.080000 17.160000 157 87 57 0
26.400000 25.080000 18.700000 157 87 57 0
26.620000 25.080000 20.020000 159 89 61 0
26.840000 25.080000 21.340000 160 90 62 0
27.060000 25.080000 25.520000 160 90 60 0
27.280000 25.080000 27.060000 160 90 60 0
27.500000 25.080000 29.700000 160 89 58 0
27.720000 25.080000 29.920000 156 85 54 0
27.940000 25.080000 31.240000 158 82 54 0
28.160000 25.080000 31.240000 155 79 51 0
28.380000 25.080000 31.240000 152 74 47 0
28.600000 25.080000 27.280000 151 73 46 0
28.820000 25.080000 17.600000 150 72 45 0
29.040000 25.080000 12.100000 148 70 43 0
29.260000 25.080000 10.780000 148 70 42 0
29.480000 25.080000 10.780000 146 68 40 0
29.700000 25.080000 10.780000 148 68 40 0
29.920000 25.080000 10.780000 148 68 40 0
30.140000 25.080000 10.780000 148 67 41 0
30.360000 25.080000 9.460000 147 66 40 0
30.580000 25.080000 9.460000 147 66 40 0
30.800000 25.080000 9.460000 146 65 39 0
31.020000 25.080000 8.140000 146 65 39 0
31.240000 25.080000 8.140000 146 65 39 0
31.460000 25.080000 9.460000 147 66 40 0
31.680000 25.080000 9.460000 147 66 40 0
31.900000 25.080000 9.460000 147 66 40 0
32.120000 25.080000 9.680000 147 66 40 0
32.340000 25.080000 9.460000 146 65 39 0
32.560000 25.080000 9.460000 145 64 38 0
32.780000 25.080000 10.560000 145 64 38 0
33.000000 25.080000 11.440000 145 64 38 0
33.220000 25.080000 12.540000 145 64 38 0
33.440000 25.080000 12.540000 146 65 39 0
33.660000 25.080000 12.760000 145 64 38 0
33.880000 25.080000 14.080000 146 65 39 0
34.100000 25.080000 14.080000 147 66 40 0
34.320000 25.080000 14.080000 147 66 40 0
34.540000 25.080000 14.300000 147 69 42 0
34.760000 25.080000 12.980000 149 71 44 0
34.980000 25.080000 12.980000 149 71 44 0
35.200000 25.080000 12.980000 149 71 44 0
35.420000 25.080000 11.660000 152 71 45 0
35.640000 25.080000 11.880000 151 70 44 0
35.860000 25.080000 11.880000 150 69 43 0
36.080000 25.080000 11.880000 150 69 43 0
36.300000 25.080000 11.880000 147 69 42 0
36.520000 25.080000 11.880000 146 68 41 0
36.740000 25.080000 13.420000 145 67 40 0
36.960000 25.080000 18.700000 143 65 38 0
37.180000 25.080000 20.020000 144 63 37 0
0.000000 25.300000 22.660000 220 213 190 0
0.220000 25.300000 11.660000 220 213 190 0
0.440000 25.300000 0.660000 221 214 191 0
0.660000 25.300000 0.660000 220 213 189 0
1.100000 25.300000 9.240000 219 212 188 0
1.320000 25.300000 18.920000 219 212 188 0
1.540000 25.300000 9.460000 220 213 189 0
2.420000 25.300000 11.440000 220 213 189 0
2.640000 25.300000 22.220000 220 213 189 0
2.860000 25.300000 20.900000 219 212 188 0
3.080000 25.300000 20.900000 219 212 188 0
3.300000 25.300000 9.900000 220 213 189 0
3.520000 25.300000 0.220000 219 212 188 0
3.740000 25.300000 0.440000 219 212 189 0
3.960000 25.300000 1.760000 219 212 189 0
4.180000 25.300000 1.760000 219 212 188 0
4.400000 25.300000 0.440000 218 211 187 0
4.620000 25.300000 1.980000 218 211 187 0
4.840000 25.300000 1.980000 217 210 186 0
5.060000 25.300000 2.200000 218 211 187 0
5.280000 25.300000 2.200000 217 210 186 0
5.500000 25.300000 2.200000 217 210 186 0
5.720000 25.300000 2.200000 217 210 186 0
5.940000 25.300000 2.200000 215 208 184 0
6.160000 25.300000 2.420000 213 206 182 0
6.380000 25.300000 3.740000 211 206 179 0
6.600000 25.300000 3.960000 209 204 177 0
6.820000 25.300000 3.960000 208 202 175 0
7.040000 25.300000 3.960000 206 200 173 0
7.260000 25.300000 3.960000 205 190 162 0
7.480000 25.300000 6.600000 196 181 153 0
7.700000 25.300000 7.480000 195 170 137 0
7.920000 25.300000 8.360000 186 161 128 0
8.140000 25.300000 8.360000 184 154 123 0
8.360000 25.300000 7.040000 179 149 118 0
8.580000 25.300000 7.260000 177 145 117 0
8.800000 25.300000 5.940000 175 143 115 0
9.020000 25.300000 5.940000 173 141 111 0
9.240000 25.300000 7.260000 170 138 108 0
9.460000 25.300000 8.800000 168 138 107 0
9.680000 25.300000 8.800000 167 137 106 0
9.900000 25.300000 10.120000 162 134 107 0
10.120000 25.300000 11.660000 162 134 107 0
10.340000 25.300000 11.660000 158 133 108 0
10.560000 25.300000 11.660000 156 131 106 0
10.780000 25.300000 11.660000 147 126 102 0
11.000000 25.300000 11.660000 145 124 100 0
11.220000 25.300000 11.880000 145 124 100 0
11.440000 25.300000 10.560000 145 124 100 0
11.660000 25.300000 11.880000 143 124 102 0
11.880000 25.300000 14.300000 143 124 102 0
12.100000 25.300000 15.620000 142 124 99 0
12.320000 25.300000 17.160000 142 124 99 0
12.540000 25.300000 17.160000 143 124 102 0
12.760000 25.300000 17.380000 143 124 102 0
12.980000 25.300000 17.380000 143 124 102 0
13.200000 25.300000 17.600000 143 124 102 0
13.420000 25.300000 16.280000 143 124 102 0
13.640000 25.300000 16.500000 141 122 100 0
13.860000 25.300000 17.600000 140 122 97 0
14.080000 25.300000 18.260000 140 122 97 0
14.300000 25.300000 19.360000 141 122 100 0
14.520000 25.300000 19.580000 143 124 102 0
14.740000 25.300000 19.580000 145 128 105 0
14.960000 25.300000 20.900000 148 131 108 0
15.180000 25.300000 20.900000 151 134 111 0
15.400000 25.300000 19.800000 151 134 111 0
15.620000 25.300000 19.800000 154 136 111 0
15.840000 25.300000 18.480000 154 136 111 0
16.060000 25.300000 18.260000 154 137 112 0
16.280000 25.300000 19.580000 154 137 112 0
16.500000 25.300000 19.580000 155 138 113 0
16.720000 25.300000 19.580000 155 138 113 0
16.940000 25.300000 18.260000 156 141 115 0
17.160000 25.300000 16.940000 156 141 115 0
17.380000 25.300000 16.940000 159 141 116 0
17.600000 25.300000 17.160000 158 140 115 0
17.820000 25.300000 18.700000 157 140 115 0
18.040000 25.300000 18.700000 157 140 115 0
18.260000 25.300000 20.240000 156 139 114 0
18.480000 25.300000 20.240000 155 138 113 0
18.700000 25.300000 21.560000 161 130 104 0
18.920000 25.300000 21.780000 156 125 99 0
19.140000 25.300000 21.780000 157 116 93 0
19.360000 25.300000 21.780000 151 110 87 0
19.580000 25.300000 21.780000 153 110 88 0
19.800000 25.300000 22.000000 153 110 88 0
20.020000 25.300000 22.000000 157 110 87 0
20.240000 25.300000 22.000000 158 111 88 0
20.460000 25.300000 20.240000 159 114 90 0
20.680000 25.300000 21.120000 158 113 89 0
20.900000 25.300000 22.220000 160 112 87 0
21.120000 25.300000 22.220000 162 114 89 0
21.340000 25.300000 22.440000 169 115 86 0
21.560000 25.300000 21.340000 170 116 87 0
21.780000 25.300000 20.240000 171 115 89 0
22.000000 25.300000 17.600000 169 113 87 0
22.220000 25.300000 14.960000 160 98 72 0
22.440000 25.300000 13.640000 157 95 69 0
22.660000 25.300000 14.740000 156 94 68 0
22.880000 25.300000 14.300000 157 95 69 0
23.100000 25.300000 12.760000 157 95 69 0
23.320000 25.300000 12.760000 157 95 69 0
23.540000 25.300000 11.440000 159 93 64 0
23.760000 25.300000 11.440000 158 92 63 0
23.980000 25.300000 12.980000 157 91 62 0
24.200000 25.300000 12.980000 157 91 62 0
24.420000 25.300000 12.980000 157 89 61 0
24.640000 25.300000 14.520000 157 89 61 0
24.860000 25.300000 14.300000 156 88 62 0
25.080000 25.300000 14.300000 155 87 61 0
25.300000 25.300000 15.620000 158 88 58 0
25.520000 25.300000 15.620000 157 87 57 0
25.740000 25.300000 15.620000 157 87 57 0
25.960000 25.300000 15.620000 156 86 56 0
26.180000 25.300000 17.160000 157 87 57 0
26.400000 25.300000 18.700000 157 87 57 0
26.620000 25.300000 20.020000 158 88 60 0
26.840000 25.300000 22.880000 160 90 62 0
27.060000 25.300000 25.520000 160 90 60 0
27.280000 25.300000 28.380000 160 90 60 0
27.500000 25.300000 29.920000 159 88 57 0
27.720000 25.300000 31.240000 156 85 54 0
27.940000 25.300000 31.240000 155 79 51 0
28.160000 25.300000 31.240000 152 76 48 0
28.380000 25.300000 29.920000 151 73 46 0
28.600000 25.300000 23.100000 149 71 44 0
28.820000 25.300000 14.960000 148 70 43 0
29.040000 25.300000 10.780000 148 70 43 0
29.260000 25.300000 10.780000 147 69 41 0
29.480000 25.300000 10.780000 146 68 40 0
29.700000 25.300000 10.780000 149 69 41 0
29.920000 25.300000 9.460000 147 67 39 0
30.140000 25.300000 9.460000 147 66 40 0
30.360000 25.300000 9.460000 147 66 40 0
30.580000 25.300000 9.460000 146 65 39 0
30.800000 25.300000 8.140000 146 65 39 0
31.020000 25.300000 8.140000 146 65 39 0
31.240000 25.300000 8.140000 146 65 39 0
31.460000 25.300000 9.460000 146 65 39 0
31.680000 25.300000 9.460000 147 66 40 0
31.900000 25.300000 9.680000 146 65 39 0
32.120000 25.300000 9.460000 146 65 39 0
32.340000 25.300000 10.560000 145 64 38 0
32.560000 25.300000 10.340000 146 65 39 0
32.780000 25.300000 10.560000 144 63 37 0
33.000000 25.300000 11.440000 144 63 37 0
33.220000 25.300000 12.540000 146 65 39 0
33.440000 25.300000 12.540000 146 65 39 0
33.660000 25.300000 12.760000 145 64 38 0
33.880000 25.300000 14.080000 145 64 38 0
34.100000 25.300000 14.080000 147 66 40 0
34.320000 25.300000 14.080000 148 67 41 0
34.540000 25.300000 14.300000 149 71 44 0
34.760000 25.300000 12.980000 149 71 44 0
34.980000 25.300000 12.980000 149 71 44 0
35.200000 25.300000 13.200000 149 71 44 0
35.420000 25.300000 11.880000 150 69 43 0
35.640000 25.300000 11.880000 149 68 42 0
35.860000 25.300000 11.880000 149 68 42 0
36.080000 25.300000 11.880000 147 66 40 0
36.300000 25.300000 11.880000 145 67 40 0
36.520000 25.300000 12.100000 144 66 39 0
36.740000 25.300000 13.420000 143 65 38 0
36.960000 25.300000 17.380000 144 66 39 0
37.180000 25.300000 20.020000 144 63 37 0
0.000000 25.520000 21.340000 220 213 190 0
0.220000 25.520000 11.660000 218 213 189 0
0.440000 25.520000 0.660000 217 212 188 0
1.100000 25.520000 9.240000 219 212 188 0
1.320000 25.520000 18.920000 218 211 187 0
1.540000 25.520000 9.460000 219 212 189 0
2.420000 25.520000 11.440000 217 212 188 0
2.640000 25.520000 22.220000 218 213 189 0
2.860000 25.520000 20.900000 219 212 188 0
3.080000 25.520000 20.900000 218 211 187 0
3.300000 25.520000 9.900000 218 211 188 0
3.520000 25.520000 0.220000 217 210 187 0
3.740000 25.520000 0.440000 217 212 187 0
3.960000 25.520000 1.760000 216 211 186 0
4.180000 25.520000 1.760000 216 211 187 0
4.400000 25.520000 0.440000 216 211 187 0
4.620000 25.520000 0.660000 216 209 185 0
4.840000 25.520000 0.660000 217 210 186 0
5.060000 25.520000 0.660000 216 209 185 0
5.280000 25.520000 0.880000 216 209 185 0
5.500000 25.520000 0.880000 215 210 185 0
5.720000 25.520000 0.880000 215 210 185 0
5.940000 25.520000 2.200000 214 209 185 0
6.160000 25.520000 2.420000 211 206 182 0
6.380000 25.520000 2.420000 211 204 180 0
6.600000 25.520000 2.420000 210 203 179 0
6.820000 25.520000 2.640000 205 201 169 0
7.040000 25.520000 3.960000 201 197 165 0
7.260000 25.520000 3.960000 202 185 152 0
7.480000 25.520000 5.280000 191 174 141 0
7.700000 25.520000 6.380000 190 165 130 0
7.920000 25.520000 7.260000 180 155 120 0
8.140000 25.520000 7.040000 178 153 120 0
8.360000 25.520000 7.040000 174 149 116 0
8.580000 25.520000 7.260000 171 145 115 0
8.800000 25.520000 5.940000 169 143 113 0
9.020000 25.520000 7.260000 171 141 110 0
9.240000 25.520000 7.480000 168 138 107 0
9.460000 25.520000 8.800000 166 136 107 0
9.680000 25.520000 10.120000 165 135 106 0
9.900000 25.520000 10.120000 164 133 107 0
10.120000 25.520000 11.660000 164 133 107 0
10.340000 25.520000 11.660000 156 134 108 0
10.560000 25.520000 11.660000 152 130 104 0
10.780000 25.520000 11.660000 145 127 102 0
11.000000 25.520000 11.880000 142 124 99 0
11.220000 25.520000 11.880000 142 121 99 0
11.440000 25.520000 10.780000 144 123 101 0
11.660000 25.520000 11.880000 142 123 101 0
11.880000 25.520000 12.980000 142 123 101 0
12.100000 25.520000 14.520000 143 125 100 0
12.320000 25.520000 16.060000 141 123 98 0
12.540000 25.520000 17.380000 141 123 98 0
12.760000 25.520000 17.380000 141 123 98 0
12.980000 25.520000 17.380000 142 123 101 0
13.200000 25.520000 17.600000 142 123 101 0
13.420000 25.520000 16.280000 142 124 99 0
13.640000 25.520000 16.500000 141 123 98 0
13.860000 25.520000 17.600000 142 121 97 0
14.080000 25.520000 18.260000 142 121 97 0
14.300000 25.520000 19.360000 140 122 97 0
14.520000 25.520000 19.580000 142 124 99 0
14.740000 25.520000 19.580000 144 127 104 0
14.960000 25.520000 20.900000 147 130 107 0
15.180000 25.520000 20.900000 150 133 110 0
15.400000 25.520000 19.800000 151 134 111 0
15.620000 25.520000 19.800000 153 135 110 0
15.840000 25.520000 18.480000 154 136 111 0
16.060000 25.520000 19.800000 154 137 114 0
16.280000 25.520000 19.580000 155 138 115 0
16.500000 25.520000 19.580000 155 138 113 0
16.720000 25.520000 19.580000 156 139 114 0
16.940000 25.520000 18.260000 156 139 114 0
17.160000 25.520000 16.940000 157 140 115 0
17.380000 25.520000 17.160000 158 140 115 0
17.600000 25.520000 17.160000 157 139 114 0
17.820000 25.520000 18.700000 157 140 115 0
18.040000 25.520000 18.700000 155 138 113 0
18.260000 25.520000 20.240000 155 137 110 0
18.480000 25.520000 21.560000 154 136 109 0
18.700000 25.520000 21.780000 159 121 97 0
18.920000 25.520000 21.780000 156 118 94 0
19.140000 25.520000 21.780000 154 111 87 0
19.360000 25.520000 21.780000 152 109 85 0
19.580000 25.520000 23.320000 154 109 83 0
19.800000 25.520000 23.320000 155 110 84 0
20.020000 25.520000 22.000000 157 112 88 0
20.240000 25.520000 20.680000 158 113 89 0
20.460000 25.520000 20.240000 158 113 89 0
20.680000 25.520000 22.440000 157 112 88 0
20.900000 25.520000 23.540000 162 111 87 0
21.120000 25.520000 23.760000 162 111 87 0
21.340000 25.520000 22.440000 166 112 83 0
21.560000 25.520000 21.120000 167 113 84 0
21.780000 25.520000 18.700000 169 108 84 0
22.000000 25.520000 16.280000 161 100 76 0
22.220000 25.520000 14.960000 157 95 69 0
22.440000 25.520000 14.740000 157 95 69 0
22.660000 25.520000 14.300000 159 94 67 0
22.880000 25.520000 14.080000 160 95 68 0
23.100000 25.520000 14.080000 159 95 65 0
23.320000 25.520000 12.760000 158 94 64 0
23.540000 25.520000 12.760000 158 93 66 0
23.760000 25.520000 12.980000 157 92 65 0
23.980000 25.520000 12.980000 158 92 63 0
24.200000 25.520000 12.980000 157 91 62 0
24.420000 25.520000 12.980000 156 88 60 0
24.640000 25.520000 14.520000 157 89 61 0
24.860000 25.520000 14.300000 156 89 58 0
25.080000 25.520000 14.300000 155 88 57 0
25.300000 25.520000 15.620000 156 86 56 0
25.520000 25.520000 15.620000 157 87 57 0
25.740000 25.520000 15.620000 155 85 55 0
25.960000 25.520000 17.160000 156 86 56 0
26.180000 25.520000 17.160000 157 87 57 0
26.400000 25.520000 20.020000 158 88 58 0
26.620000 25.520000 21.340000 159 89 58 0
26.840000 25.520000 24.200000 161 91 60 0
27.060000 25.520000 27.060000 161 90 59 0
27.280000 25.520000 29.920000 161 90 59 0
27.500000 25.520000 29.920000 161 87 57 0
27.720000 25.520000 31.240000 156 82 52 0
27.940000 25.520000 31.240000 154 76 49 0
28.160000 25.520000 31.460000 151 73 46 0
28.380000 25.520000 27.280000 151 71 43 0
28.600000 25.520000 17.600000 150 70 42 0
28.820000 25.520000 10.780000 150 70 42 0
29.040000 25.520000 10.780000 148 68 40 0
29.260000 25.520000 10.780000 146 68 41 0
29.480000 25.520000 10.780000 147 69 42 0
29.700000 25.520000 10.780000 148 67 41 0
29.920000 25.520000 9.460000 147 66 40 0
30.140000 25.520000 9.460000 148 67 41 0
30.360000 25.520000 9.460000 147 66 40 0
30.580000 25.520000 9.460000 145 64 38 0
30.800000 25.520000 8.140000 145 64 38 0
31.020000 25.520000 8.140000 143 65 38 0
31.240000 25.520000 8.140000 143 65 38 0
31.460000 25.520000 8.140000 145 65 37 0
31.680000 25.520000 9.680000 145 65 37 0
31.900000 25.520000 9.460000 145 64 38 0
32.120000 25.520000 10.560000 144 63 37 0
32.340000 25.520000 11.440000 144 63 37 0
32.560000 25.520000 11.440000 144 63 37 0
32.780000 25.520000 11.880000 144 63 37 0
33.000000 25.520000 11.440000 144 63 37 0
33.220000 25.520000 12.540000 145 64 38 0
33.440000 25.520000 12.540000 145 64 38 0
33.660000 25.520000 12.760000 145 64 38 0
33.880000 25.520000 14.080000 145 64 38 0
34.100000 25.520000 14.080000 146 65 39 0
34.320000 25.520000 14.080000 149 68 42 0
34.540000 25.520000 14.300000 150 69 43 0
34.760000 25.520000 12.980000 150 69 43 0
34.980000 25.520000 12.980000 151 71 43 0
35.200000 25.520000 11.660000 150 70 42 0
35.420000 25.520000 11.880000 148 67 41 0
35.640000 25.520000 10.560000 147 66 40 0
35.860000 25.520000 10.560000 147 66 40 0
36.080000 25.520000 12.100000 145 64 38 0
36.300000 25.520000 12.100000 145 64 38 0
36.520000 25.520000 12.100000 145 64 38 0
36.740000 25.520000 13.420000 144 63 37 0
36.960000 25.520000 17.380000 144 63 37 0
37.180000 25.520000 20.020000 145 64 38 0
0.000000 25.740000 21.340000 219 212 189 0
0.220000 25.740000 11.660000 218 213 189 0
0.440000 25.740000 0.660000 217 212 188 0
0.880000 25.740000 0.880000 218 213 189 0
1.100000 25.740000 14.740000 218 211 187 0
1.320000 25.740000 21.780000 218 211 187 0
1.540000 25.740000 7.920000 218 211 188 0
2.420000 25.740000 11.440000 217 212 188 0
2.640000 25.740000 24.860000 217 212 188 0
2.860000 25.740000 26.400000 217 210 186 0
3.080000 25.740000 23.760000 217 210 186 0
3.300000 25.740000 9.900000 217 210 187 0
3.520000 25.740000 0.220000 217 210 187 0
3.740000 25.740000 0.440000 215 210 185 0
3.960000 25.740000 1.760000 216 211 186 0
4.180000 25.740000 1.760000 215 210 186 0
4.400000 25.740000 0.440000 215 210 186 0
4.620000 25.740000 0.660000 216 209 185 0
4.840000 25.740000 0.660000 214 207 183 0
5.060000 25.740000 0.660000 216 209 185 0
5.280000 25.740000 0.660000 214 207 183 0
5.500000 25.740000 0.880000 213 208 183 0
5.720000 25.740000 0.880000 212 207 182 0
5.940000 25.740000 2.200000 211 206 182 0
6.160000 25.740000 2.420000 210 205 181 0
6.380000 25.740000 2.420000 209 202 178 0
6.600000 25.740000 2.420000 208 201 177 0
6.820000 25.740000 2.640000 203 199 167 0
7.040000 25.740000 3.960000 199 195 163 0
7.260000 25.740000 3.960000 196 179 146 0
7.480000 25.740000 5.500000 187 170 137 0
7.700000 25.740000 5.060000 185 160 125 0
7.920000 25.740000 7.260000 179 154 119 0
8.140000 25.740000 7.040000 174 149 116 0
8.360000 25.740000 7.040000 172 147 114 0
8.580000 25.740000 5.720000 169 143 113 0
8.800000 25.740000 5.940000 168 142 112 0
9.020000 25.740000 7.260000 167 137 106 0
9.240000 25.740000 7.480000 167 137 106 0
9.460000 25.740000 8.800000 165 135 106 0
9.680000 25.740000 10.120000 164 134 105 0
9.900000 25.740000 10.340000 164 133 107 0
10.120000 25.740000 11.660000 162 131 105 0
10.340000 25.740000 11.660000 156 134 108 0
10.560000 25.740000 11.660000 152 130 104 0
10.780000 25.740000 11.880000 144 126 101 0
11.000000 25.740000 11.880000 141 123 98 0
11.220000 25.740000 11.880000 142 121 99 0
11.440000 25.740000 10.780000 141 120 98 0
11.660000 25.740000 12.100000 140 121 99 0
11.880000 25.740000 13.200000 141 122 100 0
12.100000 25.740000 13.420000 143 125 100 0
12.320000 25.740000 14.960000 140 122 97 0
12.540000 25.740000 16.060000 140 122 97 0
12.760000 25.740000 17.380000 140 122 97 0
12.980000 25.740000 17.380000 140 121 99 0
13.200000 25.740000 16.060000 141 122 100 0
13.420000 25.740000 16.280000 141 123 98 0
13.640000 25.740000 16.500000 141 123 98 0
13.860000 25.740000 17.600000 141 120 96 0
14.080000 25.740000 18.480000 141 120 96 0
14.300000 25.740000 19.580000 140 122 97 0
14.520000 25.740000 19.580000 142 124 99 0
14.740000 25.740000 19.580000 144 127 104 0
14.960000 25.740000 20.900000 146 129 106 0
15.180000 25.740000 20.900000 149 132 109 0
15.400000 25.740000 19.800000 151 134 111 0
15.620000 25.740000 19.800000 153 135 110 0
15.840000 25.740000 19.800000 153 135 110 0
16.060000 25.740000 19.800000 153 136 113 0
16.280000 25.740000 19.580000 154 137 114 0
16.500000 25.740000 19.580000 154 137 112 0
16.720000 25.740000 19.580000 155 138 113 0
16.940000 25.740000 18.260000 157 140 115 0
17.160000 25.740000 17.160000 156 139 114 0
17.380000 25.740000 17.160000 157 139 114 0
17.600000 25.740000 18.700000 157 139 114 0
17.820000 25.740000 18.700000 156 139 114 0
18.040000 25.740000 20.240000 155 138 113 0
18.260000 25.740000 20.240000 154 136 109 0
18.480000 25.740000 21.780000 148 130 103 0
18.700000 25.740000 21.780000 156 118 94 0
18.920000 25.740000 21.780000 150 112 88 0
19.140000 25.740000 23.320000 152 109 85 0
19.360000 25.740000 23.320000 152 109 85 0
19.580000 25.740000 23.320000 154 109 83 0
19.800000 25.740000 22.000000 156 111 85 0
20.020000 25.740000 20.680000 157 112 88 0
20.240000 25.740000 20.680000 158 113 89 0
20.460000 25.740000 21.780000 156 111 87 0
20.680000 25.740000 23.980000 156 111 87 0
20.900000 25.740000 25.080000 159 108 84 0
21.120000 25.740000 23.760000 157 106 82 0
21.340000 25.740000 22.440000 160 106 77 0
21.560000 25.740000 19.580000 163 109 80 0
21.780000 25.740000 17.160000 162 101 77 0
22.000000 25.740000 14.740000 158 97 73 0
22.220000 25.740000 14.740000 158 96 70 0
22.440000 25.740000 14.300000 157 95 69 0
22.660000 25.740000 15.400000 160 95 68 0
22.880000 25.740000 14.080000 159 94 67 0
23.100000 25.740000 12.760000 160 96 66 0
23.320000 25.740000 12.980000 159 95 65 0
23.540000 25.740000 11.660000 158 93 66 0
23.760000 25.740000 12.980000 158 93 66 0
23.980000 25.740000 12.980000 157 91 62 0
24.200000 25.740000 12.980000 157 91 62 0
24.420000 25.740000 14.520000 156 88 60 0
24.640000 25.740000 14.520000 156 88 60 0
24.860000 25.740000 14.300000 156 89 58 0
25.080000 25.740000 14.300000 155 88 57 0
