ply
format ascii 1.0
element vertex 1105
property float x
property float y
property float z
property uchar red
property uchar green
property uchar blue
property uchar alpha
end_header
25.080000 14.520000 19.800000 216 196 167 0
25.300000 14.520000 19.800000 216 196 167 0
25.520000 14.520000 21.120000 217 197 167 0
25.740000 14.520000 21.340000 217 197 167 0
25.960000 14.520000 21.340000 216 199 168 0
26.180000 14.520000 21.340000 216 199 168 0
26.400000 14.520000 21.340000 216 198 169 0
26.620000 14.520000 21.340000 216 198 169 0
26.840000 14.520000 21.560000 218 198 169 0
27.060000 14.520000 21.560000 217 197 168 0
27.280000 14.520000 21.560000 217 197 167 0
27.500000 14.520000 21.560000 217 197 167 0
27.720000 14.520000 21.780000 214 197 166 0
27.940000 14.520000 21.780000 214 197 166 0
28.160000 14.520000 21.780000 215 195 165 0
28.380000 14.520000 21.780000 215 195 165 0
28.600000 14.520000 21.780000 214 194 165 0
28.820000 14.520000 22.000000 212 192 163 0
29.040000 14.520000 22.000000 214 192 163 0
29.260000 14.520000 23.320000 215 193 164 0
29.480000 14.520000 23.320000 213 193 163 0
29.700000 14.520000 23.320000 212 192 162 0
29.920000 14.520000 24.420000 215 189 159 0
30.140000 14.520000 23.760000 213 187 157 0
30.360000 14.520000 25.080000 222 177 151 0
30.580000 14.520000 25.080000 214 169 143 0
30.800000 14.520000 25.080000 214 159 134 0
31.020000 14.520000 25.080000 206 151 126 0
31.240000 14.520000 25.080000 196 149 118 0
31.460000 14.520000 25.080000 195 148 117 0
31.680000 14.520000 25.300000 192 151 120 0
31.900000 14.520000 26.620000 197 156 125 0
32.120000 14.520000 26.620000 198 158 130 0
32.340000 14.520000 26.620000 202 162 134 0
32.560000 14.520000 26.620000 196 168 139 0
32.780000 14.520000 26.620000 200 172 143 0
33.000000 14.520000 26.620000 203 177 149 0
33.220000 14.520000 26.620000 205 179 151 0
33.440000 14.520000 26.620000 209 185 154 0
33.660000 14.520000 26.840000 210 186 155 0
33.880000 14.520000 26.840000 210 188 159 0
34.100000 14.520000 26.840000 211 189 160 0
34.320000 14.520000 28.160000 211 189 161 0
34.540000 14.520000 28.160000 212 190 162 0
34.760000 14.520000 28.380000 214 190 161 0
34.980000 14.520000 28.380000 213 189 160 0
35.200000 14.520000 28.380000 213 189 158 0
35.420000 14.520000 28.380000 212 188 157 0
35.640000 14.520000 28.380000 213 189 158 0
35.860000 14.520000 29.920000 213 189 158 0
36.080000 14.520000 29.920000 212 190 161 0
36.300000 14.520000 29.920000 214 192 163 0
36.520000 14.520000 31.460000 215 193 164 0
36.740000 14.520000 32.780000 216 194 165 0
36.960000 14.520000 33.000000 217 195 166 0
37.180000 14.520000 34.320000 219 197 168 0
0.000000 14.740000 22.220000 213 197 159 0
0.220000 14.740000 11.220000 213 197 159 0
0.440000 14.740000 0.440000 214 198 160 0
0.660000 14.740000 0.440000 214 198 160 0
0.880000 14.740000 9.020000 213 197 159 0
1.100000 14.740000 20.020000 213 197 159 0
1.320000 14.740000 9.020000 214 195 157 0
1.980000 14.740000 6.600000 208 173 136 0
2.200000 14.740000 14.740000 213 158 123 0
2.420000 14.740000 9.240000 203 148 113 0
2.640000 14.740000 3.740000 208 128 98 0
2.860000 14.740000 1.100000 199 119 89 0
3.520000 14.740000 8.140000 199 115 86 0
3.740000 14.740000 30.140000 198 114 85 0
3.960000 14.740000 32.780000 197 113 84 0
4.180000 14.740000 24.420000 199 115 86 0
4.400000 14.740000 32.780000 195 118 87 0
4.620000 14.740000 32.780000 199 122 91 0
4.840000 14.740000 13.640000 192 138 105 0
5.060000 14.740000 1.320000 200 146 113 0
5.720000 14.740000 11.440000 204 171 135 0
5.940000 14.740000 31.900000 208 175 139 0
6.160000 14.740000 41.580000 205 179 141 0
6.380000 14.740000 41.580000 207 181 143 0
6.600000 14.740000 40.260000 208 184 145 0
6.820000 14.740000 40.260000 208 184 145 0
7.040000 14.740000 40.480000 209 188 152 0
7.260000 14.740000 40.480000 210 189 153 0
7.480000 14.740000 40.480000 210 189 153 0
7.700000 14.740000 39.160000 212 191 155 0
7.920000 14.740000 40.700000 212 191 155 0
8.140000 14.740000 40.700000 213 192 156 0
8.360000 14.740000 35.200000 212 191 155 0
8.580000 14.740000 20.020000 213 192 156 0
8.800000 14.740000 3.520000 217 186 150 0
9.680000 14.740000 1.100000 212 136 107 0
9.900000 14.740000 2.420000 203 127 98 0
10.120000 14.740000 3.960000 202 120 94 0
10.340000 14.740000 3.960000 200 118 92 0
10.560000 14.740000 2.640000 202 116 90 0
10.780000 14.740000 2.640000 201 115 89 0
11.000000 14.740000 2.640000 199 114 88 0
11.220000 14.740000 4.180000 199 114 88 0
11.440000 14.740000 5.280000 198 112 86 0
11.660000 14.740000 7.260000 198 112 86 0
11.880000 14.740000 9.680000 198 112 86 0
12.100000 14.740000 9.900000 198 112 86 0
12.320000 14.740000 9.900000 197 111 85 0
12.540000 14.740000 10.120000 196 110 84 0
12.760000 14.740000 10.120000 197 111 85 0
12.980000 14.740000 10.120000 197 111 85 0
13.200000 14.740000 8.800000 197 112 86 0
13.420000 14.740000 9.020000 198 113 87 0
13.640000 14.740000 9.020000 199 114 89 0
13.860000 14.740000 9.020000 200 115 90 0
14.080000 14.740000 9.020000 196 119 94 0
14.300000 14.740000 9.240000 202 125 100 0
14.520000 14.740000 9.240000 193 141 112 0
14.740000 14.740000 9.240000 203 151 122 0
14.960000 14.740000 10.780000 199 162 131 0
15.180000 14.740000 10.780000 205 168 137 0
15.400000 14.740000 10.780000 203 175 146 0
15.620000 14.740000 10.780000 207 179 150 0
15.840000 14.740000 10.780000 208 184 151 0
16.060000 14.740000 11.000000 211 187 154 0
16.280000 14.740000 12.320000 210 190 160 0
16.500000 14.740000 12.100000 212 192 162 0
16.720000 14.740000 14.300000 212 195 164 0
16.940000 14.740000 15.400000 213 196 165 0
17.160000 14.740000 15.400000 215 198 167 0
17.380000 14.740000 15.400000 216 199 168 0
17.600000 14.740000 16.720000 219 199 169 0
17.820000 14.740000 16.720000 217 197 167 0
18.040000 14.740000 16.940000 218 196 167 0
18.260000 14.740000 16.940000 216 194 165 0
18.480000 14.740000 16.940000 217 181 152 0
18.700000 14.740000 16.940000 207 171 142 0
18.920000 14.740000 17.160000 215 152 130 0
19.140000 14.740000 18.480000 200 137 115 0
19.360000 14.740000 18.480000 201 120 96 0
19.580000 14.740000 18.700000 199 118 94 0
19.800000 14.740000 18.700000 199 116 93 0
20.020000 14.740000 18.700000 198 115 92 0
20.240000 14.740000 18.700000 199 114 91 0
20.460000 14.740000 18.700000 200 115 92 0
20.680000 14.740000 18.700000 198 113 90 0
20.900000 14.740000 18.920000 199 114 91 0
21.120000 14.740000 18.920000 197 116 94 0
21.340000 14.740000 18.920000 198 117 95 0
21.560000 14.740000 18.920000 191 124 100 0
21.780000 14.740000 17.820000 197 130 106 0
22.000000 14.740000 16.500000 193 141 112 0
22.220000 14.740000 14.960000 199 147 118 0
22.440000 14.740000 15.180000 194 157 126 0
22.660000 14.740000 14.960000 199 162 131 0
22.880000 14.740000 16.060000 201 165 136 0
23.100000 14.740000 16.940000 204 168 139 0
23.320000 14.740000 18.040000 204 174 145 0
23.540000 14.740000 18.040000 209 179 150 0
23.760000 14.740000 18.040000 208 184 155 0
23.980000 14.740000 18.040000 210 186 157 0
24.200000 14.740000 19.580000 209 189 159 0
24.420000 14.740000 19.580000 212 192 162 0
24.640000 14.740000 19.580000 214 194 164 0
24.860000 14.740000 19.800000 215 195 165 0
25.080000 14.740000 19.800000 216 196 167 0
25.300000 14.740000 19.800000 215 195 166 0
25.520000 14.740000 21.340000 216 196 166 0
25.740000 14.740000 21.340000 217 197 167 0
25.960000 14.740000 21.340000 215 198 167 0
26.180000 14.740000 21.340000 216 199 168 0
26.400000 14.740000 21.340000 216 198 169 0
26.620000 14.740000 21.560000 216 198 169 0
26.840000 14.740000 21.560000 218 198 169 0
27.060000 14.740000 21.560000 218 198 169 0
27.280000 14.740000 21.560000 218 198 168 0
27.500000 14.740000 21.780000 217 197 167 0
27.720000 14.740000 21.780000 214 197 166 0
27.940000 14.740000 21.780000 214 197 166 0
28.160000 14.740000 21.780000 215 195 165 0
28.380000 14.740000 21.780000 215 195 165 0
28.600000 14.740000 22.000000 214 194 165 0
28.820000 14.740000 22.000000 213 193 164 0
29.040000 14.740000 22.000000 214 192 163 0
29.260000 14.740000 23.320000 215 193 164 0
29.480000 14.740000 23.320000 212 192 162 0
29.700000 14.740000 23.100000 211 191 161 0
29.920000 14.740000 23.980000 212 186 156 0
30.140000 14.740000 23.760000 207 181 151 0
30.360000 14.740000 23.540000 208 163 137 0
30.580000 14.740000 23.760000 199 154 128 0
30.800000 14.740000 25.080000 199 144 119 0
31.020000 14.740000 25.080000 192 137 112 0
31.240000 14.740000 25.080000 188 141 110 0
31.460000 14.740000 25.300000 192 145 114 0
31.680000 14.740000 25.300000 192 151 120 0
31.900000 14.740000 26.620000 197 156 125 0
32.120000 14.740000 26.620000 200 160 132 0
32.340000 14.740000 26.620000 202 162 134 0
32.560000 14.740000 26.620000 198 170 141 0
32.780000 14.740000 26.620000 202 174 145 0
33.000000 14.740000 26.620000 203 177 149 0
33.220000 14.740000 26.620000 207 181 153 0
33.440000 14.740000 26.840000 208 184 153 0
33.660000 14.740000 26.840000 210 186 155 0
33.880000 14.740000 26.840000 209 187 158 0
34.100000 14.740000 26.840000 210 188 159 0
34.320000 14.740000 28.160000 209 187 159 0
34.540000 14.740000 28.380000 209 187 159 0
34.760000 14.740000 28.380000 211 187 158 0
34.980000 14.740000 28.380000 211 187 158 0
35.200000 14.740000 28.380000 210 186 155 0
35.420000 14.740000 28.380000 211 187 156 0
35.640000 14.740000 28.600000 211 187 156 0
35.860000 14.740000 29.920000 212 188 157 0
36.080000 14.740000 29.920000 210 188 159 0
36.300000 14.740000 31.460000 211 189 160 0
36.520000 14.740000 31.460000 212 190 161 0
36.740000 14.740000 32.780000 213 191 162 0
36.960000 14.740000 34.320000 215 193 164 0
37.180000 14.740000 34.320000 218 196 167 0
0.000000 14.960000 22.220000 214 196 155 0
0.220000 14.960000 11.440000 214 196 155 0
0.440000 14.960000 0.440000 215 197 156 0
0.880000 14.960000 7.700000 215 197 156 0
1.100000 14.960000 14.520000 215 197 156 0
1.320000 14.960000 7.700000 214 194 154 0
1.980000 14.960000 1.100000 210 170 132 0
2.200000 14.960000 3.740000 216 150 119 0
2.420000 14.960000 9.240000 206 140 109 0
2.640000 14.960000 16.280000 205 125 95 0
2.860000 14.960000 12.100000 198 118 88 0
3.080000 14.960000 1.100000 199 115 86 0
3.520000 14.960000 8.140000 198 114 85 0
3.740000 14.960000 27.500000 197 113 84 0
3.960000 14.960000 24.420000 198 112 84 0
4.180000 14.960000 16.280000 199 113 85 0
4.400000 14.960000 30.140000 195 117 89 0
4.620000 14.960000 30.140000 199 121 93 0
4.840000 14.960000 8.140000 193 136 102 0
5.500000 14.960000 0.440000 205 161 127 0
5.720000 14.960000 11.220000 201 170 134 0
5.940000 14.960000 31.900000 205 174 138 0
6.160000 14.960000 41.580000 207 178 139 0
6.380000 14.960000 41.580000 210 181 142 0
6.600000 14.960000 41.800000 208 184 145 0
6.820000 14.960000 41.800000 210 186 147 0
7.040000 14.960000 40.480000 209 188 152 0
7.260000 14.960000 40.480000 210 189 153 0
7.480000 14.960000 40.480000 213 190 154 0
7.700000 14.960000 40.700000 214 191 155 0
7.920000 14.960000 40.700000 212 192 154 0
8.140000 14.960000 40.700000 212 192 154 0
8.360000 14.960000 35.200000 215 191 152 0
8.580000 14.960000 20.020000 213 189 150 0
8.800000 14.960000 3.520000 222 178 144 0
9.680000 14.960000 1.100000 210 128 102 0
9.900000 14.960000 3.960000 201 119 93 0
10.120000 14.960000 3.960000 203 118 93 0
10.340000 14.960000 3.960000 201 116 91 0
10.560000 14.960000 2.640000 200 115 90 0
10.780000 14.960000 2.640000 200 115 90 0
11.000000 14.960000 4.180000 200 114 88 0
11.220000 14.960000 3.960000 199 113 87 0
11.440000 14.960000 6.380000 199 111 86 0
11.660000 14.960000 8.580000 199 111 86 0
11.880000 14.960000 9.680000 199 111 86 0
12.100000 14.960000 9.900000 199 111 86 0
12.320000 14.960000 9.900000 198 110 85 0
12.540000 14.960000 10.120000 197 109 84 0
12.760000 14.960000 10.120000 197 109 84 0
12.980000 14.960000 8.800000 198 110 85 0
13.200000 14.960000 8.800000 198 112 86 0
13.420000 14.960000 9.020000 198 112 86 0
13.640000 14.960000 9.020000 199 112 88 0
13.860000 14.960000 9.020000 199 112 88 0
14.080000 14.960000 9.240000 196 118 93 0
14.300000 14.960000 9.240000 202 124 99 0
14.520000 14.960000 9.240000 196 139 107 0
14.740000 14.960000 10.780000 204 147 115 0
14.960000 14.960000 10.780000 197 162 129 0
15.180000 14.960000 10.780000 204 169 136 0
15.400000 14.960000 10.780000 205 175 144 0
15.620000 14.960000 10.780000 208 178 147 0
15.840000 14.960000 11.000000 208 182 152 0
16.060000 14.960000 11.000000 211 185 155 0
16.280000 14.960000 12.320000 210 190 158 0
16.500000 14.960000 13.420000 211 191 159 0
16.720000 14.960000 14.080000 213 194 159 0
16.940000 14.960000 15.180000 214 195 160 0
17.160000 14.960000 15.400000 215 195 163 0
17.380000 14.960000 15.400000 216 196 164 0
17.600000 14.960000 16.720000 217 196 164 0
17.820000 14.960000 16.720000 216 195 163 0
18.040000 14.960000 16.940000 226 189 155 0
18.260000 14.960000 16.940000 219 182 148 0
18.480000 14.960000 16.940000 224 166 139 0
18.700000 14.960000 17.160000 213 155 128 0
18.920000 14.960000 17.160000 215 136 114 0
19.140000 14.960000 18.480000 206 127 105 0
19.360000 14.960000 18.480000 201 118 95 0
19.580000 14.960000 18.700000 199 116 93 0
19.800000 14.960000 18.700000 198 115 92 0
20.020000 14.960000 18.700000 198 115 92 0
20.240000 14.960000 18.700000 199 114 91 0
20.460000 14.960000 20.240000 199 114 91 0
20.680000 14.960000 20.240000 198 112 92 0
20.900000 14.960000 20.240000 198 112 92 0
21.120000 14.960000 18.920000 196 115 93 0
21.340000 14.960000 18.920000 199 118 96 0
21.560000 14.960000 19.140000 192 124 100 0
21.780000 14.960000 16.280000 198 130 106 0
22.000000 14.960000 14.960000 195 143 114 0
22.220000 14.960000 14.960000 201 149 120 0
22.440000 14.960000 15.180000 196 155 124 0
22.660000 14.960000 16.280000 202 161 130 0
22.880000 14.960000 17.160000 204 168 139 0
23.100000 14.960000 18.040000 207 171 142 0
23.320000 14.960000 18.040000 202 178 147 0
23.540000 14.960000 18.040000 206 182 151 0
23.760000 14.960000 18.040000 207 186 154 0
23.980000 14.960000 19.580000 210 189 157 0
24.200000 14.960000 19.580000 212 192 162 0
24.420000 14.960000 19.580000 212 192 162 0
24.640000 14.960000 19.800000 213 193 164 0
24.860000 14.960000 19.800000 214 194 165 0
25.080000 14.960000 19.800000 215 195 166 0
25.300000 14.960000 21.120000 215 195 166 0
25.520000 14.960000 21.340000 215 195 165 0
25.740000 14.960000 21.340000 217 197 167 0
25.960000 14.960000 21.340000 215 197 168 0
26.180000 14.960000 21.340000 215 197 168 0
26.400000 14.960000 21.340000 218 198 169 0
26.620000 14.960000 21.560000 218 198 169 0
26.840000 14.960000 21.560000 216 198 169 0
27.060000 14.960000 21.560000 216 198 169 0
27.280000 14.960000 21.560000 218 198 168 0
27.500000 14.960000 21.780000 216 196 166 0
27.720000 14.960000 21.780000 216 196 167 0
27.940000 14.960000 21.780000 216 196 167 0
28.160000 14.960000 21.780000 214 194 165 0
28.380000 14.960000 22.000000 214 194 165 0
28.600000 14.960000 22.000000 214 194 165 0
28.820000 14.960000 22.000000 212 192 163 0
29.040000 14.960000 22.000000 215 191 162 0
29.260000 14.960000 23.320000 215 191 162 0
29.480000 14.960000 23.100000 217 187 156 0
29.700000 14.960000 23.980000 215 185 154 0
29.920000 14.960000 23.760000 226 171 146 0
30.140000 14.960000 23.540000 213 158 133 0
30.360000 14.960000 23.760000 213 142 121 0
30.580000 14.960000 23.760000 204 133 112 0
30.800000 14.960000 23.760000 190 128 100 0
31.020000 14.960000 25.080000 190 128 100 0
31.240000 14.960000 25.080000 187 137 107 0
31.460000 14.960000 25.080000 193 143 113 0
31.680000 14.960000 25.080000 191 149 122 0
31.900000 14.960000 26.620000 200 158 131 0
32.120000 14.960000 27.940000 197 162 135 0
32.340000 14.960000 27.940000 201 166 139 0
32.560000 14.960000 26.620000 200 172 145 0
32.780000 14.960000 26.620000 202 174 147 0
33.000000 14.960000 26.620000 205 179 151 0
33.220000 14.960000 26.620000 208 182 154 0
33.440000 14.960000 26.840000 208 184 155 0
33.660000 14.960000 26.840000 210 186 157 0
33.880000 14.960000 26.840000 210 186 157 0
34.100000 14.960000 28.160000 210 186 157 0
34.320000 14.960000 28.160000 211 185 155 0
34.540000 14.960000 28.380000 210 184 154 0
34.760000 14.960000 28.380000 211 185 155 0
34.980000 14.960000 28.380000 211 185 155 0
35.200000 14.960000 28.380000 210 184 154 0
35.420000 14.960000 28.600000 210 184 154 0
35.640000 14.960000 28.600000 210 184 154 0
35.860000 14.960000 29.920000 210 184 154 0
36.080000 14.960000 29.920000 212 186 156 0
36.300000 14.960000 31.460000 213 187 157 0
36.520000 14.960000 32.780000 213 187 157 0
36.740000 14.960000 32.780000 214 188 158 0
36.960000 14.960000 34.320000 215 191 160 0
37.180000 14.960000 34.320000 217 193 162 0
0.000000 15.180000 20.900000 214 196 155 0
0.220000 15.180000 11.440000 215 197 156 0
0.440000 15.180000 0.440000 214 196 155 0
0.880000 15.180000 2.200000 215 197 156 0
1.100000 15.180000 3.520000 215 197 156 0
1.320000 15.180000 2.200000 214 194 154 0
1.760000 15.180000 1.100000 216 176 138 0
1.980000 15.180000 3.740000 207 167 129 0
2.200000 15.180000 1.100000 210 144 113 0
2.420000 15.180000 6.600000 202 136 105 0
2.640000 15.180000 21.780000 201 121 91 0
2.860000 15.180000 21.780000 197 117 87 0
3.080000 15.180000 6.600000 199 115 86 0
3.300000 15.180000 1.320000 199 115 86 0
3.520000 15.180000 13.640000 197 113 84 0
3.740000 15.180000 24.640000 198 114 85 0
3.960000 15.180000 14.740000 198 112 84 0
4.180000 15.180000 12.100000 198 112 84 0
4.400000 15.180000 30.140000 194 116 88 0
4.620000 15.180000 30.140000 198 120 92 0
4.840000 15.180000 8.140000 190 133 99 0
5.500000 15.180000 1.760000 203 159 125 0
5.720000 15.180000 11.220000 200 169 133 0
5.940000 15.180000 31.900000 203 172 136 0
6.160000 15.180000 41.580000 206 177 138 0
6.380000 15.180000 41.580000 209 180 141 0
6.600000 15.180000 41.800000 208 184 145 0
6.820000 15.180000 41.800000 209 185 146 0
7.040000 15.180000 41.800000 208 187 151 0
7.260000 15.180000 40.480000 209 188 152 0
7.480000 15.180000 40.700000 213 190 154 0
7.700000 15.180000 40.700000 213 190 154 0
7.920000 15.180000 40.700000 212 192 154 0
8.140000 15.180000 40.700000 212 192 154 0
8.360000 15.180000 33.880000 213 189 150 0
8.580000 15.180000 14.520000 212 188 149 0
8.800000 15.180000 0.880000 218 174 140 0
9.460000 15.180000 1.100000 202 140 110 0
9.680000 15.180000 2.420000 205 123 97 0
9.900000 15.180000 3.960000 200 118 92 0
10.120000 15.180000 3.960000 201 116 91 0
10.340000 15.180000 2.640000 200 115 90 0
10.560000 15.180000 2.640000 200 115 90 0
10.780000 15.180000 4.180000 199 114 89 0
11.000000 15.180000 4.180000 199 113 87 0
11.220000 15.180000 5.280000 198 112 86 0
11.440000 15.180000 7.480000 199 111 86 0
11.660000 15.180000 8.360000 199 111 86 0
11.880000 15.180000 9.680000 198 110 85 0
12.100000 15.180000 9.900000 197 109 84 0
12.320000 15.180000 10.120000 198 110 85 0
12.540000 15.180000 10.120000 198 110 85 0
12.760000 15.180000 10.340000 198 110 85 0
12.980000 15.180000 10.340000 197 109 84 0
13.200000 15.180000 9.020000 197 111 85 0
13.420000 15.180000 9.020000 198 112 86 0
13.640000 15.180000 9.020000 197 110 86 0
13.860000 15.180000 9.020000 199 112 88 0
14.080000 15.180000 9.240000 195 117 92 0
14.300000 15.180000 9.240000 202 124 99 0
14.520000 15.180000 9.240000 195 138 106 0
14.740000 15.180000 10.780000 203 146 114 0
14.960000 15.180000 10.780000 196 161 128 0
15.180000 15.180000 10.780000 203 168 135 0
15.400000 15.180000 10.780000 203 173 142 0
15.620000 15.180000 10.780000 206 176 145 0
15.840000 15.180000 11.000000 207 181 151 0
16.060000 15.180000 11.000000 210 184 154 0
16.280000 15.180000 12.320000 208 188 156 0
16.500000 15.180000 13.200000 211 191 159 0
16.720000 15.180000 14.080000 212 193 158 0
16.940000 15.180000 15.180000 213 194 159 0
17.160000 15.180000 15.400000 214 194 162 0
17.380000 15.180000 15.400000 215 195 163 0
17.600000 15.180000 16.720000 216 195 163 0
17.820000 15.180000 16.940000 215 194 162 0
18.040000 15.180000 16.940000 221 184 150 0
18.260000 15.180000 16.940000 211 174 140 0
18.480000 15.180000 16.940000 215 157 130 0
18.700000 15.180000 17.160000 204 146 119 0
18.920000 15.180000 18.480000 208 129 107 0
19.140000 15.180000 18.480000 200 121 99 0
19.360000 15.180000 18.480000 198 115 92 0
19.580000 15.180000 18.700000 197 114 91 0
19.800000 15.180000 18.700000 198 115 92 0
20.020000 15.180000 18.700000 197 114 91 0
20.240000 15.180000 18.700000 199 114 91 0
20.460000 15.180000 20.240000 198 113 90 0
20.680000 15.180000 20.240000 198 112 92 0
20.900000 15.180000 20.240000 197 111 91 0
21.120000 15.180000 20.240000 195 114 92 0
21.340000 15.180000 18.920000 198 117 95 0
21.560000 15.180000 19.140000 193 125 101 0
21.780000 15.180000 16.280000 197 129 105 0
22.000000 15.180000 14.960000 196 144 115 0
22.220000 15.180000 15.180000 201 149 120 0
22.440000 15.180000 15.180000 199 158 127 0
22.660000 15.180000 16.280000 203 162 131 0
22.880000 15.180000 16.940000 204 168 139 0
23.100000 15.180000 18.040000 208 172 143 0
23.320000 15.180000 18.040000 204 180 149 0
23.540000 15.180000 18.040000 208 184 153 0
23.760000 15.180000 18.040000 207 186 154 0
23.980000 15.180000 19.580000 210 189 157 0
24.200000 15.180000 19.580000 211 191 161 0
24.420000 15.180000 19.580000 212 192 162 0
24.640000 15.180000 19.800000 213 193 164 0
24.860000 15.180000 19.800000 214 194 165 0
25.080000 15.180000 21.120000 213 193 164 0
25.300000 15.180000 21.340000 215 195 166 0
25.520000 15.180000 21.340000 215 195 165 0
25.740000 15.180000 21.340000 217 197 167 0
25.960000 15.180000 21.340000 214 196 167 0
26.180000 15.180000 21.340000 215 197 168 0
26.400000 15.180000 21.560000 217 197 168 0
26.620000 15.180000 21.560000 217 197 168 0
26.840000 15.180000 21.560000 216 198 169 0
27.060000 15.180000 21.560000 216 198 169 0
27.280000 15.180000 21.780000 217 197 167 0
27.500000 15.180000 21.780000 217 197 167 0
27.720000 15.180000 21.780000 216 196 167 0
27.940000 15.180000 21.780000 215 195 166 0
28.160000 15.180000 21.780000 214 194 165 0
28.380000 15.180000 22.000000 213 193 164 0
28.600000 15.180000 22.000000 214 194 165 0
28.820000 15.180000 22.000000 212 192 163 0
29.040000 15.180000 23.320000 214 190 161 0
29.260000 15.180000 23.100000 213 189 160 0
29.480000 15.180000 22.880000 211 181 150 0
29.700000 15.180000 23.760000 202 172 141 0
29.920000 15.180000 23.540000 209 154 129 0
30.140000 15.180000 22.220000 198 143 118 0
30.360000 15.180000 23.760000 199 128 107 0
30.580000 15.180000 23.760000 189 118 97 0
30.800000 15.180000 25.300000 181 119 91 0
31.020000 15.180000 25.080000 187 125 97 0
31.240000 15.180000 25.080000 186 136 106 0
31.460000 15.180000 25.080000 196 146 116 0
31.680000 15.180000 26.620000 195 153 126 0
31.900000 15.180000 27.940000 201 159 132 0
32.120000 15.180000 27.940000 200 165 138 0
32.340000 15.180000 27.940000 203 168 141 0
32.560000 15.180000 26.620000 202 174 147 0
32.780000 15.180000 26.620000 206 178 151 0
33.000000 15.180000 26.620000 207 181 153 0
33.220000 15.180000 26.840000 209 183 155 0
33.440000 15.180000 26.840000 209 185 156 0
33.660000 15.180000 26.840000 209 185 156 0
33.880000 15.180000 26.840000 209 185 156 0
34.100000 15.180000 28.160000 209 185 156 0
34.320000 15.180000 28.380000 209 183 153 0
34.540000 15.180000 28.380000 210 184 154 0
34.760000 15.180000 28.380000 209 183 153 0
34.980000 15.180000 28.380000 209 183 153 0
35.200000 15.180000 28.600000 209 183 153 0
35.420000 15.180000 28.600000 208 182 152 0
35.640000 15.180000 29.920000 208 182 152 0
35.860000 15.180000 29.920000 209 183 153 0
36.080000 15.180000 29.920000 210 184 154 0
36.300000 15.180000 31.460000 210 184 154 0
36.520000 15.180000 32.780000 211 185 155 0
36.740000 15.180000 34.320000 213 187 157 0
36.960000 15.180000 35.640000 212 188 157 0
37.180000 15.180000 35.640000 215 191 160 0
0.000000 15.400000 15.620000 215 195 155 0
0.220000 15.400000 8.800000 215 195 155 0
0.440000 15.400000 0.660000 214 196 155 0
1.760000 15.400000 3.740000 219 170 133 0
1.980000 15.400000 9.460000 208 159 122 0
2.200000 15.400000 3.960000 213 139 109 0
2.420000 15.400000 3.960000 202 128 98 0
2.640000 15.400000 19.140000 203 119 90 0
2.860000 15.400000 27.500000 199 115 86 0
3.080000 15.400000 13.640000 199 111 84 0
3.300000 15.400000 8.140000 199 111 84 0
3.520000 15.400000 22.000000 198 112 82 0
3.740000 15.400000 21.780000 198 112 82 0
3.960000 15.400000 6.600000 198 112 82 0
4.180000 15.400000 9.240000 199 113 83 0
4.400000 15.400000 30.140000 199 115 86 0
4.620000 15.400000 30.140000 201 117 88 0
4.840000 15.400000 8.140000 193 127 96 0
5.280000 15.400000 0.440000 198 147 113 0
5.500000 15.400000 1.540000 205 154 120 0
5.720000 15.400000 11.220000 202 166 129 0
5.940000 15.400000 31.900000 206 170 133 0
6.160000 15.400000 41.580000 206 177 140 0
6.380000 15.400000 41.800000 208 179 142 0
6.600000 15.400000 41.800000 208 183 147 0
6.820000 15.400000 41.800000 209 184 148 0
7.040000 15.400000 42.020000 210 187 150 0
7.260000 15.400000 40.480000 211 188 151 0
7.480000 15.400000 40.700000 212 189 150 0
7.700000 15.400000 40.700000 213 190 151 0
7.920000 15.400000 40.700000 215 189 151 0
8.140000 15.400000 40.700000 214 188 150 0
8.360000 15.400000 31.240000 219 184 149 0
8.580000 15.400000 9.020000 213 178 143 0
9.460000 15.400000 1.100000 207 126 100 0
9.680000 15.400000 3.960000 205 119 93 0
9.900000 15.400000 3.960000 202 116 90 0
10.120000 15.400000 2.640000 201 115 89 0
10.340000 15.400000 2.640000 200 114 88 0
10.560000 15.400000 3.960000 200 114 88 0
10.780000 15.400000 4.180000 199 113 87 0
11.000000 15.400000 5.500000 200 112 87 0
11.220000 15.400000 6.600000 199 111 86 0
11.440000 15.400000 8.580000 199 111 86 0
11.660000 15.400000 9.680000 198 110 85 0
11.880000 15.400000 9.900000 198 110 85 0
12.100000 15.400000 9.900000 198 110 85 0
12.320000 15.400000 10.120000 197 109 84 0
12.540000 15.400000 10.120000 197 109 84 0
12.760000 15.400000 10.340000 199 108 84 0
12.980000 15.400000 10.340000 199 108 84 0
13.200000 15.400000 10.340000 198 110 85 0
13.420000 15.400000 9.020000 198 110 85 0
13.640000 15.400000 9.020000 197 111 85 0
13.860000 15.400000 9.020000 199 113 87 0
14.080000 15.400000 9.240000 197 115 89 0
14.300000 15.400000 9.240000 202 120 94 0
14.520000 15.400000 9.240000 193 133 104 0
14.740000 15.400000 10.780000 204 144 115 0
14.960000 15.400000 10.780000 199 159 128 0
15.180000 15.400000 10.780000 204 164 133 0
15.400000 15.400000 10.780000 204 172 142 0
15.620000 15.400000 11.000000 207 175 145 0
15.840000 15.400000 11.000000 207 177 146 0
16.060000 15.400000 11.000000 212 182 151 0
16.280000 15.400000 11.880000 211 185 155 0
16.500000 15.400000 14.300000 214 188 158 0
16.720000 15.400000 15.400000 214 188 160 0
16.940000 15.400000 15.400000 215 189 161 0
17.160000 15.400000 15.400000 219 189 158 0
17.380000 15.400000 15.400000 219 189 158 0
17.600000 15.400000 16.720000 222 186 155 0
17.820000 15.400000 16.940000 218 182 151 0
18.040000 15.400000 16.940000 222 171 139 0
18.260000 15.400000 16.940000 213 162 130 0
18.480000 15.400000 17.160000 215 142 118 0
18.700000 15.400000 17.160000 206 133 109 0
18.920000 15.400000 18.480000 205 122 101 0
19.140000 15.400000 18.480000 200 117 96 0
19.360000 15.400000 18.700000 198 115 92 0
19.580000 15.400000 18.700000 198 115 92 0
19.800000 15.400000 18.700000 199 114 91 0
20.020000 15.400000 18.700000 199 114 91 0
20.240000 15.400000 18.700000 198 113 90 0
20.460000 15.400000 20.240000 197 112 89 0
20.680000 15.400000 20.240000 197 111 91 0
20.900000 15.400000 20.240000 197 111 91 0
21.120000 15.400000 20.240000 193 114 92 0
21.340000 15.400000 18.920000 197 118 96 0
21.560000 15.400000 17.820000 191 124 100 0
21.780000 15.400000 16.500000 199 132 108 0
22.000000 15.400000 14.960000 193 143 113 0
22.220000 15.400000 15.180000 200 150 120 0
22.440000 15.400000 14.960000 196 154 125 0
22.660000 15.400000 16.060000 204 162 133 0
22.880000 15.400000 16.940000 200 170 139 0
23.100000 15.400000 18.040000 206 176 145 0
23.320000 15.400000 18.040000 207 183 154 0
23.540000 15.400000 18.040000 209 185 156 0
23.760000 15.400000 19.580000 209 187 158 0
23.980000 15.400000 19.580000 212 190 161 0
24.200000 15.400000 19.580000 212 192 162 0
24.420000 15.400000 19.800000 213 193 163 0
24.640000 15.400000 19.800000 213 193 163 0
24.860000 15.400000 21.120000 214 194 164 0
25.080000 15.400000 21.120000 215 195 165 0
25.300000 15.400000 21.340000 215 195 165 0
25.520000 15.400000 21.340000 216 194 165 0
25.740000 15.400000 21.340000 217 195 166 0
25.960000 15.400000 21.340000 216 196 167 0
26.180000 15.400000 21.560000 216 196 167 0
26.400000 15.400000 21.560000 215 197 168 0
26.620000 15.400000 21.560000 215 197 168 0
26.840000 15.400000 21.560000 217 197 168 0
27.060000 15.400000 21.560000 217 197 168 0
27.280000 15.400000 21.780000 217 197 167 0
27.500000 15.400000 21.780000 215 195 165 0
27.720000 15.400000 21.780000 215 195 165 0
27.940000 15.400000 21.780000 215 195 165 0
28.160000 15.400000 22.000000 214 194 164 0
28.380000 15.400000 22.000000 213 193 163 0
28.600000 15.400000 22.000000 216 190 162 0
28.820000 15.400000 22.000000 214 188 160 0
29.040000 15.400000 23.100000 217 181 150 0
29.260000 15.400000 24.200000 211 175 144 0
29.480000 15.400000 23.760000 222 161 137 0
29.700000 15.400000 22.440000 209 148 124 0
29.920000 15.400000 22.220000 213 131 112 0
30.140000 15.400000 22.440000 200 118 99 0
30.360000 15.400000 23.760000 190 113 92 0
30.580000 15.400000 25.300000 186 109 88 0
30.800000 15.400000 25.300000 174 119 94 0
31.020000 15.400000 25.080000 184 129 104 0
31.240000 15.400000 25.080000 184 142 115 0
31.460000 15.400000 26.400000 192 150 123 0
31.680000 15.400000 27.940000 191 159 131 0
31.900000 15.400000 27.940000 195 163 135 0
32.120000 15.400000 27.940000 197 169 140 0
32.340000 15.400000 27.940000 201 173 144 0
32.560000 15.400000 26.620000 203 175 146 0
32.780000 15.400000 26.620000 206 178 149 0
33.000000 15.400000 26.620000 208 182 154 0
33.220000 15.400000 26.840000 208 182 154 0
33.440000 15.400000 26.840000 209 185 156 0
33.660000 15.400000 26.840000 209 185 156 0
33.880000 15.400000 26.840000 211 183 154 0
34.100000 15.400000 28.380000 210 182 153 0
34.320000 15.400000 28.380000 208 180 151 0
34.540000 15.400000 28.380000 209 181 152 0
34.760000 15.400000 28.380000 208 180 151 0
34.980000 15.400000 28.380000 208 180 151 0
35.200000 15.400000 28.600000 208 180 151 0
35.420000 15.400000 28.600000 208 180 151 0
35.640000 15.400000 29.920000 207 179 150 0
35.860000 15.400000 29.920000 208 180 151 0
36.080000 15.400000 30.140000 209 181 152 0
36.300000 15.400000 31.460000 210 182 153 0
36.520000 15.400000 32.780000 210 184 154 0
36.740000 15.400000 34.320000 211 185 155 0
36.960000 15.400000 35.640000 212 188 157 0
37.180000 15.400000 35.860000 212 188 157 0
0.000000 15.620000 5.940000 214 194 154 0
0.220000 15.620000 3.300000 214 194 154 0
0.440000 15.620000 0.660000 214 196 155 0
1.760000 15.620000 1.100000 217 168 131 0
1.980000 15.620000 3.960000 205 156 119 0
2.200000 15.620000 1.100000 212 138 108 0
2.420000 15.620000 5.280000 201 127 97 0
2.640000 15.620000 24.640000 202 118 89 0
2.860000 15.620000 34.320000 200 116 87 0
3.080000 15.620000 27.500000 200 112 85 0
3.300000 15.620000 22.000000 199 111 84 0
3.520000 15.620000 24.640000 198 112 82 0
3.740000 15.620000 13.640000 198 112 82 0
3.960000 15.620000 0.880000 199 113 83 0
4.180000 15.620000 9.240000 198 112 82 0
4.400000 15.620000 30.140000 198 114 85 0
4.620000 15.620000 30.140000 200 116 87 0
4.840000 15.620000 8.140000 191 125 94 0
5.280000 15.620000 0.440000 196 145 111 0
5.500000 15.620000 1.540000 203 152 118 0
5.720000 15.620000 8.360000 199 163 126 0
5.940000 15.620000 26.400000 206 170 133 0
6.160000 15.620000 38.940000 204 175 138 0
6.380000 15.620000 41.800000 208 179 142 0
6.600000 15.620000 41.800000 207 182 146 0
6.820000 15.620000 41.800000 209 184 148 0
7.040000 15.620000 42.020000 208 185 148 0
7.260000 15.620000 40.700000 210 187 150 0
7.480000 15.620000 40.700000 212 189 150 0
7.700000 15.620000 40.700000 212 189 150 0
7.920000 15.620000 38.060000 214 188 150 0
8.140000 15.620000 33.880000 211 185 147 0
8.360000 15.620000 22.880000 215 180 145 0
8.580000 15.620000 6.380000 206 171 136 0
9.240000 15.620000 1.100000 210 129 103 0
9.460000 15.620000 2.420000 201 120 94 0
9.680000 15.620000 3.960000 203 117 91 0
9.900000 15.620000 3.960000 201 115 89 0
10.120000 15.620000 2.640000 199 113 87 0
10.340000 15.620000 3.960000 199 113 87 0
10.560000 15.620000 4.180000 199 113 87 0
10.780000 15.620000 5.500000 199 113 87 0
11.000000 15.620000 5.500000 200 112 87 0
11.220000 15.620000 7.700000 199 111 86 0
11.440000 15.620000 8.580000 198 110 85 0
11.660000 15.620000 9.680000 197 109 84 0
11.880000 15.620000 11.220000 198 110 85 0
12.100000 15.620000 11.440000 197 109 84 0
12.320000 15.620000 10.120000 197 109 84 0
12.540000 15.620000 10.340000 197 109 84 0
12.760000 15.620000 10.340000 198 107 83 0
12.980000 15.620000 10.340000 199 108 84 0
13.200000 15.620000 10.340000 197 109 84 0
13.420000 15.620000 9.020000 198 110 85 0
13.640000 15.620000 9.020000 197 111 85 0
13.860000 15.620000 9.240000 199 113 87 0
14.080000 15.620000 9.240000 196 114 88 0
14.300000 15.620000 9.240000 201 119 93 0
14.520000 15.620000 9.240000 195 135 106 0
14.740000 15.620000 10.780000 203 143 114 0
14.960000 15.620000 10.780000 196 156 125 0
15.180000 15.620000 10.780000 203 163 132 0
15.400000 15.620000 10.780000 202 170 140 0
15.620000 15.620000 11.000000 206 174 144 0
15.840000 15.620000 11.000000 207 177 146 0
16.060000 15.620000 12.100000 211 181 150 0
16.280000 15.620000 12.980000 210 184 154 0
16.500000 15.620000 13.860000 212 186 156 0
16.720000 15.620000 15.180000 212 186 158 0
16.940000 15.620000 15.400000 212 186 158 0
17.160000 15.620000 15.400000 216 186 155 0
17.380000 15.620000 15.400000 216 186 155 0
17.600000 15.620000 16.940000 216 180 149 0
17.820000 15.620000 16.940000 210 174 143 0
18.040000 15.620000 16.940000 213 162 130 0
18.260000 15.620000 16.940000 205 154 122 0
18.480000 15.620000 17.160000 208 135 111 0
18.700000 15.620000 18.480000 199 126 102 0
18.920000 15.620000 18.480000 201 118 97 0
19.140000 15.620000 18.480000 199 116 95 0
19.360000 15.620000 18.700000 197 114 91 0
19.580000 15.620000 18.700000 196 113 90 0
19.800000 15.620000 18.700000 198 113 90 0
20.020000 15.620000 18.700000 197 112 89 0
20.240000 15.620000 18.700000 197 112 89 0
20.460000 15.620000 20.240000 197 112 89 0
20.680000 15.620000 20.240000 196 110 90 0
20.900000 15.620000 21.560000 197 111 91 0
21.120000 15.620000 20.240000 193 114 92 0
21.340000 15.620000 19.140000 197 118 96 0
21.560000 15.620000 17.820000 192 125 101 0
21.780000 15.620000 14.960000 197 130 106 0
22.000000 15.620000 15.180000 194 144 114 0
22.220000 15.620000 15.180000 200 150 120 0
22.440000 15.620000 14.960000 199 157 128 0
22.660000 15.620000 17.160000 203 161 132 0
22.880000 15.620000 18.040000 203 173 142 0
23.100000 15.620000 18.040000 207 177 146 0
23.320000 15.620000 18.040000 206 182 153 0
23.540000 15.620000 18.040000 210 186 157 0
23.760000 15.620000 19.580000 210 188 159 0
23.980000 15.620000 19.580000 212 190 161 0
24.200000 15.620000 19.580000 212 192 162 0
24.420000 15.620000 19.800000 212 192 162 0
24.640000 15.620000 21.120000 213 193 163 0
24.860000 15.620000 21.120000 214 194 164 0
25.080000 15.620000 21.340000 215 195 165 0
25.300000 15.620000 21.340000 215 195 165 0
25.520000 15.620000 21.340000 216 194 165 0
25.740000 15.620000 21.340000 215 193 164 0
25.960000 15.620000 21.340000 216 196 167 0
26.180000 15.620000 21.560000 216 196 167 0
26.400000 15.620000 21.560000 214 196 167 0
26.620000 15.620000 21.560000 215 197 168 0
26.840000 15.620000 21.560000 216 196 167 0
27.060000 15.620000 21.780000 216 196 167 0
27.280000 15.620000 21.780000 216 196 166 0
27.500000 15.620000 21.780000 215 195 165 0
27.720000 15.620000 21.780000 216 196 166 0
27.940000 15.620000 22.000000 214 194 164 0
28.160000 15.620000 22.000000 212 192 162 0
28.380000 15.620000 22.000000 211 191 161 0
28.600000 15.620000 22.000000 213 187 159 0
28.820000 15.620000 23.100000 209 183 155 0
29.040000 15.620000 22.880000 207 171 140 0
29.260000 15.620000 23.760000 200 164 133 0
29.480000 15.620000 23.540000 207 146 122 0
29.700000 15.620000 22.220000 196 135 111 0
29.920000 15.620000 22.440000 200 118 99 0
30.140000 15.620000 23.760000 188 106 87 0
30.360000 15.620000 23.760000 183 106 85 0
30.580000 15.620000 25.300000 186 109 88 0
30.800000 15.620000 25.080000 177 122 97 0
31.020000 15.620000 25.080000 186 131 106 0
31.240000 15.620000 26.400000 189 147 120 0
31.460000 15.620000 27.940000 195 153 126 0
31.680000 15.620000 27.940000 194 162 134 0
31.900000 15.620000 29.260000 198 166 138 0
32.120000 15.620000 27.940000 199 171 142 0
32.340000 15.620000 27.940000 203 175 146 0
32.560000 15.620000 26.620000 206 178 149 0
32.780000 15.620000 26.620000 208 180 151 0
33.000000 15.620000 26.620000 209 183 155 0
33.220000 15.620000 26.840000 208 182 154 0
33.440000 15.620000 26.840000 209 185 156 0
33.660000 15.620000 26.840000 208 184 155 0
33.880000 15.620000 26.840000 210 182 153 0
34.100000 15.620000 28.380000 209 181 152 0
34.320000 15.620000 28.380000 208 180 151 0
34.540000 15.620000 28.380000 208 180 151 0
34.760000 15.620000 28.380000 206 178 149 0
34.980000 15.620000 28.380000 207 179 150 0
35.200000 15.620000 28.600000 207 179 150 0
35.420000 15.620000 28.600000 206 178 149 0
35.640000 15.620000 29.920000 206 178 149 0
35.860000 15.620000 29.920000 207 179 150 0
36.080000 15.620000 30.140000 209 181 152 0
36.300000 15.620000 31.460000 209 181 152 0
36.520000 15.620000 32.780000 210 184 154 0
36.740000 15.620000 35.640000 210 184 154 0
36.960000 15.620000 37.180000 210 186 155 0
37.180000 15.620000 37.180000 212 188 157 0
0.000000 15.840000 0.660000 212 194 153 0
0.220000 15.840000 0.660000 212 194 153 0
0.440000 15.840000 0.880000 213 195 154 0
0.660000 15.840000 0.880000 213 195 154 0
1.540000 15.840000 2.420000 211 178 138 0
1.760000 15.840000 3.960000 216 159 125 0
1.980000 15.840000 1.100000 207 150 116 0
2.420000 15.840000 8.140000 202 120 91 0
2.640000 15.840000 28.820000 200 116 87 0
2.860000 15.840000 39.820000 198 114 85 0
3.080000 15.840000 37.180000 199 113 83 0
3.300000 15.840000 34.320000 197 111 81 0
3.520000 15.840000 27.500000 198 112 82 0
3.740000 15.840000 8.140000 197 111 81 0
4.180000 15.840000 9.240000 198 112 84 0
4.400000 15.840000 30.140000 198 114 85 0
4.620000 15.840000 28.820000 200 116 87 0
4.840000 15.840000 8.140000 197 123 91 0
5.280000 15.840000 0.220000 200 140 107 0
5.500000 15.840000 1.540000 207 147 114 0
5.720000 15.840000 4.180000 202 158 124 0
5.940000 15.840000 16.720000 209 165 131 0
6.160000 15.840000 33.440000 206 173 137 0
6.380000 15.840000 41.800000 209 176 140 0
6.600000 15.840000 41.800000 207 181 145 0
6.820000 15.840000 42.020000 209 183 147 0
7.040000 15.840000 42.020000 209 184 148 0
7.260000 15.840000 40.700000 211 186 150 0
7.480000 15.840000 40.700000 213 187 149 0
7.700000 15.840000 38.060000 212 186 148 0
7.920000 15.840000 28.380000 217 184 148 0
8.140000 15.840000 14.520000 214 181 145 0
8.360000 15.840000 6.380000 222 165 133 0
8.580000 15.840000 0.880000 215 158 126 0
9.240000 15.840000 1.100000 209 123 97 0
9.460000 15.840000 2.640000 202 116 90 0
9.680000 15.840000 3.960000 202 114 89 0
9.900000 15.840000 2.640000 201 113 88 0
10.120000 15.840000 3.960000 199 113 87 0
10.340000 15.840000 3.960000 198 112 86 0
10.560000 15.840000 5.500000 199 111 84 0
10.780000 15.840000 5.500000 200 112 85 0
11.000000 15.840000 6.600000 198 110 83 0
11.220000 15.840000 8.800000 199 111 84 0
11.440000 15.840000 9.900000 200 109 85 0
11.660000 15.840000 11.220000 199 108 84 0
11.880000 15.840000 11.220000 199 108 82 0
12.100000 15.840000 11.440000 198 107 81 0
12.320000 15.840000 10.120000 197 109 82 0
12.540000 15.840000 10.340000 196 108 81 0
12.760000 15.840000 10.340000 198 107 81 0
12.980000 15.840000 10.340000 199 108 82 0
13.200000 15.840000 10.340000 197 109 84 0
13.420000 15.840000 10.340000 197 109 84 0
13.640000 15.840000 10.560000 198 110 85 0
13.860000 15.840000 9.240000 199 111 86 0
14.080000 15.840000 9.240000 199 113 87 0
14.300000 15.840000 9.240000 202 116 90 0
14.520000 15.840000 9.240000 197 124 100 0
14.740000 15.840000 10.780000 208 135 111 0
14.960000 15.840000 10.780000 200 149 117 0
15.180000 15.840000 10.780000 209 158 126 0
15.400000 15.840000 11.000000 206 165 134 0
15.620000 15.840000 11.000000 211 170 139 0
15.840000 15.840000 11.000000 209 175 143 0
16.060000 15.840000 12.100000 212 178 146 0
16.280000 15.840000 14.080000 213 182 149 0
16.500000 15.840000 13.860000 212 181 148 0
16.720000 15.840000 15.400000 217 183 150 0
16.940000 15.840000 15.400000 216 182 149 0
17.160000 15.840000 15.400000 221 177 147 0
17.380000 15.840000 15.400000 219 175 145 0
17.600000 15.840000 16.940000 221 163 138 0
17.820000 15.840000 16.940000 215 157 132 0
18.040000 15.840000 16.940000 220 144 123 0
18.260000 15.840000 17.160000 211 135 114 0
18.480000 15.840000 17.160000 206 121 96 0
18.700000 15.840000 18.480000 203 118 93 0
18.920000 15.840000 18.480000 200 114 94 0
19.140000 15.840000 18.700000 199 113 93 0
19.360000 15.840000 18.700000 198 113 90 0
19.580000 15.840000 18.700000 197 112 89 0
19.800000 15.840000 18.700000 198 111 89 0
20.020000 15.840000 18.700000 198 111 89 0
20.240000 15.840000 18.700000 198 111 87 0
20.460000 15.840000 20.240000 197 110 86 0
20.680000 15.840000 21.560000 196 110 90 0
20.900000 15.840000 21.560000 198 112 92 0
21.120000 15.840000 20.460000 196 115 93 0
21.340000 15.840000 19.140000 197 116 94 0
21.560000 15.840000 17.820000 191 123 99 0
21.780000 15.840000 14.960000 199 131 107 0
22.000000 15.840000 15.180000 194 138 112 0
22.220000 15.840000 14.960000 201 145 119 0
22.440000 15.840000 16.060000 198 156 127 0
22.660000 15.840000 16.940000 204 162 133 0
22.880000 15.840000 18.040000 203 171 141 0
23.100000 15.840000 18.040000 208 176 146 0
23.320000 15.840000 18.040000 206 182 151 0
23.540000 15.840000 19.580000 211 187 156 0
23.760000 15.840000 19.580000 212 188 159 0
23.980000 15.840000 19.580000 215 191 162 0
24.200000 15.840000 19.800000 213 192 160 0
24.420000 15.840000 21.120000 215 194 162 0
24.640000 15.840000 21.120000 214 193 161 0
24.860000 15.840000 21.340000 215 194 162 0
25.080000 15.840000 21.340000 214 194 164 0
25.300000 15.840000 21.340000 214 194 164 0
25.520000 15.840000 21.340000 215 193 164 0
25.740000 15.840000 21.340000 216 194 165 0
25.960000 15.840000 21.560000 216 194 165 0
26.180000 15.840000 21.560000 217 195 166 0
26.400000 15.840000 21.560000 216 196 166 0
26.620000 15.840000 21.560000 216 196 166 0
26.840000 15.840000 21.780000 217 195 166 0
27.060000 15.840000 21.780000 216 194 165 0
27.280000 15.840000 21.780000 219 195 166 0
27.500000 15.840000 21.780000 218 194 165 0
27.720000 15.840000 22.000000 216 192 161 0
27.940000 15.840000 22.000000 214 190 159 0
28.160000 15.840000 22.000000 217 187 156 0
28.380000 15.840000 22.000000 214 184 153 0
28.600000 15.840000 23.100000 219 172 147 0
28.820000 15.840000 24.200000 213 166 141 0
29.040000 15.840000 23.760000 215 147 123 0
29.260000 15.840000 23.760000 208 140 116 0
29.480000 15.840000 22.220000 203 124 106 0
29.700000 15.840000 22.440000 192 113 95 0
29.920000 15.840000 22.440000 183 104 84 0
30.140000 15.840000 23.980000 181 102 82 0
30.360000 15.840000 25.300000 180 107 85 0
30.580000 15.840000 25.300000 183 110 88 0
30.800000 15.840000 25.080000 176 128 101 0
31.020000 15.840000 25.080000 184 136 109 0
31.240000 15.840000 26.400000 190 150 120 0
31.460000 15.840000 27.940000 197 157 127 0
31.680000 15.840000 29.260000 194 164 135 0
31.900000 15.840000 29.260000 199 169 140 0
32.120000 15.840000 27.940000 200 174 146 0
32.340000 15.840000 26.620000 203 177 149 0
32.560000 15.840000 26.620000 206 182 153 0
32.780000 15.840000 26.620000 207 183 154 0
33.000000 15.840000 26.840000 208 182 152 0
33.220000 15.840000 26.840000 209 183 153 0
33.440000 15.840000 26.840000 208 182 152 0
33.660000 15.840000 26.840000 210 184 154 0
33.880000 15.840000 28.380000 209 181 152 0
34.100000 15.840000 28.380000 209 181 152 0
34.320000 15.840000 28.380000 208 180 151 0
34.540000 15.840000 28.380000 207 179 150 0
34.760000 15.840000 28.380000 207 179 150 0
34.980000 15.840000 28.600000 206 178 149 0
35.200000 15.840000 28.600000 206 179 147 0
35.420000 15.840000 29.920000 206 179 147 0
35.640000 15.840000 29.920000 206 179 147 0
35.860000 15.840000 29.920000 207 180 148 0
36.080000 15.840000 30.140000 207 179 150 0
36.300000 15.840000 31.460000 208 180 151 0
36.520000 15.840000 34.320000 208 182 152 0
36.740000 15.840000 35.640000 209 183 153 0
36.960000 15.840000 37.180000 210 184 154 0
37.180000 15.840000 37.180000 211 185 155 0
0.000000 16.060000 0.660000 211 193 152 0
0.220000 16.060000 0.660000 212 194 153 0
0.440000 16.060000 0.880000 213 195 154 0
0.660000 16.060000 0.880000 213 195 154 0
1.540000 16.060000 6.600000 207 174 134 0
1.760000 16.060000 14.960000 214 157 123 0
1.980000 16.060000 6.820000 204 147 113 0
2.420000 16.060000 8.140000 200 118 89 0
2.640000 16.060000 28.820000 199 115 86 0
2.860000 16.060000 40.040000 199 115 86 0
3.080000 16.060000 40.040000 198 112 82 0
3.300000 16.060000 40.040000 197 111 81 0
3.520000 16.060000 30.360000 197 111 81 0
3.740000 16.060000 8.140000 197 111 81 0
3.960000 16.060000 1.100000 197 111 83 0
4.180000 16.060000 14.740000 197 111 83 0
4.400000 16.060000 33.000000 197 113 84 0
4.620000 16.060000 31.680000 199 115 86 0
4.840000 16.060000 13.420000 194 120 88 0
5.060000 16.060000 1.980000 199 125 93 0
5.280000 16.060000 1.540000 195 135 102 0
5.500000 16.060000 1.540000 203 143 110 0
5.720000 16.060000 1.540000 201 157 123 0
5.940000 16.060000 11.220000 206 162 128 0
6.160000 16.060000 32.120000 205 172 136 0
6.380000 16.060000 41.800000 207 174 138 0
6.600000 16.060000 41.800000 206 180 144 0
6.820000 16.060000 42.020000 209 183 147 0
7.040000 16.060000 40.700000 208 183 147 0
7.260000 16.060000 40.700000 209 184 148 0
7.480000 16.060000 38.060000 210 184 146 0
7.700000 16.060000 28.380000 210 184 146 0
7.920000 16.060000 11.880000 212 179 143 0
8.140000 16.060000 0.880000 208 175 139 0
9.020000 16.060000 1.100000 205 124 100 0
9.240000 16.060000 2.420000 204 118 92 0
9.460000 16.060000 2.640000 201 115 89 0
9.680000 16.060000 2.640000 201 113 88 0
9.900000 16.060000 3.960000 200 112 87 0
10.120000 16.060000 3.960000 198 112 86 0
10.340000 16.060000 5.500000 198 112 86 0
10.560000 16.060000 5.500000 199 111 84 0
10.780000 16.060000 6.820000 199 111 84 0
11.000000 16.060000 7.700000 199 111 84 0
11.220000 16.060000 8.580000 198 110 83 0
11.440000 16.060000 9.680000 200 109 85 0
11.660000 16.060000 11.220000 198 107 83 0
11.880000 16.060000 11.220000 199 108 82 0
12.100000 16.060000 10.120000 198 107 81 0
12.320000 16.060000 10.120000 196 108 81 0
12.540000 16.060000 10.340000 197 109 82 0
12.760000 16.060000 10.340000 198 107 81 0
12.980000 16.060000 10.340000 198 107 81 0
13.200000 16.060000 10.340000 197 109 84 0
13.420000 16.060000 10.560000 197 109 84 0
13.640000 16.060000 10.560000 198 110 85 0
13.860000 16.060000 10.560000 198 110 85 0
14.080000 16.060000 9.240000 199 113 87 0
14.300000 16.060000 9.240000 201 115 89 0
14.520000 16.060000 9.240000 195 122 98 0
14.740000 16.060000 10.780000 203 130 106 0
14.960000 16.060000 10.780000 196 145 113 0
15.180000 16.060000 10.780000 204 153 121 0
15.400000 16.060000 11.000000 205 164 133 0
15.620000 16.060000 11.000000 210 169 138 0
15.840000 16.060000 11.000000 207 173 141 0
16.060000 16.060000 11.880000 211 177 145 0
16.280000 16.060000 14.080000 209 178 145 0
16.500000 16.060000 13.860000 210 179 146 0
16.720000 16.060000 15.400000 212 178 145 0
16.940000 16.060000 15.400000 211 177 144 0
17.160000 16.060000 15.400000 214 170 140 0
17.380000 16.060000 15.400000 209 165 135 0
17.600000 16.060000 16.940000 213 155 130 0
17.820000 16.060000 16.940000 205 147 122 0
18.040000 16.060000 17.160000 209 133 112 0
18.260000 16.060000 17.160000 200 124 103 0
18.480000 16.060000 17.160000 202 117 92 0
