ply
format ascii 1.0
element vertex 1120
property float x
property float y
property float z
property uchar red
property uchar green
property uchar blue
property uchar alpha
end_header
25.520000 17.160000 11.220000 193 154 132 0
25.740000 17.160000 10.560000 193 154 132 0
25.960000 17.160000 10.560000 193 155 131 0
26.180000 17.160000 10.560000 193 155 131 0
26.400000 17.160000 10.670000 195 154 132 0
26.620000 17.160000 10.670000 195 154 132 0
26.840000 17.160000 11.330000 194 155 133 0
27.060000 17.160000 11.330000 196 157 135 0
27.280000 17.160000 11.330000 198 159 139 0
27.500000 17.160000 12.100000 199 160 140 0
27.720000 17.160000 12.100000 201 164 143 0
27.940000 17.160000 12.100000 205 168 147 0
28.160000 17.160000 12.100000 207 170 149 0
28.380000 17.160000 12.870000 209 172 151 0
28.600000 17.160000 12.870000 211 174 151 0
28.820000 17.160000 12.870000 216 179 156 0
29.040000 17.160000 12.870000 219 182 159 0
29.260000 17.160000 12.980000 223 186 163 0
29.480000 17.160000 12.980000 228 191 168 0
29.700000 17.160000 12.980000 230 193 170 0
29.920000 17.160000 13.750000 231 192 170 0
30.140000 17.160000 13.750000 230 191 169 0
30.360000 17.160000 13.750000 228 189 167 0
30.580000 17.160000 14.520000 229 190 168 0
30.800000 17.160000 14.520000 233 192 170 0
31.020000 17.160000 15.180000 233 192 170 0
31.240000 17.160000 15.840000 233 194 172 0
31.460000 17.160000 16.390000 232 193 171 0
31.680000 17.160000 17.490000 235 194 172 0
31.900000 17.160000 18.040000 235 194 172 0
32.120000 17.160000 18.700000 234 193 170 0
32.340000 17.160000 18.700000 235 194 171 0
32.560000 17.160000 19.470000 237 196 173 0
32.780000 17.160000 20.240000 238 197 174 0
33.000000 17.160000 20.900000 237 198 176 0
33.220000 17.160000 20.900000 237 198 176 0
33.440000 17.160000 21.010000 236 197 177 0
33.660000 17.160000 21.010000 234 195 175 0
33.880000 17.160000 21.010000 235 194 171 0
34.100000 17.160000 20.350000 234 193 170 0
34.320000 17.160000 20.460000 234 193 170 0
34.540000 17.160000 20.460000 233 192 169 0
34.760000 17.160000 20.460000 232 191 169 0
34.980000 17.160000 14.960000 232 191 169 0
35.200000 17.160000 4.620000 233 191 172 0
35.420000 17.160000 3.190000 234 192 173 0
35.640000 17.160000 12.210000 235 196 176 0
35.860000 17.160000 18.480000 237 198 178 0
36.080000 17.160000 19.910000 238 199 179 0
36.300000 17.160000 19.910000 238 199 179 0
36.520000 17.160000 20.020000 238 199 181 0
36.740000 17.160000 14.520000 238 199 181 0
36.960000 17.160000 4.620000 237 198 180 0
0.000000 17.380000 5.830000 138 121 90 0
0.220000 17.380000 5.830000 138 121 90 0
0.440000 17.380000 6.490000 138 120 91 0
0.660000 17.380000 6.490000 138 120 91 0
0.880000 17.380000 6.490000 136 118 89 0
1.100000 17.380000 6.490000 136 118 89 0
1.320000 17.380000 6.490000 136 118 89 0
1.540000 17.380000 5.830000 136 118 89 0
1.760000 17.380000 5.170000 137 117 87 0
1.980000 17.380000 5.170000 137 117 87 0
2.200000 17.380000 5.830000 137 117 88 0
2.420000 17.380000 5.940000 137 117 88 0
2.640000 17.380000 6.050000 135 117 88 0
2.860000 17.380000 6.050000 135 117 88 0
3.080000 17.380000 6.160000 136 116 87 0
3.300000 17.380000 6.710000 137 117 88 0
3.520000 17.380000 7.370000 136 116 86 0
3.740000 17.380000 6.820000 137 117 87 0
3.960000 17.380000 6.930000 137 117 88 0
4.180000 17.380000 6.930000 136 116 87 0
4.400000 17.380000 7.370000 137 117 88 0
4.620000 17.380000 7.810000 136 116 87 0
4.840000 17.380000 8.360000 136 116 87 0
5.060000 17.380000 7.590000 136 116 87 0
5.280000 17.380000 7.700000 135 115 85 0
5.500000 17.380000 7.700000 136 116 86 0
5.720000 17.380000 7.810000 136 116 87 0
5.940000 17.380000 7.810000 135 115 86 0
6.160000 17.380000 7.700000 136 116 87 0
6.380000 17.380000 7.700000 136 116 87 0
6.600000 17.380000 7.700000 137 117 88 0
6.820000 17.380000 7.700000 137 117 88 0
7.040000 17.380000 7.700000 136 114 85 0
7.260000 17.380000 7.700000 137 115 86 0
7.480000 17.380000 7.700000 137 115 87 0
7.700000 17.380000 7.700000 138 116 88 0
7.920000 17.380000 7.040000 137 117 88 0
8.140000 17.380000 7.040000 138 118 89 0
8.360000 17.380000 7.040000 139 117 89 0
8.580000 17.380000 6.270000 140 118 90 0
8.800000 17.380000 6.270000 141 119 91 0
9.020000 17.380000 6.270000 140 118 90 0
9.240000 17.380000 6.270000 142 120 92 0
9.460000 17.380000 6.380000 142 120 92 0
9.680000 17.380000 7.040000 142 120 91 0
9.900000 17.380000 7.040000 145 123 94 0
10.120000 17.380000 7.040000 150 122 93 0
10.340000 17.380000 7.040000 152 124 95 0
10.560000 17.380000 7.040000 159 125 93 0
10.780000 17.380000 7.810000 161 127 95 0
11.000000 17.380000 7.810000 171 131 100 0
11.220000 17.380000 7.920000 179 139 108 0
11.440000 17.380000 7.920000 187 148 114 0
11.660000 17.380000 7.920000 191 152 118 0
11.880000 17.380000 7.920000 194 154 123 0
12.100000 17.380000 7.920000 195 155 124 0
12.320000 17.380000 8.030000 196 157 123 0
12.540000 17.380000 8.030000 195 156 122 0
12.760000 17.380000 8.030000 199 158 125 0
12.980000 17.380000 8.030000 201 160 127 0
13.200000 17.380000 8.800000 204 165 131 0
13.420000 17.380000 8.800000 205 166 132 0
13.640000 17.380000 8.800000 209 172 140 0
13.860000 17.380000 8.800000 213 176 144 0
14.080000 17.380000 8.800000 216 182 152 0
14.300000 17.380000 8.910000 218 184 154 0
14.520000 17.380000 8.910000 219 185 155 0
14.740000 17.380000 8.910000 211 177 147 0
14.960000 17.380000 8.910000 199 157 130 0
15.180000 17.380000 9.570000 177 135 108 0
15.400000 17.380000 10.670000 148 116 96 0
15.620000 17.380000 11.110000 137 105 85 0
15.840000 17.380000 11.770000 135 103 83 0
16.060000 17.380000 11.990000 134 102 82 0
16.280000 17.380000 11.550000 133 104 83 0
16.500000 17.380000 11.550000 133 104 83 0
16.720000 17.380000 11.550000 137 106 83 0
16.940000 17.380000 10.890000 140 109 86 0
17.160000 17.380000 10.780000 144 113 90 0
17.380000 17.380000 11.550000 148 117 94 0
17.600000 17.380000 11.550000 151 118 94 0
17.820000 17.380000 11.550000 151 118 94 0
18.040000 17.380000 10.890000 150 117 93 0
18.260000 17.380000 9.460000 147 114 90 0
18.480000 17.380000 9.460000 147 114 90 0
18.700000 17.380000 9.570000 149 116 92 0
18.920000 17.380000 10.230000 151 120 97 0
19.140000 17.380000 10.340000 152 121 98 0
19.360000 17.380000 9.570000 154 121 99 0
19.580000 17.380000 9.680000 154 121 99 0
19.800000 17.380000 8.910000 153 120 96 0
20.020000 17.380000 9.350000 153 120 96 0
20.240000 17.380000 9.240000 152 119 95 0
20.460000 17.380000 9.240000 153 120 96 0
20.680000 17.380000 8.800000 152 119 97 0
20.900000 17.380000 8.800000 154 121 99 0
21.120000 17.380000 8.800000 153 120 98 0
21.340000 17.380000 8.250000 154 121 99 0
21.560000 17.380000 8.140000 154 121 99 0
21.780000 17.380000 8.690000 152 119 97 0
22.000000 17.380000 9.790000 151 118 94 0
22.220000 17.380000 10.450000 150 117 93 0
22.440000 17.380000 10.450000 151 118 96 0
22.660000 17.380000 9.680000 154 121 99 0
22.880000 17.380000 9.680000 156 123 101 0
23.100000 17.380000 9.020000 158 125 103 0
23.320000 17.380000 9.020000 166 129 108 0
23.540000 17.380000 9.130000 169 132 111 0
23.760000 17.380000 9.130000 170 134 113 0
23.980000 17.380000 9.790000 172 136 115 0
24.200000 17.380000 9.790000 172 135 114 0
24.420000 17.380000 9.790000 173 136 115 0
24.640000 17.380000 10.560000 174 137 114 0
24.860000 17.380000 10.560000 177 140 117 0
25.080000 17.380000 10.560000 183 144 122 0
25.300000 17.380000 10.560000 189 150 128 0
25.520000 17.380000 10.560000 194 153 131 0
25.740000 17.380000 10.560000 195 154 132 0
25.960000 17.380000 10.560000 194 153 130 0
26.180000 17.380000 10.560000 195 154 131 0
26.400000 17.380000 10.670000 195 154 132 0
26.620000 17.380000 10.670000 195 154 132 0
26.840000 17.380000 11.330000 193 154 132 0
27.060000 17.380000 11.330000 194 155 133 0
27.280000 17.380000 11.330000 195 156 136 0
27.500000 17.380000 12.100000 197 158 138 0
27.720000 17.380000 12.100000 200 163 142 0
27.940000 17.380000 12.100000 202 165 144 0
28.160000 17.380000 12.100000 206 169 146 0
28.380000 17.380000 12.870000 207 170 147 0
28.600000 17.380000 12.870000 209 172 151 0
28.820000 17.380000 12.870000 212 175 154 0
29.040000 17.380000 12.870000 217 180 157 0
29.260000 17.380000 12.980000 222 185 162 0
29.480000 17.380000 12.980000 229 190 168 0
29.700000 17.380000 12.980000 230 191 169 0
29.920000 17.380000 13.640000 231 192 170 0
30.140000 17.380000 13.750000 229 190 168 0
30.360000 17.380000 13.750000 228 189 167 0
30.580000 17.380000 13.750000 228 189 167 0
30.800000 17.380000 14.520000 230 191 169 0
31.020000 17.380000 15.180000 232 193 171 0
31.240000 17.380000 15.840000 234 193 171 0
31.460000 17.380000 16.390000 235 194 172 0
31.680000 17.380000 17.490000 234 193 171 0
31.900000 17.380000 18.040000 235 194 172 0
32.120000 17.380000 18.700000 236 195 173 0
32.340000 17.380000 18.700000 236 195 173 0
32.560000 17.380000 19.470000 236 197 177 0
32.780000 17.380000 20.240000 236 197 177 0
33.000000 17.380000 20.900000 237 198 178 0
33.220000 17.380000 20.900000 238 199 179 0
33.440000 17.380000 21.010000 236 197 175 0
33.660000 17.380000 21.010000 235 196 174 0
33.880000 17.380000 21.010000 235 194 172 0
34.100000 17.380000 20.350000 234 193 171 0
34.320000 17.380000 20.460000 233 192 170 0
34.540000 17.380000 20.460000 233 192 170 0
34.760000 17.380000 20.460000 233 190 168 0
34.980000 17.380000 14.960000 233 190 168 0
35.200000 17.380000 4.620000 233 191 172 0
35.420000 17.380000 0.440000 235 193 174 0
35.640000 17.380000 7.370000 235 196 176 0
35.860000 17.380000 16.390000 237 198 178 0
36.080000 17.380000 19.910000 237 199 181 0
36.300000 17.380000 19.910000 238 200 182 0
36.520000 17.380000 20.020000 238 200 184 0
36.740000 17.380000 14.520000 239 201 185 0
36.960000 17.380000 6.050000 239 199 184 0
37.180000 17.380000 2.420000 238 198 183 0
0.000000 17.600000 5.830000 138 121 90 0
0.220000 17.600000 5.830000 138 121 90 0
0.440000 17.600000 6.490000 139 121 92 0
0.660000 17.600000 6.490000 138 120 91 0
0.880000 17.600000 6.490000 138 120 91 0
1.100000 17.600000 6.490000 138 120 91 0
1.320000 17.600000 6.490000 137 119 90 0
1.540000 17.600000 5.830000 136 118 89 0
1.760000 17.600000 5.170000 138 118 88 0
1.980000 17.600000 5.170000 138 118 88 0
2.200000 17.600000 5.170000 137 117 88 0
2.420000 17.600000 5.940000 137 117 88 0
2.640000 17.600000 6.050000 134 116 87 0
2.860000 17.600000 6.160000 135 117 88 0
3.080000 17.600000 6.160000 136 116 87 0
3.300000 17.600000 6.600000 137 117 88 0
3.520000 17.600000 7.150000 137 117 87 0
3.740000 17.600000 7.260000 136 116 86 0
3.960000 17.600000 6.710000 136 116 87 0
4.180000 17.600000 6.710000 136 116 87 0
4.400000 17.600000 7.260000 137 117 88 0
4.620000 17.600000 7.700000 137 117 88 0
4.840000 17.600000 8.360000 136 116 87 0
5.060000 17.600000 7.700000 136 116 87 0
5.280000 17.600000 7.700000 136 116 86 0
5.500000 17.600000 7.810000 136 116 86 0
5.720000 17.600000 7.370000 135 115 86 0
5.940000 17.600000 7.370000 135 115 86 0
6.160000 17.600000 7.370000 136 116 87 0
6.380000 17.600000 7.810000 136 116 87 0
6.600000 17.600000 7.700000 136 116 87 0
6.820000 17.600000 7.700000 135 115 86 0
7.040000 17.600000 7.700000 136 114 85 0
7.260000 17.600000 7.700000 136 114 85 0
7.480000 17.600000 7.700000 137 115 87 0
7.700000 17.600000 7.700000 138 116 88 0
7.920000 17.600000 7.700000 137 117 88 0
8.140000 17.600000 7.040000 137 117 88 0
8.360000 17.600000 7.040000 140 118 90 0
8.580000 17.600000 6.930000 140 118 90 0
8.800000 17.600000 7.040000 140 118 90 0
9.020000 17.600000 7.040000 141 119 91 0
9.240000 17.600000 7.040000 141 119 91 0
9.460000 17.600000 7.040000 139 117 89 0
9.680000 17.600000 7.040000 141 119 90 0
9.900000 17.600000 7.040000 142 120 91 0
10.120000 17.600000 7.040000 150 122 93 0
10.340000 17.600000 7.040000 151 123 94 0
10.560000 17.600000 7.040000 159 125 93 0
10.780000 17.600000 7.810000 161 127 95 0
11.000000 17.600000 7.810000 171 131 100 0
11.220000 17.600000 7.920000 178 138 107 0
11.440000 17.600000 7.920000 186 147 113 0
11.660000 17.600000 7.920000 191 152 118 0
11.880000 17.600000 7.920000 194 154 123 0
12.100000 17.600000 7.920000 195 155 124 0
12.320000 17.600000 8.030000 194 155 121 0
12.540000 17.600000 8.030000 195 156 122 0
12.760000 17.600000 8.030000 199 158 125 0
12.980000 17.600000 8.030000 200 159 126 0
13.200000 17.600000 8.800000 203 164 130 0
13.420000 17.600000 8.800000 207 168 134 0
13.640000 17.600000 8.800000 210 173 141 0
13.860000 17.600000 8.800000 213 176 144 0
14.080000 17.600000 8.800000 216 182 152 0
14.300000 17.600000 8.910000 219 185 155 0
14.520000 17.600000 8.910000 221 187 157 0
14.740000 17.600000 8.910000 215 181 151 0
14.960000 17.600000 8.910000 203 161 134 0
15.180000 17.600000 9.460000 184 142 115 0
15.400000 17.600000 10.560000 153 121 101 0
15.620000 17.600000 11.110000 138 106 86 0
15.840000 17.600000 11.880000 136 104 84 0
16.060000 17.600000 11.990000 135 103 83 0
16.280000 17.600000 12.100000 133 104 83 0
16.500000 17.600000 11.550000 134 105 84 0
16.720000 17.600000 11.550000 137 106 83 0
16.940000 17.600000 11.550000 140 109 86 0
17.160000 17.600000 10.780000 143 112 89 0
17.380000 17.600000 11.550000 147 116 93 0
17.600000 17.600000 11.550000 150 117 93 0
17.820000 17.600000 11.550000 150 117 93 0
18.040000 17.600000 10.890000 148 115 91 0
18.260000 17.600000 10.120000 147 114 90 0
18.480000 17.600000 9.460000 147 114 90 0
18.700000 17.600000 10.230000 148 115 91 0
18.920000 17.600000 10.340000 150 119 96 0
19.140000 17.600000 10.340000 152 121 98 0
19.360000 17.600000 9.680000 154 121 99 0
19.580000 17.600000 9.680000 154 121 99 0
19.800000 17.600000 8.910000 152 119 95 0
20.020000 17.600000 8.800000 153 120 96 0
20.240000 17.600000 9.240000 152 119 95 0
20.460000 17.600000 9.240000 151 118 94 0
20.680000 17.600000 8.800000 151 118 96 0
20.900000 17.600000 8.250000 152 119 97 0
21.120000 17.600000 8.140000 152 119 97 0
21.340000 17.600000 8.140000 153 120 98 0
21.560000 17.600000 8.800000 152 119 97 0
21.780000 17.600000 9.350000 151 118 96 0
22.000000 17.600000 9.790000 151 118 94 0
22.220000 17.600000 9.680000 150 117 93 0
22.440000 17.600000 10.450000 151 118 96 0
22.660000 17.600000 9.680000 154 121 99 0
22.880000 17.600000 9.790000 155 122 100 0
23.100000 17.600000 9.020000 158 125 103 0
23.320000 17.600000 9.020000 165 128 107 0
23.540000 17.600000 9.130000 167 130 109 0
23.760000 17.600000 9.130000 167 131 110 0
23.980000 17.600000 9.790000 170 134 113 0
24.200000 17.600000 9.790000 172 135 114 0
24.420000 17.600000 9.790000 173 136 115 0
24.640000 17.600000 10.560000 175 138 115 0
24.860000 17.600000 10.560000 178 141 118 0
25.080000 17.600000 10.560000 183 144 122 0
25.300000 17.600000 10.560000 187 148 126 0
25.520000 17.600000 10.560000 194 153 131 0
25.740000 17.600000 10.560000 194 153 131 0
25.960000 17.600000 10.560000 195 154 131 0
26.180000 17.600000 11.330000 193 152 129 0
26.400000 17.600000 11.330000 194 153 131 0
26.620000 17.600000 10.670000 194 153 131 0
26.840000 17.600000 11.330000 192 153 131 0
27.060000 17.600000 11.330000 194 155 133 0
27.280000 17.600000 12.100000 194 155 135 0
27.500000 17.600000 12.100000 195 156 136 0
27.720000 17.600000 12.100000 198 161 140 0
27.940000 17.600000 12.100000 202 165 144 0
28.160000 17.600000 12.100000 204 167 144 0
28.380000 17.600000 12.870000 206 169 146 0
28.600000 17.600000 12.870000 208 171 150 0
28.820000 17.600000 12.870000 211 174 153 0
29.040000 17.600000 12.870000 215 178 155 0
29.260000 17.600000 12.980000 221 184 161 0
29.480000 17.600000 12.980000 228 189 167 0
29.700000 17.600000 12.980000 230 191 169 0
29.920000 17.600000 13.640000 231 192 170 0
30.140000 17.600000 13.750000 229 190 168 0
30.360000 17.600000 13.750000 228 189 167 0
30.580000 17.600000 13.750000 228 189 167 0
30.800000 17.600000 14.520000 229 190 168 0
31.020000 17.600000 15.180000 230 191 169 0
31.240000 17.600000 15.180000 235 194 172 0
31.460000 17.600000 16.390000 235 194 172 0
31.680000 17.600000 17.490000 235 194 172 0
31.900000 17.600000 18.040000 235 194 172 0
32.120000 17.600000 18.700000 235 194 172 0
32.340000 17.600000 18.700000 236 195 173 0
32.560000 17.600000 19.470000 235 196 176 0
32.780000 17.600000 19.470000 237 198 178 0
33.000000 17.600000 20.240000 238 199 179 0
33.220000 17.600000 20.900000 238 199 179 0
33.440000 17.600000 21.010000 236 197 175 0
33.660000 17.600000 21.010000 235 196 174 0
33.880000 17.600000 21.010000 235 194 172 0
34.100000 17.600000 20.350000 233 192 170 0
34.320000 17.600000 20.460000 231 190 168 0
34.540000 17.600000 20.460000 231 190 168 0
34.760000 17.600000 20.460000 232 189 167 0
34.980000 17.600000 16.390000 233 190 168 0
35.200000 17.600000 7.370000 233 191 172 0
35.420000 17.600000 1.210000 235 193 174 0
35.640000 17.600000 4.620000 235 196 176 0
35.860000 17.600000 15.070000 237 198 178 0
36.080000 17.600000 19.910000 237 199 181 0
36.300000 17.600000 19.910000 239 201 183 0
36.520000 17.600000 20.020000 239 201 185 0
36.740000 17.600000 14.520000 239 201 185 0
36.960000 17.600000 7.370000 240 200 185 0
37.180000 17.600000 5.170000 239 199 184 0
0.000000 17.820000 5.830000 138 120 91 0
0.220000 17.820000 5.830000 139 121 92 0
0.440000 17.820000 5.830000 138 120 91 0
0.660000 17.820000 6.490000 138 120 91 0
0.880000 17.820000 6.490000 137 120 89 0
1.100000 17.820000 6.490000 137 120 89 0
1.320000 17.820000 6.490000 137 119 90 0
1.540000 17.820000 5.830000 136 118 89 0
1.760000 17.820000 5.170000 136 118 89 0
1.980000 17.820000 5.170000 136 118 89 0
2.200000 17.820000 5.170000 135 117 88 0
2.420000 17.820000 5.940000 135 117 88 0
2.640000 17.820000 6.050000 135 118 87 0
2.860000 17.820000 6.160000 135 118 87 0
3.080000 17.820000 6.820000 137 117 88 0
3.300000 17.820000 7.260000 137 117 88 0
3.520000 17.820000 7.700000 137 117 88 0
3.740000 17.820000 7.700000 137 117 88 0
3.960000 17.820000 7.810000 137 117 88 0
4.180000 17.820000 7.810000 138 118 89 0
4.400000 17.820000 7.810000 137 117 87 0
4.620000 17.820000 7.700000 137 117 87 0
4.840000 17.820000 7.700000 136 116 87 0
5.060000 17.820000 7.700000 136 116 87 0
5.280000 17.820000 7.150000 136 116 87 0
5.500000 17.820000 7.370000 136 116 87 0
5.720000 17.820000 6.820000 137 115 87 0
5.940000 17.820000 6.820000 137 115 87 0
6.160000 17.820000 6.820000 136 116 86 0
6.380000 17.820000 7.370000 136 116 86 0
6.600000 17.820000 7.810000 136 114 86 0
6.820000 17.820000 7.700000 136 114 86 0
7.040000 17.820000 7.700000 135 115 86 0
7.260000 17.820000 7.700000 135 115 86 0
7.480000 17.820000 7.700000 137 115 87 0
7.700000 17.820000 7.700000 137 115 87 0
7.920000 17.820000 7.700000 138 116 87 0
8.140000 17.820000 7.700000 139 117 88 0
8.360000 17.820000 6.930000 139 117 89 0
8.580000 17.820000 6.930000 140 118 90 0
8.800000 17.820000 7.040000 140 118 90 0
9.020000 17.820000 7.040000 140 118 90 0
9.240000 17.820000 7.040000 139 117 89 0
9.460000 17.820000 7.040000 136 114 86 0
9.680000 17.820000 7.040000 137 115 86 0
9.900000 17.820000 7.040000 140 118 89 0
10.120000 17.820000 7.040000 146 122 93 0
10.340000 17.820000 7.040000 150 126 97 0
10.560000 17.820000 7.040000 159 123 92 0
10.780000 17.820000 7.150000 162 126 95 0
11.000000 17.820000 7.810000 172 133 99 0
11.220000 17.820000 7.920000 178 139 105 0
11.440000 17.820000 7.920000 186 145 112 0
11.660000 17.820000 7.920000 193 152 119 0
11.880000 17.820000 7.920000 194 153 120 0
12.100000 17.820000 7.920000 195 154 121 0
12.320000 17.820000 8.030000 195 154 121 0
12.540000 17.820000 8.030000 196 155 122 0
12.760000 17.820000 8.030000 196 155 122 0
12.980000 17.820000 8.030000 200 159 126 0
13.200000 17.820000 8.800000 202 163 129 0
13.420000 17.820000 8.800000 206 167 133 0
13.640000 17.820000 8.800000 207 172 139 0
13.860000 17.820000 8.800000 212 177 144 0
14.080000 17.820000 8.800000 216 184 154 0
14.300000 17.820000 8.910000 218 186 156 0
14.520000 17.820000 8.910000 221 189 163 0
14.740000 17.820000 8.910000 215 183 157 0
14.960000 17.820000 8.910000 205 163 134 0
15.180000 17.820000 9.460000 187 145 116 0
15.400000 17.820000 10.560000 159 126 102 0
15.620000 17.820000 11.110000 142 109 85 0
15.840000 17.820000 11.880000 135 106 85 0
16.060000 17.820000 11.880000 133 104 83 0
16.280000 17.820000 12.100000 133 104 85 0
16.500000 17.820000 11.440000 133 104 85 0
16.720000 17.820000 11.550000 134 105 86 0
16.940000 17.820000 11.550000 137 108 89 0
17.160000 17.820000 10.780000 144 111 87 0
17.380000 17.820000 11.550000 148 115 91 0
17.600000 17.820000 11.550000 147 116 93 0
17.820000 17.820000 11.550000 149 118 95 0
18.040000 17.820000 10.890000 150 114 93 0
18.260000 17.820000 10.120000 148 112 91 0
18.480000 17.820000 10.230000 146 113 91 0
18.700000 17.820000 10.230000 149 116 94 0
18.920000 17.820000 10.340000 150 117 95 0
19.140000 17.820000 10.340000 153 120 98 0
19.360000 17.820000 9.570000 154 121 99 0
19.580000 17.820000 9.570000 154 121 99 0
19.800000 17.820000 8.910000 152 119 97 0
20.020000 17.820000 8.910000 153 120 98 0
20.240000 17.820000 8.690000 151 118 96 0
20.460000 17.820000 9.240000 151 118 96 0
20.680000 17.820000 8.690000 149 118 95 0
20.900000 17.820000 8.800000 149 118 95 0
21.120000 17.820000 8.800000 152 119 97 0
21.340000 17.820000 8.690000 151 118 96 0
21.560000 17.820000 9.240000 153 120 98 0
21.780000 17.820000 9.790000 152 119 97 0
22.000000 17.820000 9.790000 151 118 96 0
22.220000 17.820000 9.790000 152 119 97 0
22.440000 17.820000 9.790000 150 119 96 0
22.660000 17.820000 9.790000 152 121 98 0
22.880000 17.820000 9.790000 155 122 100 0
23.100000 17.820000 9.020000 158 125 103 0
23.320000 17.820000 9.020000 160 127 105 0
23.540000 17.820000 9.130000 162 129 107 0
23.760000 17.820000 9.130000 164 131 111 0
23.980000 17.820000 9.790000 168 135 115 0
24.200000 17.820000 9.790000 171 135 116 0
24.420000 17.820000 9.790000 171 135 116 0
24.640000 17.820000 10.560000 174 137 116 0
24.860000 17.820000 10.560000 178 141 120 0
25.080000 17.820000 10.560000 182 143 121 0
25.300000 17.820000 10.560000 185 146 124 0
25.520000 17.820000 10.560000 189 150 130 0
25.740000 17.820000 10.560000 191 152 132 0
25.960000 17.820000 10.560000 193 152 130 0
26.180000 17.820000 11.330000 194 153 131 0
26.400000 17.820000 11.330000 190 151 129 0
26.620000 17.820000 10.670000 190 151 129 0
26.840000 17.820000 11.330000 192 151 129 0
27.060000 17.820000 11.330000 193 152 130 0
27.280000 17.820000 12.100000 194 152 133 0
27.500000 17.820000 12.100000 196 154 135 0
27.720000 17.820000 12.100000 198 157 135 0
27.940000 17.820000 12.100000 200 159 137 0
28.160000 17.820000 12.100000 204 163 140 0
28.380000 17.820000 12.870000 207 166 143 0
28.600000 17.820000 12.870000 208 169 149 0
28.820000 17.820000 12.870000 211 172 152 0
29.040000 17.820000 12.870000 213 176 153 0
29.260000 17.820000 12.980000 219 182 159 0
29.480000 17.820000 12.980000 226 189 166 0
29.700000 17.820000 12.980000 230 193 170 0
29.920000 17.820000 13.640000 231 192 170 0
30.140000 17.820000 13.750000 231 192 170 0
30.360000 17.820000 13.750000 228 189 169 0
30.580000 17.820000 13.750000 228 189 169 0
30.800000 17.820000 14.520000 230 189 167 0
31.020000 17.820000 15.180000 231 190 168 0
31.240000 17.820000 15.180000 232 191 169 0
31.460000 17.820000 16.390000 233 192 170 0
31.680000 17.820000 17.490000 234 193 171 0
31.900000 17.820000 18.040000 234 193 171 0
32.120000 17.820000 18.700000 235 194 172 0
32.340000 17.820000 18.700000 237 196 174 0
32.560000 17.820000 18.810000 236 197 175 0
32.780000 17.820000 19.470000 237 198 176 0
33.000000 17.820000 20.240000 238 199 179 0
33.220000 17.820000 20.900000 238 199 179 0
33.440000 17.820000 21.010000 238 199 179 0
33.660000 17.820000 21.010000 237 198 178 0
33.880000 17.820000 20.350000 237 196 174 0
34.100000 17.820000 20.350000 235 194 172 0
34.320000 17.820000 20.460000 231 190 168 0
34.540000 17.820000 20.460000 231 190 168 0
34.760000 17.820000 20.460000 232 189 167 0
34.980000 17.820000 19.140000 232 189 167 0
35.200000 17.820000 12.870000 232 190 171 0
35.420000 17.820000 3.300000 234 192 173 0
35.640000 17.820000 4.620000 235 196 178 0
35.860000 17.820000 15.070000 238 199 181 0
36.080000 17.820000 19.910000 237 200 186 0
36.300000 17.820000 19.910000 237 200 186 0
36.520000 17.820000 20.020000 239 202 189 0
36.740000 17.820000 14.520000 239 202 189 0
36.960000 17.820000 6.050000 240 202 188 0
37.180000 17.820000 2.420000 240 202 188 0
0.000000 18.040000 5.830000 139 121 92 0
0.220000 18.040000 5.830000 137 119 90 0
0.440000 18.040000 5.830000 137 119 90 0
0.660000 18.040000 6.490000 137 119 90 0
0.880000 18.040000 6.490000 137 120 89 0
1.100000 18.040000 6.490000 136 119 88 0
1.320000 18.040000 5.830000 136 118 89 0
1.540000 18.040000 5.830000 137 119 90 0
1.760000 18.040000 5.170000 136 118 89 0
1.980000 18.040000 5.170000 136 118 89 0
2.200000 18.040000 5.940000 135 117 88 0
2.420000 18.040000 5.940000 135 117 88 0
2.640000 18.040000 6.050000 135 118 87 0
2.860000 18.040000 6.160000 136 119 88 0
3.080000 18.040000 6.160000 138 118 89 0
3.300000 18.040000 6.600000 137 117 88 0
3.520000 18.040000 7.040000 137 117 88 0
3.740000 18.040000 7.590000 136 116 87 0
3.960000 18.040000 7.590000 136 116 87 0
4.180000 18.040000 7.590000 137 117 88 0
4.400000 18.040000 7.590000 136 116 86 0
4.620000 18.040000 7.700000 136 116 86 0
4.840000 18.040000 7.810000 135 115 86 0
5.060000 18.040000 7.920000 136 116 87 0
5.280000 18.040000 7.260000 136 116 87 0
5.500000 18.040000 7.370000 136 116 87 0
5.720000 18.040000 7.480000 137 115 87 0
5.940000 18.040000 6.820000 137 115 87 0
6.160000 18.040000 6.820000 137 117 87 0
6.380000 18.040000 6.710000 135 115 85 0
6.600000 18.040000 7.150000 136 114 86 0
6.820000 18.040000 7.700000 136 114 86 0
7.040000 18.040000 7.700000 135 115 86 0
7.260000 18.040000 7.700000 135 115 86 0
7.480000 18.040000 7.700000 136 114 86 0
7.700000 18.040000 7.700000 137 115 87 0
7.920000 18.040000 7.700000 138 116 87 0
8.140000 18.040000 7.700000 138 116 87 0
8.360000 18.040000 6.930000 138 116 88 0
8.580000 18.040000 6.930000 139 117 89 0
8.800000 18.040000 7.040000 139 117 89 0
9.020000 18.040000 7.040000 138 116 88 0
9.240000 18.040000 7.040000 135 113 85 0
9.460000 18.040000 7.040000 134 112 84 0
9.680000 18.040000 7.040000 134 112 83 0
9.900000 18.040000 7.040000 136 114 85 0
10.120000 18.040000 7.040000 145 121 92 0
10.340000 18.040000 7.040000 148 124 95 0
10.560000 18.040000 7.040000 160 124 93 0
10.780000 18.040000 7.150000 164 128 97 0
11.000000 18.040000 7.810000 173 134 100 0
11.220000 18.040000 7.920000 179 140 106 0
11.440000 18.040000 7.920000 186 145 112 0
11.660000 18.040000 7.920000 191 150 117 0
11.880000 18.040000 7.920000 194 153 120 0
12.100000 18.040000 7.920000 195 154 121 0
12.320000 18.040000 8.030000 195 154 121 0
12.540000 18.040000 8.030000 195 154 121 0
12.760000 18.040000 8.030000 195 154 121 0
12.980000 18.040000 8.030000 199 158 125 0
13.200000 18.040000 8.800000 201 162 128 0
13.420000 18.040000 8.800000 204 165 131 0
13.640000 18.040000 8.800000 208 173 140 0
13.860000 18.040000 8.800000 213 178 145 0
14.080000 18.040000 8.800000 215 183 153 0
14.300000 18.040000 8.910000 218 186 156 0
14.520000 18.040000 8.910000 221 189 163 0
14.740000 18.040000 8.910000 217 185 159 0
14.960000 18.040000 8.910000 210 168 139 0
15.180000 18.040000 9.460000 192 150 121 0
15.400000 18.040000 10.560000 163 130 106 0
15.620000 18.040000 11.110000 146 113 89 0
15.840000 18.040000 11.220000 136 107 86 0
16.060000 18.040000 11.880000 135 106 85 0
16.280000 18.040000 11.990000 133 104 85 0
16.500000 18.040000 12.100000 133 104 85 0
16.720000 18.040000 11.550000 134 105 86 0
16.940000 18.040000 11.550000 136 107 88 0
17.160000 18.040000 11.550000 142 109 85 0
17.380000 18.040000 11.550000 147 114 90 0
17.600000 18.040000 11.550000 148 117 94 0
17.820000 18.040000 11.550000 147 116 93 0
18.040000 18.040000 10.780000 149 113 92 0
18.260000 18.040000 10.120000 147 111 90 0
18.480000 18.040000 10.230000 145 112 90 0
18.700000 18.040000 10.230000 147 114 92 0
18.920000 18.040000 10.230000 149 116 94 0
19.140000 18.040000 10.340000 152 119 97 0
19.360000 18.040000 9.570000 154 121 99 0
19.580000 18.040000 9.570000 153 120 98 0
19.800000 18.040000 8.910000 153 120 98 0
20.020000 18.040000 8.910000 152 119 97 0
20.240000 18.040000 8.800000 151 118 96 0
20.460000 18.040000 9.240000 150 117 95 0
20.680000 18.040000 9.790000 149 118 95 0
20.900000 18.040000 9.240000 149 118 95 0
21.120000 18.040000 9.350000 150 117 95 0
21.340000 18.040000 9.240000 152 119 97 0
21.560000 18.040000 9.790000 154 121 99 0
21.780000 18.040000 9.680000 153 120 98 0
22.000000 18.040000 9.680000 152 119 97 0
22.220000 18.040000 9.790000 152 119 97 0
22.440000 18.040000 9.790000 151 120 97 0
22.660000 18.040000 9.790000 152 121 98 0
22.880000 18.040000 9.790000 154 121 99 0
23.100000 18.040000 9.020000 156 123 101 0
23.320000 18.040000 9.020000 159 126 104 0
23.540000 18.040000 9.130000 162 129 107 0
23.760000 18.040000 9.130000 163 130 110 0
23.980000 18.040000 9.790000 166 133 113 0
24.200000 18.040000 9.790000 170 134 115 0
24.420000 18.040000 9.790000 170 134 115 0
24.640000 18.040000 10.560000 174 137 116 0
24.860000 18.040000 10.560000 177 140 119 0
25.080000 18.040000 10.560000 180 141 119 0
25.300000 18.040000 10.560000 185 146 124 0
25.520000 18.040000 10.560000 187 148 128 0
25.740000 18.040000 10.560000 190 151 131 0
25.960000 18.040000 10.560000 193 152 130 0
26.180000 18.040000 11.330000 192 151 129 0
26.400000 18.040000 11.330000 190 151 129 0
26.620000 18.040000 10.670000 188 149 127 0
26.840000 18.040000 11.330000 191 150 128 0
27.060000 18.040000 11.330000 190 149 127 0
27.280000 18.040000 11.330000 192 150 131 0
27.500000 18.040000 12.100000 194 152 133 0
27.720000 18.040000 12.100000 196 155 133 0
27.940000 18.040000 12.100000 199 158 136 0
28.160000 18.040000 12.100000 202 161 138 0
28.380000 18.040000 12.870000 205 164 141 0
28.600000 18.040000 12.870000 206 167 147 0
28.820000 18.040000 12.870000 210 171 151 0
29.040000 18.040000 12.870000 213 176 153 0
29.260000 18.040000 12.870000 219 182 159 0
29.480000 18.040000 12.980000 226 189 166 0
29.700000 18.040000 12.980000 229 192 169 0
29.920000 18.040000 13.640000 233 194 172 0
30.140000 18.040000 13.750000 230 191 169 0
30.360000 18.040000 13.750000 229 190 170 0
30.580000 18.040000 13.750000 228 189 169 0
30.800000 18.040000 14.520000 230 189 167 0
31.020000 18.040000 15.180000 230 189 167 0
31.240000 18.040000 15.180000 231 190 168 0
31.460000 18.040000 16.390000 233 192 170 0
31.680000 18.040000 17.490000 233 192 170 0
31.900000 18.040000 18.040000 234 193 171 0
32.120000 18.040000 18.700000 236 195 173 0
32.340000 18.040000 18.700000 237 196 174 0
32.560000 18.040000 18.700000 236 197 175 0
32.780000 18.040000 19.470000 237 198 176 0
33.000000 18.040000 20.240000 238 199 179 0
33.220000 18.040000 20.900000 238 199 179 0
33.440000 18.040000 21.010000 238 199 179 0
33.660000 18.040000 21.010000 238 199 179 0
33.880000 18.040000 20.350000 236 195 173 0
34.100000 18.040000 20.350000 234 193 171 0
34.320000 18.040000 20.460000 233 192 170 0
34.540000 18.040000 20.460000 231 190 168 0
34.760000 18.040000 20.460000 231 188 166 0
34.980000 18.040000 19.140000 232 189 167 0
35.200000 18.040000 12.870000 230 188 169 0
35.420000 18.040000 3.300000 234 192 173 0
35.640000 18.040000 4.620000 235 196 178 0
35.860000 18.040000 15.070000 237 198 180 0
36.080000 18.040000 19.910000 237 200 186 0
36.300000 18.040000 19.910000 239 202 188 0
36.520000 18.040000 20.020000 239 202 189 0
36.740000 18.040000 14.520000 240 203 190 0
36.960000 18.040000 4.620000 241 203 189 0
0.000000 18.260000 5.830000 138 121 90 0
0.220000 18.260000 5.830000 138 121 90 0
0.440000 18.260000 5.830000 137 120 89 0
0.660000 18.260000 6.490000 138 121 90 0
0.880000 18.260000 6.490000 137 119 90 0
1.100000 18.260000 6.490000 137 119 90 0
1.320000 18.260000 5.830000 136 118 89 0
1.540000 18.260000 5.830000 136 118 89 0
1.760000 18.260000 5.170000 136 119 88 0
1.980000 18.260000 5.170000 136 119 88 0
2.200000 18.260000 5.830000 137 117 87 0
2.420000 18.260000 5.940000 137 117 87 0
2.640000 18.260000 6.050000 136 118 89 0
2.860000 18.260000 6.160000 135 117 88 0
3.080000 18.260000 6.160000 138 118 89 0
3.300000 18.260000 6.710000 137 117 88 0
3.520000 18.260000 7.040000 137 117 88 0
3.740000 18.260000 7.590000 136 116 87 0
3.960000 18.260000 7.590000 137 117 88 0
4.180000 18.260000 7.590000 136 116 87 0
4.400000 18.260000 7.590000 136 116 87 0
4.620000 18.260000 7.700000 136 116 87 0
4.840000 18.260000 7.260000 137 117 88 0
5.060000 18.260000 7.260000 137 117 88 0
5.280000 18.260000 7.370000 136 116 87 0
5.500000 18.260000 7.370000 137 117 88 0
5.720000 18.260000 7.370000 137 115 87 0
5.940000 18.260000 7.480000 136 114 86 0
6.160000 18.260000 6.820000 135 115 86 0
6.380000 18.260000 6.820000 135 115 86 0
6.600000 18.260000 7.370000 135 115 86 0
6.820000 18.260000 7.700000 135 115 86 0
7.040000 18.260000 7.590000 135 113 85 0
7.260000 18.260000 7.700000 136 114 86 0
7.480000 18.260000 7.700000 137 115 87 0
7.700000 18.260000 7.700000 137 115 87 0
7.920000 18.260000 7.700000 136 116 87 0
8.140000 18.260000 7.700000 136 116 87 0
8.360000 18.260000 7.040000 137 115 87 0
8.580000 18.260000 7.040000 139 117 89 0
8.800000 18.260000 7.040000 139 117 89 0
9.020000 18.260000 7.040000 138 116 88 0
9.240000 18.260000 7.040000 132 110 84 0
9.460000 18.260000 7.040000 130 108 82 0
9.680000 18.260000 7.040000 131 109 81 0
9.900000 18.260000 7.040000 134 112 84 0
10.120000 18.260000 7.040000 144 118 90 0
10.340000 18.260000 7.040000 149 123 95 0
10.560000 18.260000 7.040000 158 124 94 0
10.780000 18.260000 7.150000 165 131 101 0
11.000000 18.260000 7.810000 172 132 101 0
11.220000 18.260000 7.920000 177 137 106 0
11.440000 18.260000 7.920000 185 144 111 0
11.660000 18.260000 7.920000 191 150 117 0
11.880000 18.260000 7.920000 194 153 122 0
12.100000 18.260000 7.920000 195 154 123 0
12.320000 18.260000 8.030000 194 154 123 0
12.540000 18.260000 8.030000 195 155 124 0
12.760000 18.260000 8.030000 196 156 125 0
12.980000 18.260000 8.030000 197 157 126 0
13.200000 18.260000 8.800000 199 162 131 0
13.420000 18.260000 8.800000 203 166 135 0
13.640000 18.260000 8.800000 209 173 142 0
13.860000 18.260000 8.800000 213 177 146 0
14.080000 18.260000 8.800000 216 182 149 0
14.300000 18.260000 8.910000 219 185 152 0
14.520000 18.260000 8.910000 217 189 163 0
14.740000 18.260000 8.910000 216 188 162 0
14.960000 18.260000 8.910000 213 173 143 0
15.180000 18.260000 9.460000 197 157 127 0
15.400000 18.260000 10.560000 169 136 112 0
15.620000 18.260000 11.110000 151 118 94 0
15.840000 18.260000 11.220000 135 106 87 0
16.060000 18.260000 11.880000 133 104 85 0
16.280000 18.260000 11.990000 131 103 84 0
16.500000 18.260000 12.100000 132 104 85 0
16.720000 18.260000 11.440000 133 104 85 0
16.940000 18.260000 11.550000 134 105 86 0
17.160000 18.260000 11.550000 142 111 88 0
17.380000 18.260000 11.550000 143 112 89 0
17.600000 18.260000 11.550000 147 114 92 0
17.820000 18.260000 11.550000 147 114 92 0
18.040000 18.260000 11.550000 146 113 91 0
18.260000 18.260000 10.890000 145 112 90 0
18.480000 18.260000 10.230000 143 111 91 0
18.700000 18.260000 10.230000 144 112 92 0
18.920000 18.260000 10.230000 146 115 92 0
19.140000 18.260000 10.340000 149 118 95 0
19.360000 18.260000 9.570000 151 118 96 0
19.580000 18.260000 9.570000 152 119 97 0
19.800000 18.260000 9.570000 152 119 97 0
20.020000 18.260000 8.910000 152 119 97 0
20.240000 18.260000 8.800000 152 119 99 0
20.460000 18.260000 9.130000 151 118 98 0
20.680000 18.260000 9.680000 149 118 95 0
20.900000 18.260000 9.790000 149 118 95 0
21.120000 18.260000 9.790000 151 118 96 0
21.340000 18.260000 9.790000 152 119 97 0
21.560000 18.260000 9.680000 154 121 99 0
21.780000 18.260000 9.680000 153 120 98 0
22.000000 18.260000 9.790000 153 120 100 0
22.220000 18.260000 9.790000 153 120 100 0
22.440000 18.260000 9.790000 152 119 99 0
22.660000 18.260000 9.790000 153 120 100 0
22.880000 18.260000 9.790000 154 121 99 0
23.100000 18.260000 9.020000 157 124 102 0
23.320000 18.260000 9.020000 159 126 104 0
23.540000 18.260000 9.130000 160 127 105 0
23.760000 18.260000 9.130000 165 128 107 0
23.980000 18.260000 9.790000 167 130 109 0
24.200000 18.260000 9.790000 171 134 113 0
24.420000 18.260000 9.790000 173 136 115 0
24.640000 18.260000 10.560000 173 136 115 0
24.860000 18.260000 10.560000 175 138 117 0
25.080000 18.260000 10.560000 178 141 118 0
25.300000 18.260000 10.560000 182 145 122 0
25.520000 18.260000 10.560000 187 148 128 0
25.740000 18.260000 10.560000 189 150 130 0
25.960000 18.260000 10.560000 189 150 130 0
26.180000 18.260000 10.560000 189 150 130 0
26.400000 18.260000 10.670000 189 150 128 0
26.620000 18.260000 10.670000 188 149 127 0
26.840000 18.260000 10.670000 188 149 127 0
27.060000 18.260000 11.330000 188 149 127 0
27.280000 18.260000 11.330000 192 148 130 0
27.500000 18.260000 12.100000 194 150 132 0
27.720000 18.260000 12.100000 196 153 132 0
27.940000 18.260000 12.100000 200 157 136 0
28.160000 18.260000 12.100000 200 159 137 0
28.380000 18.260000 12.100000 204 163 141 0
28.600000 18.260000 12.870000 206 164 145 0
28.820000 18.260000 12.870000 210 168 149 0
29.040000 18.260000 12.870000 211 174 151 0
29.260000 18.260000 12.870000 219 182 159 0
29.480000 18.260000 12.980000 225 186 166 0
29.700000 18.260000 12.980000 230 191 171 0
29.920000 18.260000 13.640000 232 195 174 0
30.140000 18.260000 13.750000 231 194 173 0
30.360000 18.260000 13.750000 228 191 170 0
30.580000 18.260000 13.750000 227 190 169 0
30.800000 18.260000 14.520000 226 187 165 0
31.020000 18.260000 15.180000 227 188 166 0
31.240000 18.260000 15.180000 230 189 167 0
31.460000 18.260000 16.390000 231 190 168 0
31.680000 18.260000 17.490000 233 192 170 0
31.900000 18.260000 18.040000 234 193 171 0
32.120000 18.260000 18.700000 233 194 172 0
32.340000 18.260000 18.700000 235 196 174 0
32.560000 18.260000 18.700000 236 197 175 0
32.780000 18.260000 19.470000 237 198 176 0
33.000000 18.260000 20.240000 238 199 179 0
33.220000 18.260000 19.580000 239 200 180 0
33.440000 18.260000 18.150000 239 200 180 0
33.660000 18.260000 19.580000 238 199 179 0
33.880000 18.260000 20.350000 236 197 177 0
34.100000 18.260000 20.350000 235 196 176 0
34.320000 18.260000 20.350000 234 193 170 0
34.540000 18.260000 20.460000 231 190 167 0
34.760000 18.260000 20.460000 231 188 167 0
34.980000 18.260000 16.390000 231 188 167 0
35.200000 18.260000 7.370000 232 189 168 0
35.420000 18.260000 0.440000 233 190 169 0
35.640000 18.260000 4.620000 234 195 175 0
35.860000 18.260000 15.070000 238 199 179 0
36.080000 18.260000 19.910000 239 201 185 0
36.300000 18.260000 19.910000 240 202 186 0
36.520000 18.260000 20.020000 241 203 189 0
36.740000 18.260000 14.520000 241 203 189 0
36.960000 18.260000 4.620000 242 204 190 0
0.000000 18.480000 5.830000 139 122 91 0
0.220000 18.480000 5.830000 138 121 90 0
0.440000 18.480000 5.830000 137 120 89 0
0.660000 18.480000 6.490000 137 120 89 0
0.880000 18.480000 6.490000 137 119 90 0
1.100000 18.480000 6.490000 136 118 89 0
1.320000 18.480000 5.830000 136 118 89 0
1.540000 18.480000 5.830000 136 118 89 0
1.760000 18.480000 5.170000 136 119 88 0
1.980000 18.480000 5.170000 136 119 88 0
2.200000 18.480000 5.830000 137 117 87 0
2.420000 18.480000 5.940000 138 118 88 0
2.640000 18.480000 6.050000 135 117 88 0
2.860000 18.480000 6.160000 136 118 89 0
3.080000 18.480000 6.160000 137 117 88 0
3.300000 18.480000 6.050000 137 117 88 0
3.520000 18.480000 7.150000 137 117 88 0
3.740000 18.480000 7.700000 137 117 88 0
3.960000 18.480000 7.810000 137 117 88 0
4.180000 18.480000 7.700000 137 117 88 0
4.400000 18.480000 7.700000 138 118 89 0
4.620000 18.480000 7.700000 136 116 87 0
4.840000 18.480000 7.260000 137 117 88 0
5.060000 18.480000 7.260000 137 117 88 0
5.280000 18.480000 7.370000 136 116 87 0
5.500000 18.480000 7.370000 136 116 87 0
5.720000 18.480000 7.370000 137 115 87 0
5.940000 18.480000 6.710000 137 115 87 0
6.160000 18.480000 6.820000 136 116 87 0
6.380000 18.480000 6.820000 135 115 86 0
6.600000 18.480000 6.710000 135 115 86 0
6.820000 18.480000 7.150000 134 114 85 0
7.040000 18.480000 7.700000 135 113 85 0
7.260000 18.480000 7.590000 137 115 87 0
7.480000 18.480000 7.700000 137 115 87 0
7.700000 18.480000 7.700000 136 114 86 0
7.920000 18.480000 7.700000 136 116 87 0
8.140000 18.480000 6.930000 135 115 86 0
8.360000 18.480000 7.040000 138 116 88 0
8.580000 18.480000 7.040000 138 116 88 0
8.800000 18.480000 7.040000 139 117 89 0
9.020000 18.480000 7.040000 136 114 86 0
9.240000 18.480000 7.040000 131 109 83 0
9.460000 18.480000 7.700000 131 109 83 0
9.680000 18.480000 7.040000 132 110 82 0
9.900000 18.480000 7.040000 133 111 83 0
10.120000 18.480000 7.040000 144 118 90 0
10.340000 18.480000 7.040000 149 123 95 0
10.560000 18.480000 7.040000 158 124 94 0
10.780000 18.480000 7.810000 164 130 100 0
11.000000 18.480000 7.810000 173 133 102 0
11.220000 18.480000 7.920000 179 139 108 0
11.440000 18.480000 7.920000 187 146 113 0
11.660000 18.480000 7.920000 191 150 117 0
11.880000 18.480000 7.920000 194 153 122 0
12.100000 18.480000 7.920000 195 154 123 0
12.320000 18.480000 8.030000 195 155 124 0
12.540000 18.480000 8.030000 195 155 124 0
12.760000 18.480000 8.030000 196 156 125 0
12.980000 18.480000 8.690000 198 158 127 0
13.200000 18.480000 8.800000 200 163 132 0
13.420000 18.480000 8.800000 204 167 136 0
13.640000 18.480000 8.800000 207 171 140 0
13.860000 18.480000 8.800000 212 176 145 0
14.080000 18.480000 8.800000 216 182 149 0
14.300000 18.480000 8.910000 219 185 152 0
14.520000 18.480000 8.910000 217 189 163 0
14.740000 18.480000 8.910000 216 188 162 0
14.960000 18.480000 8.910000 215 175 145 0
15.180000 18.480000 9.460000 200 160 130 0
15.400000 18.480000 10.560000 176 143 119 0
15.620000 18.480000 11.110000 154 121 97 0
15.840000 18.480000 11.220000 138 109 90 0
16.060000 18.480000 11.880000 134 105 86 0
16.280000 18.480000 11.990000 130 102 83 0
16.500000 18.480000 12.100000 131 103 84 0
16.720000 18.480000 11.440000 133 104 85 0
16.940000 18.480000 11.440000 133 104 85 0
17.160000 18.480000 11.440000 139 108 85 0
17.380000 18.480000 11.440000 143 112 89 0
17.600000 18.480000 11.550000 145 112 90 0
17.820000 18.480000 11.550000 147 114 92 0
18.040000 18.480000 11.550000 147 114 92 0
18.260000 18.480000 10.890000 144 111 89 0
18.480000 18.480000 10.230000 142 110 90 0
18.700000 18.480000 10.230000 143 111 91 0
18.920000 18.480000 10.230000 145 114 91 0
19.140000 18.480000 10.230000 147 116 93 0
19.360000 18.480000 9.570000 151 118 96 0
19.580000 18.480000 9.570000 151 118 96 0
19.800000 18.480000 9.570000 152 119 97 0
20.020000 18.480000 8.910000 152 119 97 0
20.240000 18.480000 8.800000 151 118 98 0
20.460000 18.480000 9.900000 150 117 97 0
20.680000 18.480000 9.680000 149 118 95 0
20.900000 18.480000 9.790000 149 118 95 0
21.120000 18.480000 9.790000 150 117 95 0
21.340000 18.480000 10.450000 152 119 97 0
21.560000 18.480000 9.680000 152 119 97 0
21.780000 18.480000 9.680000 153 120 98 0
22.000000 18.480000 9.790000 153 120 100 0
22.220000 18.480000 9.790000 152 119 99 0
22.440000 18.480000 9.790000 153 120 100 0
22.660000 18.480000 9.790000 153 120 100 0
22.880000 18.480000 9.790000 155 122 100 0
23.100000 18.480000 9.020000 157 124 102 0
23.320000 18.480000 9.020000 159 126 104 0
23.540000 18.480000 9.130000 161 128 106 0
23.760000 18.480000 9.130000 165 128 107 0
23.980000 18.480000 9.790000 167 130 109 0
24.200000 18.480000 9.790000 169 132 111 0
24.420000 18.480000 9.790000 172 135 114 0
24.640000 18.480000 10.560000 173 136 115 0
24.860000 18.480000 10.560000 174 137 116 0
25.080000 18.480000 10.560000 176 139 116 0
25.300000 18.480000 10.560000 182 145 122 0
25.520000 18.480000 10.560000 184 145 125 0
25.740000 18.480000 10.560000 186 147 127 0
25.960000 18.480000 10.560000 188 149 129 0
26.180000 18.480000 10.560000 187 148 128 0
26.400000 18.480000 10.670000 187 148 126 0
26.620000 18.480000 10.670000 187 148 126 0
26.840000 18.480000 10.670000 187 148 126 0
27.060000 18.480000 11.330000 187 148 126 0
27.280000 18.480000 11.330000 190 146 128 0
27.500000 18.480000 12.100000 193 149 131 0
27.720000 18.480000 12.100000 196 153 132 0
27.940000 18.480000 12.100000 198 155 134 0
28.160000 18.480000 12.100000 200 159 137 0
28.380000 18.480000 12.100000 205 164 142 0
28.600000 18.480000 12.870000 206 164 145 0
28.820000 18.480000 12.870000 209 167 148 0
29.040000 18.480000 12.870000 210 173 150 0
29.260000 18.480000 12.870000 219 182 159 0
29.480000 18.480000 12.980000 226 187 167 0
29.700000 18.480000 12.980000 230 191 171 0
29.920000 18.480000 13.640000 233 196 175 0
30.140000 18.480000 13.750000 233 196 175 0
30.360000 18.480000 13.750000 230 193 172 0
30.580000 18.480000 13.750000 227 190 169 0
30.800000 18.480000 14.520000 225 186 164 0
31.020000 18.480000 15.180000 226 187 165 0
31.240000 18.480000 15.180000 229 188 166 0
31.460000 18.480000 16.390000 231 190 168 0
31.680000 18.480000 17.490000 233 192 170 0
31.900000 18.480000 18.040000 234 193 171 0
32.120000 18.480000 18.700000 235 196 174 0
32.340000 18.480000 18.700000 235 196 174 0
32.560000 18.480000 18.700000 237 198 176 0
32.780000 18.480000 19.470000 238 199 177 0
33.000000 18.480000 20.240000 238 199 179 0
33.220000 18.480000 16.720000 239 200 180 0
33.440000 18.480000 13.310000 239 200 180 0
33.660000 18.480000 16.830000 239 200 180 0
33.880000 18.480000 21.010000 238 199 179 0
34.100000 18.480000 20.350000 236 197 177 0
34.320000 18.480000 20.350000 235 194 171 0
34.540000 18.480000 20.460000 232 191 168 0
34.760000 18.480000 20.460000 231 188 167 0
34.980000 18.480000 14.960000 231 188 167 0
35.200000 18.480000 4.620000 230 187 166 0
35.640000 18.480000 4.620000 233 194 174 0
35.860000 18.480000 15.070000 236 197 177 0
36.080000 18.480000 19.910000 238 200 184 0
36.300000 18.480000 19.910000 239 201 185 0
36.520000 18.480000 20.020000 239 201 187 0
36.740000 18.480000 14.520000 240 202 188 0
36.960000 18.480000 4.620000 241 203 189 0
0.000000 18.700000 5.830000 139 122 91 0
0.220000 18.700000 5.830000 138 121 90 0
0.440000 18.700000 6.490000 138 120 91 0
0.660000 18.700000 6.490000 137 119 90 0
0.880000 18.700000 6.490000 137 120 89 0
1.100000 18.700000 6.490000 137 120 89 0
1.320000 18.700000 5.830000 137 120 89 0
1.540000 18.700000 5.830000 137 120 89 0
1.760000 18.700000 5.170000 139 119 89 0
1.980000 18.700000 5.170000 138 118 88 0
2.200000 18.700000 5.830000 138 118 89 0
2.420000 18.700000 5.940000 138 118 89 0
2.640000 18.700000 6.050000 135 117 88 0
2.860000 18.700000 6.160000 136 118 89 0
3.080000 18.700000 6.160000 137 117 87 0
3.300000 18.700000 6.050000 137 117 87 0
3.520000 18.700000 6.600000 136 116 86 0
3.740000 18.700000 6.600000 136 116 86 0
3.960000 18.700000 6.710000 136 116 87 0
4.180000 18.700000 7.260000 137 117 88 0
4.400000 18.700000 7.700000 136 116 86 0
4.620000 18.700000 7.700000 137 117 87 0
4.840000 18.700000 7.700000 136 116 87 0
5.060000 18.700000 7.810000 136 116 87 0
5.280000 18.700000 7.370000 137 117 87 0
5.500000 18.700000 7.480000 136 116 86 0
5.720000 18.700000 7.370000 136 116 87 0
5.940000 18.700000 6.710000 136 116 87 0
6.160000 18.700000 6.820000 135 115 85 0
6.380000 18.700000 6.820000 135 115 85 0
6.600000 18.700000 6.820000 135 115 86 0
6.820000 18.700000 6.710000 135 115 86 0
7.040000 18.700000 7.150000 135 115 86 0
7.260000 18.700000 7.700000 136 116 87 0
7.480000 18.700000 7.590000 135 115 86 0
7.700000 18.700000 7.700000 135 115 86 0
7.920000 18.700000 6.930000 136 114 86 0
8.140000 18.700000 7.040000 137 115 87 0
8.360000 18.700000 7.040000 137 115 87 0
8.580000 18.700000 7.040000 138 116 88 0
8.800000 18.700000 7.040000 139 117 88 0
9.020000 18.700000 7.040000 137 115 86 0
9.240000 18.700000 7.040000 133 111 83 0
9.460000 18.700000 7.700000 133 111 83 0
9.680000 18.700000 7.700000 134 112 84 0
9.900000 18.700000 7.040000 135 113 85 0
10.120000 18.700000 7.040000 146 118 91 0
10.340000 18.700000 7.040000 151 123 96 0
10.560000 18.700000 7.040000 159 125 95 0
10.780000 18.700000 7.810000 164 130 100 0
11.000000 18.700000 7.810000 173 133 102 0
