ply
format ascii 1.0
element vertex 1156
property float x
property float y
property float z
property uchar red
property uchar green
property uchar blue
property uchar alpha
end_header
14.520000 31.460000 12.540000 203 93 79 0
14.740000 31.460000 13.200000 203 93 79 0
14.960000 31.460000 13.200000 202 92 78 0
15.180000 31.460000 13.310000 201 91 77 0
15.400000 31.460000 13.310000 201 91 77 0
15.620000 31.460000 13.310000 201 91 77 0
15.840000 31.460000 13.310000 202 92 78 0
16.060000 31.460000 13.420000 201 91 77 0
16.280000 31.460000 13.420000 200 90 76 0
16.500000 31.460000 13.530000 202 92 78 0
16.720000 31.460000 13.530000 202 92 78 0
16.940000 31.460000 13.530000 203 93 79 0
17.160000 31.460000 13.530000 201 91 77 0
17.380000 31.460000 13.640000 202 92 78 0
17.600000 31.460000 13.640000 201 91 77 0
17.820000 31.460000 13.750000 202 92 78 0
18.040000 31.460000 13.750000 202 92 78 0
18.260000 31.460000 13.750000 202 92 78 0
18.480000 31.460000 14.300000 200 92 77 0
18.700000 31.460000 14.630000 201 93 78 0
18.920000 31.460000 15.180000 201 93 78 0
19.140000 31.460000 15.290000 201 93 78 0
19.360000 31.460000 15.290000 201 93 78 0
19.580000 31.460000 15.290000 202 94 79 0
19.800000 31.460000 15.290000 202 92 80 0
20.020000 31.460000 15.290000 201 91 79 0
20.240000 31.460000 15.290000 201 92 80 0
20.460000 31.460000 16.060000 200 91 79 0
20.680000 31.460000 16.060000 200 91 79 0
20.900000 31.460000 15.950000 200 91 79 0
21.120000 31.460000 15.950000 200 91 79 0
21.340000 31.460000 16.720000 200 91 79 0
21.560000 31.460000 16.610000 201 92 80 0
21.780000 31.460000 16.610000 199 90 78 0
22.000000 31.460000 17.380000 197 90 77 0
22.220000 31.460000 17.380000 196 89 76 0
22.440000 31.460000 17.380000 198 89 77 0
22.660000 31.460000 17.380000 197 88 76 0
22.880000 31.460000 17.380000 199 92 79 0
23.100000 31.460000 17.490000 201 94 81 0
23.320000 31.460000 17.490000 199 99 86 0
23.540000 31.460000 18.260000 204 104 91 0
23.760000 31.460000 18.920000 201 116 106 0
23.980000 31.460000 15.510000 222 137 127 0
24.200000 31.460000 12.760000 220 133 119 0
24.420000 31.460000 14.850000 211 124 110 0
24.640000 31.460000 17.710000 214 109 98 0
24.860000 31.460000 17.710000 186 81 70 0
25.080000 31.460000 13.640000 182 73 61 0
25.300000 31.460000 6.050000 181 72 60 0
25.520000 31.460000 0.550000 181 72 60 0
26.180000 31.460000 0.660000 181 72 60 0
26.400000 31.460000 0.660000 182 73 61 0
26.620000 31.460000 1.870000 182 73 61 0
26.840000 31.460000 2.970000 181 72 60 0
27.060000 31.460000 4.180000 181 72 60 0
27.280000 31.460000 4.180000 182 73 61 0
27.500000 31.460000 4.180000 181 72 60 0
27.720000 31.460000 4.180000 180 71 59 0
27.940000 31.460000 4.950000 179 70 58 0
28.160000 31.460000 4.950000 179 70 58 0
28.380000 31.460000 5.060000 179 70 58 0
28.600000 31.460000 5.060000 179 72 59 0
28.820000 31.460000 5.060000 178 71 58 0
29.040000 31.460000 5.170000 178 69 57 0
29.260000 31.460000 5.170000 178 69 57 0
29.480000 31.460000 5.170000 177 68 56 0
29.700000 31.460000 5.940000 176 67 55 0
29.920000 31.460000 5.940000 175 66 54 0
30.140000 31.460000 6.600000 175 66 54 0
30.360000 31.460000 7.370000 174 65 55 0
30.580000 31.460000 7.370000 173 64 54 0
30.800000 31.460000 6.710000 173 64 52 0
31.020000 31.460000 5.390000 173 64 52 0
31.240000 31.460000 3.960000 170 63 50 0
31.460000 31.460000 3.300000 170 63 50 0
31.680000 31.460000 3.410000 171 64 51 0
31.900000 31.460000 2.640000 169 62 49 0
32.120000 31.460000 1.980000 169 62 49 0
32.340000 31.460000 1.980000 170 63 50 0
32.560000 31.460000 2.640000 171 64 51 0
32.780000 31.460000 3.410000 170 63 50 0
33.000000 31.460000 3.410000 171 64 51 0
33.220000 31.460000 3.190000 171 64 51 0
33.440000 31.460000 3.630000 172 65 54 0
33.660000 31.460000 3.080000 171 64 53 0
33.880000 31.460000 2.640000 170 65 54 0
34.100000 31.460000 3.410000 169 64 53 0
34.320000 31.460000 3.410000 171 67 53 0
34.540000 31.460000 2.750000 171 67 53 0
34.760000 31.460000 1.980000 171 67 53 0
34.980000 31.460000 1.980000 169 65 51 0
35.200000 31.460000 1.980000 168 64 50 0
35.420000 31.460000 2.640000 167 63 49 0
35.640000 31.460000 3.190000 165 62 48 0
35.860000 31.460000 3.190000 164 61 47 0
36.080000 31.460000 3.300000 164 61 47 0
36.300000 31.460000 3.190000 163 60 46 0
36.520000 31.460000 3.740000 164 61 47 0
36.740000 31.460000 4.400000 164 61 47 0
36.960000 31.460000 5.060000 164 61 47 0
37.180000 31.460000 5.060000 165 62 48 0
0.220000 31.680000 0.330000 237 225 206 0
0.440000 31.680000 0.440000 243 175 161 0
0.660000 31.680000 1.100000 215 147 133 0
0.880000 31.680000 0.440000 216 130 114 0
1.100000 31.680000 0.440000 210 124 108 0
1.320000 31.680000 0.550000 209 119 105 0
1.540000 31.680000 1.210000 207 117 103 0
1.760000 31.680000 1.980000 209 115 98 0
1.980000 31.680000 1.980000 208 114 97 0
2.200000 31.680000 1.210000 208 114 99 0
2.420000 31.680000 1.210000 208 114 99 0
2.640000 31.680000 1.320000 208 120 105 0
2.860000 31.680000 1.320000 209 121 106 0
3.080000 31.680000 1.320000 209 125 110 0
3.300000 31.680000 1.870000 211 127 112 0
3.520000 31.680000 3.630000 213 129 113 0
3.740000 31.680000 4.180000 211 127 111 0
3.960000 31.680000 4.180000 213 119 104 0
4.180000 31.680000 3.630000 207 113 98 0
4.400000 31.680000 3.630000 210 108 91 0
4.620000 31.680000 3.630000 206 104 87 0
4.840000 31.680000 3.630000 207 101 83 0
5.060000 31.680000 3.740000 204 98 80 0
5.280000 31.680000 3.740000 205 97 80 0
5.500000 31.680000 3.740000 205 97 80 0
5.720000 31.680000 3.740000 203 95 78 0
5.940000 31.680000 4.510000 203 95 78 0
6.160000 31.680000 4.510000 204 94 78 0
6.380000 31.680000 4.510000 203 93 77 0
6.600000 31.680000 4.620000 201 93 76 0
6.820000 31.680000 4.620000 202 94 77 0
7.040000 31.680000 4.620000 204 94 78 0
7.260000 31.680000 4.620000 204 94 78 0
7.480000 31.680000 4.730000 204 94 78 0
7.700000 31.680000 4.730000 204 94 78 0
7.920000 31.680000 4.730000 203 95 78 0
8.140000 31.680000 4.840000 202 94 77 0
8.360000 31.680000 4.840000 203 93 77 0
8.580000 31.680000 5.390000 202 92 76 0
8.800000 31.680000 6.380000 202 92 76 0
9.020000 31.680000 6.270000 202 92 76 0
9.240000 31.680000 6.930000 201 91 75 0
9.460000 31.680000 6.930000 202 92 76 0
9.680000 31.680000 7.040000 203 93 77 0
9.900000 31.680000 7.040000 202 92 76 0
10.120000 31.680000 7.040000 204 94 78 0
10.340000 31.680000 6.380000 203 93 77 0
10.560000 31.680000 6.380000 203 93 77 0
10.780000 31.680000 7.150000 204 94 78 0
11.000000 31.680000 7.150000 202 92 76 0
11.220000 31.680000 7.260000 203 93 77 0
11.440000 31.680000 7.920000 204 94 78 0
11.660000 31.680000 8.030000 206 96 80 0
11.880000 31.680000 8.030000 206 96 80 0
12.100000 31.680000 8.030000 206 96 80 0
12.320000 31.680000 8.800000 205 95 79 0
12.540000 31.680000 8.800000 204 94 78 0
12.760000 31.680000 8.800000 204 94 80 0
12.980000 31.680000 9.570000 203 93 79 0
13.200000 31.680000 10.340000 204 94 78 0
13.420000 31.680000 10.340000 203 93 77 0
13.640000 31.680000 10.890000 202 92 76 0
13.860000 31.680000 11.220000 203 93 77 0
14.080000 31.680000 12.430000 202 92 76 0
14.300000 31.680000 12.430000 203 93 77 0
14.520000 31.680000 12.540000 203 93 79 0
14.740000 31.680000 13.200000 203 93 79 0
14.960000 31.680000 13.200000 203 93 79 0
15.180000 31.680000 13.310000 202 92 78 0
15.400000 31.680000 13.310000 201 91 77 0
15.620000 31.680000 13.310000 202 92 78 0
15.840000 31.680000 13.310000 202 92 78 0
16.060000 31.680000 13.420000 203 93 79 0
16.280000 31.680000 13.420000 202 92 78 0
16.500000 31.680000 13.530000 201 91 77 0
16.720000 31.680000 13.530000 202 92 78 0
16.940000 31.680000 13.530000 202 92 78 0
17.160000 31.680000 13.530000 202 92 78 0
17.380000 31.680000 13.640000 202 92 78 0
17.600000 31.680000 13.640000 202 92 78 0
17.820000 31.680000 13.750000 201 91 77 0
18.040000 31.680000 13.750000 202 92 78 0
18.260000 31.680000 13.750000 202 92 78 0
18.480000 31.680000 14.300000 200 92 77 0
18.700000 31.680000 14.740000 200 92 77 0
18.920000 31.680000 15.180000 201 93 78 0
19.140000 31.680000 15.290000 202 94 79 0
19.360000 31.680000 15.290000 201 93 78 0
19.580000 31.680000 15.290000 201 93 78 0
19.800000 31.680000 15.290000 202 92 80 0
20.020000 31.680000 15.290000 202 92 80 0
20.240000 31.680000 15.290000 200 91 79 0
20.460000 31.680000 16.060000 201 92 80 0
20.680000 31.680000 16.060000 200 91 79 0
20.900000 31.680000 15.950000 201 92 80 0
21.120000 31.680000 15.950000 200 91 79 0
21.340000 31.680000 16.720000 200 91 79 0
21.560000 31.680000 16.720000 200 91 79 0
21.780000 31.680000 16.610000 200 91 79 0
22.000000 31.680000 17.380000 199 92 79 0
22.220000 31.680000 17.380000 199 92 79 0
22.440000 31.680000 17.380000 199 90 78 0
22.660000 31.680000 17.380000 197 88 76 0
22.880000 31.680000 17.380000 198 91 78 0
23.100000 31.680000 17.490000 201 94 81 0
23.320000 31.680000 17.490000 198 98 85 0
23.540000 31.680000 18.260000 202 102 89 0
23.760000 31.680000 18.920000 195 110 100 0
23.980000 31.680000 18.260000 204 119 109 0
24.200000 31.680000 17.600000 214 127 113 0
24.420000 31.680000 19.030000 204 117 103 0
24.640000 31.680000 19.800000 207 102 91 0
24.860000 31.680000 19.800000 188 83 72 0
25.080000 31.680000 18.480000 183 74 62 0
25.300000 31.680000 11.660000 181 72 60 0
25.520000 31.680000 3.410000 181 72 60 0
26.180000 31.680000 0.660000 181 72 60 0
26.400000 31.680000 1.320000 181 72 60 0
26.620000 31.680000 1.870000 181 72 60 0
26.840000 31.680000 2.970000 182 73 61 0
27.060000 31.680000 4.180000 183 74 62 0
27.280000 31.680000 4.180000 182 73 61 0
27.500000 31.680000 4.840000 180 71 59 0
27.720000 31.680000 4.950000 180 71 59 0
27.940000 31.680000 4.950000 180 71 59 0
28.160000 31.680000 4.950000 179 70 58 0
28.380000 31.680000 5.060000 180 71 59 0
28.600000 31.680000 5.060000 179 72 59 0
28.820000 31.680000 5.060000 178 71 58 0
29.040000 31.680000 5.170000 177 68 56 0
29.260000 31.680000 5.170000 178 69 57 0
29.480000 31.680000 5.170000 177 68 56 0
29.700000 31.680000 5.940000 176 67 55 0
29.920000 31.680000 5.940000 174 65 53 0
30.140000 31.680000 6.710000 174 65 53 0
30.360000 31.680000 7.370000 173 64 54 0
30.580000 31.680000 7.370000 173 64 54 0
30.800000 31.680000 6.710000 173 64 52 0
31.020000 31.680000 5.390000 173 64 52 0
31.240000 31.680000 3.960000 170 63 50 0
31.460000 31.680000 3.300000 171 64 51 0
31.680000 31.680000 2.640000 170 63 50 0
31.900000 31.680000 2.640000 169 62 49 0
32.120000 31.680000 1.980000 170 63 50 0
32.340000 31.680000 1.980000 170 63 50 0
32.560000 31.680000 2.640000 170 63 50 0
32.780000 31.680000 4.070000 170 63 50 0
33.000000 31.680000 4.070000 169 62 49 0
33.220000 31.680000 3.300000 170 63 50 0
33.440000 31.680000 3.080000 171 64 53 0
33.660000 31.680000 3.080000 171 64 53 0
33.880000 31.680000 2.640000 169 64 53 0
34.100000 31.680000 3.410000 169 64 53 0
34.320000 31.680000 3.410000 169 65 51 0
34.540000 31.680000 2.750000 170 66 52 0
34.760000 31.680000 1.980000 169 65 51 0
34.980000 31.680000 1.980000 170 66 52 0
35.200000 31.680000 2.090000 167 63 49 0
35.420000 31.680000 2.530000 167 63 49 0
35.640000 31.680000 3.630000 165 62 48 0
35.860000 31.680000 3.740000 163 60 46 0
36.080000 31.680000 3.190000 164 61 47 0
36.300000 31.680000 3.190000 164 61 47 0
36.520000 31.680000 3.740000 164 61 47 0
36.740000 31.680000 4.400000 163 60 46 0
36.960000 31.680000 5.060000 165 62 48 0
37.180000 31.680000 5.060000 166 63 49 0
0.220000 31.900000 0.330000 243 205 200 0
0.440000 31.900000 0.440000 232 164 148 0
0.660000 31.900000 1.100000 217 149 133 0
0.880000 31.900000 1.100000 209 141 123 0
1.100000 31.900000 0.440000 204 136 118 0
1.320000 31.900000 0.550000 204 133 112 0
1.540000 31.900000 1.210000 201 130 109 0
1.760000 31.900000 1.210000 204 118 100 0
1.980000 31.900000 1.980000 204 118 100 0
2.200000 31.900000 1.210000 205 117 102 0
2.420000 31.900000 1.320000 207 119 104 0
2.640000 31.900000 1.320000 209 121 106 0
2.860000 31.900000 1.320000 210 122 107 0
3.080000 31.900000 1.320000 209 127 108 0
3.300000 31.900000 2.530000 210 128 109 0
3.520000 31.900000 3.630000 211 122 103 0
3.740000 31.900000 4.180000 209 120 101 0
3.960000 31.900000 4.180000 216 118 100 0
4.180000 31.900000 4.290000 210 112 94 0
4.400000 31.900000 3.630000 210 106 88 0
4.620000 31.900000 3.630000 206 102 84 0
4.840000 31.900000 3.630000 207 99 82 0
5.060000 31.900000 3.740000 206 98 81 0
5.280000 31.900000 3.740000 205 97 82 0
5.500000 31.900000 3.740000 205 97 82 0
5.720000 31.900000 3.740000 204 96 79 0
5.940000 31.900000 3.740000 204 96 79 0
6.160000 31.900000 4.510000 203 95 78 0
6.380000 31.900000 4.510000 203 95 78 0
6.600000 31.900000 4.620000 204 94 78 0
6.820000 31.900000 4.620000 203 93 77 0
7.040000 31.900000 4.620000 203 93 77 0
7.260000 31.900000 4.730000 205 95 79 0
7.480000 31.900000 4.730000 204 96 79 0
7.700000 31.900000 4.730000 202 94 77 0
7.920000 31.900000 4.730000 203 93 77 0
8.140000 31.900000 4.840000 203 93 77 0
8.360000 31.900000 4.840000 202 92 76 0
8.580000 31.900000 5.390000 202 92 76 0
8.800000 31.900000 6.380000 203 93 77 0
9.020000 31.900000 6.930000 202 92 76 0
9.240000 31.900000 6.930000 201 91 75 0
9.460000 31.900000 6.930000 202 92 76 0
9.680000 31.900000 7.040000 202 92 76 0
9.900000 31.900000 7.040000 203 93 77 0
10.120000 31.900000 7.040000 203 93 79 0
10.340000 31.900000 6.380000 204 94 80 0
10.560000 31.900000 6.380000 204 94 78 0
10.780000 31.900000 7.150000 204 94 78 0
11.000000 31.900000 7.150000 204 94 78 0
11.220000 31.900000 7.260000 203 93 77 0
11.440000 31.900000 7.260000 203 93 77 0
11.660000 31.900000 8.030000 204 94 78 0
11.880000 31.900000 8.030000 204 94 78 0
12.100000 31.900000 8.030000 204 94 78 0
12.320000 31.900000 8.030000 204 94 80 0
12.540000 31.900000 8.800000 204 94 80 0
12.760000 31.900000 8.800000 204 94 78 0
12.980000 31.900000 9.570000 203 93 77 0
13.200000 31.900000 9.570000 205 93 77 0
13.420000 31.900000 10.340000 205 93 77 0
13.640000 31.900000 10.890000 203 93 79 0
13.860000 31.900000 11.220000 202 92 78 0
14.080000 31.900000 11.770000 205 92 79 0
14.300000 31.900000 12.430000 204 91 78 0
14.520000 31.900000 12.540000 203 93 77 0
14.740000 31.900000 13.200000 203 93 77 0
14.960000 31.900000 13.200000 202 92 78 0
15.180000 31.900000 13.200000 202 92 78 0
15.400000 31.900000 13.310000 202 92 78 0
15.620000 31.900000 13.310000 201 91 77 0
15.840000 31.900000 13.310000 202 92 78 0
16.060000 31.900000 13.420000 202 92 78 0
16.280000 31.900000 13.420000 202 92 78 0
16.500000 31.900000 13.530000 202 92 78 0
16.720000 31.900000 13.530000 201 91 77 0
16.940000 31.900000 13.530000 201 91 77 0
17.160000 31.900000 13.530000 201 91 77 0
17.380000 31.900000 13.640000 202 92 78 0
17.600000 31.900000 13.640000 202 92 78 0
17.820000 31.900000 13.750000 202 92 78 0
18.040000 31.900000 13.750000 201 91 77 0
18.260000 31.900000 13.750000 203 93 79 0
18.480000 31.900000 14.300000 201 91 77 0
18.700000 31.900000 14.740000 202 92 78 0
18.920000 31.900000 15.180000 201 93 78 0
19.140000 31.900000 15.290000 201 93 78 0
19.360000 31.900000 15.290000 202 92 78 0
19.580000 31.900000 15.290000 202 92 78 0
19.800000 31.900000 15.290000 202 92 78 0
20.020000 31.900000 15.290000 202 92 78 0
20.240000 31.900000 15.290000 202 92 78 0
20.460000 31.900000 15.290000 202 92 78 0
20.680000 31.900000 16.060000 200 92 77 0
20.900000 31.900000 16.060000 200 92 77 0
21.120000 31.900000 15.950000 201 91 77 0
21.340000 31.900000 15.950000 200 90 76 0
21.560000 31.900000 16.720000 201 92 80 0
21.780000 31.900000 17.380000 202 93 81 0
22.000000 31.900000 17.380000 201 94 81 0
22.220000 31.900000 17.380000 200 93 80 0
22.440000 31.900000 17.380000 197 90 77 0
22.660000 31.900000 18.040000 197 90 77 0
22.880000 31.900000 18.040000 195 95 82 0
23.100000 31.900000 18.150000 198 98 85 0
23.320000 31.900000 18.150000 196 102 87 0
23.540000 31.900000 18.260000 198 104 89 0
23.760000 31.900000 18.920000 202 105 93 0
23.980000 31.900000 19.690000 204 107 95 0
24.200000 31.900000 19.690000 202 112 107 0
24.420000 31.900000 19.690000 202 112 107 0
24.640000 31.900000 19.690000 199 104 95 0
24.860000 31.900000 19.800000 187 92 83 0
25.080000 31.900000 19.140000 186 75 66 0
25.300000 31.900000 14.410000 183 72 63 0
25.520000 31.900000 4.070000 180 71 61 0
26.180000 31.900000 0.660000 181 72 62 0
26.400000 31.900000 1.320000 180 71 61 0
26.620000 31.900000 1.870000 180 71 61 0
26.840000 31.900000 2.970000 180 71 61 0
27.060000 31.900000 3.520000 182 73 63 0
27.280000 31.900000 4.180000 182 73 63 0
27.500000 31.900000 4.180000 181 72 62 0
27.720000 31.900000 4.950000 178 69 59 0
27.940000 31.900000 4.950000 181 72 62 0
28.160000 31.900000 4.950000 180 71 61 0
28.380000 31.900000 5.720000 179 70 60 0
28.600000 31.900000 5.720000 179 70 58 0
28.820000 31.900000 5.060000 178 69 57 0
29.040000 31.900000 5.170000 178 69 59 0
29.260000 31.900000 5.170000 177 68 58 0
29.480000 31.900000 5.170000 176 67 55 0
29.700000 31.900000 5.830000 177 68 56 0
29.920000 31.900000 5.940000 176 67 55 0
30.140000 31.900000 6.710000 174 65 53 0
30.360000 31.900000 7.370000 174 65 53 0
30.580000 31.900000 7.370000 173 64 52 0
30.800000 31.900000 6.710000 174 65 53 0
31.020000 31.900000 5.390000 173 64 52 0
31.240000 31.900000 3.960000 171 64 51 0
31.460000 31.900000 2.640000 170 63 50 0
31.680000 31.900000 2.640000 170 63 50 0
31.900000 31.900000 1.980000 169 62 49 0
32.120000 31.900000 1.980000 171 62 50 0
32.340000 31.900000 1.980000 170 61 49 0
32.560000 31.900000 3.300000 169 62 49 0
32.780000 31.900000 4.070000 169 62 49 0
33.000000 31.900000 4.070000 170 63 50 0
33.220000 31.900000 3.410000 170 63 50 0
33.440000 31.900000 2.640000 171 64 51 0
33.660000 31.900000 2.640000 170 63 50 0
33.880000 31.900000 2.750000 171 64 51 0
34.100000 31.900000 3.410000 170 63 50 0
34.320000 31.900000 3.410000 170 66 52 0
34.540000 31.900000 2.750000 169 65 51 0
34.760000 31.900000 2.090000 169 65 51 0
34.980000 31.900000 1.980000 169 65 51 0
35.200000 31.900000 1.980000 169 65 51 0
35.420000 31.900000 2.420000 167 63 49 0
35.640000 31.900000 3.630000 167 63 49 0
35.860000 31.900000 3.630000 166 62 48 0
36.080000 31.900000 3.850000 164 61 47 0
36.300000 31.900000 3.850000 163 60 46 0
36.520000 31.900000 3.740000 164 61 47 0
36.740000 31.900000 4.400000 165 62 48 0
36.960000 31.900000 5.060000 165 62 48 0
37.180000 31.900000 5.060000 166 63 49 0
0.000000 32.120000 0.330000 255 218 213 0
0.220000 32.120000 0.330000 234 196 191 0
0.440000 32.120000 1.100000 232 164 148 0
0.660000 32.120000 1.100000 218 150 134 0
0.880000 32.120000 1.100000 214 146 128 0
1.100000 32.120000 1.210000 216 148 130 0
1.320000 32.120000 2.530000 224 153 132 0
1.540000 32.120000 1.870000 219 148 127 0
1.760000 32.120000 1.210000 220 134 116 0
1.980000 32.120000 1.210000 210 124 106 0
2.200000 32.120000 1.210000 209 121 106 0
2.420000 32.120000 0.550000 210 122 107 0
2.640000 32.120000 0.660000 208 120 105 0
2.860000 32.120000 0.660000 210 122 107 0
3.080000 32.120000 1.320000 210 128 109 0
3.300000 32.120000 2.530000 215 133 114 0
3.520000 32.120000 3.630000 212 123 104 0
3.740000 32.120000 4.180000 209 120 101 0
3.960000 32.120000 4.180000 213 115 97 0
4.180000 32.120000 4.290000 208 110 92 0
4.400000 32.120000 3.630000 208 104 86 0
4.620000 32.120000 3.630000 206 102 84 0
4.840000 32.120000 3.630000 207 99 82 0
5.060000 32.120000 3.740000 205 97 80 0
5.280000 32.120000 3.740000 204 96 81 0
5.500000 32.120000 3.740000 204 96 81 0
5.720000 32.120000 3.740000 204 96 79 0
5.940000 32.120000 3.740000 204 96 79 0
6.160000 32.120000 4.510000 204 96 79 0
6.380000 32.120000 4.510000 203 95 78 0
6.600000 32.120000 4.620000 203 93 77 0
6.820000 32.120000 4.620000 203 93 77 0
7.040000 32.120000 4.620000 203 93 77 0
7.260000 32.120000 4.730000 204 94 78 0
7.480000 32.120000 4.730000 203 95 78 0
7.700000 32.120000 4.730000 203 95 78 0
7.920000 32.120000 4.730000 204 94 78 0
8.140000 32.120000 4.840000 204 94 78 0
8.360000 32.120000 4.840000 202 92 76 0
8.580000 32.120000 5.390000 203 93 77 0
8.800000 32.120000 6.380000 202 92 76 0
9.020000 32.120000 6.930000 202 92 76 0
9.240000 32.120000 6.930000 202 92 76 0
9.460000 32.120000 6.930000 202 92 76 0
9.680000 32.120000 7.040000 202 92 76 0
9.900000 32.120000 7.040000 202 92 76 0
10.120000 32.120000 7.040000 203 93 79 0
10.340000 32.120000 6.380000 203 93 79 0
10.560000 32.120000 6.380000 203 93 77 0
10.780000 32.120000 7.150000 203 93 77 0
11.000000 32.120000 7.150000 204 94 78 0
11.220000 32.120000 7.260000 202 92 76 0
11.440000 32.120000 7.260000 203 93 77 0
11.660000 32.120000 8.030000 203 93 77 0
11.880000 32.120000 8.030000 204 94 78 0
12.100000 32.120000 8.030000 203 93 77 0
12.320000 32.120000 8.030000 203 93 79 0
12.540000 32.120000 8.800000 203 93 79 0
12.760000 32.120000 8.800000 203 93 77 0
12.980000 32.120000 9.570000 203 93 77 0
13.200000 32.120000 9.570000 205 93 77 0
13.420000 32.120000 10.340000 204 92 76 0
13.640000 32.120000 10.230000 202 92 78 0
13.860000 32.120000 11.220000 202 92 78 0
14.080000 32.120000 11.770000 204 91 78 0
14.300000 32.120000 12.430000 204 91 78 0
14.520000 32.120000 12.540000 202 92 76 0
14.740000 32.120000 13.200000 203 93 77 0
14.960000 32.120000 13.200000 202 92 78 0
15.180000 32.120000 13.200000 202 92 78 0
15.400000 32.120000 13.310000 202 92 78 0
15.620000 32.120000 13.310000 202 92 78 0
15.840000 32.120000 13.310000 202 92 78 0
16.060000 32.120000 13.420000 201 91 77 0
16.280000 32.120000 13.420000 201 91 77 0
16.500000 32.120000 13.530000 201 91 77 0
16.720000 32.120000 13.530000 201 91 77 0
16.940000 32.120000 13.530000 201 91 77 0
17.160000 32.120000 13.530000 201 91 77 0
17.380000 32.120000 13.640000 202 92 78 0
17.600000 32.120000 13.640000 202 92 78 0
17.820000 32.120000 13.750000 202 92 78 0
18.040000 32.120000 13.750000 202 92 78 0
18.260000 32.120000 13.750000 202 92 78 0
18.480000 32.120000 14.300000 201 91 77 0
18.700000 32.120000 14.740000 201 91 77 0
18.920000 32.120000 15.180000 201 93 78 0
19.140000 32.120000 15.290000 201 93 78 0
19.360000 32.120000 15.290000 203 93 79 0
19.580000 32.120000 15.290000 202 92 78 0
19.800000 32.120000 15.290000 202 92 78 0
20.020000 32.120000 15.290000 202 92 78 0
20.240000 32.120000 15.290000 201 91 77 0
20.460000 32.120000 15.290000 201 91 77 0
20.680000 32.120000 15.290000 200 92 77 0
20.900000 32.120000 16.060000 199 91 76 0
21.120000 32.120000 16.060000 200 90 76 0
21.340000 32.120000 16.060000 201 91 77 0
21.560000 32.120000 16.720000 202 93 81 0
21.780000 32.120000 17.380000 203 94 82 0
22.000000 32.120000 17.380000 202 95 82 0
22.220000 32.120000 18.040000 202 95 82 0
22.440000 32.120000 18.040000 199 92 79 0
22.660000 32.120000 18.040000 199 92 79 0
22.880000 32.120000 18.040000 196 96 83 0
23.100000 32.120000 18.150000 200 100 87 0
23.320000 32.120000 18.150000 197 103 88 0
23.540000 32.120000 17.490000 200 106 91 0
23.760000 32.120000 16.170000 202 105 93 0
23.980000 32.120000 16.170000 200 103 91 0
24.200000 32.120000 18.260000 197 107 102 0
24.420000 32.120000 19.690000 198 108 103 0
24.640000 32.120000 20.460000 203 108 99 0
24.860000 32.120000 18.370000 199 104 95 0
25.080000 32.120000 15.730000 195 84 75 0
25.300000 32.120000 10.890000 184 73 64 0
25.520000 32.120000 3.300000 182 73 63 0
26.180000 32.120000 0.660000 179 70 60 0
26.400000 32.120000 1.320000 180 71 61 0
26.620000 32.120000 1.870000 179 70 60 0
26.840000 32.120000 2.970000 180 71 61 0
27.060000 32.120000 3.520000 179 70 60 0
27.280000 32.120000 4.180000 180 71 61 0
27.500000 32.120000 4.180000 181 72 62 0
27.720000 32.120000 4.950000 179 70 60 0
27.940000 32.120000 4.950000 180 71 61 0
28.160000 32.120000 5.610000 181 72 62 0
28.380000 32.120000 5.720000 179 70 60 0
28.600000 32.120000 5.720000 178 69 57 0
28.820000 32.120000 5.830000 178 69 57 0
29.040000 32.120000 5.170000 177 68 58 0
29.260000 32.120000 5.170000 176 67 57 0
29.480000 32.120000 5.170000 176 67 55 0
29.700000 32.120000 5.830000 176 67 55 0
29.920000 32.120000 5.940000 176 67 55 0
30.140000 32.120000 6.600000 176 67 55 0
30.360000 32.120000 7.370000 175 66 54 0
30.580000 32.120000 7.370000 174 65 53 0
30.800000 32.120000 6.710000 173 64 52 0
31.020000 32.120000 5.390000 172 63 51 0
31.240000 32.120000 3.300000 172 65 52 0
31.460000 32.120000 2.640000 169 62 49 0
31.680000 32.120000 1.870000 169 62 49 0
31.900000 32.120000 1.870000 170 63 50 0
32.120000 32.120000 1.870000 170 61 49 0
32.340000 32.120000 2.640000 170 61 49 0
32.560000 32.120000 3.960000 169 62 49 0
32.780000 32.120000 4.730000 169 62 49 0
33.000000 32.120000 4.730000 169 62 49 0
33.220000 32.120000 4.070000 169 62 49 0
33.440000 32.120000 2.750000 170 63 50 0
33.660000 32.120000 2.090000 170 63 50 0
33.880000 32.120000 2.750000 172 65 52 0
34.100000 32.120000 3.410000 172 65 52 0
34.320000 32.120000 3.410000 170 66 52 0
34.540000 32.120000 2.750000 170 66 52 0
34.760000 32.120000 2.750000 169 65 51 0
34.980000 32.120000 2.640000 168 64 50 0
35.200000 32.120000 3.080000 169 65 51 0
35.420000 32.120000 3.630000 169 65 51 0
35.640000 32.120000 4.180000 167 63 49 0
35.860000 32.120000 3.630000 165 61 47 0
36.080000 32.120000 3.850000 165 62 48 0
36.300000 32.120000 3.850000 163 60 46 0
36.520000 32.120000 4.510000 165 62 48 0
36.740000 32.120000 4.400000 164 61 47 0
36.960000 32.120000 5.060000 164 61 47 0
37.180000 32.120000 5.060000 165 62 48 0
0.000000 32.340000 0.330000 255 220 197 0
0.220000 32.340000 0.330000 237 196 173 0
0.440000 32.340000 1.100000 231 164 151 0
0.660000 32.340000 1.100000 217 150 137 0
0.880000 32.340000 0.440000 213 154 133 0
1.100000 32.340000 2.530000 216 157 136 0
1.320000 32.340000 4.620000 218 160 133 0
1.540000 32.340000 2.640000 216 158 131 0
1.760000 32.340000 0.550000 219 137 120 0
1.980000 32.340000 0.550000 208 126 109 0
2.200000 32.340000 0.550000 211 123 108 0
2.420000 32.340000 0.550000 210 122 107 0
2.640000 32.340000 0.660000 208 124 108 0
2.860000 32.340000 0.660000 210 126 110 0
3.080000 32.340000 1.210000 210 123 109 0
3.300000 32.340000 2.310000 212 125 111 0
3.520000 32.340000 3.520000 216 124 108 0
3.740000 32.340000 4.180000 210 118 102 0
3.960000 32.340000 4.290000 213 113 98 0
4.180000 32.340000 4.290000 207 107 92 0
4.400000 32.340000 4.290000 207 105 88 0
4.620000 32.340000 3.630000 206 104 87 0
4.840000 32.340000 3.630000 206 99 84 0
5.060000 32.340000 3.740000 205 98 83 0
5.280000 32.340000 3.740000 205 97 82 0
5.500000 32.340000 3.740000 205 97 82 0
5.720000 32.340000 3.740000 204 96 81 0
5.940000 32.340000 3.740000 204 96 81 0
6.160000 32.340000 4.510000 205 97 80 0
6.380000 32.340000 4.510000 203 95 78 0
6.600000 32.340000 4.620000 203 95 80 0
6.820000 32.340000 4.620000 203 95 80 0
7.040000 32.340000 4.620000 205 95 81 0
7.260000 32.340000 4.620000 204 94 80 0
7.480000 32.340000 4.730000 204 94 80 0
7.700000 32.340000 4.730000 204 94 80 0
7.920000 32.340000 4.730000 203 93 77 0
8.140000 32.340000 4.840000 204 94 78 0
8.360000 32.340000 4.840000 203 93 79 0
8.580000 32.340000 5.390000 204 94 80 0
8.800000 32.340000 6.380000 203 93 79 0
9.020000 32.340000 6.930000 203 93 79 0
9.240000 32.340000 6.930000 202 92 78 0
9.460000 32.340000 6.930000 203 93 79 0
9.680000 32.340000 7.040000 202 92 78 0
9.900000 32.340000 7.040000 203 93 79 0
10.120000 32.340000 6.380000 204 94 80 0
10.340000 32.340000 6.380000 203 93 79 0
10.560000 32.340000 6.380000 203 93 79 0
10.780000 32.340000 6.490000 204 94 80 0
11.000000 32.340000 7.150000 202 92 78 0
11.220000 32.340000 7.260000 203 93 79 0
11.440000 32.340000 7.260000 203 93 79 0
11.660000 32.340000 7.260000 204 94 80 0
11.880000 32.340000 8.030000 203 93 79 0
12.100000 32.340000 8.030000 202 92 78 0
12.320000 32.340000 8.030000 202 92 78 0
12.540000 32.340000 8.800000 204 94 80 0
12.760000 32.340000 8.800000 203 93 79 0
12.980000 32.340000 9.570000 203 93 79 0
13.200000 32.340000 9.570000 203 93 79 0
13.420000 32.340000 9.680000 203 93 79 0
13.640000 32.340000 10.230000 202 92 78 0
13.860000 32.340000 11.220000 203 93 79 0
14.080000 32.340000 11.770000 202 92 78 0
14.300000 32.340000 12.430000 202 92 78 0
14.520000 32.340000 12.540000 204 91 78 0
14.740000 32.340000 13.200000 204 91 78 0
14.960000 32.340000 13.200000 202 92 78 0
15.180000 32.340000 13.200000 202 92 78 0
15.400000 32.340000 13.310000 201 91 77 0
15.620000 32.340000 13.310000 202 92 78 0
15.840000 32.340000 13.310000 203 93 79 0
16.060000 32.340000 13.420000 202 92 78 0
16.280000 32.340000 13.420000 201 91 77 0
16.500000 32.340000 13.530000 202 92 78 0
16.720000 32.340000 13.530000 201 91 77 0
16.940000 32.340000 13.530000 201 91 77 0
17.160000 32.340000 13.530000 202 92 78 0
17.380000 32.340000 13.640000 202 92 78 0
17.600000 32.340000 13.640000 202 92 78 0
17.820000 32.340000 13.640000 202 92 78 0
18.040000 32.340000 13.750000 203 93 79 0
18.260000 32.340000 13.750000 202 92 78 0
18.480000 32.340000 14.300000 201 91 77 0
18.700000 32.340000 14.740000 201 91 77 0
18.920000 32.340000 15.180000 202 92 78 0
19.140000 32.340000 15.180000 202 92 78 0
19.360000 32.340000 15.290000 202 92 80 0
19.580000 32.340000 15.290000 203 93 81 0
19.800000 32.340000 15.290000 203 93 79 0
20.020000 32.340000 15.290000 202 92 78 0
20.240000 32.340000 15.290000 201 91 77 0
20.460000 32.340000 15.400000 201 91 77 0
20.680000 32.340000 15.400000 201 93 78 0
20.900000 32.340000 15.400000 200 92 77 0
21.120000 32.340000 16.060000 200 91 79 0
21.340000 32.340000 16.060000 200 91 79 0
21.560000 32.340000 16.720000 201 94 81 0
21.780000 32.340000 17.380000 202 95 82 0
22.000000 32.340000 18.040000 201 97 83 0
22.220000 32.340000 18.040000 201 97 83 0
22.440000 32.340000 18.040000 199 96 82 0
22.660000 32.340000 18.040000 198 95 81 0
22.880000 32.340000 18.810000 197 98 87 0
23.100000 32.340000 18.810000 200 101 90 0
23.320000 32.340000 18.920000 200 106 93 0
23.540000 32.340000 15.510000 200 106 93 0
23.760000 32.340000 8.580000 202 105 93 0
23.980000 32.340000 8.580000 200 103 91 0
24.200000 32.340000 16.170000 194 103 107 0
24.420000 32.340000 20.350000 206 115 119 0
24.640000 32.340000 19.030000 202 116 112 0
24.860000 32.340000 13.530000 199 113 109 0
25.080000 32.340000 7.370000 204 97 86 0
25.300000 32.340000 3.960000 186 79 68 0
25.520000 32.340000 1.210000 181 72 60 0
26.180000 32.340000 0.660000 180 71 61 0
26.400000 32.340000 1.320000 180 71 61 0
26.620000 32.340000 1.870000 179 70 60 0
26.840000 32.340000 2.970000 178 69 57 0
27.060000 32.340000 3.520000 179 70 58 0
27.280000 32.340000 4.180000 179 70 58 0
27.500000 32.340000 4.840000 180 71 59 0
27.720000 32.340000 4.950000 180 71 59 0
27.940000 32.340000 4.950000 180 71 59 0
28.160000 32.340000 5.610000 180 71 61 0
28.380000 32.340000 6.380000 180 71 61 0
28.600000 32.340000 6.380000 180 71 59 0
28.820000 32.340000 5.830000 178 69 57 0
29.040000 32.340000 5.830000 177 68 58 0
29.260000 32.340000 5.830000 177 68 58 0
29.480000 32.340000 5.830000 176 67 55 0
29.700000 32.340000 5.830000 177 68 56 0
29.920000 32.340000 5.830000 176 67 57 0
30.140000 32.340000 6.600000 176 67 57 0
30.360000 32.340000 6.710000 176 67 55 0
30.580000 32.340000 6.710000 174 65 53 0
30.800000 32.340000 6.050000 173 64 54 0
31.020000 32.340000 4.620000 171 62 52 0
31.240000 32.340000 2.640000 172 63 51 0
31.460000 32.340000 1.870000 172 63 51 0
31.680000 32.340000 1.210000 170 63 50 0
31.900000 32.340000 1.870000 169 62 49 0
32.120000 32.340000 2.640000 170 61 49 0
32.340000 32.340000 3.300000 169 60 48 0
32.560000 32.340000 4.730000 168 61 48 0
32.780000 32.340000 5.390000 167 60 47 0
33.000000 32.340000 5.390000 168 61 48 0
33.220000 32.340000 4.730000 170 63 50 0
33.440000 32.340000 3.410000 168 64 50 0
33.660000 32.340000 2.750000 168 64 50 0
33.880000 32.340000 2.750000 171 64 51 0
34.100000 32.340000 3.410000 171 64 51 0
34.320000 32.340000 3.410000 171 64 51 0
34.540000 32.340000 3.410000 171 64 51 0
34.760000 32.340000 2.750000 169 65 49 0
34.980000 32.340000 2.530000 169 65 49 0
35.200000 32.340000 2.970000 167 63 49 0
35.420000 32.340000 4.180000 169 65 51 0
35.640000 32.340000 4.180000 167 63 49 0
35.860000 32.340000 4.290000 167 63 49 0
36.080000 32.340000 3.850000 166 62 48 0
36.300000 32.340000 3.850000 165 61 47 0
36.520000 32.340000 4.400000 162 62 47 0
36.740000 32.340000 4.400000 161 61 46 0
36.960000 32.340000 5.060000 165 62 48 0
37.180000 32.340000 5.060000 166 63 49 0
0.000000 32.560000 0.330000 252 211 188 0
0.220000 32.560000 0.330000 235 194 171 0
0.440000 32.560000 1.760000 226 159 146 0
0.660000 32.560000 4.620000 221 154 141 0
0.880000 32.560000 5.280000 219 160 139 0
1.100000 32.560000 4.620000 227 168 147 0
1.320000 32.560000 3.300000 228 170 143 0
1.540000 32.560000 1.210000 227 169 142 0
1.980000 32.560000 0.550000 210 128 111 0
2.200000 32.560000 0.550000 212 124 109 0
2.860000 32.560000 0.660000 210 126 110 0
3.080000 32.560000 1.210000 210 123 109 0
3.300000 32.560000 2.310000 210 123 109 0
3.520000 32.560000 3.520000 210 118 102 0
3.740000 32.560000 4.180000 207 115 99 0
3.960000 32.560000 4.290000 210 110 95 0
4.180000 32.560000 4.290000 207 107 92 0
4.400000 32.560000 4.290000 207 105 88 0
4.620000 32.560000 3.630000 207 105 88 0
4.840000 32.560000 3.630000 207 100 85 0
5.060000 32.560000 3.740000 205 98 83 0
5.280000 32.560000 3.740000 206 98 83 0
5.500000 32.560000 3.740000 205 97 82 0
5.720000 32.560000 3.740000 204 96 81 0
5.940000 32.560000 3.740000 204 96 81 0
6.160000 32.560000 4.510000 204 96 79 0
6.380000 32.560000 4.510000 204 96 79 0
6.600000 32.560000 4.620000 204 96 81 0
6.820000 32.560000 4.620000 203 95 80 0
7.040000 32.560000 4.620000 203 93 79 0
7.260000 32.560000 4.620000 204 94 80 0
7.480000 32.560000 4.730000 204 94 80 0
7.700000 32.560000 4.730000 204 94 80 0
7.920000 32.560000 4.730000 204 94 78 0
8.140000 32.560000 4.840000 203 93 77 0
8.360000 32.560000 4.840000 202 92 78 0
8.580000 32.560000 5.390000 202 92 78 0
8.800000 32.560000 6.380000 203 93 79 0
9.020000 32.560000 6.930000 202 92 78 0
9.240000 32.560000 6.930000 203 93 79 0
9.460000 32.560000 6.930000 202 92 78 0
9.680000 32.560000 7.040000 203 93 79 0
9.900000 32.560000 7.040000 202 92 78 0
10.120000 32.560000 6.380000 202 92 78 0
10.340000 32.560000 6.380000 203 93 79 0
10.560000 32.560000 6.380000 203 93 79 0
10.780000 32.560000 6.490000 202 92 78 0
11.000000 32.560000 7.150000 203 93 79 0
11.220000 32.560000 7.260000 202 92 78 0
11.440000 32.560000 7.260000 203 93 79 0
11.660000 32.560000 7.260000 203 93 79 0
11.880000 32.560000 8.030000 203 93 79 0
12.100000 32.560000 8.030000 203 93 79 0
12.320000 32.560000 8.030000 203 93 79 0
12.540000 32.560000 8.800000 203 93 79 0
12.760000 32.560000 8.800000 204 94 80 0
12.980000 32.560000 9.570000 202 92 78 0
13.200000 32.560000 9.570000 203 93 79 0
13.420000 32.560000 9.680000 202 92 78 0
13.640000 32.560000 10.230000 202 92 78 0
13.860000 32.560000 11.220000 203 93 79 0
14.080000 32.560000 11.770000 202 92 78 0
14.300000 32.560000 12.430000 202 92 78 0
14.520000 32.560000 12.540000 204 91 78 0
14.740000 32.560000 13.200000 203 90 77 0
14.960000 32.560000 13.200000 202 92 78 0
15.180000 32.560000 13.200000 201 91 77 0
15.400000 32.560000 13.310000 201 91 77 0
15.620000 32.560000 13.310000 201 91 77 0
15.840000 32.560000 13.310000 201 91 77 0
16.060000 32.560000 13.420000 201 91 77 0
16.280000 32.560000 13.420000 202 92 78 0
16.500000 32.560000 13.530000 202 92 78 0
16.720000 32.560000 13.530000 202 92 78 0
16.940000 32.560000 13.530000 201 91 77 0
17.160000 32.560000 13.530000 201 91 77 0
17.380000 32.560000 13.640000 202 92 78 0
17.600000 32.560000 13.640000 202 92 78 0
17.820000 32.560000 13.640000 203 93 79 0
18.040000 32.560000 13.750000 202 92 78 0
18.260000 32.560000 13.750000 201 91 77 0
18.480000 32.560000 14.300000 200 90 76 0
18.700000 32.560000 14.740000 201 91 77 0
18.920000 32.560000 15.180000 202 92 78 0
19.140000 32.560000 15.180000 202 92 78 0
19.360000 32.560000 15.290000 203 93 81 0
19.580000 32.560000 15.290000 203 93 81 0
19.800000 32.560000 15.290000 202 92 78 0
20.020000 32.560000 15.290000 203 93 79 0
20.240000 32.560000 15.290000 202 92 78 0
20.460000 32.560000 15.400000 201 91 77 0
20.680000 32.560000 15.400000 200 92 77 0
20.900000 32.560000 15.400000 201 93 78 0
21.120000 32.560000 15.400000 200 91 79 0
21.340000 32.560000 16.170000 200 91 79 0
21.560000 32.560000 16.170000 199 92 79 0
21.780000 32.560000 17.490000 203 96 83 0
22.000000 32.560000 18.040000 201 97 83 0
22.220000 32.560000 18.040000 201 97 83 0
22.440000 32.560000 18.700000 200 97 83 0
22.660000 32.560000 18.700000 200 97 83 0
22.880000 32.560000 18.810000 198 99 88 0
23.100000 32.560000 18.810000 201 102 91 0
23.320000 32.560000 19.580000 202 108 95 0
23.540000 32.560000 14.850000 202 108 95 0
23.760000 32.560000 5.060000 202 105 93 0
23.980000 32.560000 5.720000 201 104 92 0
24.200000 32.560000 15.400000 194 103 107 0
24.420000 32.560000 20.350000 204 113 117 0
24.640000 32.560000 18.260000 204 118 114 0
24.860000 32.560000 10.010000 200 114 110 0
25.080000 32.560000 2.530000 206 99 88 0
25.300000 32.560000 1.210000 191 84 73 0
25.520000 32.560000 3.960000 184 75 63 0
25.740000 32.560000 4.730000 182 73 61 0
25.960000 32.560000 3.410000 182 73 63 0
26.180000 32.560000 1.320000 181 72 62 0
26.400000 32.560000 0.660000 180 71 61 0
26.620000 32.560000 1.870000 180 71 61 0
26.840000 32.560000 2.970000 178 69 57 0
27.060000 32.560000 3.520000 179 70 58 0
27.280000 32.560000 4.180000 179 70 58 0
27.500000 32.560000 4.950000 180 71 59 0
27.720000 32.560000 4.950000 180 71 59 0
27.940000 32.560000 5.610000 181 72 60 0
28.160000 32.560000 5.610000 181 72 62 0
28.380000 32.560000 6.380000 180 71 61 0
28.600000 32.560000 6.380000 179 70 58 0
28.820000 32.560000 6.490000 179 70 58 0
29.040000 32.560000 5.830000 177 68 58 0
29.260000 32.560000 5.830000 177 68 58 0
29.480000 32.560000 5.830000 176 67 55 0
29.700000 32.560000 5.830000 176 67 55 0
29.920000 32.560000 5.830000 175 66 56 0
30.140000 32.560000 5.940000 175 66 56 0
30.360000 32.560000 5.940000 176 67 55 0
30.580000 32.560000 6.050000 176 67 55 0
30.800000 32.560000 5.390000 173 64 54 0
31.020000 32.560000 3.960000 172 63 53 0
31.240000 32.560000 2.640000 171 62 50 0
31.460000 32.560000 1.210000 171 62 50 0
31.680000 32.560000 1.210000 169 62 49 0
31.900000 32.560000 1.870000 169 62 49 0
32.120000 32.560000 2.640000 168 59 47 0
32.340000 32.560000 3.960000 170 61 49 0
32.560000 32.560000 4.730000 169 62 49 0
32.780000 32.560000 6.050000 169 62 49 0
33.000000 32.560000 6.050000 169 62 49 0
33.220000 32.560000 4.730000 169 62 49 0
33.440000 32.560000 3.410000 167 63 49 0
33.660000 32.560000 2.750000 168 64 50 0
33.880000 32.560000 2.750000 172 65 52 0
34.100000 32.560000 3.410000 171 64 51 0
34.320000 32.560000 3.410000 170 63 50 0
34.540000 32.560000 3.410000 172 65 52 0
34.760000 32.560000 2.750000 168 64 48 0
34.980000 32.560000 2.640000 169 65 49 0
35.200000 32.560000 3.630000 168 64 50 0
35.420000 32.560000 4.180000 168 64 50 0
35.640000 32.560000 4.180000 168 64 50 0
35.860000 32.560000 4.290000 167 63 49 0
36.080000 32.560000 4.290000 165 61 47 0
36.300000 32.560000 3.740000 166 62 48 0
36.520000 32.560000 4.400000 162 62 47 0
36.740000 32.560000 4.400000 162 62 47 0
36.960000 32.560000 5.060000 166 63 49 0
37.180000 32.560000 5.060000 164 61 47 0
0.000000 32.780000 0.330000 255 189 175 0
0.220000 32.780000 0.330000 230 163 149 0
0.440000 32.780000 3.850000 213 149 134 0
0.660000 32.780000 11.440000 217 153 138 0
0.880000 32.780000 14.960000 216 171 145 0
1.100000 32.780000 12.210000 235 190 164 0
1.320000 32.780000 7.370000 245 198 165 0
1.540000 32.780000 3.300000 237 190 157 0
1.760000 32.780000 1.210000 231 157 139 0
3.080000 32.780000 1.210000 215 122 109 0
3.300000 32.780000 2.310000 210 117 104 0
3.520000 32.780000 3.520000 210 113 99 0
3.740000 32.780000 4.180000 209 112 98 0
3.960000 32.780000 4.290000 208 108 93 0
4.180000 32.780000 4.290000 206 106 91 0
4.400000 32.780000 4.290000 207 103 89 0
4.620000 32.780000 3.630000 207 103 89 0
4.840000 32.780000 3.630000 206 102 88 0
5.060000 32.780000 3.740000 204 100 86 0
5.280000 32.780000 3.740000 203 99 85 0
5.500000 32.780000 3.740000 202 98 84 0
5.720000 32.780000 3.740000 205 97 82 0
5.940000 32.780000 3.740000 204 96 81 0
6.160000 32.780000 4.510000 203 95 80 0
6.380000 32.780000 4.510000 203 95 80 0
6.600000 32.780000 4.620000 204 96 81 0
6.820000 32.780000 4.620000 204 96 81 0
7.040000 32.780000 4.620000 203 95 80 0
7.260000 32.780000 4.620000 202 94 79 0
7.480000 32.780000 4.730000 203 95 80 0
7.700000 32.780000 4.730000 202 94 79 0
7.920000 32.780000 4.730000 202 94 79 0
8.140000 32.780000 4.840000 202 94 79 0
8.360000 32.780000 4.840000 202 94 79 0
8.580000 32.780000 5.390000 201 93 78 0
8.800000 32.780000 6.380000 202 94 79 0
9.020000 32.780000 6.930000 202 94 79 0
9.240000 32.780000 6.930000 202 92 78 0
9.460000 32.780000 6.930000 201 91 77 0
9.680000 32.780000 7.040000 200 92 77 0
9.900000 32.780000 6.380000 201 93 78 0
10.120000 32.780000 6.380000 203 93 79 0
10.340000 32.780000 6.380000 202 92 78 0
10.560000 32.780000 6.380000 202 92 78 0
10.780000 32.780000 6.490000 202 92 78 0
11.000000 32.780000 7.150000 203 93 79 0
11.220000 32.780000 7.260000 203 93 79 0
11.440000 32.780000 7.260000 203 93 79 0
11.660000 32.780000 7.260000 202 92 78 0
11.880000 32.780000 8.030000 203 93 79 0
12.100000 32.780000 8.030000 203 93 79 0
12.320000 32.780000 8.030000 203 93 79 0
12.540000 32.780000 8.800000 203 93 79 0
12.760000 32.780000 8.800000 203 93 79 0
12.980000 32.780000 8.910000 202 92 78 0
13.200000 32.780000 9.570000 202 92 78 0
13.420000 32.780000 9.680000 203 93 79 0
13.640000 32.780000 10.230000 203 93 79 0
13.860000 32.780000 11.220000 202 92 78 0
14.080000 32.780000 11.770000 203 93 79 0
14.300000 32.780000 12.430000 202 92 78 0
14.520000 32.780000 12.540000 202 92 78 0
14.740000 32.780000 12.540000 201 91 77 0
14.960000 32.780000 13.200000 201 91 77 0
15.180000 32.780000 13.200000 202 92 78 0
15.400000 32.780000 13.310000 201 91 77 0
15.620000 32.780000 13.310000 201 91 77 0
15.840000 32.780000 13.310000 201 91 77 0
16.060000 32.780000 13.420000 201 91 77 0
16.280000 32.780000 13.420000 201 91 77 0
16.500000 32.780000 13.530000 201 91 77 0
16.720000 32.780000 13.530000 201 91 77 0
16.940000 32.780000 13.530000 202 92 78 0
17.160000 32.780000 13.530000 201 91 79 0
17.380000 32.780000 13.640000 201 91 79 0
17.600000 32.780000 13.640000 202 92 78 0
17.820000 32.780000 13.640000 202 92 78 0
18.040000 32.780000 13.750000 201 93 78 0
18.260000 32.780000 13.750000 200 92 77 0
18.480000 32.780000 14.300000 200 90 78 0
18.700000 32.780000 14.740000 201 91 79 0
18.920000 32.780000 15.180000 200 91 79 0
19.140000 32.780000 15.180000 201 92 80 0
19.360000 32.780000 15.290000 201 92 80 0
19.580000 32.780000 15.290000 201 92 80 0
19.800000 32.780000 15.290000 201 92 80 0
20.020000 32.780000 15.290000 201 92 80 0
20.240000 32.780000 15.290000 200 91 79 0
20.460000 32.780000 15.400000 201 92 80 0
20.680000 32.780000 15.400000 200 91 79 0
20.900000 32.780000 15.400000 199 90 78 0
21.120000 32.780000 15.400000 199 90 78 0
21.340000 32.780000 15.510000 200 91 79 0
21.560000 32.780000 16.280000 199 92 81 0
21.780000 32.780000 16.940000 202 95 84 0
22.000000 32.780000 18.150000 200 97 85 0
22.220000 32.780000 18.150000 201 98 86 0
22.440000 32.780000 18.810000 198 99 88 0
22.660000 32.780000 19.470000 199 100 89 0
22.880000 32.780000 19.470000 193 104 93 0
23.100000 32.780000 19.580000 197 108 97 0
23.320000 32.780000 19.690000 198 109 96 0
23.540000 32.780000 14.850000 200 111 98 0
23.760000 32.780000 5.060000 201 107 94 0
23.980000 32.780000 5.610000 200 106 93 0
24.200000 32.780000 16.060000 198 104 91 0
24.420000 32.780000 20.240000 199 105 92 0
24.640000 32.780000 18.920000 207 116 106 0
24.860000 32.780000 12.760000 204 113 103 0
25.080000 32.780000 3.190000 202 99 89 0
25.300000 32.780000 2.530000 192 89 79 0
25.520000 32.780000 8.800000 186 79 68 0
25.740000 32.780000 13.750000 183 76 65 0
25.960000 32.780000 11.660000 180 73 62 0
26.180000 32.780000 6.820000 179 72 61 0
26.400000 32.780000 4.070000 181 72 64 0
26.620000 32.780000 1.870000 179 70 62 0
26.840000 32.780000 2.310000 178 71 60 0
27.060000 32.780000 3.520000 179 72 61 0
27.280000 32.780000 4.180000 177 70 59 0
27.500000 32.780000 4.950000 179 72 61 0
27.720000 32.780000 4.950000 180 73 62 0
27.940000 32.780000 5.610000 181 74 63 0
28.160000 32.780000 5.610000 180 73 62 0
28.380000 32.780000 6.380000 180 73 62 0
28.600000 32.780000 7.040000 180 73 62 0
28.820000 32.780000 6.490000 177 70 59 0
29.040000 32.780000 6.490000 176 69 58 0
29.260000 32.780000 5.830000 175 68 57 0
29.480000 32.780000 5.830000 176 67 57 0
29.700000 32.780000 5.830000 175 66 56 0
29.920000 32.780000 5.830000 174 65 55 0
30.140000 32.780000 5.940000 175 66 56 0
30.360000 32.780000 5.280000 174 67 56 0
30.580000 32.780000 5.280000 173 66 55 0
30.800000 32.780000 4.620000 171 64 53 0
31.020000 32.780000 3.300000 172 65 54 0
31.240000 32.780000 1.870000 171 64 53 0
31.460000 32.780000 1.210000 170 63 52 0
31.680000 32.780000 1.210000 170 63 52 0
31.900000 32.780000 1.870000 168 61 50 0
32.120000 32.780000 3.300000 168 61 48 0
32.340000 32.780000 3.960000 169 62 49 0
32.560000 32.780000 5.390000 168 61 50 0
32.780000 32.780000 6.710000 168 61 50 0
33.000000 32.780000 6.710000 168 61 50 0
33.220000 32.780000 5.390000 168 61 50 0
33.440000 32.780000 4.070000 169 62 51 0
33.660000 32.780000 2.750000 170 63 52 0
33.880000 32.780000 2.750000 168 64 50 0
34.100000 32.780000 3.410000 169 65 51 0
34.320000 32.780000 3.410000 169 65 51 0
34.540000 32.780000 3.410000 169 65 51 0
34.760000 32.780000 2.750000 167 64 50 0
34.980000 32.780000 2.640000 168 65 51 0
35.200000 32.780000 3.630000 167 62 51 0
35.420000 32.780000 4.180000 168 63 52 0
35.640000 32.780000 4.180000 166 63 49 0
35.860000 32.780000 4.180000 165 62 48 0
36.080000 32.780000 4.290000 165 62 48 0
36.300000 32.780000 4.400000 164 61 47 0
36.520000 32.780000 4.400000 162 62 47 0
36.740000 32.780000 4.400000 162 62 47 0
36.960000 32.780000 5.060000 165 62 48 0
37.180000 32.780000 5.060000 164 61 47 0
0.000000 33.000000 5.170000 235 168 154 0
0.220000 33.000000 5.170000 218 151 137 0
0.440000 33.000000 8.690000 208 144 129 0
0.660000 33.000000 16.280000 214 150 135 0
0.880000 33.000000 19.800000 214 169 143 0
1.100000 33.000000 19.140000 224 179 153 0
1.320000 33.000000 16.390000 231 184 151 0
1.540000 33.000000 10.890000 221 174 141 0
1.760000 33.000000 3.300000 222 148 130 0
3.080000 33.000000 0.550000 209 116 103 0
3.300000 33.000000 2.310000 207 114 101 0
3.520000 33.000000 3.520000 207 110 96 0
3.740000 33.000000 4.180000 205 108 94 0
3.960000 33.000000 4.290000 208 108 93 0
4.180000 33.000000 4.290000 204 104 89 0
4.400000 33.000000 4.290000 207 103 89 0
4.620000 33.000000 3.630000 205 101 87 0
4.840000 33.000000 3.630000 206 102 88 0
5.060000 33.000000 3.740000 205 101 87 0
5.280000 33.000000 3.740000 204 100 86 0
5.500000 33.000000 3.740000 204 100 86 0
5.720000 33.000000 3.740000 205 97 82 0
5.940000 33.000000 4.510000 204 96 81 0
6.160000 33.000000 4.510000 203 95 80 0
6.380000 33.000000 4.510000 203 95 80 0
6.600000 33.000000 4.620000 204 96 81 0
6.820000 33.000000 4.620000 203 95 80 0
7.040000 33.000000 4.620000 203 95 80 0
7.260000 33.000000 4.620000 202 94 79 0
7.480000 33.000000 4.730000 203 95 80 0
7.700000 33.000000 4.730000 202 94 79 0
7.920000 33.000000 4.730000 202 94 79 0
8.140000 33.000000 4.840000 201 93 78 0
8.360000 33.000000 5.500000 201 93 78 0
8.580000 33.000000 5.940000 201 93 78 0
8.800000 33.000000 6.380000 202 94 79 0
9.020000 33.000000 6.930000 202 94 79 0
9.240000 33.000000 6.930000 203 93 79 0
9.460000 33.000000 6.930000 202 92 78 0
9.680000 33.000000 7.040000 201 93 78 0
9.900000 33.000000 7.040000 201 93 78 0
10.120000 33.000000 6.380000 203 93 79 0
10.340000 33.000000 6.380000 202 92 78 0
10.560000 33.000000 6.380000 201 91 77 0
10.780000 33.000000 6.490000 201 91 77 0
11.000000 33.000000 7.150000 202 92 78 0
11.220000 33.000000 7.260000 203 93 79 0
11.440000 33.000000 7.260000 202 92 78 0
11.660000 33.000000 8.030000 203 93 79 0
11.880000 33.000000 8.030000 203 93 79 0
12.100000 33.000000 8.030000 203 93 79 0
12.320000 33.000000 8.800000 204 94 80 0
