ply
format ascii 1.0
element vertex 1174
property float x
property float y
property float z
property uchar red
property uchar green
property uchar blue
property uchar alpha
end_header
1.980000 3.960000 3.960000 220 171 159 0
2.200000 3.960000 2.640000 228 171 157 0
2.420000 3.960000 1.100000 218 161 147 0
3.080000 3.960000 2.420000 214 124 111 0
3.300000 3.960000 4.400000 209 119 106 0
3.520000 3.960000 5.500000 208 114 99 0
3.740000 3.960000 5.720000 207 113 98 0
3.960000 3.960000 5.720000 209 111 95 0
4.180000 3.960000 5.720000 207 109 93 0
4.400000 3.960000 7.260000 210 107 93 0
4.620000 3.960000 7.260000 207 104 90 0
4.840000 3.960000 7.260000 208 104 90 0
5.060000 3.960000 7.480000 209 105 91 0
5.280000 3.960000 7.480000 208 104 90 0
5.500000 3.960000 7.480000 208 104 90 0
5.720000 3.960000 9.020000 207 103 87 0
5.940000 3.960000 9.020000 207 103 87 0
6.160000 3.960000 9.020000 208 101 86 0
6.380000 3.960000 9.020000 207 100 85 0
6.600000 3.960000 9.240000 208 99 87 0
6.820000 3.960000 9.240000 207 98 86 0
7.040000 3.960000 9.240000 206 97 85 0
7.260000 3.960000 9.240000 206 97 85 0
7.480000 3.960000 9.460000 205 98 83 0
7.700000 3.960000 9.460000 205 98 83 0
7.920000 3.960000 9.460000 205 97 82 0
8.140000 3.960000 9.680000 204 96 81 0
8.360000 3.960000 9.680000 205 96 84 0
8.580000 3.960000 10.780000 204 95 83 0
8.800000 3.960000 12.760000 204 96 81 0
9.020000 3.960000 13.860000 204 96 81 0
9.240000 3.960000 13.860000 204 96 81 0
9.460000 3.960000 13.860000 204 96 81 0
9.680000 3.960000 14.080000 204 96 81 0
9.900000 3.960000 14.080000 204 96 81 0
10.120000 3.960000 14.080000 204 94 80 0
10.340000 3.960000 12.760000 205 95 81 0
10.560000 3.960000 12.980000 204 94 80 0
10.780000 3.960000 12.980000 204 94 80 0
11.000000 3.960000 12.980000 204 96 81 0
11.220000 3.960000 12.980000 205 97 82 0
11.440000 3.960000 14.520000 206 96 82 0
11.660000 3.960000 14.520000 205 95 81 0
11.880000 3.960000 14.740000 205 95 81 0
12.100000 3.960000 14.740000 205 95 81 0
12.320000 3.960000 16.280000 204 94 80 0
12.540000 3.960000 16.280000 204 94 80 0
12.760000 3.960000 17.820000 203 93 79 0
12.980000 3.960000 17.820000 203 93 79 0
13.200000 3.960000 19.140000 204 94 80 0
13.420000 3.960000 19.360000 204 94 80 0
13.640000 3.960000 20.460000 205 95 81 0
13.860000 3.960000 22.440000 204 94 80 0
14.080000 3.960000 23.540000 204 94 80 0
14.300000 3.960000 23.540000 204 94 80 0
14.520000 3.960000 25.080000 203 93 79 0
14.740000 3.960000 25.080000 203 93 79 0
14.960000 3.960000 25.080000 203 93 79 0
15.180000 3.960000 25.080000 203 93 79 0
15.400000 3.960000 25.300000 202 92 78 0
15.620000 3.960000 26.620000 203 93 79 0
15.840000 3.960000 26.620000 203 93 79 0
16.060000 3.960000 26.840000 202 92 78 0
16.280000 3.960000 26.840000 203 93 81 0
16.500000 3.960000 26.840000 204 94 82 0
16.720000 3.960000 27.060000 203 93 79 0
16.940000 3.960000 25.740000 203 93 79 0
17.160000 3.960000 25.740000 203 93 81 0
17.380000 3.960000 25.740000 203 93 81 0
17.600000 3.960000 27.280000 203 93 81 0
17.820000 3.960000 27.280000 202 92 80 0
18.040000 3.960000 27.500000 201 91 79 0
18.260000 3.960000 27.500000 203 93 81 0
18.480000 3.960000 27.500000 203 93 81 0
18.700000 3.960000 27.500000 202 92 80 0
18.920000 3.960000 28.600000 202 92 80 0
19.140000 3.960000 30.580000 202 92 80 0
19.360000 3.960000 30.360000 201 91 79 0
19.580000 3.960000 31.900000 202 92 80 0
19.800000 3.960000 33.220000 203 93 81 0
20.020000 3.960000 33.220000 203 93 81 0
20.240000 3.960000 33.220000 202 93 81 0
20.460000 3.960000 33.440000 202 93 81 0
20.680000 3.960000 33.660000 204 95 83 0
20.900000 3.960000 33.880000 205 96 84 0
21.120000 3.960000 33.880000 205 96 84 0
21.340000 3.960000 34.100000 204 95 83 0
21.560000 3.960000 35.640000 202 93 81 0
21.780000 3.960000 30.140000 202 93 81 0
22.000000 3.960000 16.280000 201 92 82 0
22.220000 3.960000 14.740000 201 92 82 0
22.440000 3.960000 24.640000 201 94 81 0
22.660000 3.960000 30.360000 203 96 83 0
22.880000 3.960000 28.820000 199 100 89 0
23.100000 3.960000 20.680000 203 104 93 0
23.320000 3.960000 27.060000 201 107 94 0
23.540000 3.960000 27.940000 201 107 94 0
23.760000 3.960000 12.540000 205 102 90 0
23.980000 3.960000 11.220000 203 100 88 0
24.200000 3.960000 30.800000 202 97 86 0
24.420000 3.960000 37.620000 202 97 86 0
24.640000 3.960000 34.980000 199 100 90 0
24.860000 3.960000 37.840000 199 100 90 0
25.080000 3.960000 39.600000 192 117 106 0
25.300000 3.960000 31.460000 206 131 120 0
25.520000 3.960000 13.640000 200 141 132 0
25.740000 3.960000 3.960000 218 159 150 0
25.960000 3.960000 5.060000 227 173 156 0
26.180000 3.960000 11.440000 223 169 152 0
26.400000 3.960000 27.720000 228 134 121 0
26.620000 3.960000 37.620000 202 108 95 0
26.840000 3.960000 34.760000 188 79 69 0
27.060000 3.960000 26.620000 182 73 63 0
27.280000 3.960000 12.760000 181 72 62 0
27.500000 3.960000 14.080000 179 70 60 0
27.720000 3.960000 29.260000 179 70 62 0
27.940000 3.960000 36.300000 178 69 61 0
28.160000 3.960000 32.340000 176 68 60 0
28.380000 3.960000 29.700000 176 68 60 0
28.600000 3.960000 25.520000 177 68 58 0
28.820000 3.960000 18.700000 177 68 58 0
29.040000 3.960000 15.840000 177 68 58 0
29.260000 3.960000 15.620000 177 68 58 0
29.480000 3.960000 12.760000 176 68 60 0
29.700000 3.960000 11.220000 180 72 64 0
29.920000 3.960000 9.900000 178 78 67 0
30.140000 3.960000 8.580000 181 81 70 0
30.360000 3.960000 8.800000 184 85 77 0
30.580000 3.960000 10.120000 184 85 77 0
30.800000 3.960000 14.300000 182 94 79 0
31.020000 3.960000 18.480000 189 101 86 0
31.240000 3.960000 20.020000 198 101 90 0
31.460000 3.960000 17.380000 191 94 83 0
31.680000 3.960000 9.240000 184 76 68 0
31.900000 3.960000 10.560000 176 68 60 0
32.120000 3.960000 24.420000 176 69 58 0
32.340000 3.960000 32.780000 174 67 56 0
32.560000 3.960000 31.460000 174 65 55 0
32.780000 3.960000 24.640000 170 61 51 0
33.000000 3.960000 19.140000 169 62 51 0
33.220000 3.960000 23.320000 170 63 52 0
33.440000 3.960000 30.140000 169 62 49 0
33.660000 3.960000 31.680000 169 62 49 0
33.880000 3.960000 19.140000 170 63 52 0
34.100000 3.960000 5.500000 170 63 52 0
34.320000 3.960000 1.320000 170 63 50 0
34.540000 3.960000 2.640000 168 61 48 0
34.760000 3.960000 2.640000 167 63 49 0
34.980000 3.960000 3.740000 166 62 48 0
35.200000 3.960000 5.940000 167 63 49 0
35.420000 3.960000 8.360000 168 64 50 0
35.640000 3.960000 8.360000 168 64 50 0
35.860000 3.960000 9.900000 167 63 49 0
36.080000 3.960000 9.900000 166 62 48 0
36.300000 3.960000 8.580000 167 63 49 0
36.520000 3.960000 8.800000 168 64 50 0
36.740000 3.960000 10.120000 168 64 50 0
36.960000 3.960000 10.120000 168 65 51 0
37.180000 3.960000 10.120000 167 64 50 0
0.000000 4.180000 20.020000 215 135 123 0
0.220000 4.180000 12.980000 211 131 119 0
0.440000 4.180000 3.520000 208 134 126 0
0.660000 4.180000 2.200000 210 136 128 0
0.880000 4.180000 2.200000 193 172 166 0
1.100000 4.180000 2.200000 216 195 189 0
1.320000 4.180000 2.200000 227 203 198 0
1.540000 4.180000 3.740000 225 201 196 0
1.760000 4.180000 3.740000 236 193 182 0
1.980000 4.180000 3.960000 226 183 172 0
2.200000 4.180000 2.420000 230 167 157 0
2.420000 4.180000 1.100000 219 156 146 0
3.080000 4.180000 1.100000 214 127 115 0
3.300000 4.180000 4.400000 209 122 110 0
3.520000 4.180000 5.500000 209 115 100 0
3.740000 4.180000 5.720000 208 114 99 0
3.960000 4.180000 5.720000 211 111 98 0
4.180000 4.180000 5.720000 208 108 95 0
4.400000 4.180000 5.720000 207 107 94 0
4.620000 4.180000 5.940000 207 107 94 0
4.840000 4.180000 7.480000 210 106 92 0
5.060000 4.180000 7.480000 209 105 91 0
5.280000 4.180000 7.480000 209 102 89 0
5.500000 4.180000 7.480000 210 103 90 0
5.720000 4.180000 9.020000 206 102 88 0
5.940000 4.180000 9.020000 208 104 90 0
6.160000 4.180000 9.020000 209 102 89 0
6.380000 4.180000 9.020000 208 101 88 0
6.600000 4.180000 9.240000 207 100 87 0
6.820000 4.180000 9.240000 206 99 86 0
7.040000 4.180000 9.240000 207 98 86 0
7.260000 4.180000 9.240000 206 97 85 0
7.480000 4.180000 9.460000 205 96 84 0
7.700000 4.180000 9.460000 205 96 84 0
7.920000 4.180000 9.460000 205 96 84 0
8.140000 4.180000 9.680000 205 96 84 0
8.360000 4.180000 11.000000 205 96 84 0
8.580000 4.180000 11.880000 204 95 83 0
8.800000 4.180000 12.760000 204 95 83 0
9.020000 4.180000 13.860000 204 95 83 0
9.240000 4.180000 13.860000 205 96 84 0
9.460000 4.180000 13.860000 204 95 83 0
9.680000 4.180000 14.080000 204 95 83 0
9.900000 4.180000 14.080000 204 95 83 0
10.120000 4.180000 14.080000 204 94 82 0
10.340000 4.180000 12.760000 204 94 82 0
10.560000 4.180000 12.980000 204 94 82 0
10.780000 4.180000 12.980000 205 95 83 0
11.000000 4.180000 12.980000 205 95 83 0
11.220000 4.180000 12.980000 205 95 83 0
11.440000 4.180000 14.520000 205 95 83 0
11.660000 4.180000 14.520000 205 95 83 0
11.880000 4.180000 14.740000 204 94 82 0
12.100000 4.180000 14.740000 204 94 82 0
12.320000 4.180000 16.280000 204 94 82 0
12.540000 4.180000 16.280000 204 94 82 0
12.760000 4.180000 17.820000 203 93 81 0
12.980000 4.180000 17.820000 203 93 81 0
13.200000 4.180000 19.140000 203 93 81 0
13.420000 4.180000 19.360000 204 94 82 0
13.640000 4.180000 20.460000 205 95 83 0
13.860000 4.180000 22.440000 204 94 82 0
14.080000 4.180000 23.540000 204 94 82 0
14.300000 4.180000 23.540000 204 94 82 0
14.520000 4.180000 25.080000 204 94 82 0
14.740000 4.180000 25.080000 205 95 83 0
14.960000 4.180000 25.080000 203 93 81 0
15.180000 4.180000 25.080000 204 94 82 0
15.400000 4.180000 25.300000 203 93 81 0
15.620000 4.180000 25.300000 203 93 81 0
15.840000 4.180000 26.620000 203 93 81 0
16.060000 4.180000 26.840000 202 92 80 0
16.280000 4.180000 26.840000 202 92 80 0
16.500000 4.180000 26.840000 203 93 81 0
16.720000 4.180000 27.060000 203 93 79 0
16.940000 4.180000 25.740000 204 94 80 0
17.160000 4.180000 25.740000 204 94 82 0
17.380000 4.180000 25.740000 203 93 81 0
17.600000 4.180000 27.280000 202 92 80 0
17.820000 4.180000 27.280000 202 92 80 0
18.040000 4.180000 27.500000 203 93 81 0
18.260000 4.180000 27.500000 202 92 80 0
18.480000 4.180000 27.500000 203 93 79 0
18.700000 4.180000 27.720000 202 92 78 0
18.920000 4.180000 28.600000 202 92 80 0
19.140000 4.180000 29.480000 203 93 81 0
19.360000 4.180000 30.580000 202 92 80 0
19.580000 4.180000 30.800000 202 92 80 0
19.800000 4.180000 31.900000 203 93 81 0
20.020000 4.180000 33.220000 204 94 82 0
20.240000 4.180000 33.440000 203 94 82 0
20.460000 4.180000 33.440000 202 93 81 0
20.680000 4.180000 33.660000 204 95 83 0
20.900000 4.180000 33.880000 205 96 84 0
21.120000 4.180000 34.100000 205 98 85 0
21.340000 4.180000 35.640000 205 98 85 0
21.560000 4.180000 35.640000 204 95 83 0
21.780000 4.180000 27.500000 202 93 81 0
22.000000 4.180000 9.240000 201 92 80 0
22.220000 4.180000 3.520000 201 92 80 0
22.440000 4.180000 7.920000 200 91 79 0
22.660000 4.180000 16.280000 202 93 81 0
22.880000 4.180000 22.000000 203 96 85 0
23.100000 4.180000 12.100000 206 99 88 0
23.320000 4.180000 15.840000 206 103 91 0
23.540000 4.180000 23.760000 206 103 91 0
23.760000 4.180000 11.220000 205 100 89 0
23.980000 4.180000 8.580000 203 98 87 0
24.200000 4.180000 26.620000 202 97 86 0
24.420000 4.180000 37.620000 202 97 86 0
24.640000 4.180000 40.480000 203 96 85 0
24.860000 4.180000 39.380000 203 96 85 0
25.080000 4.180000 39.600000 201 104 93 0
25.300000 4.180000 36.960000 210 113 102 0
25.520000 4.180000 24.640000 212 124 115 0
25.740000 4.180000 13.640000 219 131 122 0
25.960000 4.180000 14.740000 217 150 136 0
26.180000 4.180000 11.440000 218 151 137 0
26.400000 4.180000 14.080000 222 139 128 0
26.620000 4.180000 28.160000 208 125 114 0
26.840000 4.180000 39.160000 197 89 81 0
27.060000 4.180000 37.840000 182 74 66 0
27.280000 4.180000 25.520000 181 72 64 0
27.500000 4.180000 21.340000 179 70 62 0
27.720000 4.180000 29.480000 178 69 61 0
27.940000 4.180000 34.980000 177 68 60 0
28.160000 4.180000 32.340000 177 68 60 0
28.380000 4.180000 31.020000 175 66 58 0
28.600000 4.180000 28.380000 175 66 58 0
28.820000 4.180000 21.560000 176 67 59 0
29.040000 4.180000 16.060000 176 67 59 0
29.260000 4.180000 14.520000 176 67 59 0
29.480000 4.180000 12.760000 176 67 59 0
29.700000 4.180000 11.220000 182 73 65 0
29.920000 4.180000 9.900000 181 81 70 0
30.140000 4.180000 8.580000 182 82 71 0
30.360000 4.180000 8.800000 185 84 77 0
30.580000 4.180000 10.120000 187 86 79 0
30.800000 4.180000 14.300000 184 93 87 0
31.020000 4.180000 22.660000 196 105 99 0
31.240000 4.180000 26.840000 198 103 96 0
31.460000 4.180000 21.560000 190 95 88 0
31.680000 4.180000 10.560000 181 82 71 0
31.900000 4.180000 6.380000 175 76 65 0
32.120000 4.180000 13.420000 178 71 60 0
32.340000 4.180000 20.460000 174 67 56 0
32.560000 4.180000 16.280000 171 64 53 0
32.780000 4.180000 10.780000 170 63 52 0
33.000000 4.180000 9.460000 170 63 52 0
33.220000 4.180000 10.780000 170 63 52 0
33.440000 4.180000 16.280000 169 62 51 0
33.660000 4.180000 19.140000 169 62 51 0
33.880000 4.180000 12.320000 168 61 48 0
34.100000 4.180000 2.640000 170 63 50 0
34.320000 4.180000 1.320000 168 64 50 0
34.540000 4.180000 2.640000 167 63 49 0
34.760000 4.180000 2.640000 167 63 49 0
34.980000 4.180000 3.740000 167 63 49 0
35.200000 4.180000 5.940000 166 62 48 0
35.420000 4.180000 8.360000 167 63 49 0
35.640000 4.180000 8.360000 166 62 48 0
35.860000 4.180000 9.900000 167 63 49 0
36.080000 4.180000 9.900000 166 62 48 0
36.300000 4.180000 8.580000 166 62 48 0
36.520000 4.180000 8.800000 166 63 49 0
36.740000 4.180000 10.120000 167 64 50 0
36.960000 4.180000 10.120000 164 64 49 0
37.180000 4.180000 10.120000 165 65 50 0
0.000000 4.400000 4.620000 212 132 120 0
0.220000 4.400000 3.300000 212 132 120 0
0.440000 4.400000 1.980000 208 134 126 0
0.660000 4.400000 2.200000 212 138 130 0
0.880000 4.400000 3.520000 205 184 178 0
1.100000 4.400000 3.520000 229 208 202 0
1.320000 4.400000 3.740000 228 204 199 0
1.540000 4.400000 3.740000 229 205 200 0
1.760000 4.400000 3.740000 233 190 179 0
1.980000 4.400000 3.740000 224 181 170 0
2.200000 4.400000 2.420000 226 163 153 0
2.420000 4.400000 2.640000 219 156 146 0
3.080000 4.400000 1.100000 215 128 116 0
3.300000 4.400000 3.300000 209 122 110 0
3.520000 4.400000 5.720000 210 116 101 0
3.740000 4.400000 5.720000 207 113 98 0
3.960000 4.400000 5.720000 209 109 96 0
4.180000 4.400000 5.720000 208 108 95 0
4.400000 4.400000 5.720000 207 107 94 0
4.620000 4.400000 5.940000 208 108 95 0
4.840000 4.400000 7.480000 210 106 92 0
5.060000 4.400000 7.480000 207 103 89 0
5.280000 4.400000 7.480000 209 102 89 0
5.500000 4.400000 7.480000 208 101 88 0
5.720000 4.400000 7.480000 206 102 88 0
5.940000 4.400000 9.020000 206 102 88 0
6.160000 4.400000 9.020000 207 100 87 0
6.380000 4.400000 9.020000 207 100 87 0
6.600000 4.400000 9.240000 207 100 87 0
6.820000 4.400000 9.240000 206 99 86 0
7.040000 4.400000 9.240000 206 97 85 0
7.260000 4.400000 9.240000 205 96 84 0
7.480000 4.400000 9.460000 205 96 84 0
7.700000 4.400000 9.460000 205 96 84 0
7.920000 4.400000 9.460000 204 95 83 0
8.140000 4.400000 9.680000 204 95 83 0
8.360000 4.400000 10.780000 204 95 83 0
8.580000 4.400000 12.980000 203 94 82 0
8.800000 4.400000 13.860000 203 94 82 0
9.020000 4.400000 13.860000 203 94 82 0
9.240000 4.400000 13.860000 204 95 83 0
9.460000 4.400000 13.860000 204 95 83 0
9.680000 4.400000 14.080000 203 94 82 0
9.900000 4.400000 14.080000 203 94 82 0
10.120000 4.400000 14.080000 205 95 83 0
10.340000 4.400000 12.760000 203 93 81 0
10.560000 4.400000 12.980000 204 94 82 0
10.780000 4.400000 12.980000 204 94 82 0
11.000000 4.400000 12.980000 205 95 83 0
11.220000 4.400000 12.980000 204 94 82 0
11.440000 4.400000 14.520000 204 94 82 0
11.660000 4.400000 14.520000 203 93 81 0
11.880000 4.400000 14.740000 203 93 81 0
12.100000 4.400000 14.740000 203 93 81 0
12.320000 4.400000 16.280000 203 93 81 0
12.540000 4.400000 16.280000 203 93 81 0
12.760000 4.400000 17.820000 203 93 81 0
12.980000 4.400000 17.820000 203 93 81 0
13.200000 4.400000 17.820000 203 93 81 0
13.420000 4.400000 19.360000 204 94 82 0
13.640000 4.400000 20.460000 204 94 82 0
13.860000 4.400000 22.440000 204 94 82 0
14.080000 4.400000 22.220000 203 93 81 0
14.300000 4.400000 23.540000 204 94 82 0
14.520000 4.400000 25.080000 203 93 81 0
14.740000 4.400000 25.080000 204 94 82 0
14.960000 4.400000 25.080000 203 93 81 0
15.180000 4.400000 25.080000 202 92 80 0
15.400000 4.400000 25.080000 203 93 81 0
15.620000 4.400000 25.300000 203 93 81 0
15.840000 4.400000 25.300000 202 92 80 0
16.060000 4.400000 26.840000 202 92 80 0
16.280000 4.400000 26.840000 202 92 80 0
16.500000 4.400000 26.840000 202 92 80 0
16.720000 4.400000 25.520000 203 93 79 0
16.940000 4.400000 25.740000 203 93 79 0
17.160000 4.400000 25.740000 202 92 80 0
17.380000 4.400000 25.740000 201 91 79 0
17.600000 4.400000 27.280000 200 90 78 0
17.820000 4.400000 27.500000 201 91 79 0
18.040000 4.400000 27.500000 201 91 79 0
18.260000 4.400000 27.500000 201 91 79 0
18.480000 4.400000 27.500000 202 92 78 0
18.700000 4.400000 27.280000 202 92 78 0
18.920000 4.400000 28.380000 202 92 80 0
19.140000 4.400000 29.480000 202 92 80 0
19.360000 4.400000 29.700000 202 92 80 0
19.580000 4.400000 29.920000 201 91 79 0
19.800000 4.400000 30.800000 202 92 80 0
20.020000 4.400000 33.220000 203 93 81 0
20.240000 4.400000 33.440000 202 93 81 0
20.460000 4.400000 32.560000 203 94 82 0
20.680000 4.400000 32.780000 203 94 82 0
20.900000 4.400000 32.780000 206 97 85 0
21.120000 4.400000 34.320000 206 99 86 0
21.340000 4.400000 35.640000 207 100 87 0
21.560000 4.400000 37.180000 207 98 86 0
21.780000 4.400000 31.460000 204 95 83 0
22.000000 4.400000 15.840000 201 92 80 0
22.220000 4.400000 3.300000 199 90 78 0
22.440000 4.400000 0.660000 201 92 80 0
22.660000 4.400000 10.340000 200 91 79 0
22.880000 4.400000 20.240000 201 94 83 0
23.100000 4.400000 10.560000 204 97 86 0
23.320000 4.400000 11.440000 203 100 88 0
23.540000 4.400000 25.080000 204 101 89 0
23.760000 4.400000 16.940000 203 98 87 0
23.980000 4.400000 5.940000 201 96 85 0
24.200000 4.400000 14.300000 201 96 85 0
24.420000 4.400000 28.160000 200 95 84 0
24.640000 4.400000 37.840000 201 94 83 0
24.860000 4.400000 39.380000 200 93 82 0
25.080000 4.400000 39.600000 196 99 88 0
25.300000 4.400000 39.600000 199 102 91 0
25.520000 4.400000 30.140000 199 111 102 0
25.740000 4.400000 19.140000 203 115 106 0
25.960000 4.400000 20.460000 202 135 121 0
26.180000 4.400000 11.660000 216 149 135 0
26.400000 4.400000 3.080000 221 138 127 0
26.620000 4.400000 12.980000 208 125 114 0
26.840000 4.400000 28.160000 206 98 90 0
27.060000 4.400000 35.200000 187 79 71 0
27.280000 4.400000 32.780000 180 71 63 0
27.500000 4.400000 28.600000 177 68 60 0
27.720000 4.400000 31.240000 177 68 60 0
27.940000 4.400000 33.660000 176 67 59 0
28.160000 4.400000 32.340000 176 67 59 0
28.380000 4.400000 32.340000 176 67 59 0
28.600000 4.400000 31.020000 175 66 58 0
28.820000 4.400000 25.740000 176 67 59 0
29.040000 4.400000 18.920000 175 66 58 0
29.260000 4.400000 16.060000 175 66 58 0
29.480000 4.400000 14.300000 177 68 60 0
29.700000 4.400000 11.220000 178 69 61 0
29.920000 4.400000 9.900000 180 80 69 0
30.140000 4.400000 8.580000 183 83 72 0
30.360000 4.400000 8.580000 186 85 78 0
30.580000 4.400000 7.260000 189 88 81 0
30.800000 4.400000 12.760000 184 93 87 0
31.020000 4.400000 25.300000 191 100 94 0
31.240000 4.400000 32.340000 196 101 94 0
31.460000 4.400000 25.520000 195 100 93 0
31.680000 4.400000 10.560000 192 93 82 0
31.900000 4.400000 3.520000 183 84 73 0
32.120000 4.400000 5.060000 180 73 62 0
32.340000 4.400000 7.920000 175 68 57 0
32.560000 4.400000 6.600000 172 65 54 0
32.780000 4.400000 5.280000 169 62 51 0
33.000000 4.400000 5.280000 168 61 50 0
33.220000 4.400000 5.280000 170 63 52 0
33.440000 4.400000 5.280000 168 61 50 0
33.660000 4.400000 6.820000 169 62 51 0
33.880000 4.400000 2.640000 169 62 49 0
34.100000 4.400000 1.320000 169 62 49 0
34.320000 4.400000 2.640000 166 62 48 0
34.540000 4.400000 4.180000 166 62 48 0
34.760000 4.400000 4.180000 167 63 49 0
34.980000 4.400000 3.740000 167 63 49 0
35.200000 4.400000 5.940000 167 63 49 0
35.420000 4.400000 8.360000 167 63 49 0
35.640000 4.400000 8.360000 167 63 49 0
35.860000 4.400000 9.900000 167 63 49 0
36.080000 4.400000 9.900000 166 62 48 0
36.300000 4.400000 8.800000 165 61 47 0
36.520000 4.400000 8.800000 165 62 48 0
36.740000 4.400000 10.120000 165 62 48 0
36.960000 4.400000 10.120000 164 64 49 0
37.180000 4.400000 10.120000 165 65 50 0
0.000000 4.620000 5.940000 209 134 123 0
0.220000 4.620000 4.620000 211 136 125 0
0.440000 4.620000 3.300000 202 141 131 0
0.660000 4.620000 3.520000 210 149 139 0
0.880000 4.620000 3.520000 204 197 186 0
1.100000 4.620000 5.060000 232 225 214 0
1.320000 4.620000 5.060000 240 221 220 0
1.540000 4.620000 5.060000 236 217 216 0
1.760000 4.620000 3.740000 236 186 180 0
1.980000 4.620000 3.740000 218 168 162 0
2.200000 4.620000 3.960000 218 153 144 0
2.420000 4.620000 2.640000 214 149 140 0
2.640000 4.620000 1.320000 221 142 130 0
3.080000 4.620000 1.320000 216 123 111 0
3.300000 4.620000 3.520000 212 119 107 0
3.520000 4.620000 4.400000 210 116 103 0
3.740000 4.620000 5.500000 206 112 99 0
3.960000 4.620000 5.720000 207 110 96 0
4.180000 4.620000 5.720000 207 110 96 0
4.400000 4.620000 5.720000 207 109 95 0
4.620000 4.620000 5.940000 207 109 95 0
4.840000 4.620000 5.940000 207 107 94 0
5.060000 4.620000 7.480000 204 104 91 0
5.280000 4.620000 7.480000 204 104 91 0
5.500000 4.620000 7.480000 202 102 89 0
5.720000 4.620000 7.480000 206 102 88 0
5.940000 4.620000 7.700000 205 101 87 0
6.160000 4.620000 7.700000 204 100 86 0
6.380000 4.620000 9.020000 206 102 88 0
6.600000 4.620000 9.240000 207 100 87 0
6.820000 4.620000 9.240000 206 99 86 0
7.040000 4.620000 9.240000 205 98 85 0
7.260000 4.620000 9.460000 204 97 84 0
7.480000 4.620000 9.460000 204 97 84 0
7.700000 4.620000 9.460000 204 97 84 0
7.920000 4.620000 9.680000 203 96 83 0
8.140000 4.620000 9.680000 204 97 84 0
8.360000 4.620000 10.780000 204 97 84 0
8.580000 4.620000 12.760000 203 96 83 0
8.800000 4.620000 13.860000 202 93 81 0
9.020000 4.620000 13.860000 203 94 82 0
9.240000 4.620000 13.860000 203 94 82 0
9.460000 4.620000 13.860000 203 94 82 0
9.680000 4.620000 14.080000 203 95 80 0
9.900000 4.620000 14.080000 204 96 81 0
10.120000 4.620000 14.080000 203 94 82 0
10.340000 4.620000 12.760000 203 94 82 0
10.560000 4.620000 12.980000 203 94 82 0
10.780000 4.620000 12.980000 203 94 82 0
11.000000 4.620000 12.980000 203 94 82 0
11.220000 4.620000 12.980000 203 94 82 0
11.440000 4.620000 14.520000 203 94 82 0
11.660000 4.620000 14.520000 203 94 82 0
11.880000 4.620000 14.740000 203 94 82 0
12.100000 4.620000 14.740000 204 95 83 0
12.320000 4.620000 16.280000 202 93 81 0
12.540000 4.620000 16.280000 202 93 81 0
12.760000 4.620000 17.820000 203 93 81 0
12.980000 4.620000 17.820000 202 92 80 0
13.200000 4.620000 17.820000 204 94 80 0
13.420000 4.620000 19.140000 203 93 79 0
13.640000 4.620000 20.240000 204 94 82 0
13.860000 4.620000 22.440000 204 94 82 0
14.080000 4.620000 22.220000 203 94 82 0
14.300000 4.620000 23.540000 202 93 81 0
14.520000 4.620000 23.540000 204 94 82 0
14.740000 4.620000 25.080000 204 94 82 0
14.960000 4.620000 25.080000 203 93 81 0
15.180000 4.620000 25.080000 203 93 81 0
15.400000 4.620000 25.080000 202 92 80 0
15.620000 4.620000 25.300000 203 93 81 0
15.840000 4.620000 25.300000 203 93 81 0
16.060000 4.620000 25.300000 202 92 80 0
16.280000 4.620000 26.840000 202 92 80 0
16.500000 4.620000 25.520000 202 92 80 0
16.720000 4.620000 25.740000 202 92 80 0
16.940000 4.620000 25.740000 202 92 80 0
17.160000 4.620000 25.740000 200 91 79 0
17.380000 4.620000 25.740000 200 91 79 0
17.600000 4.620000 27.280000 201 92 80 0
17.820000 4.620000 27.500000 199 90 78 0
18.040000 4.620000 27.500000 200 91 79 0
18.260000 4.620000 27.500000 200 91 79 0
18.480000 4.620000 28.600000 202 93 81 0
18.700000 4.620000 29.480000 201 92 80 0
18.920000 4.620000 30.580000 201 92 80 0
19.140000 4.620000 29.260000 201 92 80 0
19.360000 4.620000 29.700000 201 92 80 0
19.580000 4.620000 28.600000 202 93 81 0
19.800000 4.620000 29.920000 202 93 81 0
20.020000 4.620000 30.800000 202 93 81 0
20.240000 4.620000 32.120000 202 93 81 0
20.460000 4.620000 31.240000 203 94 82 0
20.680000 4.620000 31.460000 202 95 82 0
20.900000 4.620000 32.780000 203 96 83 0
21.120000 4.620000 35.640000 195 105 92 0
21.340000 4.620000 37.180000 200 110 97 0
21.560000 4.620000 38.720000 202 110 94 0
21.780000 4.620000 36.960000 197 105 89 0
22.000000 4.620000 28.160000 202 93 81 0
22.220000 4.620000 14.080000 200 91 79 0
22.440000 4.620000 3.080000 198 91 78 0
22.660000 4.620000 11.220000 199 92 79 0
22.880000 4.620000 21.120000 201 92 80 0
23.100000 4.620000 11.660000 204 95 83 0
23.320000 4.620000 10.120000 204 99 88 0
23.540000 4.620000 25.080000 203 98 87 0
23.760000 4.620000 23.760000 203 96 85 0
23.980000 4.620000 8.800000 201 94 83 0
24.200000 4.620000 4.620000 199 92 81 0
24.420000 4.620000 16.940000 200 93 82 0
24.640000 4.620000 32.340000 199 92 81 0
24.860000 4.620000 39.380000 200 93 82 0
25.080000 4.620000 39.600000 198 93 84 0
25.300000 4.620000 39.600000 199 94 85 0
25.520000 4.620000 29.920000 197 100 88 0
25.740000 4.620000 17.600000 202 105 93 0
25.960000 4.620000 16.280000 192 119 107 0
26.180000 4.620000 9.020000 205 132 120 0
26.400000 4.620000 1.760000 208 142 123 0
26.620000 4.620000 4.840000 196 130 111 0
26.840000 4.620000 16.060000 206 103 93 0
27.060000 4.620000 28.380000 187 84 74 0
27.280000 4.620000 31.460000 179 71 63 0
27.500000 4.620000 30.140000 176 68 60 0
27.720000 4.620000 30.140000 177 69 61 0
27.940000 4.620000 31.020000 177 69 61 0
28.160000 4.620000 32.340000 175 67 59 0
28.380000 4.620000 33.880000 176 68 60 0
28.600000 4.620000 33.880000 174 67 56 0
28.820000 4.620000 28.380000 174 67 56 0
29.040000 4.620000 21.780000 174 65 57 0
29.260000 4.620000 16.060000 174 65 57 0
29.480000 4.620000 14.300000 176 67 57 0
29.700000 4.620000 12.540000 177 68 58 0
29.920000 4.620000 9.900000 180 77 67 0
30.140000 4.620000 8.580000 184 81 71 0
30.360000 4.620000 7.260000 184 84 71 0
30.580000 4.620000 5.940000 187 87 74 0
30.800000 4.620000 10.120000 188 90 82 0
31.020000 4.620000 21.120000 192 94 86 0
31.240000 4.620000 26.840000 190 101 92 0
31.460000 4.620000 21.340000 191 102 93 0
31.680000 4.620000 7.700000 192 97 86 0
31.900000 4.620000 3.520000 187 92 81 0
32.120000 4.620000 5.060000 181 76 65 0
32.340000 4.620000 5.060000 173 68 57 0
32.560000 4.620000 6.600000 175 68 57 0
32.780000 4.620000 6.600000 173 66 55 0
33.000000 4.620000 6.600000 170 63 52 0
33.220000 4.620000 6.600000 169 62 51 0
33.440000 4.620000 5.280000 168 61 50 0
33.660000 4.620000 2.640000 168 61 50 0
33.880000 4.620000 1.320000 168 61 48 0
34.100000 4.620000 1.320000 169 62 49 0
34.320000 4.620000 2.640000 166 62 48 0
34.540000 4.620000 4.180000 166 62 48 0
34.760000 4.620000 4.180000 164 61 47 0
34.980000 4.620000 5.060000 166 63 49 0
35.200000 4.620000 5.940000 167 62 51 0
35.420000 4.620000 8.360000 167 62 51 0
35.640000 4.620000 8.360000 166 62 48 0
35.860000 4.620000 9.900000 166 62 48 0
36.080000 4.620000 8.800000 165 62 48 0
36.300000 4.620000 8.800000 164 61 47 0
36.520000 4.620000 8.800000 165 62 48 0
36.740000 4.620000 10.120000 165 62 48 0
36.960000 4.620000 10.120000 163 63 48 0
37.180000 4.620000 10.120000 164 64 49 0
0.000000 4.840000 16.940000 210 135 124 0
0.220000 4.840000 10.120000 211 136 125 0
0.440000 4.840000 4.620000 204 143 133 0
0.660000 4.840000 4.840000 214 153 143 0
0.880000 4.840000 4.840000 207 200 189 0
1.100000 4.840000 4.840000 238 231 220 0
1.320000 4.840000 5.060000 240 221 220 0
1.540000 4.840000 5.060000 231 212 211 0
1.760000 4.840000 5.060000 246 196 190 0
1.980000 4.840000 5.060000 224 174 168 0
2.200000 4.840000 3.740000 219 154 145 0
2.420000 4.840000 3.960000 212 147 138 0
2.640000 4.840000 1.100000 220 141 129 0
2.860000 4.840000 1.320000 213 134 122 0
3.080000 4.840000 1.320000 215 122 110 0
3.300000 4.840000 3.960000 210 117 105 0
3.520000 4.840000 4.840000 210 116 103 0
3.740000 4.840000 4.400000 207 113 100 0
3.960000 4.840000 5.720000 209 112 98 0
4.180000 4.840000 5.720000 209 112 98 0
4.400000 4.840000 5.720000 209 111 97 0
4.620000 4.840000 5.940000 208 110 96 0
4.840000 4.840000 5.940000 208 108 95 0
5.060000 4.840000 6.160000 207 107 94 0
5.280000 4.840000 7.480000 205 105 92 0
5.500000 4.840000 7.480000 207 107 94 0
5.720000 4.840000 7.700000 208 104 90 0
5.940000 4.840000 7.700000 205 101 87 0
6.160000 4.840000 7.700000 205 101 87 0
6.380000 4.840000 7.700000 205 101 87 0
6.600000 4.840000 7.700000 209 102 89 0
6.820000 4.840000 9.240000 207 100 87 0
7.040000 4.840000 9.240000 206 99 86 0
7.260000 4.840000 9.460000 204 97 84 0
7.480000 4.840000 9.460000 205 98 85 0
7.700000 4.840000 9.460000 205 98 85 0
7.920000 4.840000 9.680000 205 98 85 0
8.140000 4.840000 9.680000 205 98 85 0
8.360000 4.840000 10.780000 205 98 85 0
8.580000 4.840000 12.760000 203 96 83 0
8.800000 4.840000 13.860000 204 95 83 0
9.020000 4.840000 13.860000 204 95 83 0
9.240000 4.840000 13.860000 204 95 83 0
9.460000 4.840000 13.860000 204 95 83 0
9.680000 4.840000 14.080000 204 96 81 0
9.900000 4.840000 14.080000 204 96 81 0
10.120000 4.840000 14.080000 204 95 83 0
10.340000 4.840000 12.760000 204 95 83 0
10.560000 4.840000 12.980000 203 94 82 0
10.780000 4.840000 12.980000 204 95 83 0
11.000000 4.840000 12.980000 205 96 84 0
11.220000 4.840000 12.980000 204 95 83 0
11.440000 4.840000 14.520000 203 94 82 0
11.660000 4.840000 14.520000 204 95 83 0
11.880000 4.840000 14.740000 205 96 84 0
12.100000 4.840000 14.740000 204 95 83 0
12.320000 4.840000 16.280000 203 94 82 0
12.540000 4.840000 16.280000 203 94 82 0
12.760000 4.840000 17.820000 204 94 82 0
12.980000 4.840000 17.820000 204 94 82 0
13.200000 4.840000 17.820000 205 95 81 0
13.420000 4.840000 19.140000 204 94 80 0
13.640000 4.840000 21.340000 205 95 83 0
13.860000 4.840000 22.220000 204 94 82 0
14.080000 4.840000 22.220000 203 94 82 0
14.300000 4.840000 23.540000 204 95 83 0
14.520000 4.840000 23.540000 205 95 83 0
14.740000 4.840000 25.080000 203 93 81 0
14.960000 4.840000 25.080000 204 94 82 0
15.180000 4.840000 25.080000 203 93 81 0
15.400000 4.840000 25.080000 204 94 82 0
15.620000 4.840000 25.300000 203 93 81 0
15.840000 4.840000 25.300000 202 92 80 0
16.060000 4.840000 25.300000 203 93 81 0
16.280000 4.840000 25.520000 203 93 81 0
16.500000 4.840000 25.520000 202 92 80 0
16.720000 4.840000 25.740000 202 92 80 0
16.940000 4.840000 25.740000 202 92 80 0
17.160000 4.840000 25.740000 201 92 80 0
17.380000 4.840000 25.960000 202 93 81 0
17.600000 4.840000 25.960000 201 92 80 0
17.820000 4.840000 26.180000 201 92 80 0
18.040000 4.840000 26.180000 201 92 80 0
18.260000 4.840000 27.280000 201 92 80 0
18.480000 4.840000 29.480000 202 93 81 0
18.700000 4.840000 30.580000 203 94 82 0
18.920000 4.840000 30.360000 202 93 81 0
19.140000 4.840000 30.580000 202 93 81 0
19.360000 4.840000 29.700000 201 92 80 0
19.580000 4.840000 28.600000 202 93 81 0
19.800000 4.840000 28.820000 201 92 80 0
20.020000 4.840000 29.920000 201 92 80 0
20.240000 4.840000 31.020000 202 93 81 0
20.460000 4.840000 29.700000 203 94 82 0
20.680000 4.840000 29.920000 201 94 81 0
20.900000 4.840000 32.780000 203 96 83 0
21.120000 4.840000 35.640000 198 108 95 0
21.340000 4.840000 35.860000 207 117 104 0
21.560000 4.840000 31.680000 209 117 101 0
21.780000 4.840000 32.780000 208 116 100 0
22.000000 4.840000 33.660000 209 100 88 0
22.220000 4.840000 20.900000 202 93 81 0
22.440000 4.840000 7.040000 200 93 80 0
22.660000 4.840000 9.900000 200 93 80 0
22.880000 4.840000 16.720000 201 92 80 0
23.100000 4.840000 9.900000 204 95 83 0
23.320000 4.840000 5.720000 202 97 86 0
23.540000 4.840000 15.400000 202 97 86 0
23.760000 4.840000 18.260000 203 96 85 0
23.980000 4.840000 8.800000 201 94 83 0
24.200000 4.840000 3.300000 199 92 81 0
24.420000 4.840000 11.440000 198 91 80 0
24.640000 4.840000 26.620000 198 91 80 0
24.860000 4.840000 37.840000 198 91 80 0
25.080000 4.840000 39.380000 196 91 82 0
25.300000 4.840000 39.600000 197 92 83 0
25.520000 4.840000 29.920000 192 95 83 0
25.740000 4.840000 13.420000 198 101 89 0
25.960000 4.840000 6.380000 191 118 106 0
26.180000 4.840000 5.940000 203 130 118 0
26.400000 4.840000 4.400000 220 154 135 0
26.620000 4.840000 5.940000 216 150 131 0
26.840000 4.840000 11.660000 224 121 111 0
27.060000 4.840000 22.880000 197 94 84 0
27.280000 4.840000 27.060000 182 74 66 0
27.500000 4.840000 27.280000 177 69 61 0
27.720000 4.840000 28.600000 176 68 60 0
27.940000 4.840000 29.920000 176 68 60 0
28.160000 4.840000 31.240000 175 67 59 0
28.380000 4.840000 33.880000 176 68 60 0
28.600000 4.840000 33.880000 175 68 57 0
28.820000 4.840000 31.240000 174 67 56 0
29.040000 4.840000 23.100000 175 66 58 0
29.260000 4.840000 14.740000 174 65 57 0
29.480000 4.840000 12.760000 176 67 57 0
29.700000 4.840000 12.540000 176 67 57 0
29.920000 4.840000 11.220000 177 74 64 0
30.140000 4.840000 8.580000 183 80 70 0
30.360000 4.840000 7.260000 182 82 69 0
30.580000 4.840000 4.400000 182 82 69 0
30.800000 4.840000 4.400000 182 84 76 0
31.020000 4.840000 8.800000 186 88 80 0
31.240000 4.840000 10.120000 189 100 91 0
31.460000 4.840000 7.480000 189 100 91 0
31.680000 4.840000 3.520000 193 98 87 0
31.900000 4.840000 3.520000 190 95 84 0
32.120000 4.840000 5.060000 187 82 71 0
32.340000 4.840000 6.600000 177 72 61 0
32.560000 4.840000 7.920000 175 68 57 0
32.780000 4.840000 7.920000 174 67 56 0
33.000000 4.840000 7.920000 171 64 53 0
33.220000 4.840000 7.920000 171 64 53 0
33.440000 4.840000 6.600000 169 62 51 0
33.660000 4.840000 3.960000 168 61 50 0
33.880000 4.840000 2.640000 168 61 48 0
34.100000 4.840000 2.640000 168 61 48 0
34.320000 4.840000 2.640000 166 62 48 0
34.540000 4.840000 4.180000 167 63 49 0
34.760000 4.840000 4.180000 166 63 49 0
34.980000 4.840000 5.060000 166 63 49 0
35.200000 4.840000 5.940000 167 62 51 0
35.420000 4.840000 8.360000 166 61 50 0
35.640000 4.840000 8.360000 166 62 48 0
35.860000 4.840000 8.580000 166 62 48 0
36.080000 4.840000 7.700000 164 61 47 0
36.300000 4.840000 7.700000 166 63 49 0
36.520000 4.840000 9.020000 166 63 49 0
36.740000 4.840000 10.120000 165 62 48 0
36.960000 4.840000 10.120000 164 64 49 0
37.180000 4.840000 10.120000 164 64 49 0
0.000000 5.060000 21.120000 209 135 121 0
0.220000 5.060000 12.760000 211 137 123 0
0.440000 5.060000 4.620000 202 143 130 0
0.660000 5.060000 6.160000 217 158 145 0
0.880000 5.060000 6.160000 208 200 185 0
1.100000 5.060000 6.380000 238 230 215 0
1.320000 5.060000 6.380000 234 220 212 0
1.540000 5.060000 6.380000 226 212 204 0
1.760000 5.060000 6.380000 241 197 193 0
1.980000 5.060000 6.600000 232 188 184 0
2.200000 5.060000 5.280000 241 174 163 0
2.420000 5.060000 3.960000 222 155 144 0
2.640000 5.060000 2.640000 221 138 125 0
2.860000 5.060000 1.320000 213 130 117 0
3.080000 5.060000 2.640000 215 122 109 0
3.300000 5.060000 3.960000 211 118 105 0
3.520000 5.060000 3.960000 208 115 102 0
3.740000 5.060000 3.520000 209 116 103 0
3.960000 5.060000 4.620000 211 114 100 0
4.180000 5.060000 5.940000 210 113 99 0
4.400000 5.060000 5.940000 209 111 97 0
4.620000 5.060000 5.940000 209 111 97 0
4.840000 5.060000 5.940000 208 108 93 0
5.060000 5.060000 6.160000 207 107 92 0
5.280000 5.060000 6.160000 206 106 91 0
5.500000 5.060000 6.160000 206 106 91 0
5.720000 5.060000 7.700000 209 105 91 0
5.940000 5.060000 7.700000 207 103 89 0
6.160000 5.060000 7.700000 205 102 88 0
6.380000 5.060000 7.700000 205 102 88 0
6.600000 5.060000 7.920000 206 102 88 0
6.820000 5.060000 9.240000 206 102 88 0
7.040000 5.060000 9.240000 206 99 86 0
7.260000 5.060000 9.460000 206 99 86 0
7.480000 5.060000 9.460000 206 99 84 0
7.700000 5.060000 9.460000 206 99 84 0
7.920000 5.060000 9.680000 206 99 84 0
8.140000 5.060000 9.680000 205 98 83 0
8.360000 5.060000 10.780000 206 97 85 0
8.580000 5.060000 12.980000 205 96 84 0
8.800000 5.060000 13.860000 205 96 84 0
9.020000 5.060000 13.860000 204 95 83 0
9.240000 5.060000 13.860000 204 96 81 0
9.460000 5.060000 13.860000 205 97 82 0
9.680000 5.060000 13.860000 205 97 82 0
9.900000 5.060000 14.080000 205 97 82 0
10.120000 5.060000 14.080000 204 95 83 0
10.340000 5.060000 12.760000 204 95 83 0
10.560000 5.060000 12.760000 204 95 83 0
10.780000 5.060000 12.980000 205 96 84 0
11.000000 5.060000 12.980000 204 96 81 0
11.220000 5.060000 12.980000 205 97 82 0
11.440000 5.060000 13.200000 204 96 81 0
11.660000 5.060000 14.520000 204 96 81 0
11.880000 5.060000 14.740000 205 95 81 0
12.100000 5.060000 14.740000 204 94 80 0
12.320000 5.060000 14.740000 204 94 82 0
12.540000 5.060000 16.280000 205 95 83 0
12.760000 5.060000 16.500000 205 95 83 0
12.980000 5.060000 17.820000 205 95 83 0
13.200000 5.060000 17.820000 205 95 81 0
13.420000 5.060000 18.920000 205 95 81 0
13.640000 5.060000 21.120000 204 94 80 0
13.860000 5.060000 22.220000 204 94 80 0
14.080000 5.060000 22.220000 205 95 83 0
14.300000 5.060000 23.540000 205 95 83 0
14.520000 5.060000 23.540000 204 94 82 0
14.740000 5.060000 25.080000 205 95 83 0
14.960000 5.060000 25.080000 204 94 82 0
15.180000 5.060000 25.080000 204 94 82 0
15.400000 5.060000 25.080000 203 93 81 0
15.620000 5.060000 25.080000 204 94 82 0
15.840000 5.060000 25.300000 204 94 82 0
16.060000 5.060000 25.300000 204 94 82 0
16.280000 5.060000 25.520000 203 93 81 0
16.500000 5.060000 25.520000 203 93 81 0
16.720000 5.060000 25.740000 203 93 81 0
16.940000 5.060000 25.740000 202 92 80 0
17.160000 5.060000 25.960000 203 93 81 0
17.380000 5.060000 25.960000 202 92 80 0
17.600000 5.060000 25.960000 203 93 81 0
17.820000 5.060000 26.180000 203 93 81 0
18.040000 5.060000 27.500000 203 93 81 0
18.260000 5.060000 28.600000 202 92 80 0
18.480000 5.060000 29.260000 202 92 80 0
18.700000 5.060000 30.360000 203 93 81 0
18.920000 5.060000 30.360000 203 93 81 0
19.140000 5.060000 30.580000 203 93 81 0
19.360000 5.060000 29.700000 202 92 80 0
19.580000 5.060000 28.600000 203 93 81 0
19.800000 5.060000 28.820000 203 92 83 0
20.020000 5.060000 28.600000 202 91 82 0
20.240000 5.060000 29.700000 202 93 81 0
20.460000 5.060000 29.700000 202 93 81 0
20.680000 5.060000 29.920000 202 93 81 0
20.900000 5.060000 31.460000 204 95 83 0
21.120000 5.060000 35.640000 204 101 91 0
21.340000 5.060000 33.000000 213 110 100 0
21.560000 5.060000 22.000000 209 116 103 0
21.780000 5.060000 16.500000 212 119 106 0
22.000000 5.060000 20.240000 218 109 99 0
22.220000 5.060000 14.080000 204 95 85 0
22.440000 5.060000 4.400000 201 92 82 0
22.660000 5.060000 5.720000 201 92 82 0
22.880000 5.060000 7.040000 201 92 82 0
23.100000 5.060000 4.400000 201 92 82 0
23.320000 5.060000 4.400000 204 95 85 0
23.540000 5.060000 5.720000 206 97 87 0
23.760000 5.060000 5.940000 203 96 85 0
23.980000 5.060000 4.620000 201 94 83 0
24.200000 5.060000 5.940000 200 91 81 0
24.420000 5.060000 7.480000 199 90 80 0
24.640000 5.060000 15.620000 199 90 80 0
24.860000 5.060000 25.300000 197 88 78 0
25.080000 5.060000 32.340000 198 89 81 0
25.300000 5.060000 35.420000 199 90 82 0
25.520000 5.060000 25.740000 191 96 85 0
25.740000 5.060000 10.560000 199 104 93 0
25.960000 5.060000 4.840000 197 120 107 0
26.180000 5.060000 5.940000 208 131 118 0
26.400000 5.060000 8.580000 217 154 142 0
26.620000 5.060000 10.120000 204 141 129 0
26.840000 5.060000 14.300000 209 130 120 0
27.060000 5.060000 20.020000 189 110 100 0
27.280000 5.060000 22.880000 187 79 71 0
27.500000 5.060000 24.420000 178 70 62 0
27.720000 5.060000 25.960000 178 69 61 0
27.940000 5.060000 28.600000 177 68 60 0
28.160000 5.060000 31.240000 176 69 58 0
28.380000 5.060000 32.560000 175 68 57 0
28.600000 5.060000 33.880000 176 67 59 0
28.820000 5.060000 32.560000 175 66 58 0
29.040000 5.060000 24.420000 174 65 57 0
29.260000 5.060000 13.420000 175 66 58 0
29.480000 5.060000 10.120000 176 67 59 0
29.700000 5.060000 11.220000 176 67 59 0
29.920000 5.060000 9.900000 176 71 62 0
30.140000 5.060000 7.260000 180 75 66 0
30.360000 5.060000 5.720000 183 78 67 0
30.580000 5.060000 4.400000 184 79 68 0
30.800000 5.060000 1.760000 184 84 73 0
31.020000 5.060000 1.760000 183 83 72 0
31.240000 5.060000 0.440000 186 88 80 0
31.460000 5.060000 0.660000 191 93 85 0
31.680000 5.060000 2.200000 191 98 86 0
31.900000 5.060000 3.520000 187 94 82 0
32.120000 5.060000 5.060000 192 89 77 0
32.340000 5.060000 6.600000 183 80 68 0
32.560000 5.060000 7.920000 179 70 60 0
32.780000 5.060000 7.920000 174 65 55 0
33.000000 5.060000 7.920000 171 64 53 0
33.220000 5.060000 9.460000 170 63 52 0
33.440000 5.060000 8.140000 170 63 50 0
33.660000 5.060000 5.500000 168 61 48 0
33.880000 5.060000 3.960000 166 61 50 0
34.100000 5.060000 2.640000 167 62 51 0
34.320000 5.060000 4.180000 169 62 51 0
34.540000 5.060000 4.180000 170 63 52 0
34.760000 5.060000 5.500000 167 63 49 0
34.980000 5.060000 5.280000 166 62 48 0
35.200000 5.060000 5.940000 166 62 48 0
35.420000 5.060000 7.040000 167 63 49 0
35.640000 5.060000 8.360000 166 62 48 0
35.860000 5.060000 8.580000 166 62 48 0
36.080000 5.060000 7.700000 167 62 51 0
36.300000 5.060000 7.920000 167 62 51 0
36.520000 5.060000 7.700000 166 63 49 0
36.740000 5.060000 10.120000 166 63 49 0
36.960000 5.060000 10.120000 167 64 50 0
37.180000 5.060000 10.120000 165 62 48 0
0.000000 5.280000 21.120000 208 134 120 0
0.220000 5.280000 12.760000 210 136 122 0
0.440000 5.280000 5.940000 203 144 131 0
0.660000 5.280000 6.160000 218 159 146 0
0.880000 5.280000 7.700000 210 202 187 0
1.100000 5.280000 7.700000 242 234 219 0
1.320000 5.280000 7.700000 247 233 225 0
1.540000 5.280000 7.700000 239 225 217 0
1.760000 5.280000 7.920000 243 199 195 0
1.980000 5.280000 6.600000 227 183 179 0
2.200000 5.280000 5.060000 229 162 151 0
2.420000 5.280000 3.740000 216 149 138 0
2.640000 5.280000 2.420000 218 135 122 0
2.860000 5.280000 1.100000 209 126 113 0
3.080000 5.280000 2.640000 214 121 108 0
3.300000 5.280000 2.640000 210 117 104 0
3.520000 5.280000 2.640000 209 116 103 0
3.740000 5.280000 2.640000 208 115 102 0
3.960000 5.280000 3.740000 210 113 99 0
4.180000 5.280000 3.740000 210 113 99 0
4.400000 5.280000 5.060000 210 112 98 0
4.620000 5.280000 4.840000 209 111 97 0
4.840000 5.280000 4.840000 208 108 93 0
5.060000 5.280000 4.840000 207 107 92 0
5.280000 5.280000 5.060000 207 107 92 0
5.500000 5.280000 6.380000 206 106 91 0
5.720000 5.280000 6.380000 209 105 91 0
5.940000 5.280000 6.380000 207 103 89 0
6.160000 5.280000 7.920000 205 102 88 0
6.380000 5.280000 7.920000 206 103 89 0
6.600000 5.280000 7.920000 207 103 89 0
6.820000 5.280000 9.240000 207 103 89 0
7.040000 5.280000 9.240000 207 100 87 0
7.260000 5.280000 9.460000 207 100 87 0
7.480000 5.280000 9.460000 207 100 85 0
7.700000 5.280000 9.460000 206 99 84 0
7.920000 5.280000 9.680000 207 100 85 0
8.140000 5.280000 9.680000 205 98 83 0
8.360000 5.280000 11.000000 206 97 85 0
8.580000 5.280000 11.880000 205 96 84 0
8.800000 5.280000 12.760000 204 95 83 0
9.020000 5.280000 13.860000 204 95 83 0
9.240000 5.280000 13.860000 204 96 81 0
9.460000 5.280000 13.860000 205 97 82 0
9.680000 5.280000 13.860000 205 97 82 0
9.900000 5.280000 14.080000 204 96 81 0
10.120000 5.280000 14.080000 203 94 82 0
10.340000 5.280000 14.080000 204 95 83 0
10.560000 5.280000 12.760000 203 94 82 0
10.780000 5.280000 12.760000 204 95 83 0
11.000000 5.280000 12.980000 205 97 82 0
11.220000 5.280000 12.980000 205 97 82 0
11.440000 5.280000 13.200000 204 96 81 0
11.660000 5.280000 13.200000 204 96 81 0
11.880000 5.280000 13.200000 205 95 81 0
12.100000 5.280000 14.740000 205 95 81 0
12.320000 5.280000 14.960000 205 95 83 0
12.540000 5.280000 16.500000 205 95 83 0
12.760000 5.280000 16.500000 206 96 84 0
12.980000 5.280000 16.500000 205 95 83 0
13.200000 5.280000 17.820000 205 95 81 0
13.420000 5.280000 18.920000 205 95 81 0
13.640000 5.280000 21.120000 205 95 81 0
13.860000 5.280000 22.220000 205 95 81 0
14.080000 5.280000 22.220000 205 95 83 0
14.300000 5.280000 22.220000 204 94 82 0
14.520000 5.280000 23.540000 204 94 82 0
14.740000 5.280000 23.540000 203 93 81 0
14.960000 5.280000 25.080000 204 94 82 0
15.180000 5.280000 25.080000 204 94 82 0
15.400000 5.280000 25.080000 204 94 82 0
15.620000 5.280000 25.080000 204 94 82 0
15.840000 5.280000 25.300000 203 93 81 0
16.060000 5.280000 25.520000 204 94 82 0
16.280000 5.280000 25.520000 203 93 81 0
16.500000 5.280000 25.740000 203 93 81 0
16.720000 5.280000 25.740000 204 94 82 0
16.940000 5.280000 25.740000 203 93 81 0
17.160000 5.280000 25.960000 202 92 80 0
17.380000 5.280000 25.960000 202 92 80 0
17.600000 5.280000 26.180000 202 92 80 0
17.820000 5.280000 26.180000 202 92 80 0
18.040000 5.280000 27.280000 201 91 79 0
18.260000 5.280000 28.160000 201 91 79 0
18.480000 5.280000 29.040000 202 92 80 0
18.700000 5.280000 30.360000 201 91 79 0
18.920000 5.280000 30.360000 202 92 80 0
19.140000 5.280000 30.580000 203 93 81 0
19.360000 5.280000 29.700000 203 93 81 0
19.580000 5.280000 28.380000 203 93 81 0
19.800000 5.280000 28.600000 202 91 82 0
20.020000 5.280000 28.600000 202 91 82 0
20.240000 5.280000 29.480000 202 93 81 0
20.460000 5.280000 29.700000 203 94 82 0
20.680000 5.280000 29.920000 202 93 81 0
20.900000 5.280000 31.460000 203 94 82 0
21.120000 5.280000 34.320000 201 98 88 0
21.340000 5.280000 35.640000 208 105 95 0
21.560000 5.280000 23.320000 208 115 102 0
21.780000 5.280000 8.140000 206 113 100 0
22.000000 5.280000 5.280000 214 105 95 0
22.220000 5.280000 3.080000 205 96 86 0
22.440000 5.280000 2.860000 200 91 81 0
22.660000 5.280000 2.860000 201 92 82 0
22.880000 5.280000 4.400000 200 91 81 0
23.100000 5.280000 5.720000 201 92 82 0
23.320000 5.280000 5.720000 203 94 84 0
23.540000 5.280000 3.080000 205 96 86 0
23.760000 5.280000 3.080000 203 96 85 0
23.980000 5.280000 3.300000 201 94 83 0
24.200000 5.280000 7.480000 199 90 80 0
24.420000 5.280000 7.480000 198 89 79 0
24.640000 5.280000 7.260000 197 88 78 0
24.860000 5.280000 8.580000 196 87 77 0
25.080000 5.280000 15.620000 197 88 80 0
25.300000 5.280000 20.020000 198 89 81 0
25.520000 5.280000 13.200000 191 96 85 0
25.740000 5.280000 6.160000 201 106 95 0
25.960000 5.280000 5.940000 196 119 106 0
26.180000 5.280000 7.260000 204 127 114 0
26.400000 5.280000 10.120000 213 150 138 0
26.620000 5.280000 12.980000 217 154 142 0
26.840000 5.280000 15.840000 220 141 131 0
27.060000 5.280000 18.700000 210 131 121 0
27.280000 5.280000 21.560000 196 88 80 0
27.500000 5.280000 23.100000 180 72 64 0
27.720000 5.280000 24.420000 178 69 61 0
27.940000 5.280000 27.280000 177 68 60 0
28.160000 5.280000 29.920000 175 68 57 0
28.380000 5.280000 32.560000 175 68 57 0
28.600000 5.280000 33.880000 176 67 59 0
28.820000 5.280000 34.100000 174 65 57 0
29.040000 5.280000 25.960000 173 64 56 0
29.260000 5.280000 12.100000 175 66 58 0
29.480000 5.280000 6.160000 175 66 58 0
29.700000 5.280000 7.260000 175 66 58 0
29.920000 5.280000 7.040000 175 70 61 0
30.140000 5.280000 4.400000 177 72 63 0
30.360000 5.280000 3.080000 179 74 63 0
30.580000 5.280000 3.080000 181 76 65 0
30.800000 5.280000 1.760000 182 82 71 0
31.020000 5.280000 1.760000 182 82 71 0
31.240000 5.280000 0.440000 181 83 75 0
31.460000 5.280000 0.660000 187 89 81 0
31.680000 5.280000 2.200000 187 94 82 0
31.900000 5.280000 3.520000 187 94 82 0
32.120000 5.280000 3.740000 190 87 75 0
32.340000 5.280000 5.060000 182 79 67 0
32.560000 5.280000 6.600000 178 69 59 0
32.780000 5.280000 7.920000 175 66 56 0
33.000000 5.280000 7.920000 170 63 52 0
33.220000 5.280000 8.140000 169 62 51 0
33.440000 5.280000 8.140000 169 62 49 0
33.660000 5.280000 5.500000 169 62 49 0
33.880000 5.280000 4.180000 168 63 52 0
34.100000 5.280000 4.180000 167 62 51 0
34.320000 5.280000 4.180000 169 62 51 0
34.540000 5.280000 5.500000 170 63 52 0
34.760000 5.280000 5.500000 167 63 49 0
34.980000 5.280000 5.280000 166 62 48 0
35.200000 5.280000 6.160000 167 63 49 0
35.420000 5.280000 7.040000 167 63 49 0
35.640000 5.280000 8.360000 166 62 48 0
35.860000 5.280000 8.580000 166 62 48 0
36.080000 5.280000 7.700000 166 61 50 0
36.300000 5.280000 7.920000 166 61 50 0
36.520000 5.280000 7.700000 165 62 48 0
36.740000 5.280000 8.800000 166 63 49 0
36.960000 5.280000 9.900000 165 62 48 0
37.180000 5.280000 10.120000 166 63 49 0
