ply
format ascii 1.0
element vertex 1121
property float x
property float y
property float z
property uchar red
property uchar green
property uchar blue
property uchar alpha
end_header
24.860000 9.240000 19.250000 145 148 160 0
25.080000 9.240000 19.250000 143 146 158 0
25.300000 9.240000 19.910000 144 147 157 0
25.520000 9.240000 19.910000 143 146 156 0
25.740000 9.240000 19.910000 142 144 154 0
25.960000 9.240000 19.250000 142 144 154 0
26.180000 9.240000 19.250000 143 142 151 0
26.400000 9.240000 19.250000 143 142 151 0
26.620000 9.240000 19.250000 142 140 148 0
26.840000 9.240000 19.250000 142 140 148 0
27.060000 9.240000 19.250000 143 139 148 0
27.280000 9.240000 19.250000 142 138 147 0
27.500000 9.240000 19.250000 144 138 145 0
27.720000 9.240000 19.250000 142 136 143 0
27.940000 9.240000 18.590000 145 135 141 0
28.160000 9.240000 13.090000 145 135 141 0
28.380000 9.240000 6.820000 144 134 138 0
28.600000 9.240000 8.250000 143 133 137 0
28.820000 9.240000 15.840000 143 133 137 0
29.040000 9.240000 19.360000 142 132 136 0
29.260000 9.240000 19.360000 142 129 133 0
29.480000 9.240000 19.360000 142 129 133 0
29.700000 9.240000 19.360000 142 129 133 0
29.920000 9.240000 19.360000 143 130 134 0
30.140000 9.240000 19.360000 145 130 130 0
30.360000 9.240000 20.020000 144 129 129 0
30.580000 9.240000 20.020000 143 128 128 0
30.800000 9.240000 20.020000 141 126 126 0
31.020000 9.240000 15.840000 141 125 123 0
31.240000 9.240000 7.590000 141 125 123 0
31.460000 9.240000 2.090000 143 124 123 0
31.680000 9.240000 1.320000 142 123 122 0
31.900000 9.240000 1.320000 142 122 119 0
32.120000 9.240000 1.760000 142 122 119 0
32.340000 9.240000 2.200000 141 120 120 0
32.560000 9.240000 2.750000 141 120 120 0
32.780000 9.240000 2.860000 140 120 117 0
33.000000 9.240000 4.290000 142 122 119 0
33.220000 9.240000 5.610000 141 121 117 0
33.440000 9.240000 6.270000 142 122 118 0
33.660000 9.240000 6.930000 142 121 115 0
33.880000 9.240000 7.040000 141 120 114 0
34.100000 9.240000 7.150000 139 119 116 0
34.320000 9.240000 7.150000 140 120 117 0
34.540000 9.240000 7.260000 141 119 116 0
34.760000 9.240000 7.260000 140 118 115 0
34.980000 9.240000 7.260000 140 118 115 0
35.200000 9.240000 7.150000 141 119 116 0
35.420000 9.240000 7.150000 144 120 115 0
35.640000 9.240000 6.490000 144 120 115 0
35.860000 9.240000 6.600000 142 121 115 0
36.080000 9.240000 8.030000 143 122 116 0
36.300000 9.240000 9.460000 151 123 117 0
36.520000 9.240000 10.120000 153 125 119 0
36.740000 9.240000 10.120000 161 126 128 0
36.960000 9.240000 10.890000 167 132 134 0
37.180000 9.240000 11.550000 176 137 137 0
0.000000 9.460000 7.480000 207 227 233 0
0.220000 9.460000 3.300000 206 226 232 0
1.320000 9.460000 2.750000 206 226 232 0
1.540000 9.460000 8.250000 204 227 232 0
1.760000 9.460000 6.050000 203 226 231 0
1.980000 9.460000 1.540000 205 225 231 0
2.200000 9.460000 0.770000 205 225 231 0
2.420000 9.460000 0.770000 205 225 231 0
2.640000 9.460000 0.770000 205 225 231 0
2.860000 9.460000 0.770000 204 224 230 0
3.080000 9.460000 0.770000 204 224 230 0
3.300000 9.460000 0.880000 202 225 230 0
3.520000 9.460000 0.880000 203 226 231 0
3.740000 9.460000 0.880000 203 223 229 0
3.960000 9.460000 1.650000 203 223 229 0
4.180000 9.460000 1.650000 203 223 229 0
4.400000 9.460000 1.650000 203 223 229 0
4.620000 9.460000 1.760000 203 223 229 0
4.840000 9.460000 1.760000 203 223 229 0
5.060000 9.460000 2.420000 201 223 231 0
5.280000 9.460000 2.530000 202 224 232 0
5.500000 9.460000 2.530000 203 226 231 0
5.720000 9.460000 2.530000 204 227 232 0
5.940000 9.460000 2.530000 205 228 233 0
6.160000 9.460000 2.640000 205 228 233 0
6.380000 9.460000 3.300000 205 227 235 0
6.600000 9.460000 3.300000 206 228 236 0
6.820000 9.460000 3.410000 205 229 236 0
7.040000 9.460000 4.070000 206 230 237 0
7.260000 9.460000 4.070000 206 230 235 0
7.480000 9.460000 4.620000 208 232 237 0
7.700000 9.460000 5.060000 209 233 238 0
7.920000 9.460000 5.610000 207 231 236 0
8.140000 9.460000 5.610000 207 231 236 0
8.360000 9.460000 5.610000 208 232 237 0
8.580000 9.460000 5.610000 208 232 237 0
8.800000 9.460000 5.610000 208 232 237 0
9.020000 9.460000 6.380000 207 231 236 0
9.240000 9.460000 5.720000 208 232 237 0
9.460000 9.460000 5.720000 207 231 238 0
9.680000 9.460000 5.830000 207 231 238 0
9.900000 9.460000 6.490000 208 232 237 0
10.120000 9.460000 6.490000 208 232 237 0
10.340000 9.460000 7.260000 205 232 238 0
10.560000 9.460000 7.260000 205 232 238 0
10.780000 9.460000 7.260000 207 231 236 0
11.000000 9.460000 7.260000 207 231 236 0
11.220000 9.460000 7.370000 205 232 238 0
11.440000 9.460000 7.370000 205 232 238 0
11.660000 9.460000 7.370000 207 231 238 0
11.880000 9.460000 7.480000 206 230 237 0
12.100000 9.460000 8.140000 204 231 237 0
12.320000 9.460000 8.140000 203 230 236 0
12.540000 9.460000 8.910000 202 228 236 0
12.760000 9.460000 8.910000 202 228 236 0
12.980000 9.460000 9.680000 202 228 236 0
13.200000 9.460000 9.460000 201 227 235 0
13.420000 9.460000 10.560000 200 226 236 0
13.640000 9.460000 11.110000 199 225 235 0
13.860000 9.460000 11.110000 198 224 234 0
14.080000 9.460000 11.110000 197 223 233 0
14.300000 9.460000 11.880000 194 221 235 0
14.520000 9.460000 11.880000 192 219 233 0
14.740000 9.460000 11.880000 187 213 231 0
14.960000 9.460000 11.990000 182 208 226 0
15.180000 9.460000 11.990000 174 207 221 0
15.400000 9.460000 11.990000 168 201 215 0
15.620000 9.460000 12.760000 170 198 214 0
15.840000 9.460000 12.760000 166 194 210 0
16.060000 9.460000 12.100000 162 193 208 0
16.280000 9.460000 12.100000 160 191 206 0
16.500000 9.460000 12.100000 157 188 204 0
16.720000 9.460000 12.760000 155 186 202 0
16.940000 9.460000 12.760000 157 185 202 0
17.160000 9.460000 12.870000 156 184 201 0
17.380000 9.460000 12.210000 154 182 201 0
17.600000 9.460000 12.210000 153 181 200 0
17.820000 9.460000 12.210000 153 181 200 0
18.040000 9.460000 12.320000 152 180 199 0
18.260000 9.460000 12.320000 152 180 199 0
18.480000 9.460000 11.660000 151 179 198 0
18.700000 9.460000 10.890000 150 176 196 0
18.920000 9.460000 10.230000 148 174 194 0
19.140000 9.460000 10.230000 147 173 193 0
19.360000 9.460000 10.230000 147 173 193 0
19.580000 9.460000 10.230000 146 171 189 0
19.800000 9.460000 10.230000 146 171 189 0
20.020000 9.460000 9.570000 147 169 188 0
20.240000 9.460000 9.570000 148 170 189 0
20.460000 9.460000 9.460000 147 167 186 0
20.680000 9.460000 10.890000 147 167 186 0
20.900000 9.460000 12.980000 149 167 184 0
21.120000 9.460000 14.300000 147 165 182 0
21.340000 9.460000 14.960000 149 164 180 0
21.560000 9.460000 15.730000 147 162 178 0
21.780000 9.460000 16.390000 147 163 174 0
22.000000 9.460000 17.160000 145 161 172 0
22.220000 9.460000 17.820000 150 159 172 0
22.440000 9.460000 17.820000 148 157 170 0
22.660000 9.460000 17.160000 148 157 169 0
22.880000 9.460000 17.820000 147 156 168 0
23.100000 9.460000 18.480000 148 156 166 0
23.320000 9.460000 18.480000 147 155 165 0
23.540000 9.460000 19.250000 148 154 165 0
23.760000 9.460000 19.140000 146 152 163 0
23.980000 9.460000 19.140000 144 151 164 0
24.200000 9.460000 19.140000 144 151 164 0
24.420000 9.460000 19.140000 143 151 161 0
24.640000 9.460000 19.250000 143 151 161 0
24.860000 9.460000 19.250000 145 148 160 0
25.080000 9.460000 19.250000 144 147 159 0
25.300000 9.460000 19.910000 143 146 156 0
25.520000 9.460000 19.910000 143 146 156 0
25.740000 9.460000 19.910000 142 144 154 0
25.960000 9.460000 20.020000 141 143 153 0
26.180000 9.460000 19.250000 143 142 151 0
26.400000 9.460000 19.250000 143 142 151 0
26.620000 9.460000 19.250000 143 141 149 0
26.840000 9.460000 19.250000 142 140 148 0
27.060000 9.460000 19.910000 142 138 147 0
27.280000 9.460000 19.250000 141 137 146 0
27.500000 9.460000 19.250000 143 137 144 0
27.720000 9.460000 19.250000 142 136 143 0
27.940000 9.460000 15.840000 144 134 140 0
28.160000 9.460000 6.820000 144 134 140 0
28.600000 9.460000 2.750000 143 133 137 0
28.820000 9.460000 10.340000 143 133 137 0
29.040000 9.460000 14.520000 142 132 136 0
29.260000 9.460000 15.840000 143 130 134 0
29.480000 9.460000 18.590000 143 130 134 0
29.700000 9.460000 18.590000 142 129 133 0
29.920000 9.460000 15.840000 143 130 134 0
30.140000 9.460000 14.520000 144 129 129 0
30.360000 9.460000 15.840000 144 129 129 0
30.580000 9.460000 17.270000 144 129 129 0
30.800000 9.460000 15.840000 143 128 128 0
31.020000 9.460000 11.000000 142 126 124 0
31.240000 9.460000 4.070000 140 124 122 0
31.460000 9.460000 1.320000 142 123 122 0
31.680000 9.460000 2.090000 142 123 122 0
31.900000 9.460000 2.090000 142 122 119 0
32.120000 9.460000 1.980000 142 122 119 0
32.340000 9.460000 2.420000 142 121 121 0
32.560000 9.460000 2.860000 141 120 120 0
32.780000 9.460000 3.630000 141 121 118 0
33.000000 9.460000 4.400000 141 121 118 0
33.220000 9.460000 5.720000 141 121 117 0
33.440000 9.460000 6.930000 141 121 117 0
33.660000 9.460000 7.040000 142 121 115 0
33.880000 9.460000 6.600000 142 121 115 0
34.100000 9.460000 6.710000 140 120 117 0
34.320000 9.460000 6.600000 140 120 117 0
34.540000 9.460000 6.600000 141 119 116 0
34.760000 9.460000 6.600000 141 119 116 0
34.980000 9.460000 6.600000 140 118 115 0
35.200000 9.460000 6.600000 141 119 116 0
35.420000 9.460000 6.600000 142 118 113 0
35.640000 9.460000 6.600000 144 120 115 0
35.860000 9.460000 6.600000 144 123 117 0
36.080000 9.460000 8.030000 147 126 120 0
36.300000 9.460000 10.120000 155 127 121 0
36.520000 9.460000 10.890000 162 134 128 0
36.740000 9.460000 10.890000 171 136 138 0
36.960000 9.460000 10.890000 176 141 143 0
37.180000 9.460000 11.550000 181 142 142 0
0.000000 9.680000 10.230000 208 225 230 0
0.220000 9.680000 4.730000 206 224 229 0
1.540000 9.680000 1.320000 206 224 231 0
1.760000 9.680000 0.550000 206 224 231 0
1.980000 9.680000 1.540000 206 224 229 0
2.200000 9.680000 2.750000 206 224 229 0
2.420000 9.680000 1.430000 206 224 229 0
2.640000 9.680000 0.110000 205 223 228 0
2.860000 9.680000 0.770000 205 223 230 0
3.080000 9.680000 0.770000 204 222 229 0
3.300000 9.680000 0.880000 204 222 229 0
3.520000 9.680000 0.880000 205 223 230 0
3.740000 9.680000 0.990000 204 224 230 0
3.960000 9.680000 0.990000 203 223 229 0
4.180000 9.680000 1.650000 203 223 229 0
4.400000 9.680000 1.760000 202 222 228 0
4.620000 9.680000 1.760000 201 223 231 0
4.840000 9.680000 1.760000 200 222 230 0
5.060000 9.680000 1.760000 203 223 229 0
5.280000 9.680000 1.760000 202 222 228 0
5.500000 9.680000 1.870000 203 223 229 0
5.720000 9.680000 1.870000 203 223 229 0
5.940000 9.680000 1.870000 203 223 229 0
6.160000 9.680000 1.980000 203 223 229 0
6.380000 9.680000 1.980000 201 223 231 0
6.600000 9.680000 2.640000 201 223 231 0
6.820000 9.680000 2.640000 203 225 233 0
7.040000 9.680000 2.750000 203 225 233 0
7.260000 9.680000 3.410000 204 226 234 0
7.480000 9.680000 3.850000 204 226 234 0
7.700000 9.680000 4.290000 206 228 236 0
7.920000 9.680000 4.840000 208 230 238 0
8.140000 9.680000 4.950000 205 227 236 0
8.360000 9.680000 4.950000 206 228 237 0
8.580000 9.680000 4.950000 207 231 238 0
8.800000 9.680000 4.950000 207 231 238 0
9.020000 9.680000 4.950000 206 230 237 0
9.240000 9.680000 5.060000 207 231 238 0
9.460000 9.680000 5.060000 207 231 238 0
9.680000 9.680000 5.830000 206 230 237 0
9.900000 9.680000 5.830000 207 231 239 0
10.120000 9.680000 6.490000 206 230 238 0
10.340000 9.680000 7.260000 204 231 237 0
10.560000 9.680000 7.260000 204 231 237 0
10.780000 9.680000 7.260000 205 232 238 0
11.000000 9.680000 7.260000 205 232 238 0
11.220000 9.680000 7.370000 207 231 239 0
11.440000 9.680000 7.370000 206 230 238 0
11.660000 9.680000 7.370000 207 231 239 0
11.880000 9.680000 8.140000 207 231 239 0
12.100000 9.680000 8.140000 203 229 237 0
12.320000 9.680000 8.140000 202 228 236 0
12.540000 9.680000 8.910000 201 227 235 0
12.760000 9.680000 8.910000 201 227 235 0
12.980000 9.680000 9.680000 200 226 234 0
13.200000 9.680000 10.230000 199 225 233 0
13.420000 9.680000 10.560000 199 225 237 0
13.640000 9.680000 11.110000 198 224 236 0
13.860000 9.680000 11.110000 195 220 235 0
14.080000 9.680000 11.880000 193 218 233 0
14.300000 9.680000 11.880000 186 216 235 0
14.520000 9.680000 11.880000 183 213 232 0
14.740000 9.680000 11.880000 177 208 224 0
14.960000 9.680000 11.990000 173 204 220 0
15.180000 9.680000 11.990000 169 200 216 0
15.400000 9.680000 11.990000 166 197 213 0
15.620000 9.680000 11.990000 165 193 210 0
15.840000 9.680000 12.760000 161 189 206 0
16.060000 9.680000 12.100000 158 189 205 0
16.280000 9.680000 12.100000 157 188 204 0
16.500000 9.680000 12.100000 157 185 202 0
16.720000 9.680000 12.100000 156 184 201 0
16.940000 9.680000 12.100000 154 182 201 0
17.160000 9.680000 12.100000 153 181 200 0
17.380000 9.680000 11.440000 152 180 199 0
17.600000 9.680000 11.550000 152 180 199 0
17.820000 9.680000 11.550000 152 180 199 0
18.040000 9.680000 11.550000 151 179 198 0
18.260000 9.680000 11.550000 148 178 197 0
18.480000 9.680000 11.550000 147 177 196 0
18.700000 9.680000 10.230000 148 174 194 0
18.920000 9.680000 10.230000 148 174 194 0
19.140000 9.680000 10.230000 147 171 192 0
19.360000 9.680000 10.230000 145 169 190 0
19.580000 9.680000 10.230000 148 170 189 0
19.800000 9.680000 9.570000 148 170 189 0
20.020000 9.680000 9.570000 144 170 190 0
20.240000 9.680000 9.570000 143 169 189 0
20.460000 9.680000 9.460000 146 166 185 0
20.680000 9.680000 8.800000 147 167 186 0
20.900000 9.680000 10.120000 147 167 187 0
21.120000 9.680000 12.980000 147 167 187 0
21.340000 9.680000 14.300000 148 164 182 0
21.560000 9.680000 15.730000 147 163 181 0
21.780000 9.680000 16.390000 149 160 173 0
22.000000 9.680000 17.160000 148 159 172 0
22.220000 9.680000 17.820000 146 157 170 0
22.440000 9.680000 17.820000 146 157 170 0
22.660000 9.680000 17.160000 147 156 169 0
22.880000 9.680000 17.820000 146 155 168 0
23.100000 9.680000 18.480000 146 153 166 0
23.320000 9.680000 18.480000 146 153 166 0
23.540000 9.680000 18.480000 145 154 166 0
23.760000 9.680000 19.250000 145 154 166 0
23.980000 9.680000 19.140000 144 153 165 0
24.200000 9.680000 19.140000 143 152 164 0
24.420000 9.680000 19.250000 144 151 164 0
24.640000 9.680000 19.250000 143 150 163 0
24.860000 9.680000 19.250000 144 149 163 0
25.080000 9.680000 19.910000 142 147 161 0
25.300000 9.680000 19.910000 145 144 155 0
25.520000 9.680000 19.910000 145 144 155 0
25.740000 9.680000 19.910000 143 145 155 0
25.960000 9.680000 19.910000 141 143 153 0
26.180000 9.680000 20.020000 144 142 151 0
26.400000 9.680000 19.250000 143 141 150 0
26.620000 9.680000 19.250000 143 141 150 0
26.840000 9.680000 19.250000 141 139 148 0
27.060000 9.680000 20.020000 141 137 147 0
27.280000 9.680000 19.910000 140 136 146 0
27.500000 9.680000 19.250000 144 136 144 0
27.720000 9.680000 19.250000 143 135 143 0
27.940000 9.680000 14.410000 143 136 141 0
28.160000 9.680000 4.070000 141 134 139 0
28.600000 9.680000 0.660000 143 133 139 0
28.820000 9.680000 2.750000 143 133 137 0
29.040000 9.680000 4.180000 142 132 136 0
29.260000 9.680000 6.820000 144 129 131 0
29.480000 9.680000 12.870000 145 130 132 0
29.700000 9.680000 12.210000 141 128 132 0
29.920000 9.680000 6.820000 142 129 133 0
30.140000 9.680000 4.180000 143 128 128 0
30.360000 9.680000 8.250000 143 128 128 0
30.580000 9.680000 11.770000 142 127 127 0
30.800000 9.680000 8.250000 141 126 126 0
31.020000 9.680000 3.410000 144 124 121 0
31.240000 9.680000 1.980000 145 125 122 0
31.460000 9.680000 2.090000 143 123 120 0
31.680000 9.680000 2.750000 143 123 120 0
31.900000 9.680000 2.750000 142 123 122 0
32.120000 9.680000 2.750000 141 122 121 0
32.340000 9.680000 2.640000 142 122 119 0
32.560000 9.680000 3.850000 140 120 117 0
32.780000 9.680000 4.510000 141 119 116 0
33.000000 9.680000 5.280000 142 120 117 0
33.220000 9.680000 5.720000 142 120 117 0
33.440000 9.680000 6.380000 141 119 116 0
33.660000 9.680000 6.490000 142 120 117 0
33.880000 9.680000 6.050000 142 120 117 0
34.100000 9.680000 6.050000 141 119 116 0
34.320000 9.680000 6.600000 141 119 116 0
34.540000 9.680000 6.600000 142 118 113 0
34.760000 9.680000 6.600000 143 119 114 0
34.980000 9.680000 6.600000 143 119 114 0
35.200000 9.680000 5.940000 142 118 113 0
35.420000 9.680000 5.940000 148 119 116 0
35.640000 9.680000 5.170000 150 121 118 0
35.860000 9.680000 5.280000 159 124 125 0
36.080000 9.680000 7.370000 164 129 130 0
36.300000 9.680000 10.230000 171 134 136 0
36.520000 9.680000 11.550000 175 138 140 0
36.740000 9.680000 11.550000 180 141 143 0
36.960000 9.680000 11.550000 183 144 146 0
37.180000 9.680000 11.660000 183 141 140 0
0.000000 9.900000 9.570000 208 225 230 0
0.220000 9.900000 4.730000 205 223 228 0
1.320000 9.900000 1.320000 205 225 231 0
1.980000 9.900000 4.290000 205 223 228 0
2.200000 9.900000 9.680000 205 223 228 0
2.420000 9.900000 6.930000 204 222 227 0
2.640000 9.900000 1.430000 204 222 227 0
2.860000 9.900000 0.110000 204 222 229 0
3.080000 9.900000 0.770000 204 222 229 0
3.300000 9.900000 0.880000 204 222 229 0
3.520000 9.900000 0.880000 205 223 230 0
3.740000 9.900000 0.990000 203 223 229 0
3.960000 9.900000 0.990000 202 222 228 0
4.180000 9.900000 1.650000 203 223 229 0
4.400000 9.900000 1.760000 202 222 228 0
4.620000 9.900000 1.760000 201 223 231 0
4.840000 9.900000 1.760000 201 223 231 0
5.060000 9.900000 1.760000 202 222 228 0
5.280000 9.900000 1.760000 203 223 229 0
5.500000 9.900000 1.100000 202 222 228 0
5.720000 9.900000 1.210000 201 221 227 0
5.940000 9.900000 1.210000 202 222 228 0
6.160000 9.900000 1.210000 202 222 228 0
6.380000 9.900000 1.320000 200 222 230 0
6.600000 9.900000 1.980000 199 221 229 0
6.820000 9.900000 1.980000 199 221 229 0
7.040000 9.900000 1.980000 200 222 230 0
7.260000 9.900000 2.640000 202 224 232 0
7.480000 9.900000 3.080000 201 223 231 0
7.700000 9.900000 3.520000 202 224 232 0
7.920000 9.900000 4.180000 203 225 233 0
8.140000 9.900000 4.180000 202 224 233 0
8.360000 9.900000 4.290000 201 223 232 0
8.580000 9.900000 4.290000 201 225 232 0
8.800000 9.900000 4.290000 202 226 233 0
9.020000 9.900000 4.290000 202 226 233 0
9.240000 9.900000 4.290000 202 226 233 0
9.460000 9.900000 4.400000 203 227 234 0
9.680000 9.900000 4.400000 204 228 235 0
9.900000 9.900000 5.170000 203 227 235 0
10.120000 9.900000 5.830000 203 227 235 0
10.340000 9.900000 6.600000 204 231 237 0
10.560000 9.900000 7.260000 205 232 238 0
10.780000 9.900000 7.260000 203 230 236 0
11.000000 9.900000 7.260000 205 232 238 0
11.220000 9.900000 7.370000 205 229 237 0
11.440000 9.900000 8.030000 206 230 238 0
11.660000 9.900000 8.140000 206 230 238 0
11.880000 9.900000 8.140000 204 228 236 0
12.100000 9.900000 8.140000 202 228 236 0
12.320000 9.900000 8.140000 202 228 236 0
12.540000 9.900000 8.910000 201 227 235 0
12.760000 9.900000 8.910000 200 226 234 0
12.980000 9.900000 9.680000 199 225 233 0
13.200000 9.900000 10.230000 199 225 233 0
13.420000 9.900000 10.560000 197 223 235 0
13.640000 9.900000 11.110000 196 222 234 0
13.860000 9.900000 11.110000 191 216 231 0
14.080000 9.900000 11.880000 187 212 227 0
14.300000 9.900000 11.880000 181 211 230 0
14.520000 9.900000 11.880000 176 206 225 0
14.740000 9.900000 11.880000 172 203 219 0
14.960000 9.900000 11.990000 168 199 215 0
15.180000 9.900000 11.990000 165 196 212 0
15.400000 9.900000 11.990000 161 192 208 0
15.620000 9.900000 11.990000 161 189 206 0
15.840000 9.900000 11.990000 159 187 204 0
16.060000 9.900000 11.990000 156 187 203 0
16.280000 9.900000 12.100000 155 186 202 0
16.500000 9.900000 12.100000 156 184 201 0
16.720000 9.900000 12.100000 154 182 199 0
16.940000 9.900000 12.100000 153 181 200 0
17.160000 9.900000 11.440000 152 180 199 0
17.380000 9.900000 11.440000 152 180 199 0
17.600000 9.900000 11.550000 151 179 198 0
17.820000 9.900000 11.550000 151 179 198 0
18.040000 9.900000 11.550000 151 179 198 0
18.260000 9.900000 10.890000 145 175 194 0
18.480000 9.900000 10.890000 146 176 195 0
18.700000 9.900000 10.230000 149 175 195 0
18.920000 9.900000 9.570000 146 172 192 0
19.140000 9.900000 9.570000 147 171 192 0
19.360000 9.900000 9.570000 146 170 191 0
19.580000 9.900000 9.570000 147 169 188 0
19.800000 9.900000 9.570000 147 169 188 0
20.020000 9.900000 9.570000 145 171 191 0
20.240000 9.900000 10.230000 144 170 190 0
20.460000 9.900000 9.570000 146 166 185 0
20.680000 9.900000 8.800000 147 167 186 0
20.900000 9.900000 9.460000 148 168 188 0
21.120000 9.900000 12.210000 145 165 185 0
21.340000 9.900000 14.300000 148 164 182 0
21.560000 9.900000 15.730000 145 161 179 0
21.780000 9.900000 16.390000 149 160 173 0
22.000000 9.900000 17.820000 148 159 172 0
22.220000 9.900000 17.820000 146 157 170 0
22.440000 9.900000 17.820000 146 157 170 0
22.660000 9.900000 17.820000 148 157 170 0
22.880000 9.900000 17.820000 147 156 169 0
23.100000 9.900000 18.480000 147 154 167 0
23.320000 9.900000 18.480000 146 153 166 0
23.540000 9.900000 18.480000 145 154 166 0
23.760000 9.900000 19.250000 144 153 165 0
23.980000 9.900000 19.250000 145 154 166 0
24.200000 9.900000 19.250000 143 152 164 0
24.420000 9.900000 19.910000 143 150 163 0
24.640000 9.900000 19.910000 143 150 163 0
24.860000 9.900000 19.910000 143 148 162 0
25.080000 9.900000 19.910000 142 147 161 0
25.300000 9.900000 19.910000 145 144 155 0
25.520000 9.900000 19.910000 144 143 154 0
25.740000 9.900000 19.910000 142 144 154 0
25.960000 9.900000 19.910000 141 143 153 0
26.180000 9.900000 20.020000 144 142 151 0
26.400000 9.900000 19.250000 143 141 150 0
26.620000 9.900000 19.360000 143 141 150 0
26.840000 9.900000 20.020000 141 139 148 0
27.060000 9.900000 20.020000 142 138 148 0
27.280000 9.900000 20.020000 141 137 147 0
27.500000 9.900000 19.250000 145 137 145 0
27.720000 9.900000 19.250000 143 135 143 0
27.940000 9.900000 14.410000 143 136 141 0
28.160000 9.900000 4.070000 141 134 139 0
29.260000 9.900000 0.550000 144 129 131 0
29.480000 9.900000 3.630000 144 129 131 0
29.700000 9.900000 3.740000 142 129 133 0
29.920000 9.900000 0.550000 141 128 132 0
30.360000 9.900000 3.410000 142 127 127 0
30.580000 9.900000 7.480000 141 126 126 0
30.800000 9.900000 3.410000 141 126 126 0
31.020000 9.900000 0.660000 145 125 122 0
31.240000 9.900000 1.980000 144 124 121 0
31.460000 9.900000 2.750000 144 124 121 0
31.680000 9.900000 3.410000 143 123 120 0
31.900000 9.900000 3.410000 141 122 121 0
32.120000 9.900000 3.410000 141 122 121 0
32.340000 9.900000 4.180000 143 123 120 0
32.560000 9.900000 4.730000 142 122 119 0
32.780000 9.900000 4.620000 142 120 117 0
33.000000 9.900000 5.280000 143 121 118 0
33.220000 9.900000 5.830000 143 121 118 0
33.440000 9.900000 6.490000 141 119 116 0
33.660000 9.900000 6.600000 141 119 116 0
33.880000 9.900000 5.940000 142 120 117 0
34.100000 9.900000 6.600000 142 120 117 0
34.320000 9.900000 7.150000 141 119 116 0
34.540000 9.900000 7.040000 143 119 114 0
34.760000 9.900000 6.490000 144 120 115 0
34.980000 9.900000 5.830000 144 120 115 0
35.200000 9.900000 5.830000 144 120 115 0
35.420000 9.900000 5.170000 152 123 120 0
35.640000 9.900000 4.510000 159 130 127 0
35.860000 9.900000 4.510000 168 133 134 0
36.080000 9.900000 6.710000 173 138 139 0
36.300000 9.900000 10.890000 179 142 144 0
36.520000 9.900000 12.320000 181 144 146 0
36.740000 9.900000 11.550000 182 143 145 0
36.960000 9.900000 11.550000 181 142 144 0
37.180000 9.900000 11.550000 183 141 140 0
0.000000 10.120000 9.570000 207 224 227 0
0.220000 10.120000 4.730000 205 223 228 0
1.100000 10.120000 2.640000 207 224 227 0
1.320000 10.120000 8.250000 206 223 226 0
1.540000 10.120000 5.500000 208 222 226 0
1.760000 10.120000 0.550000 209 223 227 0
1.980000 10.120000 5.720000 206 223 228 0
2.200000 10.120000 14.520000 206 223 228 0
2.420000 10.120000 13.200000 204 221 224 0
2.640000 10.120000 4.290000 205 222 225 0
2.860000 10.120000 0.110000 204 221 226 0
3.080000 10.120000 0.110000 204 221 226 0
3.300000 10.120000 0.110000 205 222 225 0
3.520000 10.120000 0.880000 204 221 224 0
3.740000 10.120000 0.990000 204 221 226 0
3.960000 10.120000 0.990000 205 222 227 0
4.180000 10.120000 1.650000 203 220 225 0
4.400000 10.120000 1.760000 204 221 226 0
4.620000 10.120000 1.760000 204 221 226 0
4.840000 10.120000 1.760000 204 221 226 0
5.060000 10.120000 1.760000 204 221 226 0
5.280000 10.120000 1.870000 203 220 225 0
5.500000 10.120000 1.870000 202 220 227 0
5.720000 10.120000 1.210000 201 219 226 0
5.940000 10.120000 1.210000 202 220 227 0
6.160000 10.120000 1.210000 201 219 226 0
6.380000 10.120000 1.320000 201 219 226 0
6.600000 10.120000 1.320000 202 220 227 0
6.820000 10.120000 1.320000 201 221 227 0
7.040000 10.120000 1.320000 200 220 226 0
7.260000 10.120000 1.870000 200 220 226 0
7.480000 10.120000 2.970000 200 220 226 0
7.700000 10.120000 3.520000 202 221 230 0
7.920000 10.120000 3.520000 201 220 229 0
8.140000 10.120000 3.520000 201 220 229 0
8.360000 10.120000 3.520000 201 220 229 0
8.580000 10.120000 3.630000 202 220 227 0
8.800000 10.120000 3.630000 202 220 227 0
9.020000 10.120000 3.630000 201 220 229 0
9.240000 10.120000 3.630000 200 219 228 0
9.460000 10.120000 3.740000 202 221 231 0
9.680000 10.120000 3.740000 199 218 228 0
9.900000 10.120000 4.400000 201 217 225 0
10.120000 10.120000 5.170000 203 219 227 0
10.340000 10.120000 5.830000 201 227 235 0
10.560000 10.120000 7.260000 203 229 237 0
10.780000 10.120000 7.260000 203 229 237 0
11.000000 10.120000 7.260000 203 229 237 0
11.220000 10.120000 8.030000 203 229 239 0
11.440000 10.120000 8.030000 201 227 237 0
11.660000 10.120000 8.140000 202 228 238 0
11.880000 10.120000 8.140000 201 227 237 0
12.100000 10.120000 8.140000 200 226 236 0
12.320000 10.120000 8.140000 199 225 235 0
12.540000 10.120000 8.910000 199 225 235 0
12.760000 10.120000 8.910000 197 223 233 0
12.980000 10.120000 9.570000 197 222 237 0
13.200000 10.120000 10.120000 198 223 238 0
13.420000 10.120000 11.220000 194 223 236 0
13.640000 10.120000 11.110000 189 218 231 0
13.860000 10.120000 11.770000 183 214 230 0
14.080000 10.120000 11.880000 178 209 225 0
14.300000 10.120000 11.880000 172 204 220 0
14.520000 10.120000 11.880000 167 199 215 0
14.740000 10.120000 11.880000 165 197 213 0
14.960000 10.120000 11.990000 162 194 210 0
15.180000 10.120000 11.990000 161 191 210 0
15.400000 10.120000 11.990000 159 189 208 0
15.620000 10.120000 11.990000 157 187 206 0
15.840000 10.120000 11.990000 154 184 203 0
16.060000 10.120000 11.990000 153 183 202 0
16.280000 10.120000 11.330000 154 184 203 0
16.500000 10.120000 11.330000 152 183 199 0
16.720000 10.120000 12.100000 151 182 198 0
16.940000 10.120000 11.440000 149 179 198 0
17.160000 10.120000 10.780000 149 179 198 0
17.380000 10.120000 10.780000 149 179 200 0
17.600000 10.120000 10.780000 149 179 200 0
17.820000 10.120000 10.780000 150 178 197 0
18.040000 10.120000 10.890000 149 177 196 0
18.260000 10.120000 10.230000 145 175 194 0
18.480000 10.120000 9.570000 145 175 194 0
18.700000 10.120000 9.570000 146 174 193 0
18.920000 10.120000 9.570000 145 173 192 0
19.140000 10.120000 9.570000 146 170 191 0
19.360000 10.120000 8.910000 146 170 191 0
19.580000 10.120000 8.910000 148 168 188 0
19.800000 10.120000 8.910000 148 168 188 0
20.020000 10.120000 9.570000 147 169 187 0
20.240000 10.120000 9.570000 145 167 185 0
20.460000 10.120000 9.570000 147 168 184 0
20.680000 10.120000 8.800000 147 168 184 0
20.900000 10.120000 9.460000 147 167 186 0
21.120000 10.120000 12.210000 145 165 184 0
21.340000 10.120000 15.070000 145 163 180 0
21.560000 10.120000 16.390000 144 162 179 0
21.780000 10.120000 17.050000 145 160 174 0
22.000000 10.120000 17.820000 145 160 174 0
22.220000 10.120000 18.480000 146 157 170 0
22.440000 10.120000 17.820000 146 157 170 0
22.660000 10.120000 17.820000 145 157 168 0
22.880000 10.120000 17.820000 143 155 166 0
23.100000 10.120000 18.480000 145 152 165 0
23.320000 10.120000 18.480000 146 153 166 0
23.540000 10.120000 18.480000 143 152 164 0
23.760000 10.120000 19.250000 143 152 164 0
23.980000 10.120000 19.250000 143 152 165 0
24.200000 10.120000 19.250000 143 152 165 0
24.420000 10.120000 19.910000 143 150 163 0
24.640000 10.120000 19.910000 143 150 163 0
24.860000 10.120000 19.910000 143 150 163 0
25.080000 10.120000 19.910000 140 147 160 0
25.300000 10.120000 19.910000 144 146 156 0
25.520000 10.120000 19.910000 142 144 154 0
25.740000 10.120000 19.910000 143 142 151 0
25.960000 10.120000 19.910000 142 141 150 0
26.180000 10.120000 20.020000 144 140 149 0
26.400000 10.120000 19.360000 144 140 149 0
26.620000 10.120000 19.360000 142 140 148 0
26.840000 10.120000 20.020000 141 139 147 0
27.060000 10.120000 20.020000 141 137 146 0
27.280000 10.120000 20.020000 141 137 146 0
27.500000 10.120000 19.250000 144 136 144 0
27.720000 10.120000 19.250000 144 136 144 0
27.940000 10.120000 14.520000 144 134 138 0
28.160000 10.120000 4.840000 144 134 138 0
28.380000 10.120000 0.660000 140 133 138 0
28.600000 10.120000 1.320000 139 132 137 0
28.820000 10.120000 0.660000 141 129 134 0
29.700000 10.120000 0.220000 143 128 130 0
30.140000 10.120000 0.550000 142 126 131 0
30.360000 10.120000 1.760000 143 127 132 0
30.580000 10.120000 3.080000 140 127 131 0
30.800000 10.120000 2.530000 140 127 131 0
31.020000 10.120000 1.320000 144 125 124 0
31.240000 10.120000 2.750000 144 125 124 0
31.460000 10.120000 3.410000 142 123 122 0
31.680000 10.120000 4.180000 142 123 122 0
31.900000 10.120000 4.840000 141 122 123 0
32.120000 10.120000 4.840000 141 122 123 0
32.340000 10.120000 4.840000 142 121 121 0
32.560000 10.120000 5.390000 141 120 120 0
32.780000 10.120000 5.390000 141 121 118 0
33.000000 10.120000 6.050000 142 122 119 0
33.220000 10.120000 5.830000 142 120 118 0
33.440000 10.120000 6.380000 142 120 118 0
33.660000 10.120000 6.380000 142 120 118 0
33.880000 10.120000 7.150000 141 119 117 0
34.100000 10.120000 7.040000 143 119 116 0
34.320000 10.120000 7.040000 144 120 117 0
34.540000 10.120000 7.040000 142 120 117 0
34.760000 10.120000 6.490000 143 121 118 0
34.980000 10.120000 5.830000 153 120 124 0
35.200000 10.120000 5.170000 155 122 126 0
35.420000 10.120000 4.510000 164 132 132 0
35.640000 10.120000 3.740000 169 137 137 0
35.860000 10.120000 3.850000 174 141 145 0
36.080000 10.120000 6.710000 179 146 150 0
36.300000 10.120000 10.890000 184 145 145 0
36.520000 10.120000 12.320000 182 143 143 0
36.740000 10.120000 11.550000 187 142 142 0
36.960000 10.120000 10.890000 185 140 140 0
37.180000 10.120000 10.890000 184 139 139 0
0.000000 10.340000 9.460000 206 223 226 0
0.220000 10.340000 4.730000 204 222 227 0
1.100000 10.340000 4.070000 206 223 226 0
1.320000 10.340000 13.750000 205 222 225 0
1.540000 10.340000 12.430000 207 221 225 0
1.760000 10.340000 3.300000 207 221 225 0
1.980000 10.340000 5.720000 204 221 226 0
2.200000 10.340000 15.950000 204 221 226 0
2.420000 10.340000 15.950000 204 221 224 0
2.640000 10.340000 5.610000 204 221 224 0
2.860000 10.340000 0.110000 204 221 226 0
3.080000 10.340000 0.110000 204 221 226 0
3.300000 10.340000 0.110000 204 221 224 0
3.520000 10.340000 0.220000 204 221 224 0
3.740000 10.340000 0.990000 203 220 225 0
3.960000 10.340000 0.990000 204 221 226 0
4.180000 10.340000 1.650000 204 221 226 0
4.400000 10.340000 1.760000 203 220 225 0
4.620000 10.340000 1.760000 203 220 225 0
4.840000 10.340000 1.760000 203 220 225 0
5.060000 10.340000 1.760000 203 220 225 0
5.280000 10.340000 1.870000 202 219 224 0
5.500000 10.340000 1.870000 201 219 226 0
5.720000 10.340000 1.870000 200 218 225 0
5.940000 10.340000 1.210000 200 218 225 0
6.160000 10.340000 1.210000 201 219 226 0
6.380000 10.340000 1.320000 201 219 226 0
6.600000 10.340000 1.320000 201 219 226 0
6.820000 10.340000 1.320000 200 220 226 0
7.040000 10.340000 1.320000 201 221 227 0
7.260000 10.340000 1.870000 200 220 226 0
7.480000 10.340000 2.970000 199 219 225 0
7.700000 10.340000 3.520000 200 219 228 0
7.920000 10.340000 3.520000 199 218 227 0
8.140000 10.340000 3.520000 200 219 228 0
8.360000 10.340000 3.520000 199 218 227 0
8.580000 10.340000 3.630000 202 220 227 0
8.800000 10.340000 3.630000 200 218 225 0
9.020000 10.340000 3.630000 199 218 227 0
9.240000 10.340000 3.630000 199 218 227 0
9.460000 10.340000 3.740000 198 217 227 0
9.680000 10.340000 3.740000 197 216 226 0
9.900000 10.340000 3.740000 198 214 222 0
10.120000 10.340000 4.510000 198 214 222 0
10.340000 10.340000 5.830000 195 221 229 0
10.560000 10.340000 6.600000 201 227 235 0
10.780000 10.340000 7.260000 203 229 237 0
11.000000 10.340000 8.030000 202 228 236 0
11.220000 10.340000 8.030000 202 228 238 0
11.440000 10.340000 8.030000 200 226 236 0
11.660000 10.340000 8.140000 200 226 236 0
11.880000 10.340000 8.140000 199 225 235 0
12.100000 10.340000 8.140000 200 226 236 0
12.320000 10.340000 8.250000 198 224 234 0
12.540000 10.340000 8.910000 198 224 234 0
12.760000 10.340000 8.910000 196 222 232 0
12.980000 10.340000 9.570000 194 219 234 0
13.200000 10.340000 10.670000 194 219 234 0
13.420000 10.340000 11.110000 191 220 233 0
13.640000 10.340000 11.770000 183 212 225 0
13.860000 10.340000 11.880000 177 208 224 0
14.080000 10.340000 11.880000 172 203 219 0
14.300000 10.340000 11.880000 167 199 215 0
14.520000 10.340000 11.220000 164 196 212 0
14.740000 10.340000 11.220000 162 194 210 0
14.960000 10.340000 11.990000 159 191 207 0
15.180000 10.340000 11.990000 158 188 207 0
15.400000 10.340000 11.990000 156 186 205 0
15.620000 10.340000 11.990000 155 185 204 0
15.840000 10.340000 11.990000 152 182 201 0
16.060000 10.340000 11.330000 153 183 202 0
16.280000 10.340000 11.330000 152 182 201 0
16.500000 10.340000 11.330000 150 181 197 0
16.720000 10.340000 11.330000 150 181 197 0
16.940000 10.340000 11.440000 148 178 197 0
17.160000 10.340000 10.670000 148 178 197 0
17.380000 10.340000 10.780000 147 177 198 0
17.600000 10.340000 10.780000 148 178 199 0
17.820000 10.340000 10.120000 148 176 195 0
18.040000 10.340000 10.120000 148 176 195 0
18.260000 10.340000 9.460000 145 175 194 0
18.480000 10.340000 8.800000 144 174 193 0
18.700000 10.340000 8.800000 146 174 193 0
18.920000 10.340000 8.800000 145 173 192 0
19.140000 10.340000 8.800000 146 170 191 0
19.360000 10.340000 8.910000 146 170 191 0
19.580000 10.340000 8.250000 148 168 188 0
19.800000 10.340000 8.140000 147 167 187 0
20.020000 10.340000 8.910000 147 169 187 0
20.240000 10.340000 8.910000 146 168 186 0
20.460000 10.340000 9.570000 146 167 183 0
20.680000 10.340000 8.800000 146 167 183 0
20.900000 10.340000 8.800000 146 166 185 0
21.120000 10.340000 11.550000 145 165 184 0
21.340000 10.340000 14.300000 145 163 180 0
21.560000 10.340000 16.390000 145 163 180 0
21.780000 10.340000 17.820000 144 159 173 0
22.000000 10.340000 18.480000 145 160 174 0
22.220000 10.340000 18.480000 147 158 171 0
22.440000 10.340000 18.480000 146 157 170 0
22.660000 10.340000 18.480000 145 157 168 0
22.880000 10.340000 18.480000 144 156 167 0
23.100000 10.340000 18.480000 146 153 166 0
23.320000 10.340000 19.250000 144 151 164 0
23.540000 10.340000 19.250000 142 151 163 0
23.760000 10.340000 19.250000 142 151 163 0
23.980000 10.340000 19.250000 142 151 164 0
24.200000 10.340000 19.250000 142 151 164 0
24.420000 10.340000 19.910000 141 148 161 0
24.640000 10.340000 19.910000 143 150 163 0
24.860000 10.340000 19.910000 143 150 163 0
25.080000 10.340000 19.910000 141 148 161 0
25.300000 10.340000 19.910000 143 145 155 0
25.520000 10.340000 19.910000 141 143 153 0
25.740000 10.340000 19.910000 144 143 152 0
25.960000 10.340000 19.910000 142 141 150 0
26.180000 10.340000 20.020000 144 140 149 0
26.400000 10.340000 19.360000 143 139 148 0
26.620000 10.340000 19.360000 143 141 149 0
26.840000 10.340000 20.020000 141 139 147 0
27.060000 10.340000 20.020000 141 137 146 0
27.280000 10.340000 20.020000 141 137 146 0
27.500000 10.340000 19.250000 142 134 142 0
27.720000 10.340000 19.250000 142 134 142 0
27.940000 10.340000 14.520000 142 132 136 0
28.160000 10.340000 5.500000 142 132 136 0
28.380000 10.340000 1.980000 138 131 136 0
28.600000 10.340000 2.750000 139 132 137 0
28.820000 10.340000 2.090000 141 129 134 0
29.040000 10.340000 1.320000 141 129 134 0
29.700000 10.340000 0.220000 142 127 129 0
29.920000 10.340000 0.880000 144 129 131 0
30.140000 10.340000 1.540000 143 127 132 0
30.360000 10.340000 1.540000 143 127 132 0
30.580000 10.340000 1.540000 141 128 132 0
30.800000 10.340000 1.760000 141 128 132 0
31.020000 10.340000 2.640000 145 126 125 0
31.240000 10.340000 3.410000 142 123 122 0
31.460000 10.340000 4.070000 142 123 122 0
31.680000 10.340000 4.730000 142 123 122 0
31.900000 10.340000 5.390000 141 122 123 0
32.120000 10.340000 5.390000 141 122 123 0
32.340000 10.340000 5.390000 141 120 120 0
32.560000 10.340000 5.390000 141 120 120 0
32.780000 10.340000 6.050000 141 121 118 0
33.000000 10.340000 5.940000 141 121 118 0
33.220000 10.340000 6.490000 142 120 118 0
33.440000 10.340000 7.040000 142 120 118 0
33.660000 10.340000 6.930000 142 120 118 0
33.880000 10.340000 6.930000 142 120 118 0
34.100000 10.340000 7.040000 144 120 117 0
34.320000 10.340000 7.040000 144 120 117 0
34.540000 10.340000 6.380000 145 123 120 0
34.760000 10.340000 5.830000 146 124 121 0
34.980000 10.340000 5.170000 161 128 132 0
35.200000 10.340000 4.400000 167 134 138 0
35.420000 10.340000 4.400000 172 140 140 0
35.640000 10.340000 3.630000 177 145 145 0
35.860000 10.340000 3.740000 178 145 149 0
36.080000 10.340000 6.600000 179 146 150 0
36.300000 10.340000 12.100000 182 143 143 0
36.520000 10.340000 12.870000 182 143 143 0
36.740000 10.340000 10.780000 184 139 139 0
36.960000 10.340000 9.460000 182 137 137 0
37.180000 10.340000 9.460000 181 136 136 0
0.000000 10.560000 9.460000 208 222 226 0
0.220000 10.560000 4.620000 207 221 225 0
0.440000 10.560000 0.550000 207 221 225 0
0.660000 10.560000 3.300000 208 223 225 0
0.880000 10.560000 2.640000 207 222 224 0
1.100000 10.560000 5.500000 207 222 224 0
1.320000 10.560000 15.180000 207 222 224 0
1.540000 10.560000 15.180000 207 221 225 0
1.760000 10.560000 4.620000 207 221 225 0
1.980000 10.560000 5.060000 206 220 224 0
2.200000 10.560000 15.950000 206 220 224 0
2.420000 10.560000 15.950000 207 220 223 0
2.640000 10.560000 5.610000 207 220 223 0
2.860000 10.560000 0.110000 206 221 223 0
3.080000 10.560000 0.110000 205 220 222 0
3.300000 10.560000 0.110000 206 219 222 0
3.520000 10.560000 0.220000 206 219 222 0
3.740000 10.560000 0.220000 205 219 223 0
3.960000 10.560000 0.990000 205 219 223 0
4.180000 10.560000 0.990000 206 219 222 0
4.400000 10.560000 1.760000 207 220 223 0
4.620000 10.560000 1.760000 206 220 224 0
4.840000 10.560000 1.760000 204 218 222 0
5.060000 10.560000 1.760000 205 219 223 0
5.280000 10.560000 1.870000 204 218 222 0
5.500000 10.560000 1.870000 203 217 221 0
5.720000 10.560000 1.870000 203 217 221 0
5.940000 10.560000 1.980000 204 218 224 0
6.160000 10.560000 1.980000 204 218 224 0
6.380000 10.560000 1.980000 203 217 221 0
6.600000 10.560000 1.980000 204 218 222 0
6.820000 10.560000 1.980000 204 218 224 0
7.040000 10.560000 2.090000 203 217 223 0
7.260000 10.560000 1.870000 202 219 224 0
7.480000 10.560000 2.970000 202 219 224 0
7.700000 10.560000 3.520000 201 218 223 0
7.920000 10.560000 3.520000 201 218 223 0
8.140000 10.560000 3.520000 202 219 224 0
8.360000 10.560000 3.520000 202 219 224 0
8.580000 10.560000 3.630000 204 218 224 0
8.800000 10.560000 3.630000 203 217 223 0
9.020000 10.560000 3.630000 201 218 223 0
9.240000 10.560000 3.630000 199 216 221 0
9.460000 10.560000 3.740000 199 216 221 0
9.680000 10.560000 3.740000 198 215 220 0
9.900000 10.560000 3.740000 200 212 219 0
10.120000 10.560000 3.740000 200 212 219 0
10.340000 10.560000 5.170000 195 219 227 0
10.560000 10.560000 6.600000 202 226 234 0
10.780000 10.560000 7.260000 205 229 236 0
11.000000 10.560000 8.030000 205 229 236 0
11.220000 10.560000 8.030000 203 227 235 0
11.440000 10.560000 8.800000 202 226 234 0
11.660000 10.560000 8.140000 202 226 234 0
11.880000 10.560000 8.140000 200 224 232 0
12.100000 10.560000 8.140000 201 224 235 0
12.320000 10.560000 8.250000 199 222 233 0
12.540000 10.560000 8.910000 195 222 236 0
12.760000 10.560000 8.910000 193 220 234 0
12.980000 10.560000 10.120000 188 216 232 0
13.200000 10.560000 10.560000 185 213 229 0
13.420000 10.560000 11.110000 180 213 227 0
13.640000 10.560000 11.110000 173 206 220 0
13.860000 10.560000 11.880000 171 202 217 0
14.080000 10.560000 11.880000 166 197 212 0
14.300000 10.560000 11.220000 163 194 210 0
14.520000 10.560000 11.220000 161 192 208 0
14.740000 10.560000 11.220000 159 190 206 0
14.960000 10.560000 11.330000 157 188 204 0
15.180000 10.560000 11.330000 156 186 205 0
15.400000 10.560000 11.330000 154 184 203 0
15.620000 10.560000 11.330000 155 183 202 0
15.840000 10.560000 11.330000 155 183 202 0
16.060000 10.560000 10.670000 154 182 201 0
16.280000 10.560000 10.670000 153 181 200 0
16.500000 10.560000 11.330000 149 181 199 0
16.720000 10.560000 11.330000 147 179 197 0
16.940000 10.560000 10.670000 148 178 197 0
17.160000 10.560000 10.010000 148 178 197 0
17.380000 10.560000 10.010000 150 178 197 0
17.600000 10.560000 9.350000 149 177 196 0
17.820000 10.560000 9.460000 148 176 195 0
18.040000 10.560000 9.460000 147 175 194 0
18.260000 10.560000 8.800000 145 175 196 0
18.480000 10.560000 8.800000 144 174 195 0
18.700000 10.560000 8.800000 145 173 192 0
18.920000 10.560000 8.800000 144 172 191 0
19.140000 10.560000 8.800000 144 170 188 0
19.360000 10.560000 8.140000 144 170 188 0
19.580000 10.560000 7.480000 147 167 186 0
19.800000 10.560000 7.480000 148 168 187 0
20.020000 10.560000 8.250000 147 167 186 0
20.240000 10.560000 8.910000 146 166 185 0
20.460000 10.560000 8.910000 146 166 185 0
20.680000 10.560000 8.140000 145 165 184 0
20.900000 10.560000 8.140000 148 166 181 0
21.120000 10.560000 9.460000 147 165 180 0
21.340000 10.560000 12.210000 149 162 176 0
21.560000 10.560000 15.070000 147 160 174 0
21.780000 10.560000 17.160000 147 160 172 0
22.000000 10.560000 18.480000 146 159 171 0
22.220000 10.560000 19.250000 146 157 170 0
22.440000 10.560000 18.480000 146 157 170 0
22.660000 10.560000 18.480000 147 156 169 0
22.880000 10.560000 19.250000 146 155 168 0
23.100000 10.560000 19.250000 146 155 168 0
23.320000 10.560000 19.910000 145 154 167 0
23.540000 10.560000 19.910000 143 152 164 0
23.760000 10.560000 19.250000 142 151 163 0
23.980000 10.560000 19.250000 143 150 163 0
24.200000 10.560000 19.250000 141 148 161 0
24.420000 10.560000 19.910000 142 149 162 0
24.640000 10.560000 19.910000 142 149 162 0
24.860000 10.560000 19.910000 141 148 161 0
25.080000 10.560000 19.910000 141 148 161 0
25.300000 10.560000 19.910000 140 146 157 0
25.520000 10.560000 19.910000 139 145 156 0
25.740000 10.560000 19.910000 140 142 152 0
25.960000 10.560000 19.910000 141 143 153 0
26.180000 10.560000 20.020000 143 141 149 0
26.400000 10.560000 19.250000 143 141 149 0
26.620000 10.560000 19.360000 144 138 145 0
26.840000 10.560000 20.020000 144 138 145 0
27.060000 10.560000 20.020000 146 136 142 0
27.280000 10.560000 19.910000 144 134 140 0
27.500000 10.560000 19.250000 143 133 137 0
27.720000 10.560000 19.250000 143 133 137 0
27.940000 10.560000 15.180000 141 131 135 0
28.160000 10.560000 6.160000 142 132 136 0
28.380000 10.560000 2.750000 142 131 134 0
28.600000 10.560000 3.410000 141 130 133 0
28.820000 10.560000 2.750000 144 129 131 0
29.040000 10.560000 1.320000 143 128 130 0
29.700000 10.560000 0.220000 139 128 131 0
29.920000 10.560000 1.430000 142 131 134 0
30.140000 10.560000 2.090000 145 130 132 0
30.360000 10.560000 2.090000 144 129 131 0
30.580000 10.560000 2.200000 145 128 129 0
30.800000 10.560000 2.530000 144 127 128 0
31.020000 10.560000 2.750000 143 126 129 0
31.240000 10.560000 4.070000 141 124 127 0
31.460000 10.560000 4.840000 142 123 122 0
31.680000 10.560000 5.390000 141 122 121 0
31.900000 10.560000 6.050000 143 123 120 0
32.120000 10.560000 6.050000 142 122 119 0
32.340000 10.560000 6.050000 139 123 121 0
32.560000 10.560000 6.160000 138 122 120 0
32.780000 10.560000 6.050000 140 121 120 0
33.000000 10.560000 6.490000 140 121 120 0
33.220000 10.560000 7.040000 142 122 119 0
33.440000 10.560000 7.040000 142 122 119 0
33.660000 10.560000 6.930000 143 121 119 0
33.880000 10.560000 7.040000 143 121 119 0
34.100000 10.560000 7.040000 140 121 120 0
34.320000 10.560000 6.380000 142 123 122 0
34.540000 10.560000 5.720000 154 124 127 0
34.760000 10.560000 5.060000 161 131 134 0
34.980000 10.560000 5.060000 165 137 144 0
35.200000 10.560000 4.290000 170 142 149 0
35.420000 10.560000 4.290000 177 146 146 0
35.640000 10.560000 4.290000 179 148 148 0
35.860000 10.560000 4.290000 184 145 145 0
36.080000 10.560000 6.380000 184 145 145 0
36.300000 10.560000 10.670000 181 140 141 0
36.520000 10.560000 10.780000 180 139 140 0
36.740000 10.560000 8.030000 183 137 135 0
36.960000 10.560000 7.260000 181 135 133 0
37.180000 10.560000 8.030000 183 133 131 0
0.000000 10.780000 12.320000 207 221 225 0
0.220000 10.780000 7.480000 208 222 226 0
0.440000 10.780000 4.730000 207 221 225 0
0.660000 10.780000 10.890000 207 222 224 0
0.880000 10.780000 11.000000 207 222 224 0
1.100000 10.780000 8.250000 208 223 225 0
1.320000 10.780000 15.180000 207 222 224 0
1.540000 10.780000 15.180000 207 221 225 0
1.760000 10.780000 4.620000 207 221 225 0
1.980000 10.780000 5.060000 207 221 225 0
2.200000 10.780000 15.950000 206 220 224 0
2.420000 10.780000 15.950000 206 219 222 0
2.640000 10.780000 5.610000 207 220 223 0
2.860000 10.780000 0.110000 206 221 223 0
3.080000 10.780000 0.110000 206 221 223 0
3.740000 10.780000 0.220000 205 219 223 0
3.960000 10.780000 0.990000 205 219 223 0
4.180000 10.780000 0.990000 206 219 222 0
4.400000 10.780000 0.990000 206 219 222 0
4.620000 10.780000 1.100000 206 220 224 0
4.840000 10.780000 1.760000 205 219 223 0
5.060000 10.780000 1.760000 205 219 223 0
5.280000 10.780000 1.870000 204 218 222 0
5.500000 10.780000 1.870000 204 218 222 0
5.720000 10.780000 1.870000 204 218 222 0
5.940000 10.780000 1.980000 204 218 224 0
6.160000 10.780000 1.980000 203 217 223 0
6.380000 10.780000 1.980000 204 218 222 0
6.600000 10.780000 1.980000 204 218 222 0
6.820000 10.780000 1.980000 204 218 224 0
7.040000 10.780000 2.090000 204 218 224 0
7.260000 10.780000 2.530000 202 219 224 0
7.480000 10.780000 2.970000 201 218 223 0
7.700000 10.780000 3.520000 201 218 223 0
7.920000 10.780000 3.520000 201 218 223 0
8.140000 10.780000 3.520000 203 220 225 0
8.360000 10.780000 3.520000 202 219 224 0
8.580000 10.780000 3.630000 204 218 224 0
8.800000 10.780000 3.630000 203 217 223 0
9.020000 10.780000 3.630000 200 217 222 0
9.240000 10.780000 3.630000 199 216 221 0
9.460000 10.780000 3.740000 198 215 220 0
9.680000 10.780000 3.740000 197 214 219 0
9.900000 10.780000 3.740000 199 211 218 0
10.120000 10.780000 3.740000 198 210 217 0
10.340000 10.780000 5.170000 193 217 225 0
10.560000 10.780000 5.940000 201 225 233 0
10.780000 10.780000 7.260000 203 227 234 0
11.000000 10.780000 8.030000 203 227 234 0
11.220000 10.780000 8.690000 202 226 234 0
11.440000 10.780000 8.800000 201 225 233 0
11.660000 10.780000 8.140000 200 224 232 0
11.880000 10.780000 8.140000 200 224 232 0
12.100000 10.780000 8.140000 198 221 232 0
12.320000 10.780000 8.250000 198 221 232 0
12.540000 10.780000 8.910000 192 219 233 0
12.760000 10.780000 8.800000 188 215 229 0
12.980000 10.780000 9.900000 184 212 228 0
13.200000 10.780000 11.110000 179 207 223 0
13.420000 10.780000 11.110000 171 204 218 0
13.640000 10.780000 11.110000 168 201 215 0
13.860000 10.780000 11.110000 166 197 212 0
14.080000 10.780000 11.220000 163 194 209 0
14.300000 10.780000 11.220000 160 191 207 0
14.520000 10.780000 10.560000 158 189 205 0
14.740000 10.780000 10.560000 156 187 203 0
14.960000 10.780000 10.560000 156 187 203 0
15.180000 10.780000 11.330000 155 185 204 0
15.400000 10.780000 11.330000 152 182 201 0
15.620000 10.780000 10.670000 153 181 200 0
15.840000 10.780000 10.670000 153 181 200 0
16.060000 10.780000 10.670000 152 180 199 0
16.280000 10.780000 10.670000 151 179 198 0
16.500000 10.780000 10.670000 148 180 198 0
16.720000 10.780000 10.670000 148 180 198 0
16.940000 10.780000 10.010000 148 178 197 0
17.160000 10.780000 9.350000 147 177 196 0
17.380000 10.780000 8.690000 150 178 197 0
17.600000 10.780000 8.690000 149 177 196 0
17.820000 10.780000 8.690000 148 176 195 0
