ply
format ascii 1.0
element vertex 1134
property float x
property float y
property float z
property uchar red
property uchar green
property uchar blue
property uchar alpha
end_header
35.420000 27.940000 21.780000 209 209 206 0
35.640000 27.940000 20.460000 222 222 219 0
35.860000 27.940000 20.460000 237 238 237 0
36.080000 27.940000 20.460000 240 241 240 0
36.300000 27.940000 20.680000 240 241 228 0
36.520000 27.940000 22.000000 239 240 227 0
36.740000 27.940000 23.100000 238 239 218 0
36.960000 27.940000 23.760000 233 234 213 0
37.180000 27.940000 24.860000 224 222 204 0
0.000000 28.160000 2.420000 164 71 51 0
0.220000 28.160000 2.420000 164 71 51 0
0.440000 28.160000 2.640000 164 71 51 0
0.660000 28.160000 2.420000 166 73 53 0
0.880000 28.160000 2.420000 166 73 53 0
1.100000 28.160000 2.420000 166 73 51 0
1.320000 28.160000 2.640000 167 74 52 0
1.540000 28.160000 2.640000 166 73 53 0
1.760000 28.160000 3.960000 166 73 53 0
1.980000 28.160000 2.640000 166 73 53 0
2.200000 28.160000 2.640000 167 74 54 0
2.420000 28.160000 3.960000 167 74 54 0
2.640000 28.160000 3.960000 167 74 54 0
2.860000 28.160000 3.960000 168 72 53 0
3.080000 28.160000 3.960000 167 71 52 0
3.300000 28.160000 3.960000 166 70 51 0
3.520000 28.160000 2.640000 164 68 49 0
3.740000 28.160000 2.640000 163 65 47 0
3.960000 28.160000 2.640000 163 65 47 0
4.180000 28.160000 2.640000 164 65 47 0
4.400000 28.160000 2.640000 162 63 45 0
4.620000 28.160000 3.960000 162 63 43 0
4.840000 28.160000 3.740000 162 63 43 0
5.060000 28.160000 5.940000 162 63 42 0
5.280000 28.160000 7.040000 161 62 41 0
5.500000 28.160000 7.040000 159 62 41 0
5.720000 28.160000 8.360000 159 62 41 0
5.940000 28.160000 8.360000 160 61 41 0
6.160000 28.160000 9.680000 160 61 41 0
6.380000 28.160000 9.900000 160 61 43 0
6.600000 28.160000 9.900000 160 61 43 0
6.820000 28.160000 9.900000 161 62 41 0
7.040000 28.160000 9.680000 161 62 41 0
7.260000 28.160000 9.900000 160 63 42 0
7.480000 28.160000 11.220000 160 63 42 0
7.700000 28.160000 11.220000 161 62 42 0
7.920000 28.160000 12.760000 161 62 42 0
8.140000 28.160000 12.540000 161 62 42 0
8.360000 28.160000 12.540000 162 63 43 0
8.580000 28.160000 11.220000 162 64 40 0
8.800000 28.160000 11.220000 163 65 41 0
9.020000 28.160000 9.900000 163 66 44 0
9.240000 28.160000 9.900000 165 68 46 0
9.460000 28.160000 9.900000 166 69 48 0
9.680000 28.160000 10.120000 168 71 50 0
9.900000 28.160000 8.800000 166 74 48 0
10.120000 28.160000 9.020000 168 76 50 0
10.340000 28.160000 9.240000 168 76 48 0
10.560000 28.160000 7.920000 169 77 49 0
10.780000 28.160000 7.920000 168 76 50 0
11.000000 28.160000 8.140000 169 77 51 0
11.220000 28.160000 8.140000 168 75 52 0
11.440000 28.160000 8.140000 169 76 53 0
11.660000 28.160000 8.140000 168 77 51 0
11.880000 28.160000 8.140000 169 78 52 0
12.100000 28.160000 8.140000 169 79 50 0
12.320000 28.160000 8.140000 169 79 50 0
12.540000 28.160000 8.140000 169 78 52 0
12.760000 28.160000 6.820000 169 78 52 0
12.980000 28.160000 6.820000 170 77 54 0
13.200000 28.160000 6.820000 171 78 55 0
13.420000 28.160000 8.140000 171 80 54 0
13.640000 28.160000 8.140000 171 80 54 0
13.860000 28.160000 8.140000 171 83 56 0
14.080000 28.160000 8.140000 170 82 55 0
14.300000 28.160000 8.140000 170 82 55 0
14.520000 28.160000 9.680000 170 82 55 0
14.740000 28.160000 9.680000 174 83 57 0
14.960000 28.160000 9.680000 174 83 57 0
15.180000 28.160000 11.000000 172 86 60 0
15.400000 28.160000 11.000000 172 86 60 0
15.620000 28.160000 11.000000 173 87 61 0
15.840000 28.160000 11.000000 174 88 62 0
16.060000 28.160000 11.000000 172 87 61 0
16.280000 28.160000 10.780000 173 88 62 0
16.500000 28.160000 13.200000 170 89 63 0
16.720000 28.160000 14.080000 173 92 66 0
16.940000 28.160000 15.180000 174 98 70 0
17.160000 28.160000 15.180000 176 100 72 0
17.380000 28.160000 15.180000 177 100 75 0
17.600000 28.160000 15.180000 177 100 75 0
17.820000 28.160000 15.180000 177 101 73 0
18.040000 28.160000 15.180000 177 101 73 0
18.260000 28.160000 13.860000 178 100 73 0
18.480000 28.160000 13.860000 179 101 74 0
18.700000 28.160000 13.860000 179 103 75 0
18.920000 28.160000 13.860000 177 101 73 0
19.140000 28.160000 15.400000 176 99 74 0
19.360000 28.160000 16.720000 177 100 75 0
19.580000 28.160000 16.720000 176 101 73 0
19.800000 28.160000 18.040000 176 101 73 0
20.020000 28.160000 19.580000 174 99 73 0
20.240000 28.160000 19.580000 175 100 74 0
20.460000 28.160000 19.580000 174 99 73 0
20.680000 28.160000 19.580000 173 98 72 0
20.900000 28.160000 19.580000 169 98 73 0
21.120000 28.160000 19.580000 169 98 73 0
21.340000 28.160000 19.580000 165 99 72 0
21.560000 28.160000 21.120000 165 99 72 0
21.780000 28.160000 21.120000 159 103 75 0
22.000000 28.160000 22.440000 159 103 75 0
22.220000 28.160000 21.120000 148 111 79 0
22.440000 28.160000 21.120000 150 113 81 0
22.660000 28.160000 19.800000 148 117 84 0
22.880000 28.160000 18.260000 151 120 87 0
23.100000 28.160000 16.940000 149 124 89 0
23.320000 28.160000 15.620000 150 125 90 0
23.540000 28.160000 14.300000 152 132 94 0
23.760000 28.160000 14.300000 155 135 97 0
23.980000 28.160000 14.520000 157 136 100 0
24.200000 28.160000 14.520000 159 138 102 0
24.420000 28.160000 14.520000 163 140 103 0
24.640000 28.160000 14.520000 163 140 103 0
24.860000 28.160000 14.520000 159 140 102 0
25.080000 28.160000 14.740000 160 141 103 0
25.300000 28.160000 14.740000 159 140 103 0
25.520000 28.160000 14.740000 160 141 104 0
25.740000 28.160000 14.740000 160 141 104 0
25.960000 28.160000 16.280000 161 142 105 0
26.180000 28.160000 16.280000 161 145 107 0
26.400000 28.160000 16.280000 161 145 107 0
26.620000 28.160000 16.280000 163 147 109 0
26.840000 28.160000 14.960000 163 147 109 0
27.060000 28.160000 14.960000 165 149 110 0
27.280000 28.160000 14.960000 166 150 111 0
27.500000 28.160000 14.960000 170 151 114 0
27.720000 28.160000 14.960000 170 151 114 0
27.940000 28.160000 16.280000 169 154 116 0
28.160000 28.160000 16.500000 171 156 118 0
28.380000 28.160000 17.820000 172 157 121 0
28.600000 28.160000 17.820000 174 159 123 0
28.820000 28.160000 17.820000 175 161 121 0
29.040000 28.160000 19.140000 178 164 124 0
29.260000 28.160000 19.140000 176 166 125 0
29.480000 28.160000 19.140000 178 168 127 0
29.700000 28.160000 19.360000 180 170 130 0
29.920000 28.160000 19.360000 181 171 131 0
30.140000 28.160000 20.460000 183 173 135 0
30.360000 28.160000 21.120000 184 174 136 0
30.580000 28.160000 22.220000 184 175 139 0
30.800000 28.160000 22.220000 186 177 141 0
31.020000 28.160000 22.220000 187 181 142 0
31.240000 28.160000 20.900000 189 183 144 0
31.460000 28.160000 20.900000 192 184 142 0
31.680000 28.160000 20.900000 193 185 143 0
31.900000 28.160000 20.900000 196 186 148 0
32.120000 28.160000 22.440000 198 188 150 0
32.340000 28.160000 22.440000 197 188 152 0
32.560000 28.160000 22.440000 199 190 154 0
32.780000 28.160000 22.440000 198 192 153 0
33.000000 28.160000 23.980000 200 194 155 0
33.220000 28.160000 23.980000 201 197 157 0
33.440000 28.160000 23.980000 202 198 158 0
33.660000 28.160000 25.300000 204 199 164 0
33.880000 28.160000 25.300000 204 199 164 0
34.100000 28.160000 25.520000 205 200 166 0
34.320000 28.160000 24.200000 208 203 169 0
34.540000 28.160000 24.200000 207 203 171 0
34.760000 28.160000 22.880000 209 205 173 0
34.980000 28.160000 22.880000 209 206 182 0
35.200000 28.160000 21.560000 215 212 188 0
35.420000 28.160000 20.240000 225 225 222 0
35.640000 28.160000 20.460000 240 240 237 0
35.860000 28.160000 20.460000 240 241 240 0
36.080000 28.160000 20.460000 240 241 240 0
36.300000 28.160000 20.680000 241 242 229 0
36.520000 28.160000 22.000000 236 237 224 0
36.740000 28.160000 23.100000 237 238 217 0
36.960000 28.160000 23.760000 233 234 213 0
37.180000 28.160000 24.860000 228 226 208 0
0.000000 28.380000 2.420000 164 71 51 0
0.220000 28.380000 2.420000 165 72 50 0
0.440000 28.380000 2.640000 164 71 49 0
0.660000 28.380000 2.420000 165 72 52 0
0.880000 28.380000 2.420000 166 73 53 0
1.100000 28.380000 1.100000 167 74 54 0
1.320000 28.380000 2.640000 167 74 54 0
1.540000 28.380000 2.640000 168 72 53 0
1.760000 28.380000 2.640000 168 72 53 0
1.980000 28.380000 2.640000 168 72 51 0
2.200000 28.380000 2.640000 168 72 51 0
2.420000 28.380000 2.640000 168 72 53 0
2.640000 28.380000 3.960000 168 72 53 0
2.860000 28.380000 3.960000 168 72 53 0
3.080000 28.380000 3.960000 166 70 51 0
3.300000 28.380000 2.640000 165 67 49 0
3.520000 28.380000 2.640000 165 67 49 0
3.740000 28.380000 2.640000 163 66 45 0
3.960000 28.380000 2.640000 163 66 45 0
4.180000 28.380000 2.640000 164 64 49 0
4.400000 28.380000 2.640000 163 63 48 0
4.620000 28.380000 2.640000 162 63 45 0
4.840000 28.380000 3.960000 162 63 45 0
5.060000 28.380000 5.060000 163 61 44 0
5.280000 28.380000 7.260000 163 61 44 0
5.500000 28.380000 8.360000 160 61 41 0
5.720000 28.380000 8.360000 161 62 42 0
5.940000 28.380000 8.360000 160 61 43 0
6.160000 28.380000 9.680000 159 60 42 0
6.380000 28.380000 9.680000 160 61 43 0
6.600000 28.380000 9.900000 160 61 43 0
6.820000 28.380000 9.680000 163 61 44 0
7.040000 28.380000 9.680000 162 60 43 0
7.260000 28.380000 9.900000 162 63 43 0
7.480000 28.380000 11.220000 161 62 42 0
7.700000 28.380000 11.220000 161 62 44 0
7.920000 28.380000 12.760000 161 62 44 0
8.140000 28.380000 12.540000 164 62 45 0
8.360000 28.380000 12.540000 164 62 45 0
8.580000 28.380000 11.220000 163 64 43 0
8.800000 28.380000 9.900000 164 65 44 0
9.020000 28.380000 9.900000 164 65 44 0
9.240000 28.380000 9.900000 165 66 45 0
9.460000 28.380000 8.580000 166 70 49 0
9.680000 28.380000 8.580000 167 71 50 0
9.900000 28.380000 8.800000 168 73 48 0
10.120000 28.380000 9.020000 169 74 49 0
10.340000 28.380000 7.920000 170 75 52 0
10.560000 28.380000 7.920000 170 75 52 0
10.780000 28.380000 7.920000 171 76 53 0
11.000000 28.380000 8.140000 171 76 53 0
11.220000 28.380000 8.140000 168 75 52 0
11.440000 28.380000 8.140000 169 76 53 0
11.660000 28.380000 8.140000 168 76 50 0
11.880000 28.380000 8.140000 169 77 51 0
12.100000 28.380000 8.140000 170 77 54 0
12.320000 28.380000 8.140000 171 78 55 0
12.540000 28.380000 8.140000 170 77 54 0
12.760000 28.380000 8.140000 171 78 55 0
12.980000 28.380000 6.820000 169 81 54 0
13.200000 28.380000 8.140000 169 81 54 0
13.420000 28.380000 8.140000 171 80 54 0
13.640000 28.380000 8.140000 172 81 55 0
13.860000 28.380000 8.140000 171 83 58 0
14.080000 28.380000 9.680000 171 83 58 0
14.300000 28.380000 9.680000 173 82 58 0
14.520000 28.380000 9.680000 173 82 58 0
14.740000 28.380000 9.460000 171 85 59 0
14.960000 28.380000 10.780000 171 85 59 0
15.180000 28.380000 10.780000 173 87 61 0
15.400000 28.380000 10.780000 174 88 62 0
15.620000 28.380000 11.000000 173 88 63 0
15.840000 28.380000 11.000000 173 88 63 0
16.060000 28.380000 11.000000 169 91 64 0
16.280000 28.380000 12.100000 171 93 66 0
16.500000 28.380000 13.200000 172 96 68 0
16.720000 28.380000 14.080000 174 98 70 0
16.940000 28.380000 15.400000 176 100 71 0
17.160000 28.380000 15.400000 178 102 73 0
17.380000 28.380000 15.400000 180 102 75 0
17.600000 28.380000 14.080000 180 102 75 0
17.820000 28.380000 14.080000 179 101 74 0
18.040000 28.380000 14.080000 178 100 73 0
18.260000 28.380000 13.860000 178 102 74 0
18.480000 28.380000 13.860000 177 101 73 0
18.700000 28.380000 13.860000 179 103 75 0
18.920000 28.380000 13.860000 178 102 74 0
19.140000 28.380000 15.400000 175 98 73 0
19.360000 28.380000 16.720000 175 98 73 0
19.580000 28.380000 18.040000 175 100 74 0
19.800000 28.380000 18.040000 175 100 74 0
20.020000 28.380000 19.580000 176 100 72 0
20.240000 28.380000 19.580000 176 100 72 0
20.460000 28.380000 19.580000 175 100 72 0
20.680000 28.380000 19.580000 175 100 72 0
20.900000 28.380000 19.580000 170 99 74 0
21.120000 28.380000 18.260000 170 99 74 0
21.340000 28.380000 19.580000 166 101 74 0
21.560000 28.380000 21.120000 166 101 74 0
21.780000 28.380000 21.120000 152 106 77 0
22.000000 28.380000 21.120000 153 107 78 0
22.220000 28.380000 21.120000 146 112 79 0
22.440000 28.380000 19.580000 148 114 81 0
22.660000 28.380000 18.260000 146 116 83 0
22.880000 28.380000 16.940000 149 119 86 0
23.100000 28.380000 15.620000 147 124 88 0
23.320000 28.380000 15.620000 151 128 92 0
23.540000 28.380000 14.300000 153 129 96 0
23.760000 28.380000 14.300000 156 132 99 0
23.980000 28.380000 14.520000 156 135 99 0
24.200000 28.380000 14.520000 158 137 101 0
24.420000 28.380000 14.520000 159 140 102 0
24.640000 28.380000 13.200000 159 140 102 0
24.860000 28.380000 13.200000 159 140 105 0
25.080000 28.380000 13.200000 159 140 105 0
25.300000 28.380000 13.420000 160 140 108 0
25.520000 28.380000 14.740000 160 140 108 0
25.740000 28.380000 16.280000 161 142 107 0
25.960000 28.380000 16.280000 162 143 108 0
26.180000 28.380000 16.280000 161 145 107 0
26.400000 28.380000 16.280000 162 146 108 0
26.620000 28.380000 16.280000 164 145 110 0
26.840000 28.380000 14.960000 165 146 111 0
27.060000 28.380000 14.960000 165 149 111 0
27.280000 28.380000 14.960000 166 150 112 0
27.500000 28.380000 14.960000 167 151 113 0
27.720000 28.380000 14.960000 169 153 115 0
27.940000 28.380000 16.280000 169 154 116 0
28.160000 28.380000 16.280000 170 155 117 0
28.380000 28.380000 16.500000 173 158 120 0
28.600000 28.380000 17.820000 174 159 121 0
28.820000 28.380000 17.820000 173 163 123 0
29.040000 28.380000 19.140000 174 164 124 0
29.260000 28.380000 19.140000 178 165 126 0
29.480000 28.380000 19.140000 181 168 129 0
29.700000 28.380000 19.360000 181 168 129 0
29.920000 28.380000 19.360000 183 170 131 0
30.140000 28.380000 20.460000 179 169 131 0
30.360000 28.380000 21.340000 180 170 132 0
30.580000 28.380000 22.220000 181 171 133 0
30.800000 28.380000 22.220000 183 173 135 0
31.020000 28.380000 20.900000 187 178 140 0
31.240000 28.380000 20.900000 189 180 142 0
31.460000 28.380000 20.900000 192 182 142 0
31.680000 28.380000 20.900000 194 184 144 0
31.900000 28.380000 20.900000 196 188 147 0
32.120000 28.380000 22.440000 197 189 148 0
32.340000 28.380000 22.440000 199 190 152 0
32.560000 28.380000 22.440000 200 191 153 0
32.780000 28.380000 22.440000 199 193 154 0
33.000000 28.380000 23.980000 201 195 156 0
33.220000 28.380000 23.980000 201 196 161 0
33.440000 28.380000 23.980000 203 198 163 0
33.660000 28.380000 25.300000 203 199 165 0
33.880000 28.380000 25.300000 204 200 166 0
34.100000 28.380000 25.520000 204 200 168 0
34.320000 28.380000 23.980000 206 202 170 0
34.540000 28.380000 24.200000 208 203 176 0
34.760000 28.380000 22.880000 212 207 180 0
34.980000 28.380000 21.560000 213 217 197 0
35.200000 28.380000 21.560000 229 233 213 0
35.420000 28.380000 20.240000 237 241 237 0
35.640000 28.380000 20.460000 238 242 238 0
35.860000 28.380000 20.460000 240 241 240 0
36.080000 28.380000 20.460000 240 241 240 0
36.300000 28.380000 22.000000 241 242 232 0
36.520000 28.380000 22.000000 238 239 229 0
36.740000 28.380000 23.100000 235 237 218 0
36.960000 28.380000 23.980000 233 235 216 0
37.180000 28.380000 25.080000 231 225 198 0
0.000000 28.600000 2.420000 165 72 52 0
0.220000 28.600000 2.420000 164 71 49 0
0.440000 28.600000 2.640000 165 72 50 0
0.660000 28.600000 2.420000 167 74 54 0
0.880000 28.600000 2.420000 167 74 54 0
1.100000 28.600000 1.100000 166 73 53 0
1.320000 28.600000 2.640000 166 73 53 0
1.540000 28.600000 2.640000 168 72 53 0
1.760000 28.600000 2.640000 168 72 53 0
1.980000 28.600000 2.640000 167 71 50 0
2.200000 28.600000 2.640000 168 72 51 0
2.420000 28.600000 2.640000 166 70 51 0
2.640000 28.600000 2.420000 167 71 52 0
2.860000 28.600000 2.420000 167 71 52 0
3.080000 28.600000 2.640000 167 71 52 0
3.300000 28.600000 2.640000 167 69 51 0
3.520000 28.600000 2.640000 165 67 49 0
3.740000 28.600000 2.640000 165 68 47 0
3.960000 28.600000 2.640000 163 66 45 0
4.180000 28.600000 2.640000 164 64 49 0
4.400000 28.600000 2.640000 163 63 48 0
4.620000 28.600000 2.640000 163 64 46 0
4.840000 28.600000 2.640000 161 62 44 0
5.060000 28.600000 3.740000 164 62 45 0
5.280000 28.600000 5.940000 163 61 44 0
5.500000 28.600000 8.360000 160 61 41 0
5.720000 28.600000 8.360000 160 61 41 0
5.940000 28.600000 8.360000 160 61 43 0
6.160000 28.600000 9.680000 161 62 44 0
6.380000 28.600000 9.680000 161 62 44 0
6.600000 28.600000 9.680000 161 62 44 0
6.820000 28.600000 9.680000 163 61 44 0
7.040000 28.600000 9.680000 164 62 45 0
7.260000 28.600000 9.680000 161 62 42 0
7.480000 28.600000 11.220000 161 62 42 0
7.700000 28.600000 11.220000 161 62 44 0
7.920000 28.600000 11.220000 161 62 44 0
8.140000 28.600000 12.540000 164 62 45 0
8.360000 28.600000 11.220000 164 62 45 0
8.580000 28.600000 11.220000 164 65 44 0
8.800000 28.600000 9.900000 164 65 44 0
9.020000 28.600000 9.900000 164 65 44 0
9.240000 28.600000 9.900000 165 66 45 0
9.460000 28.600000 8.580000 166 70 49 0
9.680000 28.600000 8.800000 167 71 50 0
9.900000 28.600000 9.020000 168 73 48 0
10.120000 28.600000 7.920000 168 73 48 0
10.340000 28.600000 7.920000 170 75 52 0
10.560000 28.600000 7.920000 171 76 53 0
10.780000 28.600000 7.920000 170 75 52 0
11.000000 28.600000 6.600000 170 75 52 0
11.220000 28.600000 6.820000 168 75 52 0
11.440000 28.600000 8.140000 168 75 52 0
11.660000 28.600000 8.140000 169 77 51 0
11.880000 28.600000 8.140000 169 77 51 0
12.100000 28.600000 8.140000 170 77 54 0
12.320000 28.600000 8.140000 171 78 55 0
12.540000 28.600000 8.140000 170 77 54 0
12.760000 28.600000 8.140000 172 79 56 0
12.980000 28.600000 8.140000 170 82 55 0
13.200000 28.600000 8.140000 170 82 55 0
13.420000 28.600000 8.140000 172 81 55 0
13.640000 28.600000 8.140000 173 82 56 0
13.860000 28.600000 9.680000 171 83 58 0
14.080000 28.600000 9.680000 172 84 59 0
14.300000 28.600000 9.680000 174 83 59 0
14.520000 28.600000 9.680000 174 83 59 0
14.740000 28.600000 10.780000 172 86 60 0
14.960000 28.600000 10.560000 173 87 61 0
15.180000 28.600000 12.100000 174 88 62 0
15.400000 28.600000 12.100000 174 88 62 0
15.620000 28.600000 10.780000 174 89 64 0
15.840000 28.600000 11.000000 174 89 64 0
16.060000 28.600000 10.780000 173 95 68 0
16.280000 28.600000 12.100000 176 98 71 0
16.500000 28.600000 12.100000 177 101 73 0
16.720000 28.600000 13.200000 177 101 73 0
16.940000 28.600000 13.200000 177 101 72 0
17.160000 28.600000 12.980000 179 103 74 0
17.380000 28.600000 12.980000 181 103 76 0
17.600000 28.600000 11.880000 181 103 76 0
17.820000 28.600000 12.100000 180 102 75 0
18.040000 28.600000 13.200000 180 102 75 0
18.260000 28.600000 14.080000 179 103 75 0
18.480000 28.600000 14.080000 178 102 74 0
18.700000 28.600000 13.860000 177 101 73 0
18.920000 28.600000 15.180000 174 98 70 0
19.140000 28.600000 15.180000 173 96 71 0
19.360000 28.600000 16.720000 174 97 72 0
19.580000 28.600000 18.040000 173 98 72 0
19.800000 28.600000 19.580000 174 99 73 0
20.020000 28.600000 19.580000 176 100 72 0
20.240000 28.600000 19.580000 176 100 72 0
20.460000 28.600000 19.580000 175 100 72 0
20.680000 28.600000 19.580000 174 99 71 0
20.900000 28.600000 18.260000 170 99 74 0
21.120000 28.600000 18.260000 170 99 74 0
21.340000 28.600000 19.580000 165 100 73 0
21.560000 28.600000 19.580000 166 101 74 0
21.780000 28.600000 21.120000 153 107 78 0
22.000000 28.600000 19.580000 153 107 78 0
22.220000 28.600000 19.580000 147 113 80 0
22.440000 28.600000 18.260000 148 114 81 0
22.660000 28.600000 16.940000 146 116 83 0
22.880000 28.600000 15.620000 148 118 85 0
23.100000 28.600000 15.620000 147 124 88 0
23.320000 28.600000 14.300000 149 126 90 0
23.540000 28.600000 14.300000 152 128 95 0
23.760000 28.600000 14.300000 155 131 98 0
23.980000 28.600000 14.520000 156 135 99 0
24.200000 28.600000 12.980000 157 136 100 0
24.420000 28.600000 13.200000 158 139 101 0
24.640000 28.600000 13.200000 159 140 102 0
24.860000 28.600000 11.880000 159 140 105 0
25.080000 28.600000 11.880000 159 140 105 0
25.300000 28.600000 13.420000 161 141 109 0
25.520000 28.600000 14.740000 161 141 109 0
25.740000 28.600000 14.740000 162 143 108 0
25.960000 28.600000 16.280000 162 143 108 0
26.180000 28.600000 16.280000 162 146 108 0
26.400000 28.600000 16.280000 163 147 109 0
26.620000 28.600000 14.960000 165 146 111 0
26.840000 28.600000 14.960000 166 147 112 0
27.060000 28.600000 14.960000 165 149 111 0
27.280000 28.600000 14.960000 166 150 112 0
27.500000 28.600000 14.960000 167 151 113 0
27.720000 28.600000 14.960000 169 153 115 0
27.940000 28.600000 16.280000 169 154 116 0
28.160000 28.600000 16.280000 171 156 118 0
28.380000 28.600000 16.500000 172 157 119 0
28.600000 28.600000 17.820000 174 159 121 0
28.820000 28.600000 17.820000 173 163 123 0
29.040000 28.600000 17.820000 175 165 125 0
29.260000 28.600000 19.140000 178 165 126 0
29.480000 28.600000 19.140000 180 167 128 0
29.700000 28.600000 19.360000 179 166 127 0
29.920000 28.600000 19.360000 178 165 126 0
30.140000 28.600000 19.140000 176 166 128 0
30.360000 28.600000 20.240000 175 165 127 0
30.580000 28.600000 22.440000 176 166 128 0
30.800000 28.600000 22.220000 179 169 131 0
31.020000 28.600000 20.900000 181 172 134 0
31.240000 28.600000 20.900000 186 177 139 0
31.460000 28.600000 20.900000 191 181 141 0
31.680000 28.600000 20.900000 193 183 143 0
31.900000 28.600000 20.900000 194 186 145 0
32.120000 28.600000 22.440000 196 188 147 0
32.340000 28.600000 22.440000 198 189 151 0
32.560000 28.600000 22.440000 199 190 152 0
32.780000 28.600000 22.440000 199 193 154 0
33.000000 28.600000 23.980000 201 195 156 0
33.220000 28.600000 23.980000 201 196 161 0
33.440000 28.600000 23.980000 203 198 163 0
33.660000 28.600000 25.300000 203 199 165 0
33.880000 28.600000 25.300000 204 200 166 0
34.100000 28.600000 23.980000 206 202 170 0
34.320000 28.600000 23.980000 207 203 171 0
34.540000 28.600000 24.200000 208 203 176 0
34.760000 28.600000 22.880000 216 211 184 0
34.980000 28.600000 21.560000 220 224 204 0
35.200000 28.600000 21.560000 230 234 214 0
35.420000 28.600000 20.240000 233 237 233 0
35.640000 28.600000 20.460000 236 240 236 0
35.860000 28.600000 20.460000 240 241 240 0
36.080000 28.600000 20.460000 240 241 240 0
36.300000 28.600000 22.000000 241 242 232 0
36.520000 28.600000 22.000000 239 240 230 0
36.740000 28.600000 23.320000 234 236 217 0
36.960000 28.600000 24.420000 231 233 214 0
37.180000 28.600000 25.520000 225 219 192 0
0.000000 28.820000 2.420000 164 72 52 0
0.220000 28.820000 2.420000 165 73 53 0
0.440000 28.820000 2.640000 165 73 53 0
0.660000 28.820000 2.420000 166 73 53 0
0.880000 28.820000 2.420000 166 73 53 0
1.100000 28.820000 1.100000 166 73 53 0
1.320000 28.820000 2.640000 166 73 53 0
1.540000 28.820000 2.640000 165 72 52 0
1.760000 28.820000 2.640000 165 72 52 0
1.980000 28.820000 2.640000 164 71 49 0
2.200000 28.820000 2.640000 165 72 50 0
2.420000 28.820000 2.640000 167 71 52 0
2.640000 28.820000 2.420000 168 72 53 0
2.860000 28.820000 2.420000 169 73 54 0
3.080000 28.820000 2.640000 167 71 52 0
3.300000 28.820000 2.640000 165 69 50 0
3.520000 28.820000 2.640000 165 69 50 0
3.740000 28.820000 2.640000 164 68 47 0
3.960000 28.820000 2.640000 162 66 45 0
4.180000 28.820000 2.640000 162 65 44 0
4.400000 28.820000 2.640000 164 67 46 0
4.620000 28.820000 2.640000 163 64 46 0
4.840000 28.820000 2.640000 162 63 45 0
5.060000 28.820000 3.960000 162 63 43 0
5.280000 28.820000 5.940000 161 62 42 0
5.500000 28.820000 8.360000 160 63 42 0
5.720000 28.820000 8.360000 160 63 42 0
5.940000 28.820000 8.360000 160 63 42 0
6.160000 28.820000 8.360000 160 63 42 0
6.380000 28.820000 9.680000 162 63 43 0
6.600000 28.820000 9.680000 161 62 42 0
6.820000 28.820000 9.680000 161 62 42 0
7.040000 28.820000 9.680000 162 63 43 0
7.260000 28.820000 9.680000 162 65 43 0
7.480000 28.820000 9.900000 160 63 41 0
7.700000 28.820000 11.220000 162 63 43 0
7.920000 28.820000 11.220000 162 63 43 0
8.140000 28.820000 11.220000 162 63 43 0
8.360000 28.820000 11.220000 162 63 43 0
8.580000 28.820000 11.220000 164 65 44 0
8.800000 28.820000 9.900000 164 65 44 0
9.020000 28.820000 9.900000 164 67 45 0
9.240000 28.820000 8.580000 166 69 47 0
9.460000 28.820000 8.580000 167 70 48 0
9.680000 28.820000 8.800000 168 71 49 0
9.900000 28.820000 7.920000 168 73 50 0
10.120000 28.820000 8.140000 169 74 51 0
10.340000 28.820000 8.140000 169 74 51 0
10.560000 28.820000 8.140000 168 73 50 0
10.780000 28.820000 6.600000 168 76 50 0
11.000000 28.820000 6.600000 168 76 50 0
11.220000 28.820000 6.820000 170 75 52 0
11.440000 28.820000 6.820000 172 77 54 0
11.660000 28.820000 8.140000 170 77 54 0
11.880000 28.820000 8.140000 170 77 54 0
12.100000 28.820000 8.140000 170 77 54 0
12.320000 28.820000 8.140000 170 77 54 0
12.540000 28.820000 8.140000 171 79 53 0
12.760000 28.820000 8.140000 172 80 54 0
12.980000 28.820000 8.140000 173 80 57 0
13.200000 28.820000 8.140000 173 80 57 0
13.420000 28.820000 8.140000 172 81 57 0
13.640000 28.820000 9.460000 174 83 59 0
13.860000 28.820000 9.460000 172 84 59 0
14.080000 28.820000 10.780000 172 84 59 0
14.300000 28.820000 10.780000 175 84 58 0
14.520000 28.820000 10.780000 175 84 58 0
14.740000 28.820000 10.560000 172 86 60 0
14.960000 28.820000 11.660000 173 87 61 0
15.180000 28.820000 11.880000 171 89 63 0
15.400000 28.820000 10.780000 173 91 65 0
15.620000 28.820000 11.000000 173 92 68 0
15.840000 28.820000 11.000000 177 96 72 0
16.060000 28.820000 11.000000 176 100 72 0
16.280000 28.820000 12.320000 177 101 73 0
16.500000 28.820000 12.320000 178 100 73 0
16.720000 28.820000 12.320000 179 101 74 0
16.940000 28.820000 12.320000 178 102 73 0
17.160000 28.820000 12.100000 180 104 75 0
17.380000 28.820000 10.780000 181 105 77 0
17.600000 28.820000 11.000000 182 106 78 0
17.820000 28.820000 11.000000 181 105 77 0
18.040000 28.820000 12.100000 179 103 75 0
18.260000 28.820000 13.200000 180 102 77 0
18.480000 28.820000 12.980000 178 100 75 0
18.700000 28.820000 14.080000 175 99 71 0
18.920000 28.820000 15.180000 174 98 70 0
19.140000 28.820000 16.720000 173 96 73 0
19.360000 28.820000 18.040000 173 96 73 0
19.580000 28.820000 18.040000 172 97 69 0
19.800000 28.820000 19.580000 173 98 70 0
20.020000 28.820000 19.580000 176 99 74 0
20.240000 28.820000 19.580000 176 99 74 0
20.460000 28.820000 19.580000 173 101 74 0
20.680000 28.820000 19.580000 173 101 74 0
20.900000 28.820000 19.580000 167 101 74 0
21.120000 28.820000 18.260000 167 101 74 0
21.340000 28.820000 19.580000 161 103 74 0
21.560000 28.820000 19.580000 160 102 73 0
21.780000 28.820000 19.580000 149 107 78 0
22.000000 28.820000 19.580000 150 108 79 0
22.220000 28.820000 18.260000 144 113 80 0
22.440000 28.820000 16.940000 146 115 82 0
22.660000 28.820000 15.620000 143 118 83 0
22.880000 28.820000 14.300000 145 120 85 0
23.100000 28.820000 14.300000 147 124 88 0
23.320000 28.820000 14.300000 149 126 90 0
23.540000 28.820000 14.300000 152 129 93 0
23.760000 28.820000 14.300000 154 131 95 0
23.980000 28.820000 12.980000 153 134 97 0
24.200000 28.820000 12.980000 156 137 100 0
24.420000 28.820000 13.200000 156 137 100 0
24.640000 28.820000 11.880000 157 138 101 0
24.860000 28.820000 11.880000 155 138 103 0
25.080000 28.820000 11.880000 158 141 106 0
25.300000 28.820000 11.880000 158 142 104 0
25.520000 28.820000 13.420000 159 143 105 0
25.740000 28.820000 14.740000 160 144 106 0
25.960000 28.820000 16.280000 161 145 107 0
26.180000 28.820000 16.280000 161 145 107 0
26.400000 28.820000 16.280000 163 147 109 0
26.620000 28.820000 14.960000 166 147 109 0
26.840000 28.820000 14.960000 165 146 108 0
27.060000 28.820000 14.960000 166 150 111 0
27.280000 28.820000 14.960000 166 150 111 0
27.500000 28.820000 14.960000 167 152 114 0
27.720000 28.820000 14.960000 167 152 114 0
27.940000 28.820000 16.280000 169 154 116 0
28.160000 28.820000 16.280000 172 157 119 0
28.380000 28.820000 16.280000 172 157 119 0
28.600000 28.820000 17.820000 175 160 122 0
28.820000 28.820000 17.820000 173 163 123 0
29.040000 28.820000 17.820000 175 165 125 0
29.260000 28.820000 17.820000 175 165 125 0
29.480000 28.820000 19.140000 176 166 126 0
29.700000 28.820000 19.360000 177 164 127 0
29.920000 28.820000 19.360000 177 164 127 0
30.140000 28.820000 19.360000 176 163 124 0
30.360000 28.820000 20.460000 177 164 125 0
30.580000 28.820000 21.120000 176 166 128 0
30.800000 28.820000 22.220000 177 167 129 0
31.020000 28.820000 20.900000 177 168 134 0
31.240000 28.820000 20.900000 183 174 140 0
31.460000 28.820000 20.900000 189 179 141 0
31.680000 28.820000 20.900000 192 182 144 0
31.900000 28.820000 20.900000 194 186 144 0
32.120000 28.820000 22.440000 196 188 146 0
32.340000 28.820000 22.440000 196 190 151 0
32.560000 28.820000 22.440000 198 192 153 0
32.780000 28.820000 22.440000 199 195 153 0
33.000000 28.820000 23.980000 200 196 154 0
33.220000 28.820000 23.980000 202 195 161 0
33.440000 28.820000 23.980000 204 197 163 0
33.660000 28.820000 23.980000 203 199 165 0
33.880000 28.820000 23.980000 204 200 166 0
34.100000 28.820000 23.980000 205 201 169 0
34.320000 28.820000 23.980000 207 203 171 0
34.540000 28.820000 24.200000 208 205 181 0
34.760000 28.820000 22.880000 215 212 188 0
34.980000 28.820000 21.560000 218 226 208 0
35.200000 28.820000 21.560000 228 236 218 0
35.420000 28.820000 21.780000 230 238 222 0
35.640000 28.820000 20.460000 235 243 227 0
35.860000 28.820000 20.460000 239 240 239 0
36.080000 28.820000 22.000000 240 241 240 0
36.300000 28.820000 22.000000 242 242 229 0
36.520000 28.820000 23.320000 240 240 227 0
36.740000 28.820000 23.540000 239 233 206 0
36.960000 28.820000 24.420000 226 220 193 0
37.180000 28.820000 25.520000 216 210 181 0
0.000000 29.040000 2.420000 164 72 52 0
0.220000 29.040000 2.640000 164 72 52 0
0.440000 29.040000 2.640000 164 72 52 0
0.660000 29.040000 2.420000 167 74 54 0
0.880000 29.040000 1.100000 167 74 54 0
1.100000 29.040000 1.100000 166 73 53 0
1.320000 29.040000 1.320000 165 72 52 0
1.540000 29.040000 2.640000 164 71 51 0
1.760000 29.040000 2.640000 165 72 52 0
1.980000 29.040000 2.640000 164 71 49 0
2.200000 29.040000 1.320000 165 72 50 0
2.420000 29.040000 2.640000 168 72 53 0
2.640000 29.040000 2.420000 167 71 52 0
2.860000 29.040000 2.420000 167 71 52 0
3.080000 29.040000 2.640000 165 69 50 0
3.300000 29.040000 2.640000 165 69 50 0
3.520000 29.040000 2.640000 164 68 49 0
3.740000 29.040000 2.640000 164 68 47 0
3.960000 29.040000 2.640000 162 66 45 0
4.180000 29.040000 2.640000 162 65 44 0
4.400000 29.040000 2.640000 163 66 45 0
4.620000 29.040000 2.640000 163 64 46 0
4.840000 29.040000 2.640000 162 63 45 0
5.060000 29.040000 3.960000 161 62 42 0
5.280000 29.040000 5.060000 160 61 41 0
5.500000 29.040000 7.260000 160 63 42 0
5.720000 29.040000 8.360000 160 63 42 0
5.940000 29.040000 8.360000 159 62 41 0
6.160000 29.040000 8.360000 161 64 43 0
6.380000 29.040000 8.360000 162 63 43 0
6.600000 29.040000 8.360000 161 62 42 0
6.820000 29.040000 8.360000 162 63 43 0
7.040000 29.040000 9.680000 161 62 42 0
7.260000 29.040000 9.680000 161 64 42 0
7.480000 29.040000 9.900000 161 64 42 0
7.700000 29.040000 11.220000 162 63 43 0
7.920000 29.040000 11.220000 162 63 43 0
8.140000 29.040000 11.220000 162 63 43 0
8.360000 29.040000 11.220000 162 63 43 0
8.580000 29.040000 11.220000 164 65 44 0
8.800000 29.040000 9.900000 164 65 44 0
9.020000 29.040000 9.900000 164 67 45 0
9.240000 29.040000 8.580000 166 69 47 0
9.460000 29.040000 8.580000 167 70 48 0
9.680000 29.040000 8.800000 168 71 49 0
9.900000 29.040000 7.920000 167 72 49 0
10.120000 29.040000 6.820000 169 74 51 0
10.340000 29.040000 6.820000 169 74 51 0
10.560000 29.040000 6.820000 169 74 51 0
10.780000 29.040000 6.820000 167 75 49 0
11.000000 29.040000 6.820000 169 77 51 0
11.220000 29.040000 6.820000 171 76 53 0
11.440000 29.040000 6.820000 171 76 53 0
11.660000 29.040000 6.820000 170 77 54 0
11.880000 29.040000 8.140000 170 77 54 0
12.100000 29.040000 8.140000 170 77 54 0
12.320000 29.040000 8.140000 171 78 55 0
12.540000 29.040000 8.140000 172 80 54 0
12.760000 29.040000 8.140000 172 80 54 0
12.980000 29.040000 8.140000 173 80 57 0
13.200000 29.040000 8.360000 173 80 57 0
13.420000 29.040000 8.360000 173 82 58 0
13.640000 29.040000 9.460000 174 83 59 0
13.860000 29.040000 11.660000 173 85 60 0
14.080000 29.040000 12.760000 172 84 59 0
14.300000 29.040000 12.760000 175 84 58 0
14.520000 29.040000 11.440000 175 84 58 0
14.740000 29.040000 12.760000 173 87 61 0
14.960000 29.040000 12.540000 175 89 63 0
15.180000 29.040000 11.660000 173 91 65 0
15.400000 29.040000 10.780000 175 93 67 0
15.620000 29.040000 11.000000 179 98 74 0
15.840000 29.040000 11.000000 179 98 74 0
16.060000 29.040000 11.000000 177 101 73 0
16.280000 29.040000 11.000000 178 102 74 0
16.500000 29.040000 11.000000 179 101 74 0
16.720000 29.040000 11.000000 179 101 74 0
16.940000 29.040000 11.000000 180 104 75 0
17.160000 29.040000 11.000000 181 105 76 0
17.380000 29.040000 11.000000 181 105 77 0
17.600000 29.040000 11.000000 183 107 79 0
17.820000 29.040000 11.000000 181 105 77 0
18.040000 29.040000 12.320000 181 105 77 0
18.260000 29.040000 12.320000 179 101 76 0
18.480000 29.040000 13.420000 177 99 74 0
18.700000 29.040000 15.620000 173 97 69 0
18.920000 29.040000 16.720000 173 97 69 0
19.140000 29.040000 16.720000 173 96 73 0
19.360000 29.040000 18.040000 172 95 72 0
19.580000 29.040000 18.040000 172 97 69 0
19.800000 29.040000 19.580000 173 98 70 0
20.020000 29.040000 19.580000 176 99 74 0
20.240000 29.040000 19.580000 176 99 74 0
20.460000 29.040000 19.580000 173 101 74 0
20.680000 29.040000 19.580000 172 100 73 0
20.900000 29.040000 19.580000 167 101 74 0
21.120000 29.040000 19.580000 167 101 74 0
21.340000 29.040000 19.580000 161 103 74 0
21.560000 29.040000 19.580000 160 102 73 0
21.780000 29.040000 18.260000 149 107 78 0
22.000000 29.040000 18.260000 149 107 78 0
22.220000 29.040000 16.940000 144 113 80 0
22.440000 29.040000 15.620000 145 114 81 0
22.660000 29.040000 14.300000 143 118 83 0
22.880000 29.040000 14.300000 145 120 85 0
23.100000 29.040000 14.300000 146 123 87 0
23.320000 29.040000 14.300000 148 125 89 0
23.540000 29.040000 12.980000 151 128 92 0
23.760000 29.040000 12.980000 153 130 94 0
23.980000 29.040000 12.980000 152 133 96 0
24.200000 29.040000 12.980000 154 135 98 0
24.420000 29.040000 11.660000 155 136 99 0
24.640000 29.040000 11.880000 157 138 101 0
24.860000 29.040000 11.880000 156 139 104 0
25.080000 29.040000 11.880000 158 141 106 0
25.300000 29.040000 11.880000 159 143 105 0
25.520000 29.040000 13.420000 161 145 107 0
25.740000 29.040000 14.740000 162 146 108 0
25.960000 29.040000 14.740000 161 145 107 0
26.180000 29.040000 14.740000 162 146 108 0
26.400000 29.040000 14.960000 162 146 108 0
26.620000 29.040000 14.960000 166 147 109 0
26.840000 29.040000 14.960000 167 148 110 0
27.060000 29.040000 14.960000 165 149 110 0
27.280000 29.040000 14.960000 166 150 111 0
27.500000 29.040000 14.960000 166 151 113 0
27.720000 29.040000 16.280000 167 152 114 0
27.940000 29.040000 16.280000 168 153 115 0
28.160000 29.040000 16.280000 170 155 117 0
28.380000 29.040000 16.280000 173 158 120 0
28.600000 29.040000 17.820000 175 160 122 0
28.820000 29.040000 17.820000 173 163 123 0
29.040000 29.040000 17.820000 174 164 124 0
29.260000 29.040000 17.820000 175 165 125 0
29.480000 29.040000 17.820000 176 166 126 0
29.700000 29.040000 19.360000 176 163 126 0
29.920000 29.040000 19.360000 176 163 126 0
30.140000 29.040000 19.360000 177 164 125 0
30.360000 29.040000 20.460000 177 164 125 0
30.580000 29.040000 21.120000 177 167 129 0
30.800000 29.040000 22.220000 176 166 128 0
31.020000 29.040000 20.900000 177 168 134 0
31.240000 29.040000 20.900000 182 173 139 0
31.460000 29.040000 20.900000 188 178 140 0
31.680000 29.040000 20.900000 192 182 144 0
31.900000 29.040000 20.900000 193 185 143 0
32.120000 29.040000 22.440000 196 188 146 0
32.340000 29.040000 22.440000 197 191 152 0
32.560000 29.040000 22.440000 199 193 154 0
32.780000 29.040000 22.440000 199 195 153 0
33.000000 29.040000 23.760000 200 196 154 0
33.220000 29.040000 23.980000 203 196 162 0
33.440000 29.040000 23.980000 205 198 164 0
33.660000 29.040000 23.980000 203 199 165 0
33.880000 29.040000 23.980000 204 200 166 0
34.100000 29.040000 23.980000 206 202 170 0
34.320000 29.040000 23.980000 207 203 171 0
34.540000 29.040000 22.660000 209 206 182 0
34.760000 29.040000 22.880000 215 212 188 0
34.980000 29.040000 21.560000 218 226 208 0
35.200000 29.040000 21.560000 226 234 216 0
35.420000 29.040000 21.780000 230 238 222 0
35.640000 29.040000 21.780000 231 239 223 0
35.860000 29.040000 21.780000 239 240 239 0
36.080000 29.040000 22.000000 240 241 240 0
36.300000 29.040000 23.320000 242 242 229 0
36.520000 29.040000 23.320000 239 239 226 0
36.740000 29.040000 23.540000 226 220 193 0
36.960000 29.040000 24.420000 218 212 185 0
37.180000 29.040000 25.520000 214 208 179 0
0.000000 29.260000 2.420000 165 72 52 0
0.220000 29.260000 2.640000 165 72 52 0
0.440000 29.260000 1.100000 164 71 51 0
0.660000 29.260000 2.420000 165 71 54 0
0.880000 29.260000 1.100000 166 72 55 0
1.100000 29.260000 1.100000 164 71 51 0
1.320000 29.260000 1.320000 163 70 50 0
1.540000 29.260000 2.640000 163 70 50 0
1.760000 29.260000 2.640000 163 70 50 0
1.980000 29.260000 1.320000 166 70 51 0
2.200000 29.260000 1.320000 167 71 52 0
2.420000 29.260000 2.640000 165 71 54 0
2.640000 29.260000 2.420000 165 71 54 0
2.860000 29.260000 2.420000 167 71 52 0
3.080000 29.260000 2.640000 166 70 51 0
3.300000 29.260000 2.640000 165 69 50 0
3.520000 29.260000 2.640000 164 68 49 0
3.740000 29.260000 2.640000 163 65 47 0
3.960000 29.260000 2.640000 163 65 47 0
4.180000 29.260000 2.640000 162 64 46 0
4.400000 29.260000 2.640000 163 65 47 0
4.620000 29.260000 2.640000 162 65 44 0
4.840000 29.260000 2.640000 160 63 42 0
5.060000 29.260000 4.180000 162 64 46 0
5.280000 29.260000 5.500000 160 62 44 0
5.500000 29.260000 6.380000 159 62 41 0
5.720000 29.260000 7.260000 161 64 43 0
5.940000 29.260000 8.360000 161 62 42 0
6.160000 29.260000 8.360000 161 62 42 0
6.380000 29.260000 8.360000 162 63 42 0
6.600000 29.260000 8.360000 162 63 42 0
6.820000 29.260000 8.360000 162 63 43 0
7.040000 29.260000 9.680000 161 62 42 0
7.260000 29.260000 9.900000 160 63 42 0
7.480000 29.260000 9.900000 162 65 44 0
7.700000 29.260000 9.900000 163 64 44 0
7.920000 29.260000 11.220000 162 63 43 0
8.140000 29.260000 11.220000 162 63 42 0
8.360000 29.260000 11.220000 162 63 42 0
8.580000 29.260000 11.220000 164 65 45 0
8.800000 29.260000 9.900000 164 65 45 0
9.020000 29.260000 9.900000 164 67 46 0
9.240000 29.260000 9.900000 166 69 48 0
9.460000 29.260000 8.360000 167 68 47 0
9.680000 29.260000 8.580000 168 69 48 0
9.900000 29.260000 7.700000 167 70 48 0
10.120000 29.260000 7.920000 169 72 50 0
10.340000 29.260000 7.920000 168 73 48 0
10.560000 29.260000 7.920000 168 73 48 0
10.780000 29.260000 7.920000 169 74 51 0
11.000000 29.260000 6.600000 171 76 53 0
11.220000 29.260000 6.820000 170 75 52 0
11.440000 29.260000 6.820000 170 75 52 0
11.660000 29.260000 6.820000 169 76 53 0
11.880000 29.260000 6.820000 170 77 54 0
12.100000 29.260000 6.820000 171 78 55 0
12.320000 29.260000 8.140000 171 78 55 0
12.540000 29.260000 8.140000 170 79 55 0
12.760000 29.260000 8.140000 171 80 56 0
12.980000 29.260000 8.140000 170 81 58 0
13.200000 29.260000 9.460000 171 82 59 0
13.420000 29.260000 9.460000 173 85 58 0
13.640000 29.260000 10.560000 172 84 57 0
13.860000 29.260000 12.760000 173 85 60 0
14.080000 29.260000 12.540000 173 85 60 0
14.300000 29.260000 12.540000 172 86 60 0
14.520000 29.260000 12.540000 174 88 62 0
14.740000 29.260000 12.540000 171 91 63 0
14.960000 29.260000 12.540000 172 92 64 0
15.180000 29.260000 11.660000 174 94 66 0
15.400000 29.260000 10.780000 178 98 70 0
15.620000 29.260000 11.000000 178 100 73 0
15.840000 29.260000 11.000000 179 101 74 0
16.060000 29.260000 11.000000 178 102 74 0
16.280000 29.260000 11.000000 179 103 75 0
16.500000 29.260000 11.000000 178 103 75 0
16.720000 29.260000 11.000000 180 105 77 0
16.940000 29.260000 11.000000 182 104 77 0
17.160000 29.260000 11.000000 182 104 77 0
17.380000 29.260000 11.000000 181 105 77 0
17.600000 29.260000 11.000000 182 106 78 0
17.820000 29.260000 12.320000 180 104 76 0
18.040000 29.260000 12.320000 179 103 75 0
18.260000 29.260000 12.320000 176 100 72 0
18.480000 29.260000 13.420000 175 99 71 0
18.700000 29.260000 15.620000 173 97 69 0
18.920000 29.260000 16.720000 172 96 68 0
19.140000 29.260000 18.040000 171 96 68 0
19.360000 29.260000 18.040000 172 97 69 0
19.580000 29.260000 18.040000 172 97 69 0
19.800000 29.260000 18.040000 173 98 70 0
20.020000 29.260000 19.580000 174 99 73 0
20.240000 29.260000 19.580000 173 98 72 0
20.460000 29.260000 19.580000 171 101 73 0
20.680000 29.260000 19.580000 171 101 73 0
20.900000 29.260000 19.580000 166 100 73 0
21.120000 29.260000 19.580000 166 100 73 0
21.340000 29.260000 19.580000 153 106 73 0
21.560000 29.260000 18.260000 152 105 72 0
21.780000 29.260000 18.260000 145 108 77 0
22.000000 29.260000 16.940000 147 110 79 0
22.220000 29.260000 15.620000 144 113 80 0
22.440000 29.260000 14.080000 146 115 82 0
22.660000 29.260000 14.300000 143 118 83 0
22.880000 29.260000 14.300000 145 120 85 0
23.100000 29.260000 12.980000 146 122 89 0
23.320000 29.260000 12.980000 148 124 91 0
23.540000 29.260000 12.980000 150 126 95 0
23.760000 29.260000 12.980000 152 128 97 0
23.980000 29.260000 12.980000 151 132 95 0
24.200000 29.260000 11.660000 154 135 98 0
24.420000 29.260000 11.660000 153 138 102 0
24.640000 29.260000 11.660000 154 139 103 0
24.860000 29.260000 11.880000 157 141 102 0
25.080000 29.260000 11.880000 158 142 103 0
25.300000 29.260000 11.880000 159 143 105 0
25.520000 29.260000 13.420000 161 145 107 0
25.740000 29.260000 14.740000 163 144 106 0
25.960000 29.260000 14.740000 164 145 107 0
26.180000 29.260000 14.740000 162 147 109 0
26.400000 29.260000 14.960000 161 146 108 0
26.620000 29.260000 14.960000 162 146 107 0
26.840000 29.260000 14.960000 163 147 108 0
27.060000 29.260000 14.960000 164 148 110 0
27.280000 29.260000 14.960000 166 150 112 0
27.500000 29.260000 14.960000 167 151 112 0
27.720000 29.260000 16.280000 167 151 112 0
27.940000 29.260000 16.280000 169 155 115 0
28.160000 29.260000 16.280000 170 156 116 0
28.380000 29.260000 16.280000 172 159 120 0
28.600000 29.260000 17.820000 174 161 122 0
28.820000 29.260000 17.820000 173 163 125 0
29.040000 29.260000 17.820000 175 165 127 0
29.260000 29.260000 17.820000 176 166 126 0
29.480000 29.260000 17.820000 175 165 125 0
29.700000 29.260000 19.140000 175 162 123 0
29.920000 29.260000 19.360000 175 162 123 0
30.140000 29.260000 19.360000 175 165 125 0
30.360000 29.260000 20.460000 176 166 126 0
30.580000 29.260000 21.120000 176 166 128 0
30.800000 29.260000 22.220000 176 166 128 0
31.020000 29.260000 20.900000 176 167 131 0
31.240000 29.260000 20.900000 183 174 138 0
31.460000 29.260000 20.900000 188 178 138 0
31.680000 29.260000 20.900000 192 182 142 0
31.900000 29.260000 20.900000 192 184 143 0
32.120000 29.260000 22.440000 196 188 147 0
32.340000 29.260000 22.440000 197 191 152 0
32.560000 29.260000 22.440000 196 190 151 0
32.780000 29.260000 22.440000 199 195 155 0
33.000000 29.260000 23.760000 201 197 157 0
33.220000 29.260000 23.980000 201 198 160 0
33.440000 29.260000 23.980000 202 199 161 0
33.660000 29.260000 23.980000 204 199 165 0
33.880000 29.260000 23.980000 205 200 166 0
34.100000 29.260000 23.980000 206 202 170 0
34.320000 29.260000 23.980000 208 204 172 0
34.540000 29.260000 22.660000 210 208 180 0
34.760000 29.260000 22.880000 213 211 183 0
34.980000 29.260000 21.560000 217 220 198 0
35.200000 29.260000 21.560000 228 231 209 0
35.420000 29.260000 21.780000 234 235 222 0
35.640000 29.260000 21.780000 235 236 223 0
35.860000 29.260000 21.780000 239 237 220 0
36.080000 29.260000 21.780000 244 242 225 0
36.300000 29.260000 23.320000 243 238 211 0
36.520000 29.260000 23.320000 226 221 194 0
36.740000 29.260000 24.860000 215 210 183 0
36.960000 29.260000 25.960000 214 209 182 0
37.180000 29.260000 27.060000 212 206 177 0
0.000000 29.480000 2.420000 163 70 50 0
0.220000 29.480000 1.100000 163 70 50 0
0.440000 29.480000 1.320000 165 72 52 0
0.660000 29.480000 1.100000 163 69 52 0
0.880000 29.480000 1.100000 164 70 53 0
1.100000 29.480000 1.320000 164 71 51 0
1.320000 29.480000 1.320000 163 70 50 0
1.540000 29.480000 2.640000 163 70 50 0
1.760000 29.480000 2.640000 163 70 50 0
1.980000 29.480000 1.320000 164 68 49 0
2.200000 29.480000 1.320000 165 69 50 0
2.420000 29.480000 2.640000 162 68 51 0
2.640000 29.480000 2.420000 164 70 53 0
2.860000 29.480000 2.420000 165 69 50 0
3.080000 29.480000 2.640000 166 70 51 0
3.300000 29.480000 2.640000 164 68 49 0
3.520000 29.480000 2.640000 164 68 49 0
3.740000 29.480000 2.640000 164 66 48 0
3.960000 29.480000 2.640000 163 65 47 0
4.180000 29.480000 2.640000 163 65 47 0
4.400000 29.480000 2.640000 163 65 47 0
4.620000 29.480000 2.640000 162 65 44 0
4.840000 29.480000 4.180000 161 64 43 0
5.060000 29.480000 4.180000 161 63 45 0
5.280000 29.480000 4.180000 162 64 46 0
5.500000 29.480000 5.500000 161 64 43 0
5.720000 29.480000 6.380000 161 64 43 0
5.940000 29.480000 7.260000 162 63 43 0
6.160000 29.480000 8.360000 161 62 42 0
6.380000 29.480000 8.360000 162 63 42 0
6.600000 29.480000 8.360000 162 63 42 0
6.820000 29.480000 8.360000 161 62 42 0
7.040000 29.480000 9.680000 161 62 42 0
7.260000 29.480000 9.900000 162 65 44 0
7.480000 29.480000 9.900000 162 65 44 0
7.700000 29.480000 9.900000 163 64 44 0
7.920000 29.480000 11.220000 163 64 44 0
8.140000 29.480000 11.220000 162 63 42 0
8.360000 29.480000 11.220000 163 64 43 0
8.580000 29.480000 11.220000 164 65 45 0
8.800000 29.480000 9.900000 164 65 45 0
9.020000 29.480000 9.900000 164 67 46 0
9.240000 29.480000 8.580000 164 67 46 0
9.460000 29.480000 8.580000 167 68 47 0
9.680000 29.480000 8.580000 167 68 47 0
9.900000 29.480000 8.580000 167 70 48 0
10.120000 29.480000 8.580000 168 71 49 0
10.340000 29.480000 8.580000 168 73 48 0
10.560000 29.480000 8.580000 169 74 49 0
10.780000 29.480000 8.800000 169 74 51 0
11.000000 29.480000 7.920000 170 75 52 0
11.220000 29.480000 6.600000 170 75 52 0
11.440000 29.480000 6.600000 170 75 52 0
11.660000 29.480000 6.820000 170 77 54 0
11.880000 29.480000 6.820000 170 77 54 0
12.100000 29.480000 6.820000 171 78 55 0
12.320000 29.480000 8.140000 172 79 56 0
12.540000 29.480000 8.140000 172 81 57 0
12.760000 29.480000 8.140000 172 81 57 0
12.980000 29.480000 8.360000 171 82 59 0
13.200000 29.480000 9.460000 171 82 59 0
13.420000 29.480000 11.660000 171 83 56 0
13.640000 29.480000 12.760000 172 84 57 0
13.860000 29.480000 12.540000 173 85 60 0
14.080000 29.480000 12.540000 174 86 61 0
14.300000 29.480000 12.540000 173 87 61 0
14.520000 29.480000 12.540000 175 89 63 0
14.740000 29.480000 12.540000 172 92 64 0
14.960000 29.480000 12.760000 175 95 67 0
15.180000 29.480000 11.880000 178 98 70 0
15.400000 29.480000 10.780000 179 99 71 0
15.620000 29.480000 9.460000 178 100 73 0
15.840000 29.480000 9.460000 179 101 74 0
16.060000 29.480000 11.000000 178 102 74 0
16.280000 29.480000 11.000000 178 102 74 0
16.500000 29.480000 11.000000 178 103 75 0
16.720000 29.480000 11.000000 180 105 77 0
16.940000 29.480000 11.000000 181 103 76 0
17.160000 29.480000 11.000000 181 103 76 0
17.380000 29.480000 11.000000 181 105 77 0
17.600000 29.480000 11.000000 178 102 74 0
17.820000 29.480000 12.320000 177 101 73 0
18.040000 29.480000 12.320000 176 100 72 0
18.260000 29.480000 13.860000 175 99 71 0
18.480000 29.480000 14.740000 174 98 70 0
18.700000 29.480000 15.620000 173 97 69 0
18.920000 29.480000 16.720000 172 96 68 0
19.140000 29.480000 18.040000 172 97 69 0
19.360000 29.480000 18.040000 172 97 69 0
19.580000 29.480000 18.040000 172 97 69 0
19.800000 29.480000 18.040000 173 98 70 0
20.020000 29.480000 18.040000 172 97 71 0
20.240000 29.480000 18.260000 173 98 72 0
20.460000 29.480000 19.580000 170 100 72 0
20.680000 29.480000 19.580000 170 100 72 0
20.900000 29.480000 19.580000 167 101 74 0
21.120000 29.480000 18.260000 166 100 73 0
21.340000 29.480000 18.260000 152 105 72 0
21.560000 29.480000 18.260000 152 105 72 0
21.780000 29.480000 18.260000 146 109 78 0
22.000000 29.480000 16.940000 146 109 78 0
22.220000 29.480000 15.620000 145 114 81 0
22.440000 29.480000 14.080000 146 115 82 0
22.660000 29.480000 14.300000 142 117 82 0
22.880000 29.480000 12.760000 146 121 86 0
