ply
format ascii 1.0
element vertex 1105
property float x
property float y
property float z
property uchar red
property uchar green
property uchar blue
property uchar alpha
end_header
34.540000 32.120000 18.480000 97 120 105 0
34.760000 32.120000 18.480000 96 119 104 0
34.980000 32.120000 20.020000 91 121 106 0
35.200000 32.120000 20.020000 92 122 107 0
35.420000 32.120000 21.340000 91 121 104 0
35.640000 32.120000 22.880000 92 122 105 0
35.860000 32.120000 22.880000 94 121 107 0
36.080000 32.120000 21.560000 95 122 108 0
36.300000 32.120000 20.240000 92 124 108 0
36.520000 32.120000 17.380000 92 124 108 0
36.740000 32.120000 17.380000 94 126 110 0
36.960000 32.120000 18.920000 94 126 110 0
37.180000 32.120000 18.920000 93 125 109 0
0.000000 32.340000 10.340000 201 211 208 0
0.220000 32.340000 10.340000 199 209 206 0
0.440000 32.340000 10.560000 195 205 202 0
0.660000 32.340000 10.560000 193 203 200 0
0.880000 32.340000 10.560000 187 197 194 0
1.100000 32.340000 9.240000 187 193 188 0
1.320000 32.340000 9.240000 187 193 188 0
1.540000 32.340000 10.780000 193 200 190 0
1.760000 32.340000 10.780000 197 204 194 0
1.980000 32.340000 12.100000 195 205 202 0
2.200000 32.340000 13.640000 193 203 200 0
2.420000 32.340000 13.640000 190 200 194 0
2.640000 32.340000 13.640000 189 199 193 0
2.860000 32.340000 15.180000 183 192 184 0
3.080000 32.340000 14.960000 176 185 177 0
3.300000 32.340000 16.060000 171 173 163 0
3.520000 32.340000 16.940000 163 165 155 0
3.740000 32.340000 18.260000 157 163 150 0
3.960000 32.340000 16.720000 153 159 146 0
4.180000 32.340000 16.940000 149 156 144 0
4.400000 32.340000 16.940000 147 154 142 0
4.620000 32.340000 16.940000 145 152 139 0
4.840000 32.340000 15.620000 143 150 137 0
5.060000 32.340000 15.840000 143 150 137 0
5.280000 32.340000 15.840000 142 149 136 0
5.500000 32.340000 17.160000 141 148 135 0
5.720000 32.340000 17.160000 141 148 135 0
5.940000 32.340000 17.160000 140 147 135 0
6.160000 32.340000 17.160000 139 146 134 0
6.380000 32.340000 17.160000 137 144 131 0
6.600000 32.340000 15.620000 134 141 128 0
6.820000 32.340000 15.620000 131 141 127 0
7.040000 32.340000 15.620000 130 140 126 0
7.260000 32.340000 15.620000 128 138 125 0
7.480000 32.340000 17.160000 126 136 123 0
7.700000 32.340000 17.160000 123 133 119 0
7.920000 32.340000 18.480000 120 130 116 0
8.140000 32.340000 18.480000 117 127 113 0
8.360000 32.340000 18.480000 113 123 109 0
8.580000 32.340000 18.480000 112 122 109 0
8.800000 32.340000 18.700000 110 120 107 0
9.020000 32.340000 18.700000 108 119 106 0
9.240000 32.340000 18.920000 109 120 107 0
9.460000 32.340000 17.600000 107 118 105 0
9.680000 32.340000 17.820000 109 120 107 0
9.900000 32.340000 17.600000 108 120 105 0
10.120000 32.340000 18.260000 109 121 106 0
10.340000 32.340000 20.900000 110 121 108 0
10.560000 32.340000 21.340000 110 121 108 0
10.780000 32.340000 22.880000 110 121 108 0
11.000000 32.340000 24.200000 111 122 109 0
11.220000 32.340000 24.200000 112 124 109 0
11.440000 32.340000 22.880000 113 125 110 0
11.660000 32.340000 22.880000 112 124 109 0
11.880000 32.340000 24.420000 112 124 109 0
12.100000 32.340000 22.880000 112 123 110 0
12.320000 32.340000 21.560000 113 124 111 0
12.540000 32.340000 20.460000 110 126 111 0
12.760000 32.340000 20.460000 111 127 112 0
12.980000 32.340000 20.460000 93 137 119 0
13.200000 32.340000 21.780000 90 134 116 0
13.420000 32.340000 21.780000 85 128 113 0
13.640000 32.340000 21.780000 88 131 116 0
13.860000 32.340000 20.240000 91 133 116 0
14.080000 32.340000 17.600000 93 135 118 0
14.300000 32.340000 17.600000 90 134 116 0
14.520000 32.340000 17.600000 88 132 114 0
14.740000 32.340000 18.920000 90 134 116 0
14.960000 32.340000 18.920000 89 133 115 0
15.180000 32.340000 17.600000 91 134 119 0
15.400000 32.340000 17.600000 90 133 118 0
15.620000 32.340000 17.600000 94 137 122 0
15.840000 32.340000 18.920000 100 143 128 0
16.060000 32.340000 19.140000 102 148 130 0
16.280000 32.340000 17.820000 102 148 130 0
16.500000 32.340000 14.960000 104 152 135 0
16.720000 32.340000 12.320000 103 151 134 0
16.940000 32.340000 12.320000 97 139 124 0
17.160000 32.340000 14.740000 61 103 88 0
17.380000 32.340000 21.120000 62 79 68 0
17.600000 32.340000 20.900000 78 95 84 0
17.820000 32.340000 11.220000 107 133 117 0
18.040000 32.340000 7.260000 121 147 131 0
18.260000 32.340000 10.120000 137 149 134 0
18.480000 32.340000 15.620000 138 150 135 0
18.700000 32.340000 23.980000 137 150 136 0
18.920000 32.340000 26.840000 137 150 136 0
19.140000 32.340000 24.200000 136 149 135 0
19.360000 32.340000 22.880000 137 150 136 0
19.580000 32.340000 21.560000 125 153 136 0
19.800000 32.340000 18.920000 123 151 134 0
20.020000 32.340000 16.280000 107 149 132 0
20.240000 32.340000 16.280000 101 143 126 0
20.460000 32.340000 17.600000 96 134 114 0
20.680000 32.340000 17.600000 92 130 110 0
20.900000 32.340000 19.140000 95 133 117 0
21.120000 32.340000 22.000000 102 140 124 0
21.340000 32.340000 20.240000 111 141 126 0
21.560000 32.340000 18.260000 111 141 126 0
21.780000 32.340000 16.940000 105 143 127 0
22.000000 32.340000 17.160000 101 139 123 0
22.220000 32.340000 17.380000 105 138 122 0
22.440000 32.340000 18.920000 104 137 121 0
22.660000 32.340000 20.460000 103 135 119 0
22.880000 32.340000 20.460000 102 134 118 0
23.100000 32.340000 18.920000 101 131 118 0
23.320000 32.340000 16.060000 100 130 117 0
23.540000 32.340000 13.420000 102 128 112 0
23.760000 32.340000 12.100000 102 128 112 0
23.980000 32.340000 10.780000 105 126 114 0
24.200000 32.340000 11.000000 105 126 114 0
24.420000 32.340000 11.000000 108 125 112 0
24.640000 32.340000 12.320000 109 126 113 0
24.860000 32.340000 12.320000 108 125 112 0
25.080000 32.340000 12.320000 108 125 112 0
25.300000 32.340000 12.320000 102 125 112 0
25.520000 32.340000 13.420000 104 127 114 0
25.740000 32.340000 15.840000 106 126 112 0
25.960000 32.340000 16.720000 105 125 111 0
26.180000 32.340000 15.840000 108 125 112 0
26.400000 32.340000 14.960000 106 123 110 0
26.620000 32.340000 13.640000 103 125 110 0
26.840000 32.340000 14.300000 104 126 111 0
27.060000 32.340000 15.400000 103 125 110 0
27.280000 32.340000 16.720000 105 127 112 0
27.500000 32.340000 17.160000 108 125 112 0
27.720000 32.340000 17.380000 107 124 111 0
27.940000 32.340000 17.160000 111 124 112 0
28.160000 32.340000 16.940000 112 125 113 0
28.380000 32.340000 18.260000 110 126 111 0
28.600000 32.340000 18.260000 110 126 111 0
28.820000 32.340000 18.480000 109 124 112 0
29.040000 32.340000 18.700000 111 126 114 0
29.260000 32.340000 18.920000 111 126 114 0
29.480000 32.340000 19.800000 112 127 115 0
29.700000 32.340000 19.800000 116 127 114 0
29.920000 32.340000 20.020000 116 127 114 0
30.140000 32.340000 18.920000 116 127 114 0
30.360000 32.340000 17.600000 115 126 113 0
30.580000 32.340000 17.600000 117 127 114 0
30.800000 32.340000 18.920000 118 128 115 0
31.020000 32.340000 18.920000 117 128 115 0
31.240000 32.340000 18.920000 116 127 114 0
31.460000 32.340000 20.460000 116 127 114 0
31.680000 32.340000 20.460000 117 128 115 0
31.900000 32.340000 20.460000 117 127 114 0
32.120000 32.340000 20.680000 118 128 115 0
32.340000 32.340000 22.000000 118 129 118 0
32.560000 32.340000 20.460000 117 128 117 0
32.780000 32.340000 20.460000 112 129 116 0
33.000000 32.340000 20.240000 112 129 116 0
33.220000 32.340000 21.120000 104 131 117 0
33.440000 32.340000 20.900000 101 128 114 0
33.660000 32.340000 20.900000 96 126 113 0
33.880000 32.340000 19.580000 93 123 110 0
34.100000 32.340000 18.480000 92 123 110 0
34.320000 32.340000 18.480000 91 122 109 0
34.540000 32.340000 17.160000 90 123 111 0
34.760000 32.340000 18.480000 90 123 111 0
34.980000 32.340000 18.480000 90 123 111 0
35.200000 32.340000 20.020000 90 123 111 0
35.420000 32.340000 20.020000 91 122 111 0
35.640000 32.340000 21.340000 91 122 111 0
35.860000 32.340000 21.340000 92 123 110 0
36.080000 32.340000 21.560000 92 123 110 0
36.300000 32.340000 20.240000 92 125 111 0
36.520000 32.340000 17.380000 91 124 110 0
36.740000 32.340000 16.060000 91 127 112 0
36.960000 32.340000 17.600000 93 129 114 0
37.180000 32.340000 17.600000 89 130 117 0
0.000000 32.560000 10.340000 202 212 209 0
0.220000 32.560000 10.340000 201 211 208 0
0.440000 32.560000 10.560000 198 208 205 0
0.660000 32.560000 10.560000 195 205 202 0
0.880000 32.560000 10.560000 191 201 198 0
1.100000 32.560000 10.560000 188 194 189 0
1.320000 32.560000 9.240000 179 185 180 0
1.540000 32.560000 10.780000 174 181 171 0
1.760000 32.560000 12.100000 178 185 175 0
1.980000 32.560000 13.640000 183 193 190 0
2.200000 32.560000 13.640000 187 197 194 0
2.420000 32.560000 13.640000 185 195 189 0
2.640000 32.560000 14.960000 181 191 185 0
2.860000 32.560000 15.180000 177 186 178 0
3.080000 32.560000 15.180000 168 177 169 0
3.300000 32.560000 16.500000 165 167 157 0
3.520000 32.560000 17.380000 160 162 152 0
3.740000 32.560000 18.260000 155 161 148 0
3.960000 32.560000 18.040000 150 156 143 0
4.180000 32.560000 16.720000 146 153 141 0
4.400000 32.560000 16.940000 145 152 140 0
4.620000 32.560000 16.940000 144 151 138 0
4.840000 32.560000 17.160000 142 149 136 0
5.060000 32.560000 17.160000 140 147 134 0
5.280000 32.560000 17.160000 141 148 135 0
5.500000 32.560000 17.160000 139 146 133 0
5.720000 32.560000 18.480000 139 146 133 0
5.940000 32.560000 18.480000 138 145 133 0
6.160000 32.560000 17.160000 137 144 132 0
6.380000 32.560000 16.940000 134 141 128 0
6.600000 32.560000 15.620000 133 140 127 0
6.820000 32.560000 15.620000 128 138 124 0
7.040000 32.560000 15.620000 126 136 122 0
7.260000 32.560000 17.160000 125 135 122 0
7.480000 32.560000 17.160000 122 132 119 0
7.700000 32.560000 17.160000 117 127 113 0
7.920000 32.560000 18.480000 115 125 111 0
8.140000 32.560000 18.700000 113 123 109 0
8.360000 32.560000 18.700000 111 121 107 0
8.580000 32.560000 18.700000 112 122 109 0
8.800000 32.560000 18.700000 111 121 108 0
9.020000 32.560000 17.380000 107 118 105 0
9.240000 32.560000 17.600000 108 119 106 0
9.460000 32.560000 17.820000 108 119 106 0
9.680000 32.560000 16.500000 109 120 107 0
9.900000 32.560000 17.600000 110 122 107 0
10.120000 32.560000 18.480000 109 121 106 0
10.340000 32.560000 21.120000 110 121 108 0
10.560000 32.560000 22.660000 110 121 108 0
10.780000 32.560000 22.880000 111 122 109 0
11.000000 32.560000 24.200000 111 122 109 0
11.220000 32.560000 22.880000 112 124 109 0
11.440000 32.560000 21.560000 112 124 109 0
11.660000 32.560000 22.880000 111 123 108 0
11.880000 32.560000 22.880000 112 124 109 0
12.100000 32.560000 23.100000 112 123 110 0
12.320000 32.560000 21.780000 112 123 110 0
12.540000 32.560000 20.460000 110 126 111 0
12.760000 32.560000 20.460000 111 127 112 0
12.980000 32.560000 22.000000 92 136 118 0
13.200000 32.560000 22.000000 88 132 114 0
13.420000 32.560000 21.780000 85 128 113 0
13.640000 32.560000 21.780000 87 130 115 0
13.860000 32.560000 21.780000 90 132 115 0
14.080000 32.560000 20.240000 90 132 115 0
14.300000 32.560000 18.920000 89 133 115 0
14.520000 32.560000 18.920000 89 133 115 0
14.740000 32.560000 18.920000 88 132 114 0
14.960000 32.560000 17.600000 90 134 116 0
15.180000 32.560000 17.600000 89 132 117 0
15.400000 32.560000 17.600000 89 132 117 0
15.620000 32.560000 17.600000 92 135 120 0
15.840000 32.560000 17.600000 97 140 125 0
16.060000 32.560000 18.920000 97 143 125 0
16.280000 32.560000 17.600000 94 140 122 0
16.500000 32.560000 14.960000 94 142 125 0
16.720000 32.560000 13.640000 97 145 128 0
16.940000 32.560000 13.640000 97 139 124 0
17.160000 32.560000 14.740000 72 114 99 0
17.380000 32.560000 21.120000 63 80 69 0
17.600000 32.560000 23.760000 68 85 74 0
17.820000 32.560000 15.400000 94 120 104 0
18.040000 32.560000 7.260000 113 139 123 0
18.260000 32.560000 7.260000 130 142 127 0
18.480000 32.560000 11.440000 134 146 131 0
18.700000 32.560000 18.480000 134 147 133 0
18.920000 32.560000 25.520000 133 146 132 0
19.140000 32.560000 25.520000 134 147 133 0
19.360000 32.560000 24.200000 133 146 132 0
19.580000 32.560000 21.560000 121 149 132 0
19.800000 32.560000 18.920000 117 145 128 0
20.020000 32.560000 16.280000 100 142 125 0
20.240000 32.560000 17.600000 95 137 120 0
20.460000 32.560000 17.600000 92 130 110 0
20.680000 32.560000 17.600000 88 126 106 0
20.900000 32.560000 20.460000 89 127 111 0
21.120000 32.560000 21.780000 98 136 120 0
21.340000 32.560000 21.340000 109 139 124 0
21.560000 32.560000 18.260000 109 139 124 0
21.780000 32.560000 16.720000 102 140 124 0
22.000000 32.560000 16.940000 102 140 124 0
22.220000 32.560000 17.380000 106 139 123 0
22.440000 32.560000 18.920000 106 139 123 0
22.660000 32.560000 20.460000 107 139 123 0
22.880000 32.560000 21.780000 106 138 122 0
23.100000 32.560000 20.240000 103 133 120 0
23.320000 32.560000 16.060000 100 130 117 0
23.540000 32.560000 13.420000 100 126 110 0
23.760000 32.560000 11.880000 100 126 110 0
23.980000 32.560000 10.780000 102 123 111 0
24.200000 32.560000 10.780000 103 124 112 0
24.420000 32.560000 10.780000 106 123 110 0
24.640000 32.560000 12.100000 105 122 109 0
24.860000 32.560000 12.100000 105 122 109 0
25.080000 32.560000 12.320000 106 123 110 0
25.300000 32.560000 13.640000 100 123 110 0
25.520000 32.560000 13.640000 102 125 112 0
25.740000 32.560000 14.740000 103 123 109 0
25.960000 32.560000 16.940000 103 123 109 0
26.180000 32.560000 16.940000 105 122 109 0
26.400000 32.560000 14.740000 105 122 109 0
26.620000 32.560000 13.640000 102 124 109 0
26.840000 32.560000 14.520000 101 123 108 0
27.060000 32.560000 15.400000 102 124 109 0
27.280000 32.560000 16.720000 102 124 109 0
27.500000 32.560000 16.940000 105 122 109 0
27.720000 32.560000 17.160000 105 122 109 0
27.940000 32.560000 16.060000 108 121 109 0
28.160000 32.560000 16.060000 109 122 110 0
28.380000 32.560000 17.160000 106 122 107 0
28.600000 32.560000 18.260000 107 123 108 0
28.820000 32.560000 19.800000 107 122 110 0
29.040000 32.560000 18.700000 107 122 110 0
29.260000 32.560000 18.920000 108 123 111 0
29.480000 32.560000 18.700000 110 125 113 0
29.700000 32.560000 19.800000 114 125 112 0
29.920000 32.560000 20.020000 115 126 113 0
30.140000 32.560000 18.920000 113 124 111 0
30.360000 32.560000 18.920000 115 126 113 0
30.580000 32.560000 18.920000 114 124 111 0
30.800000 32.560000 18.920000 116 126 113 0
31.020000 32.560000 18.920000 114 125 112 0
31.240000 32.560000 20.460000 115 126 113 0
31.460000 32.560000 20.460000 115 126 113 0
31.680000 32.560000 20.680000 116 127 114 0
31.900000 32.560000 20.460000 117 127 114 0
32.120000 32.560000 21.780000 117 127 114 0
32.340000 32.560000 21.780000 116 127 116 0
32.560000 32.560000 21.560000 115 126 115 0
32.780000 32.560000 21.340000 110 127 114 0
33.000000 32.560000 22.440000 109 126 113 0
33.220000 32.560000 22.440000 101 128 114 0
33.440000 32.560000 22.440000 100 127 113 0
33.660000 32.560000 21.120000 96 126 113 0
33.880000 32.560000 19.800000 94 124 111 0
34.100000 32.560000 18.480000 93 124 111 0
34.320000 32.560000 18.480000 90 121 108 0
34.540000 32.560000 17.160000 89 122 110 0
34.760000 32.560000 18.480000 89 122 110 0
34.980000 32.560000 18.700000 88 121 109 0
35.200000 32.560000 18.700000 90 123 111 0
35.420000 32.560000 18.700000 90 121 110 0
35.640000 32.560000 20.020000 90 121 110 0
35.860000 32.560000 20.020000 90 121 108 0
36.080000 32.560000 20.020000 90 121 108 0
36.300000 32.560000 18.700000 90 123 109 0
36.520000 32.560000 17.380000 92 125 111 0
36.740000 32.560000 16.060000 92 128 113 0
36.960000 32.560000 17.600000 93 129 114 0
37.180000 32.560000 17.600000 90 131 118 0
0.000000 32.780000 11.660000 204 214 211 0
0.220000 32.780000 10.340000 203 213 210 0
0.440000 32.780000 10.560000 200 210 207 0
0.660000 32.780000 10.560000 196 206 203 0
0.880000 32.780000 10.560000 193 203 200 0
1.100000 32.780000 10.560000 188 199 198 0
1.320000 32.780000 10.560000 181 192 191 0
1.540000 32.780000 10.780000 176 185 179 0
1.760000 32.780000 12.100000 166 175 169 0
1.980000 32.780000 12.100000 165 170 159 0
2.200000 32.780000 13.640000 167 172 161 0
2.420000 32.780000 13.640000 172 177 166 0
2.640000 32.780000 13.640000 174 179 168 0
2.860000 32.780000 15.180000 173 175 165 0
3.080000 32.780000 15.180000 166 168 158 0
3.300000 32.780000 15.180000 162 165 153 0
3.520000 32.780000 16.280000 158 161 149 0
3.740000 32.780000 18.480000 151 157 144 0
3.960000 32.780000 18.260000 147 153 140 0
4.180000 32.780000 18.040000 145 152 139 0
4.400000 32.780000 18.260000 143 150 137 0
4.620000 32.780000 18.260000 142 149 137 0
4.840000 32.780000 18.480000 141 148 136 0
5.060000 32.780000 18.480000 138 145 132 0
5.280000 32.780000 18.480000 138 145 132 0
5.500000 32.780000 18.480000 136 146 132 0
5.720000 32.780000 18.480000 134 144 130 0
5.940000 32.780000 18.480000 136 143 131 0
6.160000 32.780000 18.480000 135 142 130 0
6.380000 32.780000 16.940000 131 141 128 0
6.600000 32.780000 16.940000 128 138 125 0
6.820000 32.780000 15.620000 126 136 123 0
7.040000 32.780000 15.620000 122 132 119 0
7.260000 32.780000 17.160000 117 127 114 0
7.480000 32.780000 17.160000 115 125 112 0
7.700000 32.780000 18.480000 113 123 110 0
7.920000 32.780000 18.700000 112 122 109 0
8.140000 32.780000 18.700000 112 122 109 0
8.360000 32.780000 18.700000 111 121 108 0
8.580000 32.780000 17.380000 112 122 109 0
8.800000 32.780000 17.600000 110 120 107 0
9.020000 32.780000 17.600000 109 121 106 0
9.240000 32.780000 16.280000 109 121 106 0
9.460000 32.780000 16.280000 110 120 107 0
9.680000 32.780000 16.500000 110 120 107 0
9.900000 32.780000 16.280000 109 120 107 0
10.120000 32.780000 18.480000 109 120 107 0
10.340000 32.780000 21.120000 110 121 108 0
10.560000 32.780000 22.660000 110 121 108 0
10.780000 32.780000 22.880000 111 121 107 0
11.000000 32.780000 22.880000 112 122 108 0
11.220000 32.780000 22.880000 112 122 109 0
11.440000 32.780000 21.560000 113 123 110 0
11.660000 32.780000 22.880000 112 123 110 0
11.880000 32.780000 22.880000 111 122 109 0
12.100000 32.780000 23.100000 111 122 109 0
12.320000 32.780000 21.780000 111 122 109 0
12.540000 32.780000 20.460000 91 133 116 0
12.760000 32.780000 20.460000 94 136 119 0
12.980000 32.780000 22.000000 93 137 119 0
13.200000 32.780000 22.000000 86 130 112 0
13.420000 32.780000 22.000000 83 127 109 0
13.640000 32.780000 21.780000 85 129 111 0
13.860000 32.780000 23.100000 87 131 113 0
14.080000 32.780000 21.780000 88 132 114 0
14.300000 32.780000 20.240000 90 132 115 0
14.520000 32.780000 20.240000 89 131 114 0
14.740000 32.780000 18.920000 88 132 114 0
14.960000 32.780000 17.600000 90 134 116 0
15.180000 32.780000 16.280000 90 132 115 0
15.400000 32.780000 16.280000 90 132 115 0
15.620000 32.780000 16.280000 90 134 116 0
15.840000 32.780000 16.280000 94 138 120 0
16.060000 32.780000 17.600000 96 138 121 0
16.280000 32.780000 17.600000 96 138 121 0
16.500000 32.780000 16.280000 92 136 118 0
16.720000 32.780000 14.960000 90 134 116 0
16.940000 32.780000 15.180000 89 131 114 0
17.160000 32.780000 16.280000 75 117 100 0
17.380000 32.780000 18.480000 68 85 74 0
17.600000 32.780000 23.760000 64 81 70 0
17.820000 32.780000 23.760000 84 110 94 0
18.040000 32.780000 15.620000 103 129 113 0
18.260000 32.780000 7.260000 113 140 126 0
18.480000 32.780000 7.260000 115 142 128 0
18.700000 32.780000 14.300000 123 143 129 0
18.920000 32.780000 22.660000 123 143 129 0
19.140000 32.780000 26.840000 112 148 131 0
19.360000 32.780000 25.740000 111 147 130 0
19.580000 32.780000 22.880000 109 147 131 0
19.800000 32.780000 17.600000 106 144 128 0
20.020000 32.780000 16.280000 100 140 124 0
20.240000 32.780000 16.280000 94 134 118 0
20.460000 32.780000 17.600000 91 129 113 0
20.680000 32.780000 19.140000 87 125 109 0
20.900000 32.780000 20.460000 83 125 108 0
21.120000 32.780000 22.000000 92 134 117 0
21.340000 32.780000 20.240000 103 141 125 0
21.560000 32.780000 18.260000 101 139 123 0
21.780000 32.780000 18.260000 97 139 122 0
22.000000 32.780000 16.940000 99 141 124 0
22.220000 32.780000 18.700000 105 141 124 0
22.440000 32.780000 20.240000 105 141 124 0
22.660000 32.780000 21.780000 103 143 127 0
22.880000 32.780000 21.780000 103 143 127 0
23.100000 32.780000 20.240000 101 139 123 0
23.320000 32.780000 16.060000 98 136 120 0
23.540000 32.780000 11.880000 97 129 113 0
23.760000 32.780000 10.560000 94 126 110 0
23.980000 32.780000 11.880000 97 123 109 0
24.200000 32.780000 11.880000 97 123 109 0
24.420000 32.780000 11.660000 99 121 106 0
24.640000 32.780000 12.980000 99 121 106 0
24.860000 32.780000 13.200000 98 119 107 0
25.080000 32.780000 13.420000 100 121 109 0
25.300000 32.780000 13.640000 99 122 109 0
25.520000 32.780000 13.640000 98 121 108 0
25.740000 32.780000 14.740000 99 120 108 0
25.960000 32.780000 16.940000 99 120 108 0
26.180000 32.780000 16.720000 101 120 109 0
26.400000 32.780000 15.840000 100 119 108 0
26.620000 32.780000 14.740000 103 118 106 0
26.840000 32.780000 14.520000 104 119 107 0
27.060000 32.780000 15.400000 96 122 108 0
27.280000 32.780000 16.720000 96 122 108 0
27.500000 32.780000 16.940000 99 120 108 0
27.720000 32.780000 17.160000 98 119 107 0
27.940000 32.780000 16.060000 103 120 109 0
28.160000 32.780000 14.740000 103 120 109 0
28.380000 32.780000 17.160000 103 120 109 0
28.600000 32.780000 18.260000 103 120 109 0
28.820000 32.780000 19.580000 101 122 110 0
29.040000 32.780000 18.480000 102 123 111 0
29.260000 32.780000 18.700000 102 121 110 0
29.480000 32.780000 18.700000 104 123 112 0
29.700000 32.780000 20.020000 108 123 113 0
29.920000 32.780000 20.020000 108 123 113 0
30.140000 32.780000 18.920000 109 124 112 0
30.360000 32.780000 18.920000 109 124 112 0
30.580000 32.780000 20.020000 103 126 113 0
30.800000 32.780000 20.020000 104 127 114 0
31.020000 32.780000 20.240000 113 124 113 0
31.240000 32.780000 20.460000 113 124 113 0
31.460000 32.780000 20.680000 114 125 114 0
31.680000 32.780000 20.680000 114 125 114 0
31.900000 32.780000 21.780000 108 127 116 0
32.120000 32.780000 22.660000 108 127 116 0
32.340000 32.780000 23.980000 100 131 118 0
32.560000 32.780000 23.980000 99 130 117 0
32.780000 32.780000 23.760000 97 128 115 0
33.000000 32.780000 23.760000 96 127 114 0
33.220000 32.780000 23.760000 94 127 113 0
33.440000 32.780000 22.440000 93 126 112 0
33.660000 32.780000 21.120000 92 125 113 0
33.880000 32.780000 19.800000 91 124 112 0
34.100000 32.780000 18.480000 90 121 110 0
34.320000 32.780000 18.480000 91 122 111 0
34.540000 32.780000 17.160000 88 121 109 0
34.760000 32.780000 17.160000 88 121 109 0
34.980000 32.780000 17.160000 88 121 109 0
35.200000 32.780000 17.380000 86 119 107 0
35.420000 32.780000 17.380000 89 120 109 0
35.640000 32.780000 18.700000 89 120 109 0
35.860000 32.780000 20.020000 88 121 109 0
36.080000 32.780000 20.240000 88 121 109 0
36.300000 32.780000 18.700000 89 122 108 0
36.520000 32.780000 16.060000 91 124 110 0
36.740000 32.780000 16.060000 90 128 112 0
36.960000 32.780000 17.600000 92 130 114 0
37.180000 32.780000 17.600000 89 132 118 0
0.000000 33.000000 11.660000 204 214 211 0
0.220000 33.000000 11.660000 202 212 209 0
0.440000 33.000000 11.880000 200 210 207 0
0.660000 33.000000 11.880000 197 207 204 0
0.880000 33.000000 11.880000 194 204 201 0
1.100000 33.000000 10.560000 186 197 196 0
1.320000 33.000000 10.560000 183 194 193 0
1.540000 33.000000 10.560000 177 186 180 0
1.760000 33.000000 12.100000 165 174 168 0
1.980000 33.000000 12.100000 159 164 153 0
2.200000 33.000000 12.100000 154 159 148 0
2.420000 33.000000 12.320000 151 156 145 0
2.640000 33.000000 12.320000 152 157 146 0
2.860000 33.000000 13.640000 153 155 145 0
3.080000 33.000000 13.640000 153 155 145 0
3.300000 33.000000 15.180000 153 156 144 0
3.520000 33.000000 14.960000 152 155 143 0
3.740000 33.000000 16.060000 148 154 141 0
3.960000 33.000000 18.480000 146 152 139 0
4.180000 33.000000 18.260000 142 149 136 0
4.400000 33.000000 19.580000 141 148 135 0
4.620000 33.000000 19.580000 140 147 135 0
4.840000 33.000000 19.580000 137 144 132 0
5.060000 33.000000 19.800000 136 143 130 0
5.280000 33.000000 19.800000 136 143 130 0
5.500000 33.000000 19.800000 133 143 129 0
5.720000 33.000000 19.800000 134 144 130 0
5.940000 33.000000 19.800000 134 141 129 0
6.160000 33.000000 18.480000 131 138 126 0
6.380000 33.000000 17.160000 124 134 121 0
6.600000 33.000000 17.160000 121 131 118 0
6.820000 33.000000 17.160000 119 129 116 0
7.040000 33.000000 17.160000 117 127 114 0
7.260000 33.000000 17.160000 115 125 112 0
7.480000 33.000000 17.160000 114 124 111 0
7.700000 33.000000 17.160000 113 123 110 0
7.920000 33.000000 17.380000 113 123 110 0
8.140000 33.000000 17.380000 111 121 108 0
8.360000 33.000000 17.380000 112 122 109 0
8.580000 33.000000 17.600000 112 122 109 0
8.800000 33.000000 17.600000 110 120 107 0
9.020000 33.000000 16.280000 109 121 106 0
9.240000 33.000000 16.280000 110 122 107 0
9.460000 33.000000 14.960000 110 120 107 0
9.680000 33.000000 14.960000 110 120 107 0
9.900000 33.000000 17.380000 110 121 108 0
10.120000 33.000000 19.800000 110 121 108 0
10.340000 33.000000 21.120000 110 121 108 0
10.560000 33.000000 22.660000 111 122 109 0
10.780000 33.000000 22.880000 112 122 108 0
11.000000 33.000000 22.880000 112 122 108 0
11.220000 33.000000 21.560000 114 124 111 0
11.440000 33.000000 21.560000 113 123 110 0
11.660000 33.000000 22.880000 112 123 110 0
11.880000 33.000000 22.880000 111 122 109 0
12.100000 33.000000 23.100000 111 122 109 0
12.320000 33.000000 21.780000 111 122 109 0
12.540000 33.000000 20.460000 93 135 118 0
12.760000 33.000000 22.000000 94 136 119 0
12.980000 33.000000 22.000000 90 134 116 0
13.200000 33.000000 22.000000 86 130 112 0
13.420000 33.000000 22.000000 83 127 109 0
13.640000 33.000000 22.000000 85 129 111 0
13.860000 33.000000 21.780000 87 131 113 0
14.080000 33.000000 23.100000 88 132 114 0
14.300000 33.000000 21.780000 90 132 115 0
14.520000 33.000000 20.240000 91 133 116 0
14.740000 33.000000 18.920000 88 132 114 0
14.960000 33.000000 16.060000 88 132 114 0
15.180000 33.000000 14.740000 89 131 114 0
15.400000 33.000000 14.740000 88 130 113 0
15.620000 33.000000 14.740000 90 134 116 0
15.840000 33.000000 14.740000 92 136 118 0
16.060000 33.000000 16.280000 93 135 118 0
16.280000 33.000000 16.280000 94 136 119 0
16.500000 33.000000 16.280000 94 138 120 0
16.720000 33.000000 14.960000 92 136 118 0
16.940000 33.000000 14.960000 86 128 111 0
17.160000 33.000000 16.500000 75 117 100 0
17.380000 33.000000 17.380000 75 92 81 0
17.600000 33.000000 22.440000 63 80 69 0
17.820000 33.000000 29.260000 70 96 80 0
18.040000 33.000000 25.520000 91 117 101 0
18.260000 33.000000 15.620000 101 128 114 0
18.480000 33.000000 7.260000 107 134 120 0
18.700000 33.000000 10.120000 114 134 120 0
18.920000 33.000000 18.480000 117 137 123 0
19.140000 33.000000 25.520000 109 145 128 0
19.360000 33.000000 25.740000 109 145 128 0
19.580000 33.000000 22.880000 105 143 127 0
19.800000 33.000000 17.600000 103 141 125 0
20.020000 33.000000 14.740000 99 139 123 0
20.240000 33.000000 16.280000 95 135 119 0
20.460000 33.000000 17.600000 93 131 115 0
20.680000 33.000000 19.140000 86 124 108 0
20.900000 33.000000 20.460000 85 127 110 0
21.120000 33.000000 20.680000 93 135 118 0
21.340000 33.000000 18.920000 100 138 122 0
21.560000 33.000000 18.260000 100 138 122 0
21.780000 33.000000 18.260000 97 139 122 0
22.000000 33.000000 18.480000 99 141 124 0
22.220000 33.000000 18.700000 104 140 123 0
22.440000 33.000000 20.240000 104 140 123 0
22.660000 33.000000 20.460000 102 142 126 0
22.880000 33.000000 20.460000 102 142 126 0
23.100000 33.000000 18.920000 103 141 125 0
23.320000 33.000000 14.740000 100 138 122 0
23.540000 33.000000 11.880000 99 131 115 0
23.760000 33.000000 11.880000 95 127 111 0
23.980000 33.000000 13.200000 95 121 107 0
24.200000 33.000000 11.660000 95 121 107 0
24.420000 33.000000 11.660000 97 119 104 0
24.640000 33.000000 12.980000 97 119 104 0
24.860000 33.000000 13.200000 97 118 106 0
25.080000 33.000000 13.420000 97 118 106 0
25.300000 33.000000 13.640000 96 119 106 0
25.520000 33.000000 13.640000 95 118 105 0
25.740000 33.000000 14.740000 97 118 106 0
25.960000 33.000000 15.620000 96 117 105 0
26.180000 33.000000 16.720000 98 117 106 0
26.400000 33.000000 15.620000 97 116 105 0
26.620000 33.000000 14.740000 101 116 104 0
26.840000 33.000000 14.520000 101 116 104 0
27.060000 33.000000 15.400000 93 119 105 0
27.280000 33.000000 15.400000 94 120 106 0
27.500000 33.000000 16.720000 97 118 106 0
27.720000 33.000000 16.940000 97 118 106 0
27.940000 33.000000 15.840000 100 117 106 0
28.160000 33.000000 15.840000 101 118 107 0
28.380000 33.000000 16.940000 102 119 108 0
28.600000 33.000000 18.260000 102 119 108 0
28.820000 33.000000 19.580000 99 120 108 0
29.040000 33.000000 19.800000 99 120 108 0
29.260000 33.000000 18.480000 101 120 109 0
29.480000 33.000000 18.700000 101 120 109 0
29.700000 33.000000 20.020000 105 120 110 0
29.920000 33.000000 20.240000 106 121 111 0
30.140000 33.000000 18.920000 107 122 110 0
30.360000 33.000000 18.920000 106 121 109 0
30.580000 33.000000 20.020000 101 124 111 0
30.800000 33.000000 21.340000 101 124 111 0
31.020000 33.000000 20.240000 111 122 111 0
31.240000 33.000000 20.460000 110 121 110 0
31.460000 33.000000 20.680000 111 122 111 0
31.680000 33.000000 20.680000 112 123 112 0
31.900000 33.000000 21.560000 108 127 116 0
32.120000 33.000000 22.440000 107 126 115 0
32.340000 33.000000 23.540000 98 129 116 0
32.560000 33.000000 23.760000 94 125 112 0
32.780000 33.000000 25.300000 92 123 110 0
33.000000 33.000000 25.300000 92 123 110 0
33.220000 33.000000 25.300000 91 124 110 0
33.440000 33.000000 23.980000 91 124 110 0
33.660000 33.000000 21.340000 90 123 111 0
33.880000 33.000000 18.480000 90 123 111 0
34.100000 33.000000 18.700000 89 120 109 0
34.320000 33.000000 18.700000 89 120 109 0
34.540000 33.000000 17.160000 88 121 109 0
34.760000 33.000000 17.160000 86 119 107 0
34.980000 33.000000 17.380000 86 119 107 0
35.200000 33.000000 17.380000 87 120 108 0
35.420000 33.000000 17.380000 88 119 108 0
35.640000 33.000000 17.380000 88 119 108 0
35.860000 33.000000 18.700000 88 121 109 0
36.080000 33.000000 18.700000 87 120 108 0
36.300000 33.000000 18.700000 88 121 107 0
36.520000 33.000000 16.060000 91 124 110 0
36.740000 33.000000 16.060000 89 127 111 0
36.960000 33.000000 16.280000 91 129 113 0
37.180000 33.000000 17.600000 88 131 117 0
0.000000 33.220000 11.660000 203 213 210 0
0.220000 33.220000 11.660000 202 210 208 0
0.440000 33.220000 11.880000 200 208 206 0
0.660000 33.220000 11.880000 197 205 203 0
0.880000 33.220000 11.880000 194 202 200 0
1.100000 33.220000 11.880000 187 196 196 0
1.320000 33.220000 10.560000 180 189 189 0
1.540000 33.220000 10.560000 173 180 170 0
1.760000 33.220000 12.100000 163 170 160 0
1.980000 33.220000 12.100000 154 161 148 0
2.200000 33.220000 12.100000 150 157 144 0
2.420000 33.220000 12.320000 146 153 140 0
2.640000 33.220000 12.320000 143 150 137 0
2.860000 33.220000 12.320000 141 146 135 0
3.080000 33.220000 12.320000 139 144 133 0
3.300000 33.220000 13.640000 138 143 132 0
3.520000 33.220000 15.180000 137 142 131 0
3.740000 33.220000 14.960000 136 143 130 0
3.960000 33.220000 16.280000 135 142 129 0
4.180000 33.220000 18.700000 134 141 128 0
4.400000 33.220000 19.580000 132 139 126 0
4.620000 33.220000 20.900000 133 140 128 0
4.840000 33.220000 20.900000 132 139 127 0
5.060000 33.220000 21.120000 130 137 125 0
5.280000 33.220000 21.120000 127 134 122 0
5.500000 33.220000 21.120000 126 133 121 0
5.720000 33.220000 19.800000 125 132 120 0
5.940000 33.220000 19.800000 121 131 117 0
6.160000 33.220000 18.480000 119 129 115 0
6.380000 33.220000 17.160000 118 128 115 0
6.600000 33.220000 17.160000 115 125 112 0
6.820000 33.220000 15.840000 115 125 112 0
7.040000 33.220000 15.840000 113 123 110 0
7.260000 33.220000 17.160000 114 124 111 0
7.480000 33.220000 17.380000 113 123 110 0
7.700000 33.220000 17.380000 112 122 109 0
7.920000 33.220000 17.380000 112 122 109 0
8.140000 33.220000 16.060000 110 121 108 0
8.360000 33.220000 16.060000 111 122 109 0
8.580000 33.220000 16.280000 110 121 108 0
8.800000 33.220000 16.280000 109 120 107 0
9.020000 33.220000 16.280000 111 121 108 0
9.240000 33.220000 14.740000 111 121 108 0
9.460000 33.220000 14.960000 111 121 107 0
9.680000 33.220000 16.280000 110 120 106 0
9.900000 33.220000 17.160000 109 120 107 0
10.120000 33.220000 19.580000 110 121 108 0
10.340000 33.220000 21.120000 110 121 108 0
10.560000 33.220000 22.880000 110 121 108 0
10.780000 33.220000 22.880000 111 122 109 0
11.000000 33.220000 21.560000 111 122 109 0
11.220000 33.220000 20.240000 111 121 107 0
11.440000 33.220000 21.560000 112 122 108 0
11.660000 33.220000 22.880000 111 122 109 0
11.880000 33.220000 23.100000 111 122 109 0
12.100000 33.220000 21.780000 111 124 110 0
12.320000 33.220000 21.780000 109 122 108 0
12.540000 33.220000 20.460000 93 135 118 0
12.760000 33.220000 22.000000 95 137 120 0
12.980000 33.220000 22.000000 90 134 116 0
13.200000 33.220000 22.000000 86 130 112 0
13.420000 33.220000 22.000000 86 128 111 0
13.640000 33.220000 22.000000 86 128 111 0
13.860000 33.220000 21.780000 88 130 113 0
14.080000 33.220000 23.100000 89 131 114 0
14.300000 33.220000 23.100000 89 131 114 0
14.520000 33.220000 20.240000 90 132 115 0
14.740000 33.220000 17.600000 88 132 114 0
14.960000 33.220000 14.740000 88 132 114 0
15.180000 33.220000 13.420000 89 131 114 0
15.400000 33.220000 13.420000 88 130 113 0
15.620000 33.220000 13.420000 91 131 115 0
15.840000 33.220000 14.740000 92 132 116 0
16.060000 33.220000 14.960000 91 133 116 0
16.280000 33.220000 14.960000 93 135 118 0
16.500000 33.220000 16.280000 96 138 121 0
16.720000 33.220000 16.280000 96 138 121 0
16.940000 33.220000 14.960000 91 133 116 0
17.160000 33.220000 15.180000 77 119 102 0
17.380000 33.220000 16.280000 69 107 91 0
17.600000 33.220000 19.800000 53 91 75 0
17.820000 33.220000 26.620000 64 85 73 0
18.040000 33.220000 31.240000 82 103 91 0
18.260000 33.220000 27.060000 89 115 97 0
18.480000 33.220000 15.620000 96 122 104 0
18.700000 33.220000 10.120000 96 136 120 0
18.920000 33.220000 15.840000 99 139 123 0
19.140000 33.220000 22.880000 102 142 126 0
19.360000 33.220000 25.740000 102 142 126 0
19.580000 33.220000 22.880000 100 140 124 0
19.800000 33.220000 17.600000 99 139 123 0
20.020000 33.220000 14.960000 98 140 123 0
20.240000 33.220000 14.960000 96 138 121 0
20.460000 33.220000 16.280000 93 133 117 0
20.680000 33.220000 17.600000 88 128 112 0
20.900000 33.220000 19.140000 90 130 114 0
21.120000 33.220000 19.140000 95 135 119 0
21.340000 33.220000 17.600000 96 136 120 0
21.560000 33.220000 18.260000 96 136 120 0
21.780000 33.220000 18.260000 97 137 121 0
22.000000 33.220000 18.260000 100 140 124 0
22.220000 33.220000 18.480000 100 140 124 0
22.440000 33.220000 20.020000 100 140 124 0
22.660000 33.220000 21.560000 100 140 124 0
22.880000 33.220000 20.240000 101 141 125 0
23.100000 33.220000 17.380000 103 141 125 0
23.320000 33.220000 14.520000 100 138 122 0
23.540000 33.220000 13.200000 99 132 116 0
23.760000 33.220000 14.520000 92 125 109 0
23.980000 33.220000 15.840000 91 118 104 0
24.200000 33.220000 14.520000 91 118 104 0
24.420000 33.220000 12.980000 91 117 103 0
24.640000 33.220000 11.660000 90 116 102 0
24.860000 33.220000 11.880000 88 115 101 0
25.080000 33.220000 13.420000 89 116 102 0
25.300000 33.220000 13.420000 93 116 103 0
25.520000 33.220000 13.420000 93 116 103 0
25.740000 33.220000 14.520000 93 116 103 0
25.960000 33.220000 15.400000 93 116 103 0
26.180000 33.220000 15.400000 94 115 103 0
26.400000 33.220000 14.300000 95 116 104 0
26.620000 33.220000 13.200000 93 116 103 0
26.840000 33.220000 14.520000 94 117 104 0
27.060000 33.220000 15.400000 95 116 104 0
27.280000 33.220000 15.400000 96 117 105 0
27.500000 33.220000 15.400000 95 118 105 0
27.720000 33.220000 15.400000 94 117 104 0
27.940000 33.220000 15.620000 94 117 104 0
28.160000 33.220000 15.620000 96 119 106 0
28.380000 33.220000 16.940000 97 119 104 0
28.600000 33.220000 18.260000 97 119 104 0
28.820000 33.220000 18.260000 95 118 105 0
29.040000 33.220000 18.480000 97 120 107 0
29.260000 33.220000 18.700000 95 121 107 0
29.480000 33.220000 18.700000 94 120 106 0
29.700000 33.220000 18.700000 99 121 106 0
29.920000 33.220000 18.700000 100 122 107 0
30.140000 33.220000 18.920000 102 123 111 0
30.360000 33.220000 18.920000 101 122 110 0
30.580000 33.220000 20.020000 99 122 109 0
30.800000 33.220000 21.340000 100 123 110 0
31.020000 33.220000 21.560000 98 124 110 0
31.240000 33.220000 20.460000 99 125 111 0
31.460000 33.220000 20.680000 96 126 111 0
31.680000 33.220000 20.460000 99 129 114 0
31.900000 33.220000 21.340000 95 131 118 0
32.120000 33.220000 22.220000 94 130 117 0
32.340000 33.220000 23.760000 94 127 113 0
32.560000 33.220000 23.760000 90 123 109 0
32.780000 33.220000 25.300000 89 122 108 0
33.000000 33.220000 25.300000 90 123 109 0
33.220000 33.220000 23.980000 89 122 108 0
33.440000 33.220000 22.660000 89 122 108 0
33.660000 33.220000 21.340000 89 122 110 0
33.880000 33.220000 18.700000 88 121 109 0
34.100000 33.220000 18.700000 88 121 109 0
34.320000 33.220000 17.380000 88 121 109 0
34.540000 33.220000 17.380000 87 120 106 0
34.760000 33.220000 17.380000 86 119 105 0
34.980000 33.220000 17.380000 86 119 105 0
35.200000 33.220000 16.060000 86 119 105 0
35.420000 33.220000 16.060000 86 119 107 0
35.640000 33.220000 17.380000 86 119 107 0
35.860000 33.220000 18.700000 86 119 107 0
36.080000 33.220000 18.700000 87 120 108 0
36.300000 33.220000 17.380000 88 121 107 0
36.520000 33.220000 16.060000 89 122 108 0
36.740000 33.220000 16.060000 90 126 113 0
36.960000 33.220000 17.600000 91 127 114 0
37.180000 33.220000 17.600000 88 130 115 0
0.000000 33.440000 11.660000 201 211 208 0
0.220000 33.440000 11.660000 200 208 206 0
0.440000 33.440000 13.200000 199 207 205 0
0.660000 33.440000 13.200000 196 204 202 0
0.880000 33.440000 13.200000 191 199 197 0
1.100000 33.440000 11.880000 184 193 193 0
1.320000 33.440000 12.100000 174 183 183 0
1.540000 33.440000 12.100000 167 174 164 0
1.760000 33.440000 12.100000 158 165 155 0
1.980000 33.440000 12.100000 151 158 145 0
2.200000 33.440000 12.100000 147 154 141 0
2.420000 33.440000 12.320000 143 150 137 0
2.640000 33.440000 12.320000 140 147 134 0
2.860000 33.440000 12.320000 139 144 133 0
3.080000 33.440000 12.320000 136 141 130 0
3.300000 33.440000 13.640000 135 140 129 0
3.520000 33.440000 15.180000 134 139 128 0
3.740000 33.440000 15.180000 132 139 126 0
3.960000 33.440000 16.500000 130 137 124 0
4.180000 33.440000 17.600000 128 135 122 0
4.400000 33.440000 19.800000 128 135 122 0
4.620000 33.440000 20.900000 127 134 122 0
4.840000 33.440000 20.900000 126 133 121 0
5.060000 33.440000 20.900000 124 131 119 0
5.280000 33.440000 21.120000 123 130 118 0
5.500000 33.440000 21.340000 122 129 117 0
5.720000 33.440000 19.800000 120 127 115 0
5.940000 33.440000 18.480000 118 128 114 0
6.160000 33.440000 17.160000 117 127 113 0
6.380000 33.440000 17.160000 115 125 112 0
6.600000 33.440000 15.840000 115 125 112 0
6.820000 33.440000 15.840000 115 125 112 0
7.040000 33.440000 16.060000 113 123 110 0
7.260000 33.440000 16.060000 114 124 111 0
7.480000 33.440000 16.060000 113 123 110 0
7.700000 33.440000 16.060000 112 122 109 0
7.920000 33.440000 16.060000 112 122 109 0
8.140000 33.440000 14.740000 111 122 109 0
8.360000 33.440000 14.740000 111 122 109 0
8.580000 33.440000 16.280000 110 121 108 0
8.800000 33.440000 16.060000 110 121 108 0
9.020000 33.440000 16.060000 111 121 108 0
9.240000 33.440000 14.740000 110 120 107 0
9.460000 33.440000 14.960000 111 121 107 0
9.680000 33.440000 16.060000 111 121 107 0
9.900000 33.440000 18.480000 108 119 106 0
10.120000 33.440000 19.580000 109 120 107 0
10.340000 33.440000 21.340000 109 120 107 0
10.560000 33.440000 21.340000 111 122 109 0
10.780000 33.440000 22.880000 111 122 109 0
11.000000 33.440000 21.560000 111 122 109 0
11.220000 33.440000 20.240000 112 122 108 0
11.440000 33.440000 21.560000 113 123 109 0
11.660000 33.440000 22.880000 110 121 108 0
11.880000 33.440000 23.100000 111 122 109 0
12.100000 33.440000 21.780000 110 123 109 0
12.320000 33.440000 21.780000 111 124 110 0
12.540000 33.440000 20.460000 94 136 119 0
12.760000 33.440000 22.000000 93 135 118 0
12.980000 33.440000 22.000000 89 133 115 0
13.200000 33.440000 22.000000 87 131 113 0
13.420000 33.440000 22.000000 87 129 112 0
13.640000 33.440000 22.000000 88 130 113 0
13.860000 33.440000 22.000000 89 131 114 0
14.080000 33.440000 23.320000 89 131 114 0
14.300000 33.440000 23.320000 89 131 114 0
14.520000 33.440000 20.240000 89 131 114 0
14.740000 33.440000 17.380000 89 133 115 0
14.960000 33.440000 14.740000 88 132 114 0
15.180000 33.440000 13.420000 89 131 114 0
15.400000 33.440000 12.100000 90 132 115 0
15.620000 33.440000 13.420000 92 132 116 0
15.840000 33.440000 13.420000 90 130 114 0
16.060000 33.440000 13.640000 89 131 114 0
16.280000 33.440000 14.960000 91 133 116 0
16.500000 33.440000 16.280000 95 137 120 0
16.720000 33.440000 16.280000 99 141 124 0
16.940000 33.440000 14.960000 95 137 120 0
17.160000 33.440000 14.960000 89 131 114 0
17.380000 33.440000 16.280000 87 125 109 0
17.600000 33.440000 18.480000 75 113 97 0
17.820000 33.440000 23.980000 70 91 79 0
18.040000 33.440000 29.920000 70 91 79 0
18.260000 33.440000 31.460000 79 105 87 0
18.480000 33.440000 22.660000 86 112 94 0
18.700000 33.440000 14.300000 87 127 111 0
18.920000 33.440000 14.300000 98 138 122 0
19.140000 33.440000 21.340000 100 140 124 0
19.360000 33.440000 25.520000 100 140 124 0
19.580000 33.440000 24.420000 98 138 122 0
19.800000 33.440000 18.920000 99 139 123 0
20.020000 33.440000 14.960000 99 141 124 0
20.240000 33.440000 13.640000 98 140 123 0
20.460000 33.440000 14.960000 96 136 120 0
20.680000 33.440000 16.280000 93 133 117 0
20.900000 33.440000 17.820000 93 133 117 0
21.120000 33.440000 17.820000 96 136 120 0
21.340000 33.440000 17.600000 96 136 120 0
21.560000 33.440000 18.260000 96 136 120 0
21.780000 33.440000 18.260000 97 137 121 0
22.000000 33.440000 18.260000 98 138 122 0
22.220000 33.440000 19.800000 99 139 123 0
22.440000 33.440000 21.340000 98 138 122 0
22.660000 33.440000 22.660000 100 140 124 0
22.880000 33.440000 21.120000 100 140 124 0
23.100000 33.440000 18.480000 101 139 123 0
23.320000 33.440000 15.840000 96 134 118 0
23.540000 33.440000 17.160000 94 127 111 0
23.760000 33.440000 20.020000 89 122 106 0
23.980000 33.440000 20.020000 90 117 103 0
24.200000 33.440000 17.160000 88 115 101 0
24.420000 33.440000 12.980000 89 115 101 0
24.640000 33.440000 11.660000 88 114 100 0
24.860000 33.440000 11.880000 86 113 99 0
25.080000 33.440000 11.880000 86 113 99 0
25.300000 33.440000 13.420000 90 113 100 0
25.520000 33.440000 12.100000 90 113 100 0
25.740000 33.440000 13.200000 90 113 100 0
25.960000 33.440000 14.080000 90 113 100 0
26.180000 33.440000 15.180000 91 112 100 0
26.400000 33.440000 14.080000 92 113 101 0
26.620000 33.440000 13.200000 91 114 101 0
26.840000 33.440000 12.980000 90 113 100 0
27.060000 33.440000 14.080000 92 113 101 0
27.280000 33.440000 15.400000 93 114 102 0
27.500000 33.440000 15.400000 92 115 102 0
27.720000 33.440000 15.400000 93 116 103 0
27.940000 33.440000 16.940000 93 116 103 0
28.160000 33.440000 16.940000 93 116 103 0
28.380000 33.440000 16.940000 94 116 101 0
28.600000 33.440000 18.260000 95 117 102 0
28.820000 33.440000 18.480000 94 117 104 0
29.040000 33.440000 18.480000 94 117 104 0
29.260000 33.440000 18.700000 92 118 104 0
29.480000 33.440000 18.700000 93 119 105 0
29.700000 33.440000 18.700000 98 120 105 0
29.920000 33.440000 18.700000 99 121 106 0
30.140000 33.440000 18.920000 99 120 108 0
30.360000 33.440000 17.600000 99 120 108 0
30.580000 33.440000 18.920000 99 122 109 0
30.800000 33.440000 20.240000 99 122 109 0
31.020000 33.440000 20.460000 96 122 108 0
31.240000 33.440000 20.460000 98 124 110 0
31.460000 33.440000 20.460000 97 127 112 0
31.680000 33.440000 20.240000 99 129 114 0
31.900000 33.440000 21.120000 94 130 117 0
32.120000 33.440000 22.220000 92 128 115 0
32.340000 33.440000 23.760000 91 124 110 0
32.560000 33.440000 23.760000 90 123 109 0
32.780000 33.440000 23.980000 89 122 108 0
33.000000 33.440000 23.980000 88 121 107 0
33.220000 33.440000 22.660000 88 121 107 0
33.440000 33.440000 21.340000 88 121 107 0
33.660000 33.440000 20.020000 88 121 109 0
33.880000 33.440000 18.700000 88 121 109 0
34.100000 33.440000 18.700000 86 119 107 0
34.320000 33.440000 17.380000 86 119 107 0
34.540000 33.440000 17.380000 86 119 105 0
34.760000 33.440000 17.380000 86 119 105 0
34.980000 33.440000 16.060000 85 118 104 0
35.200000 33.440000 16.060000 85 118 104 0
35.420000 33.440000 16.060000 86 119 107 0
35.640000 33.440000 17.380000 87 120 108 0
35.860000 33.440000 17.380000 86 119 107 0
36.080000 33.440000 18.920000 86 119 107 0
36.300000 33.440000 17.380000 88 121 107 0
36.520000 33.440000 16.060000 89 122 108 0
36.740000 33.440000 16.060000 89 125 112 0
36.960000 33.440000 17.600000 91 127 114 0
37.180000 33.440000 17.600000 89 131 116 0
0.000000 33.660000 12.980000 200 210 207 0
0.220000 33.660000 13.200000 199 207 205 0
0.440000 33.660000 13.200000 196 204 202 0
0.660000 33.660000 13.200000 192 202 198 0
0.880000 33.660000 13.200000 186 196 192 0
1.100000 33.660000 11.880000 184 188 184 0
1.320000 33.660000 12.100000 172 176 172 0
1.540000 33.660000 12.100000 161 168 156 0
1.760000 33.660000 13.420000 151 158 146 0
1.980000 33.660000 13.640000 148 155 143 0
2.200000 33.660000 13.640000 145 152 140 0
2.420000 33.660000 13.640000 142 147 136 0
2.640000 33.660000 13.640000 139 144 133 0
2.860000 33.660000 13.640000 136 143 131 0
3.080000 33.660000 13.640000 133 140 128 0
3.300000 33.660000 15.180000 133 140 128 0
3.520000 33.660000 15.180000 132 139 127 0
3.740000 33.660000 16.500000 131 138 126 0
3.960000 33.660000 16.500000 129 136 124 0
4.180000 33.660000 17.820000 127 134 122 0
4.400000 33.660000 20.240000 126 133 121 0
4.620000 33.660000 21.340000 126 133 120 0
4.840000 33.660000 21.120000 124 131 118 0
5.060000 33.660000 21.120000 123 130 118 0
5.280000 33.660000 21.120000 123 130 118 0
5.500000 33.660000 20.020000 121 128 116 0
5.720000 33.660000 18.700000 120 127 115 0
5.940000 33.660000 17.380000 119 126 114 0
6.160000 33.660000 15.840000 119 126 114 0
6.380000 33.660000 15.840000 117 124 112 0
6.600000 33.660000 14.520000 117 124 112 0
6.820000 33.660000 14.740000 114 124 111 0
7.040000 33.660000 14.740000 115 125 112 0
7.260000 33.660000 14.740000 113 123 110 0
7.480000 33.660000 14.740000 113 123 110 0
7.700000 33.660000 14.740000 113 123 110 0
7.920000 33.660000 14.740000 113 123 110 0
8.140000 33.660000 14.740000 111 121 108 0
8.360000 33.660000 14.740000 112 122 109 0
8.580000 33.660000 14.740000 111 121 108 0
8.800000 33.660000 14.740000 110 120 107 0
9.020000 33.660000 14.740000 110 120 107 0
9.240000 33.660000 14.740000 111 121 108 0
9.460000 33.660000 14.740000 110 120 107 0
9.680000 33.660000 16.060000 110 120 107 0
9.900000 33.660000 17.160000 110 120 107 0
10.120000 33.660000 19.800000 109 119 106 0
10.340000 33.660000 21.340000 109 120 107 0
10.560000 33.660000 21.560000 109 120 107 0
10.780000 33.660000 21.560000 110 121 108 0
11.000000 33.660000 20.240000 111 122 109 0
11.220000 33.660000 20.240000 112 122 109 0
11.440000 33.660000 21.560000 112 122 109 0
11.660000 33.660000 22.880000 112 122 109 0
11.880000 33.660000 21.560000 112 122 109 0
12.100000 33.660000 21.780000 105 125 111 0
12.320000 33.660000 21.780000 107 127 113 0
12.540000 33.660000 22.000000 96 136 122 0
12.760000 33.660000 22.000000 92 132 118 0
12.980000 33.660000 22.000000 90 132 117 0
13.200000 33.660000 22.000000 88 130 115 0
13.420000 33.660000 22.000000 89 131 114 0
13.640000 33.660000 22.000000 89 131 114 0
13.860000 33.660000 20.680000 89 129 113 0
14.080000 33.660000 22.000000 89 129 113 0
14.300000 33.660000 22.000000 89 129 115 0
14.520000 33.660000 20.240000 89 129 115 0
14.740000 33.660000 17.380000 89 131 116 0
14.960000 33.660000 14.740000 89 131 116 0
15.180000 33.660000 12.100000 90 132 117 0
15.400000 33.660000 12.100000 90 132 117 0
15.620000 33.660000 13.420000 91 131 115 0
