ply
format ascii 1.0
element vertex 1127
property float x
property float y
property float z
property uchar red
property uchar green
property uchar blue
property uchar alpha
end_header
24.420000 32.560000 5.390000 106 123 110 0
24.640000 32.560000 6.050000 105 122 109 0
24.860000 32.560000 6.050000 105 122 109 0
25.080000 32.560000 6.160000 106 123 110 0
25.300000 32.560000 6.820000 100 123 110 0
25.520000 32.560000 6.820000 102 125 112 0
25.740000 32.560000 7.370000 103 123 109 0
25.960000 32.560000 8.470000 103 123 109 0
26.180000 32.560000 8.470000 105 122 109 0
26.400000 32.560000 7.370000 105 122 109 0
26.620000 32.560000 6.820000 102 124 109 0
26.840000 32.560000 7.260000 101 123 108 0
27.060000 32.560000 7.700000 102 124 109 0
27.280000 32.560000 8.360000 102 124 109 0
27.500000 32.560000 8.470000 105 122 109 0
27.720000 32.560000 8.580000 105 122 109 0
27.940000 32.560000 8.030000 108 121 109 0
28.160000 32.560000 8.030000 109 122 110 0
28.380000 32.560000 8.580000 106 122 107 0
28.600000 32.560000 9.130000 107 123 108 0
28.820000 32.560000 9.900000 107 122 110 0
29.040000 32.560000 9.350000 107 122 110 0
29.260000 32.560000 9.460000 108 123 111 0
29.480000 32.560000 9.350000 110 125 113 0
29.700000 32.560000 9.900000 114 125 112 0
29.920000 32.560000 10.010000 115 126 113 0
30.140000 32.560000 9.460000 113 124 111 0
30.360000 32.560000 9.460000 115 126 113 0
30.580000 32.560000 9.460000 114 124 111 0
30.800000 32.560000 9.460000 116 126 113 0
31.020000 32.560000 9.460000 114 125 112 0
31.240000 32.560000 10.230000 115 126 113 0
31.460000 32.560000 10.230000 115 126 113 0
31.680000 32.560000 10.340000 116 127 114 0
31.900000 32.560000 10.230000 117 127 114 0
32.120000 32.560000 10.890000 117 127 114 0
32.340000 32.560000 10.890000 116 127 116 0
32.560000 32.560000 10.780000 115 126 115 0
32.780000 32.560000 10.670000 110 127 114 0
33.000000 32.560000 11.220000 109 126 113 0
33.220000 32.560000 11.220000 101 128 114 0
33.440000 32.560000 11.220000 100 127 113 0
33.660000 32.560000 10.560000 96 126 113 0
33.880000 32.560000 9.900000 94 124 111 0
34.100000 32.560000 9.240000 93 124 111 0
34.320000 32.560000 9.240000 90 121 108 0
34.540000 32.560000 8.580000 89 122 110 0
34.760000 32.560000 9.240000 89 122 110 0
34.980000 32.560000 9.350000 88 121 109 0
35.200000 32.560000 9.350000 90 123 111 0
35.420000 32.560000 9.350000 90 121 110 0
35.640000 32.560000 10.010000 90 121 110 0
35.860000 32.560000 10.010000 90 121 108 0
36.080000 32.560000 10.010000 90 121 108 0
36.300000 32.560000 9.350000 90 123 109 0
36.520000 32.560000 8.690000 92 125 111 0
36.740000 32.560000 8.030000 92 128 113 0
36.960000 32.560000 8.800000 93 129 114 0
37.180000 32.560000 8.800000 90 131 118 0
0.000000 32.780000 5.830000 204 214 211 0
0.220000 32.780000 5.170000 203 213 210 0
0.440000 32.780000 5.280000 200 210 207 0
0.660000 32.780000 5.280000 196 206 203 0
0.880000 32.780000 5.280000 193 203 200 0
1.100000 32.780000 5.280000 188 199 198 0
1.320000 32.780000 5.280000 181 192 191 0
1.540000 32.780000 5.390000 176 185 179 0
1.760000 32.780000 6.050000 166 175 169 0
1.980000 32.780000 6.050000 165 170 159 0
2.200000 32.780000 6.820000 167 172 161 0
2.420000 32.780000 6.820000 172 177 166 0
2.640000 32.780000 6.820000 174 179 168 0
2.860000 32.780000 7.590000 173 175 165 0
3.080000 32.780000 7.590000 166 168 158 0
3.300000 32.780000 7.590000 162 165 153 0
3.520000 32.780000 8.140000 158 161 149 0
3.740000 32.780000 9.240000 151 157 144 0
3.960000 32.780000 9.130000 147 153 140 0
4.180000 32.780000 9.020000 145 152 139 0
4.400000 32.780000 9.130000 143 150 137 0
4.620000 32.780000 9.130000 142 149 137 0
4.840000 32.780000 9.240000 141 148 136 0
5.060000 32.780000 9.240000 138 145 132 0
5.280000 32.780000 9.240000 138 145 132 0
5.500000 32.780000 9.240000 136 146 132 0
5.720000 32.780000 9.240000 134 144 130 0
5.940000 32.780000 9.240000 136 143 131 0
6.160000 32.780000 9.240000 135 142 130 0
6.380000 32.780000 8.470000 131 141 128 0
6.600000 32.780000 8.470000 128 138 125 0
6.820000 32.780000 7.810000 126 136 123 0
7.040000 32.780000 7.810000 122 132 119 0
7.260000 32.780000 8.580000 117 127 114 0
7.480000 32.780000 8.580000 115 125 112 0
7.700000 32.780000 9.240000 113 123 110 0
7.920000 32.780000 9.350000 112 122 109 0
8.140000 32.780000 9.350000 112 122 109 0
8.360000 32.780000 9.350000 111 121 108 0
8.580000 32.780000 8.690000 112 122 109 0
8.800000 32.780000 8.800000 110 120 107 0
9.020000 32.780000 8.800000 109 121 106 0
9.240000 32.780000 8.140000 109 121 106 0
9.460000 32.780000 8.140000 110 120 107 0
9.680000 32.780000 8.250000 110 120 107 0
9.900000 32.780000 8.140000 109 120 107 0
10.120000 32.780000 9.240000 109 120 107 0
10.340000 32.780000 10.560000 110 121 108 0
10.560000 32.780000 11.330000 110 121 108 0
10.780000 32.780000 11.440000 111 121 107 0
11.000000 32.780000 11.440000 112 122 108 0
11.220000 32.780000 11.440000 112 122 109 0
11.440000 32.780000 10.780000 113 123 110 0
11.660000 32.780000 11.440000 112 123 110 0
11.880000 32.780000 11.440000 111 122 109 0
12.100000 32.780000 11.550000 111 122 109 0
12.320000 32.780000 10.890000 111 122 109 0
12.540000 32.780000 10.230000 91 133 116 0
12.760000 32.780000 10.230000 94 136 119 0
12.980000 32.780000 11.000000 93 137 119 0
13.200000 32.780000 11.000000 86 130 112 0
13.420000 32.780000 11.000000 83 127 109 0
13.640000 32.780000 10.890000 85 129 111 0
13.860000 32.780000 11.550000 87 131 113 0
14.080000 32.780000 10.890000 88 132 114 0
14.300000 32.780000 10.120000 90 132 115 0
14.520000 32.780000 10.120000 89 131 114 0
14.740000 32.780000 9.460000 88 132 114 0
14.960000 32.780000 8.800000 90 134 116 0
15.180000 32.780000 8.140000 90 132 115 0
15.400000 32.780000 8.140000 90 132 115 0
15.620000 32.780000 8.140000 90 134 116 0
15.840000 32.780000 8.140000 94 138 120 0
16.060000 32.780000 8.800000 96 138 121 0
16.280000 32.780000 8.800000 96 138 121 0
16.500000 32.780000 8.140000 92 136 118 0
16.720000 32.780000 7.480000 90 134 116 0
16.940000 32.780000 7.590000 89 131 114 0
17.160000 32.780000 8.140000 75 117 100 0
17.380000 32.780000 9.240000 68 85 74 0
17.600000 32.780000 11.880000 64 81 70 0
17.820000 32.780000 11.880000 84 110 94 0
18.040000 32.780000 7.810000 103 129 113 0
18.260000 32.780000 3.630000 113 140 126 0
18.480000 32.780000 3.630000 115 142 128 0
18.700000 32.780000 7.150000 123 143 129 0
18.920000 32.780000 11.330000 123 143 129 0
19.140000 32.780000 13.420000 112 148 131 0
19.360000 32.780000 12.870000 111 147 130 0
19.580000 32.780000 11.440000 109 147 131 0
19.800000 32.780000 8.800000 106 144 128 0
20.020000 32.780000 8.140000 100 140 124 0
20.240000 32.780000 8.140000 94 134 118 0
20.460000 32.780000 8.800000 91 129 113 0
20.680000 32.780000 9.570000 87 125 109 0
20.900000 32.780000 10.230000 83 125 108 0
21.120000 32.780000 11.000000 92 134 117 0
21.340000 32.780000 10.120000 103 141 125 0
21.560000 32.780000 9.130000 101 139 123 0
21.780000 32.780000 9.130000 97 139 122 0
22.000000 32.780000 8.470000 99 141 124 0
22.220000 32.780000 9.350000 105 141 124 0
22.440000 32.780000 10.120000 105 141 124 0
22.660000 32.780000 10.890000 103 143 127 0
22.880000 32.780000 10.890000 103 143 127 0
23.100000 32.780000 10.120000 101 139 123 0
23.320000 32.780000 8.030000 98 136 120 0
23.540000 32.780000 5.940000 97 129 113 0
23.760000 32.780000 5.280000 94 126 110 0
23.980000 32.780000 5.940000 97 123 109 0
24.200000 32.780000 5.940000 97 123 109 0
24.420000 32.780000 5.830000 99 121 106 0
24.640000 32.780000 6.490000 99 121 106 0
24.860000 32.780000 6.600000 98 119 107 0
25.080000 32.780000 6.710000 100 121 109 0
25.300000 32.780000 6.820000 99 122 109 0
25.520000 32.780000 6.820000 98 121 108 0
25.740000 32.780000 7.370000 99 120 108 0
25.960000 32.780000 8.470000 99 120 108 0
26.180000 32.780000 8.360000 101 120 109 0
26.400000 32.780000 7.920000 100 119 108 0
26.620000 32.780000 7.370000 103 118 106 0
26.840000 32.780000 7.260000 104 119 107 0
27.060000 32.780000 7.700000 96 122 108 0
27.280000 32.780000 8.360000 96 122 108 0
27.500000 32.780000 8.470000 99 120 108 0
27.720000 32.780000 8.580000 98 119 107 0
27.940000 32.780000 8.030000 103 120 109 0
28.160000 32.780000 7.370000 103 120 109 0
28.380000 32.780000 8.580000 103 120 109 0
28.600000 32.780000 9.130000 103 120 109 0
28.820000 32.780000 9.790000 101 122 110 0
29.040000 32.780000 9.240000 102 123 111 0
29.260000 32.780000 9.350000 102 121 110 0
29.480000 32.780000 9.350000 104 123 112 0
29.700000 32.780000 10.010000 108 123 113 0
29.920000 32.780000 10.010000 108 123 113 0
30.140000 32.780000 9.460000 109 124 112 0
30.360000 32.780000 9.460000 109 124 112 0
30.580000 32.780000 10.010000 103 126 113 0
30.800000 32.780000 10.010000 104 127 114 0
31.020000 32.780000 10.120000 113 124 113 0
31.240000 32.780000 10.230000 113 124 113 0
31.460000 32.780000 10.340000 114 125 114 0
31.680000 32.780000 10.340000 114 125 114 0
31.900000 32.780000 10.890000 108 127 116 0
32.120000 32.780000 11.330000 108 127 116 0
32.340000 32.780000 11.990000 100 131 118 0
32.560000 32.780000 11.990000 99 130 117 0
32.780000 32.780000 11.880000 97 128 115 0
33.000000 32.780000 11.880000 96 127 114 0
33.220000 32.780000 11.880000 94 127 113 0
33.440000 32.780000 11.220000 93 126 112 0
33.660000 32.780000 10.560000 92 125 113 0
33.880000 32.780000 9.900000 91 124 112 0
34.100000 32.780000 9.240000 90 121 110 0
34.320000 32.780000 9.240000 91 122 111 0
34.540000 32.780000 8.580000 88 121 109 0
34.760000 32.780000 8.580000 88 121 109 0
34.980000 32.780000 8.580000 88 121 109 0
35.200000 32.780000 8.690000 86 119 107 0
35.420000 32.780000 8.690000 89 120 109 0
35.640000 32.780000 9.350000 89 120 109 0
35.860000 32.780000 10.010000 88 121 109 0
36.080000 32.780000 10.120000 88 121 109 0
36.300000 32.780000 9.350000 89 122 108 0
36.520000 32.780000 8.030000 91 124 110 0
36.740000 32.780000 8.030000 90 128 112 0
36.960000 32.780000 8.800000 92 130 114 0
37.180000 32.780000 8.800000 89 132 118 0
0.000000 33.000000 5.830000 204 214 211 0
0.220000 33.000000 5.830000 202 212 209 0
0.440000 33.000000 5.940000 200 210 207 0
0.660000 33.000000 5.940000 197 207 204 0
0.880000 33.000000 5.940000 194 204 201 0
1.100000 33.000000 5.280000 186 197 196 0
1.320000 33.000000 5.280000 183 194 193 0
1.540000 33.000000 5.280000 177 186 180 0
1.760000 33.000000 6.050000 165 174 168 0
1.980000 33.000000 6.050000 159 164 153 0
2.200000 33.000000 6.050000 154 159 148 0
2.420000 33.000000 6.160000 151 156 145 0
2.640000 33.000000 6.160000 152 157 146 0
2.860000 33.000000 6.820000 153 155 145 0
3.080000 33.000000 6.820000 153 155 145 0
3.300000 33.000000 7.590000 153 156 144 0
3.520000 33.000000 7.480000 152 155 143 0
3.740000 33.000000 8.030000 148 154 141 0
3.960000 33.000000 9.240000 146 152 139 0
4.180000 33.000000 9.130000 142 149 136 0
4.400000 33.000000 9.790000 141 148 135 0
4.620000 33.000000 9.790000 140 147 135 0
4.840000 33.000000 9.790000 137 144 132 0
5.060000 33.000000 9.900000 136 143 130 0
5.280000 33.000000 9.900000 136 143 130 0
5.500000 33.000000 9.900000 133 143 129 0
5.720000 33.000000 9.900000 134 144 130 0
5.940000 33.000000 9.900000 134 141 129 0
6.160000 33.000000 9.240000 131 138 126 0
6.380000 33.000000 8.580000 124 134 121 0
6.600000 33.000000 8.580000 121 131 118 0
6.820000 33.000000 8.580000 119 129 116 0
7.040000 33.000000 8.580000 117 127 114 0
7.260000 33.000000 8.580000 115 125 112 0
7.480000 33.000000 8.580000 114 124 111 0
7.700000 33.000000 8.580000 113 123 110 0
7.920000 33.000000 8.690000 113 123 110 0
8.140000 33.000000 8.690000 111 121 108 0
8.360000 33.000000 8.690000 112 122 109 0
8.580000 33.000000 8.800000 112 122 109 0
8.800000 33.000000 8.800000 110 120 107 0
9.020000 33.000000 8.140000 109 121 106 0
9.240000 33.000000 8.140000 110 122 107 0
9.460000 33.000000 7.480000 110 120 107 0
9.680000 33.000000 7.480000 110 120 107 0
9.900000 33.000000 8.690000 110 121 108 0
10.120000 33.000000 9.900000 110 121 108 0
10.340000 33.000000 10.560000 110 121 108 0
10.560000 33.000000 11.330000 111 122 109 0
10.780000 33.000000 11.440000 112 122 108 0
11.000000 33.000000 11.440000 112 122 108 0
11.220000 33.000000 10.780000 114 124 111 0
11.440000 33.000000 10.780000 113 123 110 0
11.660000 33.000000 11.440000 112 123 110 0
11.880000 33.000000 11.440000 111 122 109 0
12.100000 33.000000 11.550000 111 122 109 0
12.320000 33.000000 10.890000 111 122 109 0
12.540000 33.000000 10.230000 93 135 118 0
12.760000 33.000000 11.000000 94 136 119 0
12.980000 33.000000 11.000000 90 134 116 0
13.200000 33.000000 11.000000 86 130 112 0
13.420000 33.000000 11.000000 83 127 109 0
13.640000 33.000000 11.000000 85 129 111 0
13.860000 33.000000 10.890000 87 131 113 0
14.080000 33.000000 11.550000 88 132 114 0
14.300000 33.000000 10.890000 90 132 115 0
14.520000 33.000000 10.120000 91 133 116 0
14.740000 33.000000 9.460000 88 132 114 0
14.960000 33.000000 8.030000 88 132 114 0
15.180000 33.000000 7.370000 89 131 114 0
15.400000 33.000000 7.370000 88 130 113 0
15.620000 33.000000 7.370000 90 134 116 0
15.840000 33.000000 7.370000 92 136 118 0
16.060000 33.000000 8.140000 93 135 118 0
16.280000 33.000000 8.140000 94 136 119 0
16.500000 33.000000 8.140000 94 138 120 0
16.720000 33.000000 7.480000 92 136 118 0
16.940000 33.000000 7.480000 86 128 111 0
17.160000 33.000000 8.250000 75 117 100 0
17.380000 33.000000 8.690000 75 92 81 0
17.600000 33.000000 11.220000 63 80 69 0
17.820000 33.000000 14.630000 70 96 80 0
18.040000 33.000000 12.760000 91 117 101 0
18.260000 33.000000 7.810000 101 128 114 0
18.480000 33.000000 3.630000 107 134 120 0
18.700000 33.000000 5.060000 114 134 120 0
18.920000 33.000000 9.240000 117 137 123 0
19.140000 33.000000 12.760000 109 145 128 0
19.360000 33.000000 12.870000 109 145 128 0
19.580000 33.000000 11.440000 105 143 127 0
19.800000 33.000000 8.800000 103 141 125 0
20.020000 33.000000 7.370000 99 139 123 0
20.240000 33.000000 8.140000 95 135 119 0
20.460000 33.000000 8.800000 93 131 115 0
20.680000 33.000000 9.570000 86 124 108 0
20.900000 33.000000 10.230000 85 127 110 0
21.120000 33.000000 10.340000 93 135 118 0
21.340000 33.000000 9.460000 100 138 122 0
21.560000 33.000000 9.130000 100 138 122 0
21.780000 33.000000 9.130000 97 139 122 0
22.000000 33.000000 9.240000 99 141 124 0
22.220000 33.000000 9.350000 104 140 123 0
22.440000 33.000000 10.120000 104 140 123 0
22.660000 33.000000 10.230000 102 142 126 0
22.880000 33.000000 10.230000 102 142 126 0
23.100000 33.000000 9.460000 103 141 125 0
23.320000 33.000000 7.370000 100 138 122 0
23.540000 33.000000 5.940000 99 131 115 0
23.760000 33.000000 5.940000 95 127 111 0
23.980000 33.000000 6.600000 95 121 107 0
24.200000 33.000000 5.830000 95 121 107 0
24.420000 33.000000 5.830000 97 119 104 0
24.640000 33.000000 6.490000 97 119 104 0
24.860000 33.000000 6.600000 97 118 106 0
25.080000 33.000000 6.710000 97 118 106 0
25.300000 33.000000 6.820000 96 119 106 0
25.520000 33.000000 6.820000 95 118 105 0
25.740000 33.000000 7.370000 97 118 106 0
25.960000 33.000000 7.810000 96 117 105 0
26.180000 33.000000 8.360000 98 117 106 0
26.400000 33.000000 7.810000 97 116 105 0
26.620000 33.000000 7.370000 101 116 104 0
26.840000 33.000000 7.260000 101 116 104 0
27.060000 33.000000 7.700000 93 119 105 0
27.280000 33.000000 7.700000 94 120 106 0
27.500000 33.000000 8.360000 97 118 106 0
27.720000 33.000000 8.470000 97 118 106 0
27.940000 33.000000 7.920000 100 117 106 0
28.160000 33.000000 7.920000 101 118 107 0
28.380000 33.000000 8.470000 102 119 108 0
28.600000 33.000000 9.130000 102 119 108 0
28.820000 33.000000 9.790000 99 120 108 0
29.040000 33.000000 9.900000 99 120 108 0
29.260000 33.000000 9.240000 101 120 109 0
29.480000 33.000000 9.350000 101 120 109 0
29.700000 33.000000 10.010000 105 120 110 0
29.920000 33.000000 10.120000 106 121 111 0
30.140000 33.000000 9.460000 107 122 110 0
30.360000 33.000000 9.460000 106 121 109 0
30.580000 33.000000 10.010000 101 124 111 0
30.800000 33.000000 10.670000 101 124 111 0
31.020000 33.000000 10.120000 111 122 111 0
31.240000 33.000000 10.230000 110 121 110 0
31.460000 33.000000 10.340000 111 122 111 0
31.680000 33.000000 10.340000 112 123 112 0
31.900000 33.000000 10.780000 108 127 116 0
32.120000 33.000000 11.220000 107 126 115 0
32.340000 33.000000 11.770000 98 129 116 0
32.560000 33.000000 11.880000 94 125 112 0
32.780000 33.000000 12.650000 92 123 110 0
33.000000 33.000000 12.650000 92 123 110 0
33.220000 33.000000 12.650000 91 124 110 0
33.440000 33.000000 11.990000 91 124 110 0
33.660000 33.000000 10.670000 90 123 111 0
33.880000 33.000000 9.240000 90 123 111 0
34.100000 33.000000 9.350000 89 120 109 0
34.320000 33.000000 9.350000 89 120 109 0
34.540000 33.000000 8.580000 88 121 109 0
34.760000 33.000000 8.580000 86 119 107 0
34.980000 33.000000 8.690000 86 119 107 0
35.200000 33.000000 8.690000 87 120 108 0
35.420000 33.000000 8.690000 88 119 108 0
35.640000 33.000000 8.690000 88 119 108 0
35.860000 33.000000 9.350000 88 121 109 0
36.080000 33.000000 9.350000 87 120 108 0
36.300000 33.000000 9.350000 88 121 107 0
36.520000 33.000000 8.030000 91 124 110 0
36.740000 33.000000 8.030000 89 127 111 0
36.960000 33.000000 8.140000 91 129 113 0
37.180000 33.000000 8.800000 88 131 117 0
0.000000 33.220000 5.830000 203 213 210 0
0.220000 33.220000 5.830000 202 210 208 0
0.440000 33.220000 5.940000 200 208 206 0
0.660000 33.220000 5.940000 197 205 203 0
0.880000 33.220000 5.940000 194 202 200 0
1.100000 33.220000 5.940000 187 196 196 0
1.320000 33.220000 5.280000 180 189 189 0
1.540000 33.220000 5.280000 173 180 170 0
1.760000 33.220000 6.050000 163 170 160 0
1.980000 33.220000 6.050000 154 161 148 0
2.200000 33.220000 6.050000 150 157 144 0
2.420000 33.220000 6.160000 146 153 140 0
2.640000 33.220000 6.160000 143 150 137 0
2.860000 33.220000 6.160000 141 146 135 0
3.080000 33.220000 6.160000 139 144 133 0
3.300000 33.220000 6.820000 138 143 132 0
3.520000 33.220000 7.590000 137 142 131 0
3.740000 33.220000 7.480000 136 143 130 0
3.960000 33.220000 8.140000 135 142 129 0
4.180000 33.220000 9.350000 134 141 128 0
4.400000 33.220000 9.790000 132 139 126 0
4.620000 33.220000 10.450000 133 140 128 0
4.840000 33.220000 10.450000 132 139 127 0
5.060000 33.220000 10.560000 130 137 125 0
5.280000 33.220000 10.560000 127 134 122 0
5.500000 33.220000 10.560000 126 133 121 0
5.720000 33.220000 9.900000 125 132 120 0
5.940000 33.220000 9.900000 121 131 117 0
6.160000 33.220000 9.240000 119 129 115 0
6.380000 33.220000 8.580000 118 128 115 0
6.600000 33.220000 8.580000 115 125 112 0
6.820000 33.220000 7.920000 115 125 112 0
7.040000 33.220000 7.920000 113 123 110 0
7.260000 33.220000 8.580000 114 124 111 0
7.480000 33.220000 8.690000 113 123 110 0
7.700000 33.220000 8.690000 112 122 109 0
7.920000 33.220000 8.690000 112 122 109 0
8.140000 33.220000 8.030000 110 121 108 0
8.360000 33.220000 8.030000 111 122 109 0
8.580000 33.220000 8.140000 110 121 108 0
8.800000 33.220000 8.140000 109 120 107 0
9.020000 33.220000 8.140000 111 121 108 0
9.240000 33.220000 7.370000 111 121 108 0
9.460000 33.220000 7.480000 111 121 107 0
9.680000 33.220000 8.140000 110 120 106 0
9.900000 33.220000 8.580000 109 120 107 0
10.120000 33.220000 9.790000 110 121 108 0
10.340000 33.220000 10.560000 110 121 108 0
10.560000 33.220000 11.440000 110 121 108 0
10.780000 33.220000 11.440000 111 122 109 0
11.000000 33.220000 10.780000 111 122 109 0
11.220000 33.220000 10.120000 111 121 107 0
11.440000 33.220000 10.780000 112 122 108 0
11.660000 33.220000 11.440000 111 122 109 0
11.880000 33.220000 11.550000 111 122 109 0
12.100000 33.220000 10.890000 111 124 110 0
12.320000 33.220000 10.890000 109 122 108 0
12.540000 33.220000 10.230000 93 135 118 0
12.760000 33.220000 11.000000 95 137 120 0
12.980000 33.220000 11.000000 90 134 116 0
13.200000 33.220000 11.000000 86 130 112 0
13.420000 33.220000 11.000000 86 128 111 0
13.640000 33.220000 11.000000 86 128 111 0
13.860000 33.220000 10.890000 88 130 113 0
14.080000 33.220000 11.550000 89 131 114 0
14.300000 33.220000 11.550000 89 131 114 0
14.520000 33.220000 10.120000 90 132 115 0
14.740000 33.220000 8.800000 88 132 114 0
14.960000 33.220000 7.370000 88 132 114 0
15.180000 33.220000 6.710000 89 131 114 0
15.400000 33.220000 6.710000 88 130 113 0
15.620000 33.220000 6.710000 91 131 115 0
15.840000 33.220000 7.370000 92 132 116 0
16.060000 33.220000 7.480000 91 133 116 0
16.280000 33.220000 7.480000 93 135 118 0
16.500000 33.220000 8.140000 96 138 121 0
16.720000 33.220000 8.140000 96 138 121 0
16.940000 33.220000 7.480000 91 133 116 0
17.160000 33.220000 7.590000 77 119 102 0
17.380000 33.220000 8.140000 69 107 91 0
17.600000 33.220000 9.900000 53 91 75 0
17.820000 33.220000 13.310000 64 85 73 0
18.040000 33.220000 15.620000 82 103 91 0
18.260000 33.220000 13.530000 89 115 97 0
18.480000 33.220000 7.810000 96 122 104 0
18.700000 33.220000 5.060000 96 136 120 0
18.920000 33.220000 7.920000 99 139 123 0
19.140000 33.220000 11.440000 102 142 126 0
19.360000 33.220000 12.870000 102 142 126 0
19.580000 33.220000 11.440000 100 140 124 0
19.800000 33.220000 8.800000 99 139 123 0
20.020000 33.220000 7.480000 98 140 123 0
20.240000 33.220000 7.480000 96 138 121 0
20.460000 33.220000 8.140000 93 133 117 0
20.680000 33.220000 8.800000 88 128 112 0
20.900000 33.220000 9.570000 90 130 114 0
21.120000 33.220000 9.570000 95 135 119 0
21.340000 33.220000 8.800000 96 136 120 0
21.560000 33.220000 9.130000 96 136 120 0
21.780000 33.220000 9.130000 97 137 121 0
22.000000 33.220000 9.130000 100 140 124 0
22.220000 33.220000 9.240000 100 140 124 0
22.440000 33.220000 10.010000 100 140 124 0
22.660000 33.220000 10.780000 100 140 124 0
22.880000 33.220000 10.120000 101 141 125 0
23.100000 33.220000 8.690000 103 141 125 0
23.320000 33.220000 7.260000 100 138 122 0
23.540000 33.220000 6.600000 99 132 116 0
23.760000 33.220000 7.260000 92 125 109 0
23.980000 33.220000 7.920000 91 118 104 0
24.200000 33.220000 7.260000 91 118 104 0
24.420000 33.220000 6.490000 91 117 103 0
24.640000 33.220000 5.830000 90 116 102 0
24.860000 33.220000 5.940000 88 115 101 0
25.080000 33.220000 6.710000 89 116 102 0
25.300000 33.220000 6.710000 93 116 103 0
25.520000 33.220000 6.710000 93 116 103 0
25.740000 33.220000 7.260000 93 116 103 0
25.960000 33.220000 7.700000 93 116 103 0
26.180000 33.220000 7.700000 94 115 103 0
26.400000 33.220000 7.150000 95 116 104 0
26.620000 33.220000 6.600000 93 116 103 0
26.840000 33.220000 7.260000 94 117 104 0
27.060000 33.220000 7.700000 95 116 104 0
27.280000 33.220000 7.700000 96 117 105 0
27.500000 33.220000 7.700000 95 118 105 0
27.720000 33.220000 7.700000 94 117 104 0
27.940000 33.220000 7.810000 94 117 104 0
28.160000 33.220000 7.810000 96 119 106 0
28.380000 33.220000 8.470000 97 119 104 0
28.600000 33.220000 9.130000 97 119 104 0
28.820000 33.220000 9.130000 95 118 105 0
29.040000 33.220000 9.240000 97 120 107 0
29.260000 33.220000 9.350000 95 121 107 0
29.480000 33.220000 9.350000 94 120 106 0
29.700000 33.220000 9.350000 99 121 106 0
29.920000 33.220000 9.350000 100 122 107 0
30.140000 33.220000 9.460000 102 123 111 0
30.360000 33.220000 9.460000 101 122 110 0
30.580000 33.220000 10.010000 99 122 109 0
30.800000 33.220000 10.670000 100 123 110 0
31.020000 33.220000 10.780000 98 124 110 0
31.240000 33.220000 10.230000 99 125 111 0
31.460000 33.220000 10.340000 96 126 111 0
31.680000 33.220000 10.230000 99 129 114 0
31.900000 33.220000 10.670000 95 131 118 0
32.120000 33.220000 11.110000 94 130 117 0
32.340000 33.220000 11.880000 94 127 113 0
32.560000 33.220000 11.880000 90 123 109 0
32.780000 33.220000 12.650000 89 122 108 0
33.000000 33.220000 12.650000 90 123 109 0
33.220000 33.220000 11.990000 89 122 108 0
33.440000 33.220000 11.330000 89 122 108 0
33.660000 33.220000 10.670000 89 122 110 0
33.880000 33.220000 9.350000 88 121 109 0
34.100000 33.220000 9.350000 88 121 109 0
34.320000 33.220000 8.690000 88 121 109 0
34.540000 33.220000 8.690000 87 120 106 0
34.760000 33.220000 8.690000 86 119 105 0
34.980000 33.220000 8.690000 86 119 105 0
35.200000 33.220000 8.030000 86 119 105 0
35.420000 33.220000 8.030000 86 119 107 0
35.640000 33.220000 8.690000 86 119 107 0
35.860000 33.220000 9.350000 86 119 107 0
36.080000 33.220000 9.350000 87 120 108 0
36.300000 33.220000 8.690000 88 121 107 0
36.520000 33.220000 8.030000 89 122 108 0
36.740000 33.220000 8.030000 90 126 113 0
36.960000 33.220000 8.800000 91 127 114 0
37.180000 33.220000 8.800000 88 130 115 0
0.000000 33.440000 5.830000 201 211 208 0
0.220000 33.440000 5.830000 200 208 206 0
0.440000 33.440000 6.600000 199 207 205 0
0.660000 33.440000 6.600000 196 204 202 0
0.880000 33.440000 6.600000 191 199 197 0
1.100000 33.440000 5.940000 184 193 193 0
1.320000 33.440000 6.050000 174 183 183 0
1.540000 33.440000 6.050000 167 174 164 0
1.760000 33.440000 6.050000 158 165 155 0
1.980000 33.440000 6.050000 151 158 145 0
2.200000 33.440000 6.050000 147 154 141 0
2.420000 33.440000 6.160000 143 150 137 0
2.640000 33.440000 6.160000 140 147 134 0
2.860000 33.440000 6.160000 139 144 133 0
3.080000 33.440000 6.160000 136 141 130 0
3.300000 33.440000 6.820000 135 140 129 0
3.520000 33.440000 7.590000 134 139 128 0
3.740000 33.440000 7.590000 132 139 126 0
3.960000 33.440000 8.250000 130 137 124 0
4.180000 33.440000 8.800000 128 135 122 0
4.400000 33.440000 9.900000 128 135 122 0
4.620000 33.440000 10.450000 127 134 122 0
4.840000 33.440000 10.450000 126 133 121 0
5.060000 33.440000 10.450000 124 131 119 0
5.280000 33.440000 10.560000 123 130 118 0
5.500000 33.440000 10.670000 122 129 117 0
5.720000 33.440000 9.900000 120 127 115 0
5.940000 33.440000 9.240000 118 128 114 0
6.160000 33.440000 8.580000 117 127 113 0
6.380000 33.440000 8.580000 115 125 112 0
6.600000 33.440000 7.920000 115 125 112 0
6.820000 33.440000 7.920000 115 125 112 0
7.040000 33.440000 8.030000 113 123 110 0
7.260000 33.440000 8.030000 114 124 111 0
7.480000 33.440000 8.030000 113 123 110 0
7.700000 33.440000 8.030000 112 122 109 0
7.920000 33.440000 8.030000 112 122 109 0
8.140000 33.440000 7.370000 111 122 109 0
8.360000 33.440000 7.370000 111 122 109 0
8.580000 33.440000 8.140000 110 121 108 0
8.800000 33.440000 8.030000 110 121 108 0
9.020000 33.440000 8.030000 111 121 108 0
9.240000 33.440000 7.370000 110 120 107 0
9.460000 33.440000 7.480000 111 121 107 0
9.680000 33.440000 8.030000 111 121 107 0
9.900000 33.440000 9.240000 108 119 106 0
10.120000 33.440000 9.790000 109 120 107 0
10.340000 33.440000 10.670000 109 120 107 0
10.560000 33.440000 10.670000 111 122 109 0
10.780000 33.440000 11.440000 111 122 109 0
11.000000 33.440000 10.780000 111 122 109 0
11.220000 33.440000 10.120000 112 122 108 0
11.440000 33.440000 10.780000 113 123 109 0
11.660000 33.440000 11.440000 110 121 108 0
11.880000 33.440000 11.550000 111 122 109 0
12.100000 33.440000 10.890000 110 123 109 0
12.320000 33.440000 10.890000 111 124 110 0
12.540000 33.440000 10.230000 94 136 119 0
12.760000 33.440000 11.000000 93 135 118 0
12.980000 33.440000 11.000000 89 133 115 0
13.200000 33.440000 11.000000 87 131 113 0
13.420000 33.440000 11.000000 87 129 112 0
13.640000 33.440000 11.000000 88 130 113 0
13.860000 33.440000 11.000000 89 131 114 0
14.080000 33.440000 11.660000 89 131 114 0
14.300000 33.440000 11.660000 89 131 114 0
14.520000 33.440000 10.120000 89 131 114 0
14.740000 33.440000 8.690000 89 133 115 0
14.960000 33.440000 7.370000 88 132 114 0
15.180000 33.440000 6.710000 89 131 114 0
15.400000 33.440000 6.050000 90 132 115 0
15.620000 33.440000 6.710000 92 132 116 0
15.840000 33.440000 6.710000 90 130 114 0
16.060000 33.440000 6.820000 89 131 114 0
16.280000 33.440000 7.480000 91 133 116 0
16.500000 33.440000 8.140000 95 137 120 0
16.720000 33.440000 8.140000 99 141 124 0
16.940000 33.440000 7.480000 95 137 120 0
17.160000 33.440000 7.480000 89 131 114 0
17.380000 33.440000 8.140000 87 125 109 0
17.600000 33.440000 9.240000 75 113 97 0
17.820000 33.440000 11.990000 70 91 79 0
18.040000 33.440000 14.960000 70 91 79 0
18.260000 33.440000 15.730000 79 105 87 0
18.480000 33.440000 11.330000 86 112 94 0
18.700000 33.440000 7.150000 87 127 111 0
18.920000 33.440000 7.150000 98 138 122 0
19.140000 33.440000 10.670000 100 140 124 0
19.360000 33.440000 12.760000 100 140 124 0
19.580000 33.440000 12.210000 98 138 122 0
19.800000 33.440000 9.460000 99 139 123 0
20.020000 33.440000 7.480000 99 141 124 0
20.240000 33.440000 6.820000 98 140 123 0
20.460000 33.440000 7.480000 96 136 120 0
20.680000 33.440000 8.140000 93 133 117 0
20.900000 33.440000 8.910000 93 133 117 0
21.120000 33.440000 8.910000 96 136 120 0
21.340000 33.440000 8.800000 96 136 120 0
21.560000 33.440000 9.130000 96 136 120 0
21.780000 33.440000 9.130000 97 137 121 0
22.000000 33.440000 9.130000 98 138 122 0
22.220000 33.440000 9.900000 99 139 123 0
22.440000 33.440000 10.670000 98 138 122 0
22.660000 33.440000 11.330000 100 140 124 0
22.880000 33.440000 10.560000 100 140 124 0
23.100000 33.440000 9.240000 101 139 123 0
23.320000 33.440000 7.920000 96 134 118 0
23.540000 33.440000 8.580000 94 127 111 0
23.760000 33.440000 10.010000 89 122 106 0
23.980000 33.440000 10.010000 90 117 103 0
24.200000 33.440000 8.580000 88 115 101 0
24.420000 33.440000 6.490000 89 115 101 0
24.640000 33.440000 5.830000 88 114 100 0
24.860000 33.440000 5.940000 86 113 99 0
25.080000 33.440000 5.940000 86 113 99 0
25.300000 33.440000 6.710000 90 113 100 0
25.520000 33.440000 6.050000 90 113 100 0
25.740000 33.440000 6.600000 90 113 100 0
25.960000 33.440000 7.040000 90 113 100 0
26.180000 33.440000 7.590000 91 112 100 0
26.400000 33.440000 7.040000 92 113 101 0
26.620000 33.440000 6.600000 91 114 101 0
26.840000 33.440000 6.490000 90 113 100 0
27.060000 33.440000 7.040000 92 113 101 0
27.280000 33.440000 7.700000 93 114 102 0
27.500000 33.440000 7.700000 92 115 102 0
27.720000 33.440000 7.700000 93 116 103 0
27.940000 33.440000 8.470000 93 116 103 0
28.160000 33.440000 8.470000 93 116 103 0
28.380000 33.440000 8.470000 94 116 101 0
28.600000 33.440000 9.130000 95 117 102 0
28.820000 33.440000 9.240000 94 117 104 0
29.040000 33.440000 9.240000 94 117 104 0
29.260000 33.440000 9.350000 92 118 104 0
29.480000 33.440000 9.350000 93 119 105 0
29.700000 33.440000 9.350000 98 120 105 0
29.920000 33.440000 9.350000 99 121 106 0
30.140000 33.440000 9.460000 99 120 108 0
30.360000 33.440000 8.800000 99 120 108 0
30.580000 33.440000 9.460000 99 122 109 0
30.800000 33.440000 10.120000 99 122 109 0
31.020000 33.440000 10.230000 96 122 108 0
31.240000 33.440000 10.230000 98 124 110 0
31.460000 33.440000 10.230000 97 127 112 0
31.680000 33.440000 10.120000 99 129 114 0
31.900000 33.440000 10.560000 94 130 117 0
32.120000 33.440000 11.110000 92 128 115 0
32.340000 33.440000 11.880000 91 124 110 0
32.560000 33.440000 11.880000 90 123 109 0
32.780000 33.440000 11.990000 89 122 108 0
33.000000 33.440000 11.990000 88 121 107 0
33.220000 33.440000 11.330000 88 121 107 0
33.440000 33.440000 10.670000 88 121 107 0
33.660000 33.440000 10.010000 88 121 109 0
33.880000 33.440000 9.350000 88 121 109 0
34.100000 33.440000 9.350000 86 119 107 0
34.320000 33.440000 8.690000 86 119 107 0
34.540000 33.440000 8.690000 86 119 105 0
34.760000 33.440000 8.690000 86 119 105 0
34.980000 33.440000 8.030000 85 118 104 0
35.200000 33.440000 8.030000 85 118 104 0
35.420000 33.440000 8.030000 86 119 107 0
35.640000 33.440000 8.690000 87 120 108 0
35.860000 33.440000 8.690000 86 119 107 0
36.080000 33.440000 9.460000 86 119 107 0
36.300000 33.440000 8.690000 88 121 107 0
36.520000 33.440000 8.030000 89 122 108 0
36.740000 33.440000 8.030000 89 125 112 0
36.960000 33.440000 8.800000 91 127 114 0
37.180000 33.440000 8.800000 89 131 116 0
0.000000 33.660000 6.490000 200 210 207 0
0.220000 33.660000 6.600000 199 207 205 0
0.440000 33.660000 6.600000 196 204 202 0
0.660000 33.660000 6.600000 192 202 198 0
0.880000 33.660000 6.600000 186 196 192 0
1.100000 33.660000 5.940000 184 188 184 0
1.320000 33.660000 6.050000 172 176 172 0
1.540000 33.660000 6.050000 161 168 156 0
1.760000 33.660000 6.710000 151 158 146 0
1.980000 33.660000 6.820000 148 155 143 0
2.200000 33.660000 6.820000 145 152 140 0
2.420000 33.660000 6.820000 142 147 136 0
2.640000 33.660000 6.820000 139 144 133 0
2.860000 33.660000 6.820000 136 143 131 0
3.080000 33.660000 6.820000 133 140 128 0
3.300000 33.660000 7.590000 133 140 128 0
3.520000 33.660000 7.590000 132 139 127 0
3.740000 33.660000 8.250000 131 138 126 0
3.960000 33.660000 8.250000 129 136 124 0
4.180000 33.660000 8.910000 127 134 122 0
4.400000 33.660000 10.120000 126 133 121 0
4.620000 33.660000 10.670000 126 133 120 0
4.840000 33.660000 10.560000 124 131 118 0
5.060000 33.660000 10.560000 123 130 118 0
5.280000 33.660000 10.560000 123 130 118 0
5.500000 33.660000 10.010000 121 128 116 0
5.720000 33.660000 9.350000 120 127 115 0
5.940000 33.660000 8.690000 119 126 114 0
6.160000 33.660000 7.920000 119 126 114 0
6.380000 33.660000 7.920000 117 124 112 0
6.600000 33.660000 7.260000 117 124 112 0
6.820000 33.660000 7.370000 114 124 111 0
7.040000 33.660000 7.370000 115 125 112 0
7.260000 33.660000 7.370000 113 123 110 0
7.480000 33.660000 7.370000 113 123 110 0
7.700000 33.660000 7.370000 113 123 110 0
7.920000 33.660000 7.370000 113 123 110 0
8.140000 33.660000 7.370000 111 121 108 0
8.360000 33.660000 7.370000 112 122 109 0
8.580000 33.660000 7.370000 111 121 108 0
8.800000 33.660000 7.370000 110 120 107 0
9.020000 33.660000 7.370000 110 120 107 0
9.240000 33.660000 7.370000 111 121 108 0
9.460000 33.660000 7.370000 110 120 107 0
9.680000 33.660000 8.030000 110 120 107 0
9.900000 33.660000 8.580000 110 120 107 0
10.120000 33.660000 9.900000 109 119 106 0
10.340000 33.660000 10.670000 109 120 107 0
10.560000 33.660000 10.780000 109 120 107 0
10.780000 33.660000 10.780000 110 121 108 0
11.000000 33.660000 10.120000 111 122 109 0
11.220000 33.660000 10.120000 112 122 109 0
11.440000 33.660000 10.780000 112 122 109 0
11.660000 33.660000 11.440000 112 122 109 0
11.880000 33.660000 10.780000 112 122 109 0
12.100000 33.660000 10.890000 105 125 111 0
12.320000 33.660000 10.890000 107 127 113 0
12.540000 33.660000 11.000000 96 136 122 0
12.760000 33.660000 11.000000 92 132 118 0
12.980000 33.660000 11.000000 90 132 117 0
13.200000 33.660000 11.000000 88 130 115 0
13.420000 33.660000 11.000000 89 131 114 0
13.640000 33.660000 11.000000 89 131 114 0
13.860000 33.660000 10.340000 89 129 113 0
14.080000 33.660000 11.000000 89 129 113 0
14.300000 33.660000 11.000000 89 129 115 0
14.520000 33.660000 10.120000 89 129 115 0
14.740000 33.660000 8.690000 89 131 116 0
14.960000 33.660000 7.370000 89 131 116 0
15.180000 33.660000 6.050000 90 132 117 0
15.400000 33.660000 6.050000 90 132 117 0
15.620000 33.660000 6.710000 91 131 115 0
15.840000 33.660000 6.820000 91 131 115 0
16.060000 33.660000 6.820000 90 130 116 0
16.280000 33.660000 7.480000 92 132 118 0
16.500000 33.660000 8.140000 95 135 119 0
16.720000 33.660000 8.140000 98 138 122 0
16.940000 33.660000 7.480000 98 140 123 0
17.160000 33.660000 7.480000 95 137 120 0
17.380000 33.660000 8.030000 90 132 117 0
17.600000 33.660000 9.240000 81 123 108 0
17.820000 33.660000 10.670000 78 118 102 0
18.040000 33.660000 13.640000 71 111 95 0
18.260000 33.660000 13.640000 70 106 91 0
18.480000 33.660000 10.010000 72 108 93 0
18.700000 33.660000 7.150000 84 126 111 0
18.920000 33.660000 7.810000 95 137 122 0
19.140000 33.660000 10.670000 97 139 122 0
19.360000 33.660000 12.760000 98 140 123 0
19.580000 33.660000 12.210000 100 140 124 0
19.800000 33.660000 10.230000 100 140 124 0
20.020000 33.660000 7.480000 100 140 126 0
20.240000 33.660000 6.820000 99 139 125 0
20.460000 33.660000 7.480000 97 137 121 0
20.680000 33.660000 8.140000 95 135 119 0
20.900000 33.660000 8.140000 96 136 120 0
21.120000 33.660000 8.250000 96 136 120 0
21.340000 33.660000 8.140000 97 137 121 0
21.560000 33.660000 8.470000 97 137 121 0
21.780000 33.660000 9.130000 96 136 122 0
22.000000 33.660000 9.900000 96 136 122 0
22.220000 33.660000 9.900000 96 136 120 0
22.440000 33.660000 11.220000 97 137 121 0
22.660000 33.660000 11.220000 98 138 122 0
22.880000 33.660000 10.450000 98 138 122 0
23.100000 33.660000 9.130000 97 135 119 0
23.320000 33.660000 9.240000 92 130 114 0
23.540000 33.660000 10.670000 90 124 105 0
23.760000 33.660000 12.100000 86 120 101 0
23.980000 33.660000 12.760000 85 116 103 0
24.200000 33.660000 11.330000 85 116 103 0
24.420000 33.660000 7.260000 86 113 99 0
24.640000 33.660000 5.830000 85 112 98 0
24.860000 33.660000 5.940000 85 113 96 0
25.080000 33.660000 5.940000 83 111 94 0
25.300000 33.660000 6.050000 83 109 95 0
25.520000 33.660000 6.050000 84 110 96 0
25.740000 33.660000 6.600000 84 110 96 0
25.960000 33.660000 6.490000 84 110 96 0
26.180000 33.660000 7.150000 84 110 96 0
26.400000 33.660000 7.150000 85 111 97 0
26.620000 33.660000 6.490000 85 111 95 0
26.840000 33.660000 6.490000 86 112 96 0
27.060000 33.660000 7.040000 86 112 98 0
27.280000 33.660000 7.700000 88 114 100 0
27.500000 33.660000 7.700000 91 114 101 0
27.720000 33.660000 8.470000 88 111 98 0
27.940000 33.660000 8.470000 87 113 99 0
28.160000 33.660000 8.470000 89 115 101 0
28.380000 33.660000 9.130000 92 115 100 0
28.600000 33.660000 9.130000 93 116 101 0
28.820000 33.660000 9.240000 92 115 102 0
29.040000 33.660000 9.240000 92 115 102 0
29.260000 33.660000 9.350000 91 117 103 0
29.480000 33.660000 9.350000 91 117 103 0
29.700000 33.660000 9.350000 91 116 105 0
29.920000 33.660000 8.690000 93 118 107 0
30.140000 33.660000 8.690000 93 120 108 0
30.360000 33.660000 8.800000 93 120 108 0
30.580000 33.660000 9.460000 92 123 112 0
30.800000 33.660000 10.230000 92 123 112 0
31.020000 33.660000 10.230000 91 124 110 0
31.240000 33.660000 10.890000 95 128 114 0
31.460000 33.660000 10.780000 94 130 115 0
31.680000 33.660000 10.560000 93 129 114 0
31.900000 33.660000 11.110000 94 127 115 0
32.120000 33.660000 11.110000 93 126 114 0
32.340000 33.660000 11.220000 90 123 111 0
32.560000 33.660000 11.220000 88 121 109 0
32.780000 33.660000 11.220000 87 120 108 0
33.000000 33.660000 11.330000 88 121 109 0
33.220000 33.660000 10.670000 88 121 109 0
33.440000 33.660000 10.670000 88 121 109 0
33.660000 33.660000 10.010000 88 119 106 0
33.880000 33.660000 9.350000 87 118 105 0
34.100000 33.660000 8.690000 84 117 105 0
34.320000 33.660000 8.690000 84 117 105 0
34.540000 33.660000 8.690000 85 118 104 0
34.760000 33.660000 8.030000 86 119 105 0
34.980000 33.660000 8.030000 86 117 104 0
35.200000 33.660000 8.030000 87 118 105 0
35.420000 33.660000 8.030000 86 119 107 0
35.640000 33.660000 8.690000 86 119 107 0
35.860000 33.660000 8.690000 86 119 107 0
36.080000 33.660000 9.460000 87 120 108 0
36.300000 33.660000 8.690000 88 119 106 0
36.520000 33.660000 8.030000 90 121 108 0
36.740000 33.660000 8.030000 87 123 110 0
36.960000 33.660000 8.800000 90 126 113 0
37.180000 33.660000 8.800000 88 132 114 0
0.000000 33.880000 6.490000 199 209 206 0
0.220000 33.880000 6.600000 197 205 203 0
0.440000 33.880000 6.600000 195 203 201 0
0.660000 33.880000 6.600000 188 198 194 0
0.880000 33.880000 6.600000 182 192 188 0
1.100000 33.880000 5.940000 174 178 174 0
1.320000 33.880000 6.050000 165 169 165 0
1.540000 33.880000 6.710000 157 164 152 0
1.760000 33.880000 6.710000 148 155 143 0
1.980000 33.880000 6.820000 144 151 139 0
2.200000 33.880000 7.480000 142 149 137 0
2.420000 33.880000 7.480000 140 145 134 0
2.640000 33.880000 7.480000 138 143 132 0
2.860000 33.880000 7.480000 135 142 130 0
3.080000 33.880000 8.250000 133 140 128 0
3.300000 33.880000 8.250000 131 138 126 0
3.520000 33.880000 8.910000 131 138 126 0
3.740000 33.880000 8.910000 130 137 125 0
3.960000 33.880000 8.910000 127 134 122 0
4.180000 33.880000 9.680000 127 134 122 0
4.400000 33.880000 9.570000 125 132 120 0
4.620000 33.880000 9.570000 124 131 118 0
4.840000 33.880000 9.460000 123 130 117 0
5.060000 33.880000 10.010000 122 129 117 0
5.280000 33.880000 9.240000 122 129 117 0
5.500000 33.880000 8.580000 121 128 116 0
5.720000 33.880000 7.920000 119 126 114 0
5.940000 33.880000 7.260000 119 126 114 0
6.160000 33.880000 7.260000 118 125 113 0
6.380000 33.880000 7.370000 118 125 113 0
6.600000 33.880000 6.710000 118 125 113 0
6.820000 33.880000 6.710000 115 125 112 0
7.040000 33.880000 6.710000 114 124 111 0
7.260000 33.880000 6.820000 114 124 111 0
7.480000 33.880000 6.820000 112 122 109 0
7.700000 33.880000 6.710000 114 124 111 0
7.920000 33.880000 6.710000 112 122 109 0
8.140000 33.880000 6.710000 113 123 110 0
8.360000 33.880000 7.370000 111 121 108 0
8.580000 33.880000 7.370000 112 122 109 0
8.800000 33.880000 7.370000 109 119 106 0
9.020000 33.880000 7.260000 109 119 106 0
9.240000 33.880000 7.370000 109 119 106 0
9.460000 33.880000 7.370000 108 118 105 0
9.680000 33.880000 8.030000 109 119 106 0
9.900000 33.880000 8.690000 109 119 106 0
10.120000 33.880000 10.010000 108 118 105 0
10.340000 33.880000 10.670000 107 118 105 0
10.560000 33.880000 10.780000 108 119 106 0
10.780000 33.880000 10.780000 110 121 108 0
11.000000 33.880000 10.120000 111 122 109 0
11.220000 33.880000 10.120000 112 122 109 0
11.440000 33.880000 10.780000 111 121 108 0
11.660000 33.880000 11.550000 111 121 108 0
11.880000 33.880000 10.890000 111 121 108 0
12.100000 33.880000 10.890000 106 126 112 0
12.320000 33.880000 10.230000 107 127 113 0
12.540000 33.880000 11.000000 94 134 120 0
12.760000 33.880000 11.000000 91 131 117 0
12.980000 33.880000 11.000000 90 132 117 0
13.200000 33.880000 11.000000 89 131 116 0
13.420000 33.880000 11.000000 89 131 114 0
13.640000 33.880000 11.000000 88 130 113 0
13.860000 33.880000 10.340000 90 130 114 0
14.080000 33.880000 10.340000 89 129 113 0
14.300000 33.880000 11.000000 88 128 114 0
14.520000 33.880000 10.120000 88 128 114 0
14.740000 33.880000 8.690000 87 129 114 0
14.960000 33.880000 7.370000 88 130 115 0
15.180000 33.880000 6.050000 90 132 117 0
15.400000 33.880000 6.050000 89 131 116 0
15.620000 33.880000 6.820000 90 130 114 0
15.840000 33.880000 7.480000 90 130 114 0
16.060000 33.880000 7.480000 89 129 115 0
16.280000 33.880000 8.140000 91 131 117 0
16.500000 33.880000 8.800000 95 135 119 0
16.720000 33.880000 8.800000 98 138 122 0
16.940000 33.880000 7.370000 98 140 123 0
17.160000 33.880000 7.370000 95 137 120 0
17.380000 33.880000 7.920000 91 133 118 0
17.600000 33.880000 8.580000 85 127 112 0
17.820000 33.880000 10.010000 86 126 110 0
18.040000 33.880000 12.210000 86 126 110 0
18.260000 33.880000 11.550000 82 118 103 0
18.480000 33.880000 8.690000 80 116 101 0
18.700000 33.880000 7.810000 90 132 117 0
18.920000 33.880000 8.470000 96 138 123 0
19.140000 33.880000 10.670000 97 139 122 0
19.360000 33.880000 12.100000 98 140 123 0
19.580000 33.880000 12.100000 99 139 123 0
19.800000 33.880000 10.780000 101 141 125 0
20.020000 33.880000 8.580000 99 139 125 0
20.240000 33.880000 8.030000 99 139 125 0
20.460000 33.880000 8.140000 98 138 122 0
20.680000 33.880000 7.480000 95 135 119 0
20.900000 33.880000 7.480000 93 133 117 0
21.120000 33.880000 7.590000 95 135 119 0
21.340000 33.880000 8.140000 97 137 121 0
21.560000 33.880000 8.470000 98 138 122 0
21.780000 33.880000 9.790000 95 135 121 0
22.000000 33.880000 9.790000 94 134 120 0
22.220000 33.880000 10.560000 94 134 118 0
22.440000 33.880000 11.220000 95 135 119 0
22.660000 33.880000 11.220000 97 137 121 0
22.880000 33.880000 9.790000 96 136 120 0
23.100000 33.880000 9.240000 94 132 116 0
23.320000 33.880000 10.670000 90 128 112 0
23.540000 33.880000 12.760000 88 122 103 0
23.760000 33.880000 14.080000 84 118 99 0
23.980000 33.880000 15.510000 85 116 103 0
24.200000 33.880000 13.420000 84 115 102 0
24.420000 33.880000 7.920000 87 114 100 0
24.640000 33.880000 5.170000 86 113 99 0
24.860000 33.880000 5.940000 84 112 95 0
25.080000 33.880000 5.940000 82 110 93 0
25.300000 33.880000 6.050000 79 105 91 0
25.520000 33.880000 6.050000 79 105 91 0
25.740000 33.880000 6.050000 79 105 91 0
25.960000 33.880000 6.050000 81 107 93 0
26.180000 33.880000 5.940000 81 107 93 0
26.400000 33.880000 6.600000 81 107 93 0
26.620000 33.880000 6.600000 82 108 92 0
26.840000 33.880000 6.490000 82 108 92 0
27.060000 33.880000 7.040000 83 109 95 0
27.280000 33.880000 7.700000 85 111 97 0
27.500000 33.880000 7.700000 86 109 96 0
27.720000 33.880000 8.470000 87 110 97 0
27.940000 33.880000 8.470000 85 111 97 0
28.160000 33.880000 9.130000 87 113 99 0
28.380000 33.880000 9.130000 88 111 96 0
28.600000 33.880000 9.900000 89 112 97 0
28.820000 33.880000 9.900000 90 113 100 0
29.040000 33.880000 9.240000 90 113 100 0
29.260000 33.880000 9.350000 88 114 100 0
29.480000 33.880000 8.690000 88 114 100 0
29.700000 33.880000 8.690000 89 114 103 0
29.920000 33.880000 8.030000 91 116 105 0
30.140000 33.880000 8.030000 91 118 106 0
30.360000 33.880000 8.030000 93 120 108 0
30.580000 33.880000 8.800000 91 122 111 0
30.800000 33.880000 10.230000 93 124 113 0
31.020000 33.880000 10.230000 94 127 113 0
31.240000 33.880000 10.890000 96 129 115 0
31.460000 33.880000 10.560000 93 129 114 0
31.680000 33.880000 11.110000 93 129 114 0
31.900000 33.880000 11.110000 92 125 113 0
32.120000 33.880000 11.110000 90 123 111 0
32.340000 33.880000 11.220000 88 121 109 0
32.560000 33.880000 10.560000 87 120 108 0
32.780000 33.880000 10.560000 87 120 108 0
33.000000 33.880000 10.670000 88 121 109 0
33.220000 33.880000 10.670000 88 121 109 0
33.440000 33.880000 10.010000 88 121 109 0
33.660000 33.880000 10.010000 87 118 105 0
33.880000 33.880000 9.350000 86 117 104 0
34.100000 33.880000 8.690000 85 118 106 0
34.320000 33.880000 8.690000 84 117 105 0
34.540000 33.880000 7.920000 85 118 104 0
34.760000 33.880000 8.030000 85 118 104 0
34.980000 33.880000 8.030000 86 117 104 0
35.200000 33.880000 8.030000 87 118 105 0
35.420000 33.880000 8.030000 87 120 108 0
35.640000 33.880000 8.030000 86 119 107 0
35.860000 33.880000 8.690000 87 120 108 0
36.080000 33.880000 8.690000 86 119 107 0
36.300000 33.880000 8.690000 88 119 106 0
36.520000 33.880000 8.030000 90 121 108 0
36.740000 33.880000 8.030000 89 125 112 0
36.960000 33.880000 8.800000 90 126 113 0
37.180000 33.880000 8.800000 86 130 112 0
0.000000 34.100000 6.490000 196 205 205 0
0.220000 34.100000 6.600000 193 204 201 0
0.440000 34.100000 6.600000 186 197 194 0
0.660000 34.100000 6.600000 183 187 181 0
0.880000 34.100000 6.600000 175 179 173 0
1.100000 34.100000 5.940000 168 167 167 0
1.320000 34.100000 6.050000 163 162 162 0
1.540000 34.100000 6.710000 152 157 146 0
1.760000 34.100000 7.480000 146 151 140 0
1.980000 34.100000 7.480000 143 150 138 0
2.200000 34.100000 8.140000 140 147 135 0
2.420000 34.100000 7.480000 138 143 134 0
2.640000 34.100000 7.480000 137 142 133 0
2.860000 34.100000 8.250000 135 140 131 0
3.080000 34.100000 8.250000 133 138 129 0
3.300000 34.100000 8.910000 130 137 125 0
3.520000 34.100000 8.910000 129 136 124 0
3.740000 34.100000 8.910000 127 134 122 0
3.960000 34.100000 8.910000 128 135 123 0
4.180000 34.100000 8.910000 126 133 121 0
4.400000 34.100000 8.910000 124 131 119 0
4.620000 34.100000 8.910000 123 130 118 0
4.840000 34.100000 8.250000 123 130 118 0
5.060000 34.100000 8.140000 120 130 117 0
5.280000 34.100000 8.030000 119 129 116 0
5.500000 34.100000 7.260000 118 127 117 0
5.720000 34.100000 6.600000 117 126 116 0
5.940000 34.100000 6.600000 119 126 114 0
6.160000 34.100000 6.600000 118 125 113 0
6.380000 34.100000 6.710000 118 125 113 0
6.600000 34.100000 6.050000 117 124 112 0
6.820000 34.100000 6.050000 114 124 111 0
7.040000 34.100000 6.050000 114 124 111 0
7.260000 34.100000 6.160000 113 123 110 0
7.480000 34.100000 6.160000 113 123 110 0
7.700000 34.100000 6.050000 113 123 110 0
7.920000 34.100000 6.710000 112 122 109 0
8.140000 34.100000 6.600000 112 122 109 0
8.360000 34.100000 7.370000 113 123 110 0
8.580000 34.100000 7.260000 111 122 109 0
8.800000 34.100000 7.260000 110 121 108 0
9.020000 34.100000 7.260000 110 120 107 0
9.240000 34.100000 7.260000 108 118 105 0
9.460000 34.100000 7.370000 109 119 106 0
9.680000 34.100000 8.030000 110 120 107 0
9.900000 34.100000 8.690000 110 121 108 0
10.120000 34.100000 10.010000 109 120 107 0
10.340000 34.100000 10.780000 109 119 106 0
