ply
format ascii 1.0
element vertex 1144
property float x
property float y
property float z
property uchar red
property uchar green
property uchar blue
property uchar alpha
end_header
5.060000 32.560000 2.750000 152 63 54 0
5.280000 32.560000 0.660000 154 65 56 0
9.240000 32.560000 0.660000 163 81 65 0
10.780000 32.560000 0.440000 166 86 72 0
11.000000 32.560000 1.540000 167 87 73 0
11.220000 32.560000 1.430000 167 87 73 0
11.440000 32.560000 1.540000 168 88 74 0
11.660000 32.560000 0.550000 168 88 74 0
11.880000 32.560000 0.550000 169 89 75 0
12.100000 32.560000 1.540000 170 90 76 0
12.320000 32.560000 2.090000 169 89 75 0
12.540000 32.560000 2.090000 170 90 76 0
12.760000 32.560000 2.090000 170 90 76 0
12.980000 32.560000 2.090000 171 91 77 0
13.200000 32.560000 2.860000 170 90 76 0
13.420000 32.560000 2.200000 170 92 77 0
13.640000 32.560000 2.200000 171 93 78 0
13.860000 32.560000 2.090000 171 91 77 0
14.080000 32.560000 2.090000 171 91 77 0
14.300000 32.560000 2.090000 171 91 77 0
14.520000 32.560000 1.430000 172 92 78 0
14.740000 32.560000 0.220000 171 92 80 0
15.400000 32.560000 0.550000 170 92 77 0
15.620000 32.560000 1.980000 171 91 77 0
15.840000 32.560000 2.750000 170 90 76 0
16.060000 32.560000 1.980000 169 91 76 0
16.280000 32.560000 1.320000 169 91 76 0
17.160000 32.560000 0.550000 170 90 76 0
17.380000 32.560000 0.880000 170 90 76 0
17.600000 32.560000 1.430000 170 90 76 0
17.820000 32.560000 1.430000 170 92 77 0
18.040000 32.560000 1.430000 170 92 77 0
18.260000 32.560000 1.430000 171 93 78 0
18.480000 32.560000 1.430000 170 92 77 0
18.700000 32.560000 1.430000 172 92 80 0
18.920000 32.560000 1.430000 171 91 79 0
19.140000 32.560000 1.430000 171 91 79 0
19.360000 32.560000 0.880000 172 92 80 0
19.580000 32.560000 0.990000 172 93 81 0
19.800000 32.560000 0.440000 171 92 80 0
20.020000 32.560000 0.440000 173 94 82 0
20.240000 32.560000 0.440000 173 94 82 0
20.460000 32.560000 0.440000 175 96 84 0
20.680000 32.560000 0.550000 172 93 81 0
20.900000 32.560000 1.210000 174 95 83 0
21.120000 32.560000 1.210000 174 95 83 0
21.340000 32.560000 1.210000 173 96 83 0
21.560000 32.560000 1.320000 175 98 85 0
21.780000 32.560000 1.320000 175 98 85 0
22.000000 32.560000 1.320000 176 99 86 0
22.220000 32.560000 1.320000 176 97 85 0
22.440000 32.560000 1.320000 175 96 84 0
22.660000 32.560000 1.320000 175 96 84 0
22.880000 32.560000 1.320000 175 96 84 0
23.100000 32.560000 1.980000 174 97 86 0
23.320000 32.560000 1.760000 175 98 87 0
23.540000 32.560000 2.970000 176 99 86 0
23.760000 32.560000 4.180000 175 98 85 0
23.980000 32.560000 4.180000 176 99 86 0
24.200000 32.560000 4.180000 176 99 86 0
24.420000 32.560000 4.950000 178 101 88 0
24.640000 32.560000 4.290000 178 101 88 0
24.860000 32.560000 4.290000 178 103 92 0
25.080000 32.560000 4.400000 179 104 93 0
25.300000 32.560000 4.400000 181 108 96 0
25.520000 32.560000 4.400000 182 109 97 0
25.740000 32.560000 3.740000 178 117 107 0
25.960000 32.560000 4.510000 181 120 110 0
26.180000 32.560000 4.510000 177 127 115 0
26.400000 32.560000 4.510000 183 133 121 0
26.620000 32.560000 4.620000 182 144 130 0
26.840000 32.560000 4.620000 188 150 136 0
27.060000 32.560000 5.390000 187 157 141 0
27.280000 32.560000 5.390000 193 163 147 0
27.500000 32.560000 5.390000 193 165 146 0
27.720000 32.560000 5.390000 194 166 147 0
27.940000 32.560000 5.390000 193 170 149 0
28.160000 32.560000 6.160000 194 171 150 0
28.380000 32.560000 6.160000 194 173 151 0
28.600000 32.560000 6.160000 195 174 152 0
28.820000 32.560000 6.160000 195 173 154 0
29.040000 32.560000 6.160000 197 175 156 0
29.260000 32.560000 6.160000 197 175 156 0
29.480000 32.560000 6.160000 197 175 156 0
29.700000 32.560000 6.600000 196 179 158 0
29.920000 32.560000 7.040000 198 181 160 0
30.140000 32.560000 7.590000 198 181 160 0
30.360000 32.560000 7.590000 199 182 161 0
30.580000 32.560000 7.700000 200 182 163 0
30.800000 32.560000 7.700000 202 184 165 0
31.020000 32.560000 7.700000 202 184 165 0
31.240000 32.560000 8.360000 203 185 166 0
31.460000 32.560000 8.360000 203 187 166 0
31.680000 32.560000 8.360000 204 188 167 0
31.900000 32.560000 8.470000 203 190 168 0
32.120000 32.560000 8.470000 205 192 170 0
32.340000 32.560000 8.470000 205 194 172 0
32.560000 32.560000 8.470000 206 195 173 0
32.780000 32.560000 8.470000 206 197 177 0
33.000000 32.560000 8.580000 207 198 178 0
33.220000 32.560000 8.580000 209 200 182 0
33.440000 32.560000 8.580000 210 201 183 0
33.660000 32.560000 9.350000 211 201 186 0
33.880000 32.560000 9.350000 213 203 188 0
34.100000 32.560000 9.350000 216 203 189 0
34.320000 32.560000 9.350000 216 203 189 0
34.540000 32.560000 9.350000 216 206 191 0
34.760000 32.560000 9.460000 217 207 192 0
34.980000 32.560000 9.460000 217 207 193 0
35.200000 32.560000 9.460000 220 210 196 0
35.420000 32.560000 9.570000 223 212 201 0
35.640000 32.560000 9.570000 229 218 207 0
35.860000 32.560000 9.570000 231 233 223 0
36.080000 32.560000 10.120000 236 238 228 0
36.300000 32.560000 11.220000 237 239 231 0
36.520000 32.560000 11.110000 238 240 232 0
36.740000 32.560000 11.770000 248 235 222 0
36.960000 32.560000 11.770000 234 221 208 0
37.180000 32.560000 11.770000 226 216 202 0
0.000000 32.780000 15.070000 141 56 49 0
0.220000 32.780000 15.730000 144 56 50 0
0.440000 32.780000 16.500000 143 55 49 0
0.660000 32.780000 17.710000 142 54 47 0
0.880000 32.780000 19.580000 143 55 48 0
1.100000 32.780000 15.290000 144 56 49 0
1.320000 32.780000 9.900000 145 57 50 0
1.540000 32.780000 14.960000 146 58 52 0
1.760000 32.780000 15.180000 146 58 52 0
1.980000 32.780000 9.570000 147 59 53 0
2.200000 32.780000 9.570000 146 58 52 0
2.420000 32.780000 8.250000 147 59 52 0
2.640000 32.780000 11.000000 146 58 51 0
2.860000 32.780000 15.840000 148 60 53 0
3.080000 32.780000 18.590000 147 59 52 0
3.300000 32.780000 20.020000 149 59 53 0
3.520000 32.780000 20.020000 150 60 54 0
3.740000 32.780000 19.250000 150 61 52 0
3.960000 32.780000 19.250000 149 60 51 0
4.180000 32.780000 19.250000 151 62 53 0
4.400000 32.780000 18.590000 152 63 54 0
4.620000 32.780000 15.840000 152 63 54 0
4.840000 32.780000 15.070000 151 62 53 0
5.060000 32.780000 11.000000 152 63 54 0
5.280000 32.780000 3.410000 153 64 55 0
9.240000 32.780000 0.660000 163 79 66 0
9.460000 32.780000 0.660000 162 80 64 0
10.780000 32.780000 0.550000 169 86 73 0
11.000000 32.780000 1.540000 169 86 73 0
11.220000 32.780000 1.430000 166 86 72 0
11.440000 32.780000 0.990000 168 88 74 0
11.660000 32.780000 0.550000 168 88 74 0
11.880000 32.780000 0.550000 168 88 74 0
12.100000 32.780000 0.990000 169 89 75 0
12.320000 32.780000 2.090000 170 90 76 0
12.540000 32.780000 2.090000 170 90 76 0
12.760000 32.780000 2.090000 171 91 77 0
12.980000 32.780000 2.090000 169 91 76 0
13.200000 32.780000 2.310000 170 92 77 0
13.420000 32.780000 1.650000 170 91 79 0
13.640000 32.780000 2.200000 170 91 79 0
13.860000 32.780000 2.750000 171 93 78 0
14.080000 32.780000 2.750000 171 93 78 0
14.300000 32.780000 2.090000 171 93 78 0
14.520000 32.780000 1.430000 172 94 79 0
14.740000 32.780000 0.880000 171 92 80 0
15.400000 32.780000 0.330000 171 92 80 0
15.620000 32.780000 1.210000 171 92 80 0
15.840000 32.780000 1.980000 170 91 79 0
16.060000 32.780000 2.640000 169 90 78 0
16.280000 32.780000 1.980000 168 89 77 0
16.500000 32.780000 1.320000 169 90 78 0
17.160000 32.780000 0.550000 171 91 79 0
17.380000 32.780000 0.990000 171 91 79 0
17.600000 32.780000 0.880000 170 90 78 0
17.820000 32.780000 1.430000 170 91 79 0
18.040000 32.780000 1.430000 169 90 78 0
18.260000 32.780000 1.430000 170 91 79 0
18.480000 32.780000 1.430000 170 91 79 0
18.700000 32.780000 1.430000 171 91 79 0
18.920000 32.780000 1.430000 172 92 80 0
19.140000 32.780000 1.430000 170 91 79 0
19.360000 32.780000 1.540000 170 91 79 0
19.580000 32.780000 0.880000 172 92 80 0
19.800000 32.780000 1.100000 173 93 81 0
20.020000 32.780000 0.440000 172 93 81 0
20.240000 32.780000 0.440000 173 94 82 0
20.460000 32.780000 0.440000 174 95 83 0
20.680000 32.780000 1.210000 174 95 83 0
20.900000 32.780000 1.210000 174 95 85 0
21.120000 32.780000 1.210000 175 96 86 0
21.340000 32.780000 1.210000 175 96 84 0
21.560000 32.780000 1.210000 176 97 85 0
21.780000 32.780000 1.320000 175 96 84 0
22.000000 32.780000 1.320000 177 98 86 0
22.220000 32.780000 1.320000 177 98 86 0
22.440000 32.780000 1.320000 176 97 85 0
22.660000 32.780000 1.320000 174 97 86 0
22.880000 32.780000 1.320000 174 97 86 0
23.100000 32.780000 1.320000 175 96 84 0
23.320000 32.780000 1.980000 176 97 85 0
23.540000 32.780000 2.530000 176 97 87 0
23.760000 32.780000 3.630000 176 97 87 0
23.980000 32.780000 4.180000 177 98 88 0
24.200000 32.780000 4.840000 178 99 89 0
24.420000 32.780000 4.950000 177 102 91 0
24.640000 32.780000 4.290000 177 102 91 0
24.860000 32.780000 4.290000 177 102 91 0
25.080000 32.780000 4.400000 178 103 92 0
25.300000 32.780000 4.400000 181 108 96 0
25.520000 32.780000 4.400000 183 110 98 0
25.740000 32.780000 4.510000 181 114 101 0
25.960000 32.780000 4.510000 183 116 103 0
26.180000 32.780000 4.510000 181 122 109 0
26.400000 32.780000 4.510000 186 127 114 0
26.620000 32.780000 4.620000 185 136 124 0
26.840000 32.780000 4.620000 191 142 130 0
27.060000 32.780000 5.390000 190 150 135 0
27.280000 32.780000 5.390000 195 155 140 0
27.500000 32.780000 5.390000 193 164 145 0
27.720000 32.780000 5.390000 195 166 147 0
27.940000 32.780000 5.390000 195 167 148 0
28.160000 32.780000 5.390000 197 169 150 0
28.380000 32.780000 6.160000 195 169 151 0
28.600000 32.780000 6.160000 198 172 154 0
28.820000 32.780000 6.160000 198 175 154 0
29.040000 32.780000 6.160000 197 174 153 0
29.260000 32.780000 6.160000 197 175 156 0
29.480000 32.780000 6.050000 197 175 156 0
29.700000 32.780000 7.150000 197 178 159 0
29.920000 32.780000 7.700000 199 180 161 0
30.140000 32.780000 7.590000 200 178 159 0
30.360000 32.780000 7.700000 202 180 161 0
30.580000 32.780000 7.700000 200 181 161 0
30.800000 32.780000 7.700000 202 183 163 0
31.020000 32.780000 7.700000 202 185 164 0
31.240000 32.780000 8.360000 202 185 164 0
31.460000 32.780000 8.360000 203 185 166 0
31.680000 32.780000 8.470000 204 186 167 0
31.900000 32.780000 8.470000 204 188 168 0
32.120000 32.780000 8.470000 205 189 169 0
32.340000 32.780000 8.470000 206 190 169 0
32.560000 32.780000 8.470000 208 192 171 0
32.780000 32.780000 8.470000 207 196 174 0
33.000000 32.780000 8.580000 208 197 175 0
33.220000 32.780000 8.580000 210 198 181 0
33.440000 32.780000 8.580000 211 199 182 0
33.660000 32.780000 9.350000 209 199 184 0
33.880000 32.780000 9.350000 210 200 185 0
34.100000 32.780000 9.350000 212 202 187 0
34.320000 32.780000 9.350000 214 204 189 0
34.540000 32.780000 9.350000 215 205 190 0
34.760000 32.780000 9.460000 215 205 190 0
34.980000 32.780000 9.460000 217 207 193 0
35.200000 32.780000 9.460000 219 209 195 0
35.420000 32.780000 8.910000 219 215 209 0
35.640000 32.780000 8.910000 229 225 219 0
35.860000 32.780000 8.910000 236 237 227 0
36.080000 32.780000 10.120000 234 235 225 0
36.300000 32.780000 10.560000 234 235 224 0
36.520000 32.780000 11.110000 237 238 227 0
36.740000 32.780000 11.770000 242 239 229 0
36.960000 32.780000 11.770000 237 234 224 0
37.180000 32.780000 11.770000 231 218 205 0
0.000000 33.000000 15.070000 142 57 50 0
0.220000 33.000000 15.730000 143 55 49 0
0.440000 33.000000 16.500000 143 55 49 0
0.660000 33.000000 17.710000 143 55 48 0
0.880000 33.000000 19.580000 143 55 48 0
1.100000 33.000000 15.290000 145 57 50 0
1.320000 33.000000 9.900000 145 57 50 0
1.540000 33.000000 14.960000 145 57 51 0
1.760000 33.000000 14.410000 145 57 51 0
1.980000 33.000000 9.570000 145 57 51 0
2.200000 33.000000 9.570000 145 57 51 0
2.420000 33.000000 5.500000 146 58 51 0
2.640000 33.000000 2.640000 147 59 52 0
2.860000 33.000000 6.820000 147 59 52 0
3.080000 33.000000 13.750000 145 57 50 0
3.300000 33.000000 18.590000 148 58 52 0
3.520000 33.000000 19.360000 149 59 53 0
3.740000 33.000000 19.250000 149 60 51 0
3.960000 33.000000 19.250000 150 61 52 0
4.180000 33.000000 19.250000 150 61 52 0
4.400000 33.000000 19.250000 151 62 53 0
4.620000 33.000000 19.910000 152 63 54 0
4.840000 33.000000 19.910000 151 62 53 0
5.060000 33.000000 15.180000 153 64 55 0
5.280000 33.000000 4.070000 153 64 55 0
9.240000 33.000000 0.660000 162 78 65 0
9.460000 33.000000 0.660000 161 79 63 0
10.780000 33.000000 0.550000 167 84 71 0
11.000000 33.000000 0.990000 168 85 72 0
11.220000 33.000000 1.540000 167 87 73 0
11.440000 33.000000 0.440000 168 88 74 0
11.660000 33.000000 0.660000 167 87 73 0
11.880000 33.000000 0.550000 168 88 74 0
12.100000 33.000000 1.100000 169 89 75 0
12.320000 33.000000 1.650000 169 89 75 0
12.540000 33.000000 1.540000 170 90 76 0
12.760000 33.000000 2.090000 171 91 77 0
12.980000 33.000000 2.200000 169 91 76 0
13.200000 33.000000 1.760000 169 91 76 0
13.420000 33.000000 1.760000 170 91 79 0
13.640000 33.000000 2.200000 170 91 79 0
13.860000 33.000000 2.750000 171 93 78 0
14.080000 33.000000 2.750000 171 93 78 0
14.300000 33.000000 2.090000 171 93 78 0
14.520000 33.000000 2.090000 171 93 78 0
14.740000 33.000000 1.430000 172 93 81 0
14.960000 33.000000 0.880000 172 93 81 0
15.180000 33.000000 0.880000 171 92 80 0
15.400000 33.000000 0.880000 171 92 80 0
15.620000 33.000000 0.440000 171 92 80 0
15.840000 33.000000 1.320000 171 92 80 0
16.060000 33.000000 2.640000 171 92 80 0
16.280000 33.000000 2.640000 170 91 79 0
16.500000 33.000000 1.980000 169 90 78 0
16.720000 33.000000 0.660000 169 90 78 0
17.380000 33.000000 0.550000 171 91 79 0
17.600000 33.000000 0.440000 171 91 79 0
17.820000 33.000000 1.540000 169 90 78 0
18.040000 33.000000 1.430000 170 91 79 0
18.260000 33.000000 1.430000 170 91 79 0
18.480000 33.000000 1.430000 170 91 79 0
18.700000 33.000000 1.430000 172 92 80 0
18.920000 33.000000 1.430000 171 91 79 0
19.140000 33.000000 1.430000 170 91 79 0
19.360000 33.000000 1.430000 170 91 79 0
19.580000 33.000000 0.880000 171 91 79 0
19.800000 33.000000 0.990000 173 93 81 0
20.020000 33.000000 0.440000 172 93 81 0
20.240000 33.000000 0.440000 173 94 82 0
20.460000 33.000000 1.100000 174 95 83 0
20.680000 33.000000 1.100000 174 95 83 0
20.900000 33.000000 1.210000 174 95 85 0
21.120000 33.000000 1.210000 175 96 86 0
21.340000 33.000000 1.210000 175 96 84 0
21.560000 33.000000 1.210000 175 96 84 0
21.780000 33.000000 1.210000 176 97 85 0
22.000000 33.000000 1.320000 176 97 85 0
22.220000 33.000000 1.320000 177 98 86 0
22.440000 33.000000 1.320000 176 97 85 0
22.660000 33.000000 1.320000 174 97 86 0
22.880000 33.000000 1.320000 174 97 86 0
23.100000 33.000000 1.320000 175 96 84 0
23.320000 33.000000 2.090000 176 97 85 0
23.540000 33.000000 2.750000 177 98 88 0
23.760000 33.000000 3.190000 176 97 87 0
23.980000 33.000000 4.400000 176 97 87 0
24.200000 33.000000 4.950000 178 99 89 0
24.420000 33.000000 4.840000 175 100 89 0
24.640000 33.000000 4.950000 176 101 90 0
24.860000 33.000000 4.290000 178 103 92 0
25.080000 33.000000 4.400000 179 104 93 0
25.300000 33.000000 4.400000 179 106 94 0
25.520000 33.000000 4.510000 181 108 96 0
25.740000 33.000000 4.510000 180 113 100 0
25.960000 33.000000 4.510000 183 116 103 0
26.180000 33.000000 4.510000 179 120 107 0
26.400000 33.000000 4.510000 183 124 111 0
26.620000 33.000000 4.620000 182 133 121 0
26.840000 33.000000 5.280000 187 138 126 0
27.060000 33.000000 5.390000 186 146 131 0
27.280000 33.000000 5.390000 192 152 137 0
27.500000 33.000000 5.390000 190 161 142 0
27.720000 33.000000 5.390000 193 164 145 0
27.940000 33.000000 5.390000 194 166 147 0
28.160000 33.000000 5.390000 195 167 148 0
28.380000 33.000000 6.160000 195 169 151 0
28.600000 33.000000 6.160000 196 170 152 0
28.820000 33.000000 6.160000 195 172 151 0
29.040000 33.000000 6.160000 196 173 152 0
29.260000 33.000000 6.160000 196 174 155 0
29.480000 33.000000 6.710000 197 175 156 0
29.700000 33.000000 7.040000 196 177 158 0
29.920000 33.000000 7.590000 197 178 159 0
30.140000 33.000000 7.590000 200 178 159 0
30.360000 33.000000 7.700000 200 178 159 0
30.580000 33.000000 7.700000 201 182 162 0
30.800000 33.000000 7.700000 201 182 162 0
31.020000 33.000000 7.700000 201 184 163 0
31.240000 33.000000 8.360000 203 186 165 0
31.460000 33.000000 8.360000 202 184 165 0
31.680000 33.000000 8.470000 203 185 166 0
31.900000 33.000000 8.470000 203 187 167 0
32.120000 33.000000 8.470000 204 188 168 0
32.340000 33.000000 8.470000 205 189 168 0
32.560000 33.000000 8.470000 207 191 170 0
32.780000 33.000000 8.580000 206 195 173 0
33.000000 33.000000 8.580000 207 196 174 0
33.220000 33.000000 8.580000 208 196 179 0
33.440000 33.000000 8.580000 210 198 181 0
33.660000 33.000000 9.350000 209 199 184 0
33.880000 33.000000 9.350000 209 199 184 0
34.100000 33.000000 9.350000 211 201 186 0
34.320000 33.000000 9.350000 212 202 187 0
34.540000 33.000000 9.350000 214 204 189 0
34.760000 33.000000 9.460000 214 204 189 0
34.980000 33.000000 9.460000 216 206 192 0
35.200000 33.000000 8.800000 218 208 194 0
35.420000 33.000000 8.910000 220 216 210 0
35.640000 33.000000 8.910000 233 229 223 0
35.860000 33.000000 8.910000 235 236 226 0
36.080000 33.000000 9.460000 235 236 226 0
36.300000 33.000000 10.560000 236 237 226 0
36.520000 33.000000 11.110000 237 238 227 0
36.740000 33.000000 11.110000 241 238 228 0
36.960000 33.000000 11.110000 238 235 225 0
37.180000 33.000000 11.770000 231 218 205 0
0.000000 33.220000 15.070000 140 55 48 0
0.220000 33.220000 15.730000 140 55 48 0
0.440000 33.220000 16.500000 141 56 49 0
0.660000 33.220000 17.710000 142 57 50 0
0.880000 33.220000 18.810000 142 57 50 0
1.100000 33.220000 14.520000 142 57 50 0
1.320000 33.220000 9.790000 141 56 49 0
1.540000 33.220000 14.960000 144 56 50 0
1.760000 33.220000 15.840000 143 55 49 0
1.980000 33.220000 11.660000 145 57 51 0
2.200000 33.220000 11.000000 146 58 52 0
2.420000 33.220000 4.730000 146 58 51 0
2.860000 33.220000 0.660000 146 58 51 0
3.080000 33.220000 7.480000 146 58 51 0
3.300000 33.220000 15.840000 147 59 52 0
3.520000 33.220000 19.250000 147 59 52 0
3.740000 33.220000 19.360000 148 60 53 0
3.960000 33.220000 18.590000 149 61 54 0
4.180000 33.220000 18.590000 149 61 54 0
4.400000 33.220000 18.590000 150 62 55 0
4.620000 33.220000 19.250000 150 62 53 0
4.840000 33.220000 19.910000 150 62 53 0
5.060000 33.220000 14.410000 152 62 56 0
5.280000 33.220000 4.070000 152 62 56 0
9.240000 33.220000 0.660000 161 77 64 0
9.460000 33.220000 0.660000 162 78 65 0
9.680000 33.220000 0.660000 162 78 65 0
10.780000 33.220000 0.660000 166 83 70 0
11.000000 33.220000 0.440000 166 83 70 0
11.220000 33.220000 1.100000 169 86 73 0
11.440000 33.220000 0.550000 169 86 73 0
11.880000 33.220000 0.550000 169 89 75 0
12.100000 33.220000 0.440000 167 87 73 0
12.320000 33.220000 0.440000 170 90 76 0
12.540000 33.220000 1.100000 169 89 77 0
12.760000 33.220000 1.650000 170 90 78 0
12.980000 33.220000 1.540000 170 91 79 0
13.200000 33.220000 1.760000 169 90 78 0
13.420000 33.220000 1.100000 170 91 79 0
13.640000 33.220000 2.200000 170 91 79 0
13.860000 33.220000 2.750000 170 91 79 0
14.080000 33.220000 2.750000 170 91 79 0
14.300000 33.220000 2.090000 171 92 80 0
14.520000 33.220000 2.090000 171 92 80 0
14.740000 33.220000 2.090000 172 93 81 0
14.960000 33.220000 2.090000 171 92 80 0
15.180000 33.220000 1.430000 171 92 80 0
15.400000 33.220000 0.770000 172 93 81 0
15.620000 33.220000 0.220000 172 93 81 0
15.840000 33.220000 0.550000 172 93 81 0
16.060000 33.220000 1.980000 172 93 81 0
16.280000 33.220000 2.640000 171 92 80 0
16.500000 33.220000 2.750000 171 92 80 0
16.720000 33.220000 1.980000 170 91 79 0
16.940000 33.220000 0.660000 170 91 79 0
17.160000 33.220000 0.660000 170 91 79 0
17.600000 33.220000 0.550000 170 91 79 0
17.820000 33.220000 0.990000 169 90 78 0
18.040000 33.220000 1.430000 170 91 79 0
18.260000 33.220000 1.430000 170 91 79 0
18.480000 33.220000 1.430000 170 91 79 0
18.700000 33.220000 1.430000 170 91 79 0
18.920000 33.220000 1.430000 171 92 80 0
19.140000 33.220000 1.430000 169 90 78 0
19.360000 33.220000 1.430000 170 91 79 0
19.580000 33.220000 1.540000 171 92 80 0
19.800000 33.220000 0.990000 172 93 81 0
20.020000 33.220000 1.100000 172 95 82 0
20.240000 33.220000 1.100000 173 96 83 0
20.460000 33.220000 1.100000 173 96 83 0
20.680000 33.220000 1.100000 173 96 83 0
20.900000 33.220000 1.100000 175 96 84 0
21.120000 33.220000 1.870000 175 96 84 0
21.340000 33.220000 1.870000 176 97 85 0
21.560000 33.220000 1.870000 175 96 84 0
21.780000 33.220000 1.210000 174 97 84 0
22.000000 33.220000 1.320000 176 99 86 0
22.220000 33.220000 1.320000 176 99 86 0
22.440000 33.220000 1.320000 175 98 85 0
22.660000 33.220000 1.320000 176 97 87 0
22.880000 33.220000 1.320000 174 95 85 0
23.100000 33.220000 1.320000 173 96 85 0
23.320000 33.220000 2.090000 174 97 86 0
23.540000 33.220000 2.750000 175 98 87 0
23.760000 33.220000 3.410000 175 98 87 0
23.980000 33.220000 3.960000 173 98 87 0
24.200000 33.220000 4.400000 174 99 88 0
24.420000 33.220000 4.290000 177 100 89 0
24.640000 33.220000 4.290000 179 102 91 0
24.860000 33.220000 4.400000 176 103 91 0
25.080000 33.220000 4.400000 178 105 93 0
25.300000 33.220000 4.510000 179 106 95 0
25.520000 33.220000 4.510000 180 107 96 0
25.740000 33.220000 4.510000 180 110 98 0
25.960000 33.220000 4.510000 182 112 100 0
26.180000 33.220000 4.510000 179 119 106 0
26.400000 33.220000 4.620000 182 122 109 0
26.620000 33.220000 4.620000 186 129 115 0
26.840000 33.220000 5.280000 188 131 117 0
27.060000 33.220000 5.390000 185 141 123 0
27.280000 33.220000 5.390000 190 146 128 0
27.500000 33.220000 5.390000 188 155 135 0
27.720000 33.220000 5.390000 194 161 141 0
27.940000 33.220000 5.390000 192 163 144 0
28.160000 33.220000 5.390000 194 165 146 0
28.380000 33.220000 5.500000 195 167 148 0
28.600000 33.220000 6.160000 197 169 150 0
28.820000 33.220000 6.160000 194 171 152 0
29.040000 33.220000 6.160000 196 173 154 0
29.260000 33.220000 6.160000 195 173 154 0
29.480000 33.220000 6.710000 196 174 155 0
29.700000 33.220000 7.040000 197 175 156 0
29.920000 33.220000 7.590000 198 176 157 0
30.140000 33.220000 7.590000 199 177 159 0
30.360000 33.220000 7.700000 199 177 159 0
30.580000 33.220000 7.700000 200 181 161 0
30.800000 33.220000 7.700000 199 180 160 0
31.020000 33.220000 7.700000 200 183 162 0
31.240000 33.220000 8.360000 200 183 162 0
31.460000 33.220000 8.360000 200 183 162 0
31.680000 33.220000 8.470000 201 184 163 0
31.900000 33.220000 8.470000 202 184 165 0
32.120000 33.220000 8.470000 202 184 165 0
32.340000 33.220000 8.470000 204 188 168 0
32.560000 33.220000 8.470000 204 188 168 0
32.780000 33.220000 8.580000 204 193 171 0
33.000000 33.220000 8.580000 205 194 172 0
33.220000 33.220000 8.580000 207 195 176 0
33.440000 33.220000 8.580000 208 196 177 0
33.660000 33.220000 9.350000 207 198 180 0
33.880000 33.220000 9.350000 209 200 182 0
34.100000 33.220000 9.350000 210 201 183 0
34.320000 33.220000 9.350000 212 203 185 0
34.540000 33.220000 9.460000 212 202 187 0
34.760000 33.220000 9.460000 214 204 189 0
34.980000 33.220000 8.800000 214 204 190 0
35.200000 33.220000 8.800000 217 207 193 0
35.420000 33.220000 8.910000 221 214 203 0
35.640000 33.220000 8.910000 232 225 214 0
35.860000 33.220000 8.910000 235 236 226 0
36.080000 33.220000 9.460000 236 237 227 0
36.300000 33.220000 10.560000 237 234 224 0
36.520000 33.220000 11.110000 238 235 225 0
36.740000 33.220000 11.110000 239 234 225 0
36.960000 33.220000 11.110000 238 233 224 0
37.180000 33.220000 11.770000 230 220 206 0
0.000000 33.440000 14.960000 140 55 48 0
0.220000 33.440000 15.730000 140 55 48 0
0.440000 33.440000 16.500000 141 56 49 0
0.660000 33.440000 17.710000 141 56 49 0
0.880000 33.440000 18.810000 141 56 49 0
1.100000 33.440000 15.950000 141 56 49 0
1.320000 33.440000 11.990000 140 55 48 0
1.540000 33.440000 15.730000 143 55 49 0
1.760000 33.440000 18.590000 143 55 49 0
1.980000 33.440000 17.160000 143 55 49 0
2.200000 33.440000 13.750000 145 57 51 0
2.420000 33.440000 4.840000 144 56 49 0
3.080000 33.440000 4.730000 146 58 51 0
3.300000 33.440000 15.180000 146 58 51 0
3.520000 33.440000 19.250000 147 59 52 0
3.740000 33.440000 18.590000 146 58 51 0
3.960000 33.440000 18.590000 147 59 52 0
4.180000 33.440000 17.930000 147 59 52 0
4.400000 33.440000 18.590000 148 60 53 0
4.620000 33.440000 18.590000 148 60 51 0
4.840000 33.440000 19.250000 150 62 53 0
5.060000 33.440000 15.840000 151 61 55 0
5.280000 33.440000 6.820000 151 61 55 0
5.500000 33.440000 0.660000 151 63 56 0
9.240000 33.440000 0.660000 161 77 64 0
9.460000 33.440000 0.660000 161 77 64 0
9.680000 33.440000 0.660000 162 78 65 0
11.000000 33.440000 0.660000 166 83 70 0
11.220000 33.440000 0.550000 167 84 71 0
11.880000 33.440000 0.660000 165 85 71 0
12.100000 33.440000 0.550000 167 87 73 0
12.320000 33.440000 0.660000 168 88 74 0
12.540000 33.440000 0.660000 169 89 77 0
12.760000 33.440000 1.100000 170 90 78 0
12.980000 33.440000 1.650000 168 89 77 0
13.200000 33.440000 1.760000 169 90 78 0
13.420000 33.440000 1.100000 169 90 78 0
13.640000 33.440000 2.200000 169 90 78 0
13.860000 33.440000 2.090000 169 90 78 0
14.080000 33.440000 2.090000 170 91 79 0
14.300000 33.440000 2.750000 171 92 80 0
14.520000 33.440000 2.750000 170 91 79 0
14.740000 33.440000 2.090000 171 92 80 0
14.960000 33.440000 2.090000 171 92 80 0
15.180000 33.440000 2.090000 172 93 81 0
15.400000 33.440000 1.430000 173 94 82 0
15.620000 33.440000 0.880000 173 94 82 0
15.840000 33.440000 0.440000 174 95 83 0
16.060000 33.440000 1.320000 173 94 82 0
16.280000 33.440000 2.750000 172 93 81 0
16.500000 33.440000 2.750000 171 92 80 0
16.720000 33.440000 2.750000 170 91 79 0
16.940000 33.440000 1.980000 170 91 79 0
17.160000 33.440000 0.660000 170 91 79 0
17.380000 33.440000 0.660000 169 90 78 0
17.600000 33.440000 0.660000 170 91 79 0
17.820000 33.440000 0.440000 170 91 79 0
18.040000 33.440000 0.880000 169 90 78 0
18.260000 33.440000 1.430000 170 91 79 0
18.480000 33.440000 1.430000 170 91 79 0
18.700000 33.440000 1.430000 170 91 79 0
18.920000 33.440000 1.430000 170 91 79 0
19.140000 33.440000 1.430000 171 92 80 0
19.360000 33.440000 1.430000 171 92 80 0
19.580000 33.440000 1.540000 171 92 80 0
19.800000 33.440000 0.880000 172 93 81 0
20.020000 33.440000 0.990000 173 96 83 0
20.240000 33.440000 1.100000 173 96 83 0
20.460000 33.440000 1.100000 174 97 84 0
20.680000 33.440000 1.100000 174 97 84 0
20.900000 33.440000 1.870000 176 97 85 0
21.120000 33.440000 1.870000 177 98 86 0
21.340000 33.440000 1.870000 177 98 86 0
21.560000 33.440000 1.870000 176 97 85 0
21.780000 33.440000 1.210000 174 97 84 0
22.000000 33.440000 1.320000 173 96 83 0
22.220000 33.440000 1.320000 174 97 84 0
22.440000 33.440000 1.320000 173 96 83 0
22.660000 33.440000 1.320000 173 94 84 0
22.880000 33.440000 1.320000 175 96 86 0
23.100000 33.440000 1.320000 173 96 85 0
23.320000 33.440000 2.090000 174 97 86 0
23.540000 33.440000 2.750000 174 97 86 0
23.760000 33.440000 2.750000 176 99 88 0
23.980000 33.440000 3.410000 173 98 87 0
24.200000 33.440000 3.300000 173 98 87 0
24.420000 33.440000 3.300000 176 99 88 0
24.640000 33.440000 3.850000 178 101 90 0
24.860000 33.440000 3.850000 175 102 90 0
25.080000 33.440000 3.850000 177 104 92 0
25.300000 33.440000 3.850000 177 104 93 0
25.520000 33.440000 4.510000 179 106 95 0
25.740000 33.440000 4.510000 178 108 96 0
25.960000 33.440000 4.510000 179 109 97 0
26.180000 33.440000 4.510000 175 115 102 0
26.400000 33.440000 5.280000 179 119 106 0
26.620000 33.440000 5.280000 181 124 110 0
26.840000 33.440000 5.280000 185 128 114 0
27.060000 33.440000 5.390000 180 136 118 0
27.280000 33.440000 5.390000 185 141 123 0
27.500000 33.440000 5.390000 184 151 131 0
27.720000 33.440000 5.390000 187 154 134 0
27.940000 33.440000 5.390000 189 160 141 0
28.160000 33.440000 5.390000 193 164 145 0
28.380000 33.440000 5.500000 193 165 146 0
28.600000 33.440000 6.160000 195 167 148 0
28.820000 33.440000 6.160000 192 169 150 0
29.040000 33.440000 6.160000 194 171 152 0
29.260000 33.440000 6.160000 193 171 152 0
29.480000 33.440000 6.710000 195 173 154 0
29.700000 33.440000 7.150000 197 175 156 0
29.920000 33.440000 7.590000 197 175 156 0
30.140000 33.440000 7.700000 197 175 157 0
30.360000 33.440000 7.700000 198 176 158 0
30.580000 33.440000 7.700000 197 178 158 0
30.800000 33.440000 7.700000 198 179 159 0
31.020000 33.440000 7.700000 197 180 159 0
31.240000 33.440000 8.360000 199 182 161 0
31.460000 33.440000 8.470000 199 182 161 0
31.680000 33.440000 8.470000 199 182 161 0
31.900000 33.440000 8.470000 200 182 163 0
32.120000 33.440000 8.470000 201 183 164 0
32.340000 33.440000 8.470000 201 185 165 0
32.560000 33.440000 8.470000 203 187 167 0
32.780000 33.440000 8.580000 201 190 168 0
33.000000 33.440000 8.580000 203 192 170 0
33.220000 33.440000 8.580000 205 193 174 0
33.440000 33.440000 8.580000 206 194 175 0
33.660000 33.440000 9.350000 205 196 178 0
33.880000 33.440000 9.350000 207 198 180 0
34.100000 33.440000 9.350000 208 199 181 0
34.320000 33.440000 9.350000 209 200 182 0
34.540000 33.440000 9.460000 210 200 185 0
34.760000 33.440000 9.460000 212 202 187 0
34.980000 33.440000 8.800000 214 204 190 0
35.200000 33.440000 8.800000 216 206 192 0
35.420000 33.440000 8.910000 218 211 200 0
35.640000 33.440000 8.910000 228 221 210 0
35.860000 33.440000 8.910000 233 234 224 0
36.080000 33.440000 9.460000 235 236 226 0
36.300000 33.440000 10.560000 237 234 224 0
36.520000 33.440000 11.110000 236 233 223 0
36.740000 33.440000 11.110000 235 230 221 0
36.960000 33.440000 11.110000 230 225 216 0
37.180000 33.440000 11.110000 229 219 205 0
0.000000 33.660000 14.960000 139 54 47 0
0.220000 33.660000 15.730000 140 55 48 0
0.440000 33.660000 16.500000 139 54 47 0
0.660000 33.660000 17.050000 140 54 50 0
0.880000 33.660000 18.810000 140 54 50 0
1.100000 33.660000 18.150000 140 55 48 0
1.320000 33.660000 17.050000 141 56 49 0
1.540000 33.660000 17.820000 141 56 49 0
1.760000 33.660000 19.250000 140 55 48 0
1.980000 33.660000 20.020000 143 55 49 0
2.200000 33.660000 15.180000 143 55 49 0
2.420000 33.660000 4.840000 142 57 50 0
3.080000 33.660000 3.410000 146 58 52 0
3.300000 33.660000 12.320000 145 57 50 0
3.520000 33.660000 17.930000 145 57 50 0
3.740000 33.660000 18.590000 146 58 52 0
3.960000 33.660000 17.930000 147 59 53 0
4.180000 33.660000 17.930000 147 59 52 0
4.400000 33.660000 17.930000 146 58 51 0
4.620000 33.660000 18.590000 148 60 53 0
4.840000 33.660000 19.250000 149 61 54 0
5.060000 33.660000 18.590000 149 61 54 0
5.280000 33.660000 12.320000 149 61 54 0
5.500000 33.660000 2.750000 149 61 54 0
9.460000 33.660000 0.660000 161 77 62 0
9.680000 33.660000 0.660000 160 76 61 0
10.560000 33.660000 0.660000 163 80 67 0
11.880000 33.660000 0.660000 165 85 71 0
12.100000 33.660000 0.660000 166 86 72 0
12.320000 33.660000 0.660000 167 87 73 0
12.540000 33.660000 0.660000 167 89 74 0
12.760000 33.660000 1.210000 168 90 75 0
12.980000 33.660000 1.650000 168 89 77 0
13.200000 33.660000 1.650000 169 90 78 0
13.420000 33.660000 1.100000 170 92 77 0
13.640000 33.660000 2.200000 169 91 76 0
13.860000 33.660000 2.090000 169 90 78 0
14.080000 33.660000 2.090000 169 90 78 0
14.300000 33.660000 2.750000 170 92 77 0
14.520000 33.660000 2.750000 171 93 78 0
14.740000 33.660000 2.750000 170 91 79 0
14.960000 33.660000 2.750000 170 91 79 0
15.180000 33.660000 2.090000 172 93 81 0
15.400000 33.660000 1.430000 171 92 80 0
15.620000 33.660000 0.770000 172 95 82 0
15.840000 33.660000 0.220000 172 95 82 0
16.060000 33.660000 0.440000 174 95 83 0
16.280000 33.660000 1.980000 173 94 82 0
16.500000 33.660000 2.750000 171 94 81 0
16.720000 33.660000 2.750000 170 93 80 0
16.940000 33.660000 2.750000 170 91 79 0
17.160000 33.660000 1.980000 169 90 78 0
17.380000 33.660000 1.320000 170 91 79 0
17.600000 33.660000 0.660000 169 90 78 0
17.820000 33.660000 0.660000 170 91 79 0
18.040000 33.660000 1.210000 169 90 78 0
18.260000 33.660000 0.880000 169 90 78 0
18.480000 33.660000 1.430000 170 91 79 0
18.700000 33.660000 1.430000 169 92 79 0
18.920000 33.660000 1.430000 169 92 79 0
19.140000 33.660000 1.430000 170 93 80 0
19.360000 33.660000 1.430000 170 93 80 0
19.580000 33.660000 1.540000 171 94 81 0
19.800000 33.660000 1.540000 171 94 81 0
20.020000 33.660000 0.990000 173 96 83 0
20.240000 33.660000 0.990000 174 97 84 0
20.460000 33.660000 1.100000 175 98 85 0
20.680000 33.660000 1.760000 177 100 87 0
20.900000 33.660000 1.760000 177 100 89 0
21.120000 33.660000 1.870000 177 100 89 0
21.340000 33.660000 1.870000 176 99 88 0
21.560000 33.660000 1.870000 174 97 86 0
21.780000 33.660000 1.210000 173 96 83 0
22.000000 33.660000 1.210000 172 95 82 0
22.220000 33.660000 1.320000 173 96 83 0
22.440000 33.660000 1.320000 173 96 83 0
22.660000 33.660000 1.320000 173 96 85 0
22.880000 33.660000 1.320000 173 96 85 0
23.100000 33.660000 1.320000 171 96 85 0
23.320000 33.660000 1.980000 171 96 85 0
23.540000 33.660000 2.750000 174 97 86 0
23.760000 33.660000 2.750000 173 96 85 0
23.980000 33.660000 2.750000 172 97 86 0
24.200000 33.660000 2.750000 173 98 87 0
24.420000 33.660000 2.750000 173 98 87 0
24.640000 33.660000 3.410000 174 99 88 0
24.860000 33.660000 3.300000 176 103 91 0
25.080000 33.660000 3.850000 176 103 91 0
25.300000 33.660000 3.850000 177 104 93 0
25.520000 33.660000 4.510000 178 105 94 0
25.740000 33.660000 4.510000 177 107 94 0
25.960000 33.660000 4.510000 179 109 96 0
26.180000 33.660000 4.620000 180 111 99 0
26.400000 33.660000 5.280000 183 114 102 0
26.620000 33.660000 5.280000 178 119 106 0
26.840000 33.660000 5.280000 183 124 111 0
27.060000 33.660000 5.390000 180 132 117 0
27.280000 33.660000 5.390000 185 137 122 0
27.500000 33.660000 5.390000 183 140 126 0
27.720000 33.660000 5.390000 189 146 132 0
27.940000 33.660000 5.390000 190 154 137 0
28.160000 33.660000 5.390000 193 157 140 0
28.380000 33.660000 5.500000 190 162 143 0
28.600000 33.660000 5.500000 191 163 144 0
28.820000 33.660000 6.160000 193 167 149 0
29.040000 33.660000 6.160000 193 167 149 0
29.260000 33.660000 6.160000 191 169 150 0
29.480000 33.660000 6.600000 193 171 152 0
29.700000 33.660000 7.700000 194 172 153 0
29.920000 33.660000 7.590000 195 173 154 0
30.140000 33.660000 7.700000 195 174 152 0
30.360000 33.660000 7.700000 196 175 153 0
30.580000 33.660000 7.700000 197 175 156 0
30.800000 33.660000 7.700000 197 175 156 0
31.020000 33.660000 8.360000 197 178 159 0
31.240000 33.660000 8.360000 198 179 160 0
31.460000 33.660000 8.470000 197 180 159 0
31.680000 33.660000 8.470000 198 181 160 0
31.900000 33.660000 8.470000 199 182 161 0
32.120000 33.660000 7.810000 199 182 161 0
32.340000 33.660000 7.810000 201 183 164 0
32.560000 33.660000 7.810000 203 185 166 0
32.780000 33.660000 7.810000 202 186 168 0
33.000000 33.660000 8.580000 204 188 170 0
33.220000 33.660000 8.580000 201 188 167 0
33.440000 33.660000 8.580000 205 192 171 0
33.660000 33.660000 8.580000 205 193 174 0
33.880000 33.660000 9.350000 207 195 176 0
34.100000 33.660000 9.350000 206 197 177 0
34.320000 33.660000 9.350000 207 198 178 0
34.540000 33.660000 9.460000 208 199 181 0
34.760000 33.660000 8.800000 210 201 183 0
34.980000 33.660000 8.800000 213 203 188 0
35.200000 33.660000 8.800000 214 204 189 0
35.420000 33.660000 8.910000 217 207 193 0
35.640000 33.660000 8.910000 221 211 197 0
35.860000 33.660000 8.910000 230 221 209 0
36.080000 33.660000 9.460000 238 229 217 0
36.300000 33.660000 10.560000 236 228 213 0
36.520000 33.660000 11.110000 231 223 208 0
36.740000 33.660000 11.110000 229 218 207 0
36.960000 33.660000 11.110000 228 217 206 0
37.180000 33.660000 11.110000 226 216 202 0
0.000000 33.880000 14.960000 139 54 47 0
0.220000 33.880000 15.730000 139 54 47 0
0.440000 33.880000 16.500000 139 54 47 0
0.660000 33.880000 17.050000 139 53 49 0
0.880000 33.880000 18.810000 139 53 49 0
1.100000 33.880000 18.810000 141 56 49 0
1.320000 33.880000 19.140000 140 55 48 0
1.540000 33.880000 19.250000 140 55 48 0
1.760000 33.880000 19.250000 141 56 49 0
1.980000 33.880000 20.020000 143 55 49 0
2.200000 33.880000 15.180000 144 56 50 0
2.420000 33.880000 5.500000 142 57 50 0
3.080000 33.880000 0.660000 145 57 51 0
3.300000 33.880000 6.820000 147 59 52 0
3.520000 33.880000 15.840000 146 58 51 0
3.740000 33.880000 18.590000 145 57 51 0
3.960000 33.880000 17.930000 146 58 52 0
4.180000 33.880000 17.160000 147 59 52 0
4.400000 33.880000 17.160000 148 60 53 0
4.620000 33.880000 17.930000 148 60 53 0
4.840000 33.880000 18.590000 149 61 54 0
5.060000 33.880000 19.250000 149 61 54 0
5.280000 33.880000 14.410000 149 61 54 0
5.500000 33.880000 4.070000 149 61 54 0
9.460000 33.880000 0.660000 160 76 61 0
9.680000 33.880000 0.660000 161 77 62 0
10.560000 33.880000 0.660000 164 81 68 0
10.780000 33.880000 0.660000 163 80 67 0
11.660000 33.880000 0.660000 165 85 71 0
11.880000 33.880000 0.660000 165 85 71 0
12.100000 33.880000 0.660000 166 86 72 0
12.320000 33.880000 0.660000 168 88 74 0
12.540000 33.880000 0.660000 167 89 74 0
12.760000 33.880000 1.210000 167 89 74 0
12.980000 33.880000 1.540000 168 89 77 0
13.200000 33.880000 1.540000 168 89 77 0
13.420000 33.880000 1.650000 169 91 76 0
13.640000 33.880000 2.200000 169 91 76 0
13.860000 33.880000 2.090000 169 90 78 0
14.080000 33.880000 2.090000 170 91 79 0
14.300000 33.880000 2.750000 170 92 77 0
14.520000 33.880000 2.750000 170 92 77 0
14.740000 33.880000 2.750000 172 93 81 0
14.960000 33.880000 2.750000 172 93 81 0
15.180000 33.880000 2.750000 171 92 80 0
15.400000 33.880000 2.090000 173 94 82 0
15.620000 33.880000 1.430000 173 96 83 0
15.840000 33.880000 0.770000 173 96 83 0
16.060000 33.880000 0.880000 174 95 83 0
16.280000 33.880000 1.210000 173 94 82 0
16.500000 33.880000 1.980000 172 95 82 0
16.720000 33.880000 1.980000 172 95 82 0
16.940000 33.880000 2.750000 172 93 81 0
17.160000 33.880000 2.640000 171 92 80 0
17.380000 33.880000 1.980000 171 92 80 0
17.600000 33.880000 1.320000 170 91 79 0
17.820000 33.880000 0.660000 170 91 79 0
18.040000 33.880000 0.660000 169 90 78 0
18.260000 33.880000 1.100000 170 91 79 0
18.480000 33.880000 1.540000 170 91 79 0
18.700000 33.880000 1.430000 170 93 80 0
18.920000 33.880000 1.430000 169 92 79 0
19.140000 33.880000 1.430000 169 92 79 0
19.360000 33.880000 1.430000 170 93 80 0
19.580000 33.880000 1.430000 172 95 82 0
19.800000 33.880000 1.540000 173 96 83 0
20.020000 33.880000 1.540000 174 97 84 0
20.240000 33.880000 1.650000 176 99 86 0
20.460000 33.880000 1.760000 178 101 88 0
20.680000 33.880000 1.760000 179 102 89 0
20.900000 33.880000 1.760000 180 103 92 0
21.120000 33.880000 1.760000 180 103 92 0
21.340000 33.880000 1.870000 178 101 90 0
21.560000 33.880000 1.870000 176 99 88 0
21.780000 33.880000 1.210000 174 97 84 0
22.000000 33.880000 1.210000 173 96 83 0
22.220000 33.880000 1.210000 172 95 82 0
22.440000 33.880000 0.550000 173 96 83 0
22.660000 33.880000 0.660000 173 96 85 0
22.880000 33.880000 1.320000 173 96 85 0
23.100000 33.880000 1.320000 170 95 84 0
23.320000 33.880000 1.980000 171 96 85 0
23.540000 33.880000 2.750000 174 97 86 0
23.760000 33.880000 2.750000 175 98 87 0
23.980000 33.880000 2.750000 173 98 87 0
24.200000 33.880000 2.750000 173 98 87 0
24.420000 33.880000 2.750000 174 99 88 0
24.640000 33.880000 2.640000 175 100 89 0
24.860000 33.880000 3.300000 174 101 89 0
25.080000 33.880000 3.300000 176 103 91 0
25.300000 33.880000 3.960000 176 103 92 0
25.520000 33.880000 3.850000 177 104 93 0
25.740000 33.880000 4.620000 176 106 93 0
25.960000 33.880000 4.620000 179 109 96 0
26.180000 33.880000 4.620000 178 109 97 0
26.400000 33.880000 5.280000 181 112 100 0
26.620000 33.880000 5.280000 177 118 105 0
26.840000 33.880000 5.280000 181 122 109 0
27.060000 33.880000 5.390000 176 128 113 0
27.280000 33.880000 5.390000 180 132 117 0
27.500000 33.880000 5.390000 180 137 123 0
27.720000 33.880000 5.390000 184 141 127 0
27.940000 33.880000 5.390000 186 150 133 0
28.160000 33.880000 5.500000 190 154 137 0
28.380000 33.880000 5.500000 187 159 140 0
28.600000 33.880000 5.500000 191 163 144 0
28.820000 33.880000 6.160000 190 164 146 0
29.040000 33.880000 6.160000 191 165 147 0
29.260000 33.880000 6.050000 190 168 149 0
29.480000 33.880000 7.150000 192 170 151 0
29.700000 33.880000 7.700000 193 171 152 0
29.920000 33.880000 7.590000 194 172 153 0
30.140000 33.880000 7.700000 194 173 151 0
30.360000 33.880000 7.700000 195 174 152 0
30.580000 33.880000 7.700000 196 174 155 0
30.800000 33.880000 7.700000 197 175 156 0
31.020000 33.880000 8.360000 196 177 158 0
31.240000 33.880000 8.360000 197 178 159 0
31.460000 33.880000 8.470000 197 180 159 0
31.680000 33.880000 8.470000 198 181 160 0
31.900000 33.880000 7.810000 198 181 160 0
32.120000 33.880000 7.810000 197 180 159 0
32.340000 33.880000 7.810000 199 181 162 0
32.560000 33.880000 7.810000 200 182 163 0
32.780000 33.880000 7.810000 200 184 166 0
33.000000 33.880000 7.920000 202 186 168 0
33.220000 33.880000 8.580000 201 188 167 0
33.440000 33.880000 8.580000 204 191 170 0
33.660000 33.880000 8.580000 204 192 173 0
33.880000 33.880000 8.690000 205 193 174 0
34.100000 33.880000 8.690000 204 195 175 0
34.320000 33.880000 8.690000 206 197 177 0
34.540000 33.880000 8.690000 208 199 181 0
34.760000 33.880000 8.800000 210 201 183 0
34.980000 33.880000 8.800000 212 202 187 0
35.200000 33.880000 8.800000 212 202 187 0
35.420000 33.880000 8.910000 214 204 190 0
35.640000 33.880000 8.910000 217 207 193 0
35.860000 33.880000 8.910000 226 217 205 0
36.080000 33.880000 9.460000 228 219 207 0
36.300000 33.880000 10.560000 227 219 204 0
36.520000 33.880000 11.110000 226 218 203 0
36.740000 33.880000 11.110000 226 215 204 0
36.960000 33.880000 11.110000 224 213 202 0
37.180000 33.880000 11.110000 221 211 197 0
0.000000 34.100000 14.960000 138 54 49 0
0.220000 34.100000 15.730000 140 55 48 0
0.440000 34.100000 16.500000 141 56 49 0
0.660000 34.100000 17.050000 138 53 46 0
0.880000 34.100000 18.810000 139 54 47 0
1.100000 34.100000 18.810000 140 55 48 0
1.320000 34.100000 19.140000 140 55 48 0
1.540000 34.100000 18.590000 140 55 48 0
1.760000 34.100000 19.250000 141 56 49 0
1.980000 34.100000 19.250000 142 57 50 0
2.200000 34.100000 15.180000 142 57 50 0
2.420000 34.100000 4.840000 144 56 50 0
3.300000 34.100000 4.070000 145 60 53 0
3.520000 34.100000 14.410000 144 59 52 0
3.740000 34.100000 19.250000 146 58 51 0
3.960000 34.100000 17.930000 147 59 52 0
4.180000 34.100000 17.160000 147 59 52 0
4.400000 34.100000 17.160000 147 59 52 0
4.620000 34.100000 17.930000 148 60 53 0
4.840000 34.100000 18.590000 148 60 53 0
5.060000 34.100000 19.250000 148 60 53 0
5.280000 34.100000 14.410000 149 61 54 0
5.500000 34.100000 4.070000 150 61 52 0
9.460000 34.100000 0.660000 161 73 64 0
9.680000 34.100000 0.660000 162 74 65 0
10.560000 34.100000 0.660000 163 79 66 0
10.780000 34.100000 0.660000 162 79 66 0
11.000000 34.100000 0.660000 164 81 68 0
11.220000 34.100000 0.660000 167 83 70 0
11.440000 34.100000 0.660000 167 83 70 0
11.660000 34.100000 0.660000 164 84 70 0
11.880000 34.100000 0.660000 165 85 71 0
12.100000 34.100000 0.660000 165 85 71 0
12.320000 34.100000 0.660000 167 87 73 0
12.540000 34.100000 0.660000 167 87 73 0
12.760000 34.100000 1.210000 168 88 74 0
12.980000 34.100000 1.540000 168 88 74 0
13.200000 34.100000 2.090000 169 89 75 0
13.420000 34.100000 2.200000 170 90 76 0
13.640000 34.100000 2.090000 170 90 76 0
13.860000 34.100000 2.090000 171 91 77 0
14.080000 34.100000 2.090000 171 91 77 0
14.300000 34.100000 2.750000 170 92 77 0
14.520000 34.100000 2.750000 171 93 78 0
14.740000 34.100000 2.750000 172 93 81 0
14.960000 34.100000 2.750000 172 93 81 0
15.180000 34.100000 2.750000 172 93 81 0
15.400000 34.100000 2.090000 173 94 82 0
15.620000 34.100000 2.090000 173 95 80 0
15.840000 34.100000 1.430000 173 95 80 0
16.060000 34.100000 1.430000 173 96 83 0
16.280000 34.100000 0.880000 172 95 82 0
16.500000 34.100000 1.100000 174 97 84 0
16.720000 34.100000 1.320000 173 96 83 0
16.940000 34.100000 2.640000 173 96 83 0
17.160000 34.100000 2.640000 171 94 81 0
17.380000 34.100000 2.640000 171 94 81 0
17.600000 34.100000 1.980000 170 93 80 0
17.820000 34.100000 1.320000 170 93 80 0
18.040000 34.100000 0.660000 169 92 79 0
18.260000 34.100000 1.210000 169 92 79 0
18.480000 34.100000 1.650000 170 93 80 0
18.700000 34.100000 1.430000 171 92 80 0
18.920000 34.100000 1.430000 171 92 80 0
19.140000 34.100000 1.430000 172 95 82 0
19.360000 34.100000 1.430000 172 95 82 0
19.580000 34.100000 1.430000 172 95 82 0
19.800000 34.100000 1.540000 174 97 84 0
20.020000 34.100000 1.540000 175 98 85 0
20.240000 34.100000 1.650000 177 100 87 0
20.460000 34.100000 1.650000 179 102 89 0
20.680000 34.100000 1.760000 182 105 92 0
20.900000 34.100000 1.760000 181 107 91 0
21.120000 34.100000 1.760000 183 109 93 0
21.340000 34.100000 1.870000 183 106 93 0
21.560000 34.100000 1.870000 178 101 88 0
21.780000 34.100000 1.210000 176 99 86 0
22.000000 34.100000 1.210000 174 97 84 0
22.220000 34.100000 1.210000 174 97 86 0
22.440000 34.100000 0.550000 174 97 86 0
22.660000 34.100000 0.550000 173 96 85 0
22.880000 34.100000 0.660000 173 96 85 0
23.100000 34.100000 1.320000 173 96 85 0
23.320000 34.100000 1.980000 174 97 86 0
23.540000 34.100000 2.750000 173 98 87 0
23.760000 34.100000 2.750000 173 98 87 0
23.980000 34.100000 2.750000 176 99 88 0
24.200000 34.100000 2.750000 177 100 89 0
24.420000 34.100000 2.750000 175 100 89 0
24.640000 34.100000 2.640000 176 101 90 0
24.860000 34.100000 3.300000 176 101 91 0
25.080000 34.100000 3.300000 177 102 92 0
25.300000 34.100000 3.960000 177 102 92 0
25.520000 34.100000 3.960000 179 104 94 0
25.740000 34.100000 4.620000 178 105 94 0
25.960000 34.100000 4.620000 179 106 95 0
26.180000 34.100000 4.620000 179 109 97 0
26.400000 34.100000 4.620000 180 110 98 0
26.620000 34.100000 5.280000 180 116 102 0
26.840000 34.100000 5.390000 183 119 105 0
27.060000 34.100000 5.390000 182 122 109 0
27.280000 34.100000 5.390000 184 124 111 0
27.500000 34.100000 5.390000 187 130 118 0
27.720000 34.100000 5.390000 192 135 123 0
27.940000 34.100000 5.390000 185 142 128 0
28.160000 34.100000 5.500000 189 146 132 0
28.380000 34.100000 5.500000 190 154 137 0
28.600000 34.100000 6.160000 192 156 139 0
28.820000 34.100000 6.160000 192 160 144 0
29.040000 34.100000 6.160000 194 162 146 0
29.260000 34.100000 6.710000 193 165 146 0
29.480000 34.100000 7.040000 193 165 146 0
29.700000 34.100000 7.590000 194 168 150 0
29.920000 34.100000 7.700000 196 170 152 0
30.140000 34.100000 7.700000 193 170 151 0
30.360000 34.100000 7.700000 194 171 152 0
30.580000 34.100000 7.700000 196 173 154 0
30.800000 34.100000 7.700000 197 174 155 0
31.020000 34.100000 7.700000 197 175 157 0
31.240000 34.100000 8.470000 198 176 158 0
31.460000 34.100000 7.700000 197 178 158 0
31.680000 34.100000 7.810000 197 178 158 0
31.900000 34.100000 7.810000 198 179 159 0
32.120000 34.100000 7.810000 198 179 159 0
32.340000 34.100000 7.810000 197 179 160 0
32.560000 34.100000 7.810000 201 183 164 0
32.780000 34.100000 7.810000 202 184 165 0
33.000000 34.100000 7.920000 203 185 166 0
33.220000 34.100000 7.920000 203 187 167 0
33.440000 34.100000 8.580000 205 189 169 0
33.660000 34.100000 8.580000 204 190 172 0
33.880000 34.100000 8.690000 205 191 173 0
34.100000 34.100000 8.690000 206 194 175 0
34.320000 34.100000 8.690000 208 196 177 0
34.540000 34.100000 8.690000 207 197 182 0
34.760000 34.100000 8.800000 208 198 183 0
34.980000 34.100000 8.800000 211 201 186 0
35.200000 34.100000 8.800000 211 201 186 0
35.420000 34.100000 8.800000 213 203 189 0
35.640000 34.100000 8.910000 216 206 192 0
35.860000 34.100000 8.910000 219 209 195 0
36.080000 34.100000 9.460000 224 214 200 0
36.300000 34.100000 10.560000 224 214 200 0
36.520000 34.100000 11.110000 222 212 198 0
36.740000 34.100000 11.110000 221 211 197 0
36.960000 34.100000 11.110000 220 210 196 0
37.180000 34.100000 11.110000 218 208 194 0
0.000000 34.320000 14.960000 137 53 48 0
0.220000 34.320000 15.730000 140 55 48 0
0.440000 34.320000 15.840000 138 53 46 0
0.660000 34.320000 17.050000 139 54 47 0
0.880000 34.320000 18.810000 139 54 47 0
1.100000 34.320000 19.470000 141 56 49 0
1.320000 34.320000 19.030000 141 56 49 0
1.540000 34.320000 19.250000 141 56 49 0
1.760000 34.320000 19.250000 141 56 49 0
