ply
format ascii 1.0
element vertex 1129
property float x
property float y
property float z
property uchar red
property uchar green
property uchar blue
property uchar alpha
end_header
29.920000 5.720000 37.840000 208 210 200 0
30.140000 5.720000 39.380000 208 210 200 0
30.360000 5.720000 39.380000 207 209 199 0
30.580000 5.720000 38.280000 218 225 215 0
30.800000 5.720000 38.280000 218 225 215 0
31.020000 5.720000 36.960000 208 210 200 0
31.240000 5.720000 27.280000 208 210 200 0
31.460000 5.720000 12.100000 208 210 200 0
31.680000 5.720000 1.100000 208 210 200 0
32.340000 5.720000 0.440000 207 209 199 0
32.560000 5.720000 1.540000 206 208 198 0
32.780000 5.720000 8.580000 206 208 200 0
33.000000 5.720000 23.760000 205 207 199 0
33.220000 5.720000 33.440000 206 208 200 0
33.440000 5.720000 39.160000 207 209 201 0
33.660000 5.720000 42.020000 206 208 198 0
33.880000 5.720000 31.020000 206 208 198 0
34.100000 5.720000 9.020000 207 209 199 0
34.540000 5.720000 0.660000 205 207 199 0
34.760000 5.720000 2.200000 204 206 198 0
34.980000 5.720000 2.200000 199 201 193 0
35.200000 5.720000 2.200000 199 201 193 0
35.420000 5.720000 3.740000 199 201 191 0
35.640000 5.720000 5.060000 193 195 185 0
35.860000 5.720000 6.600000 191 177 169 0
36.080000 5.720000 6.600000 177 163 155 0
36.300000 5.720000 6.600000 169 152 139 0
36.520000 5.720000 6.600000 161 144 131 0
36.740000 5.720000 6.600000 161 139 123 0
36.960000 5.720000 6.820000 155 133 117 0
37.180000 5.720000 6.820000 153 131 115 0
0.000000 5.940000 2.200000 215 216 213 0
0.220000 5.940000 2.420000 214 215 212 0
0.440000 5.940000 3.740000 214 215 212 0
0.660000 5.940000 3.740000 216 217 214 0
0.880000 5.940000 2.420000 215 216 213 0
1.100000 5.940000 2.640000 215 216 213 0
1.320000 5.940000 2.640000 217 218 215 0
1.540000 5.940000 2.640000 217 218 215 0
1.760000 5.940000 2.640000 217 218 215 0
1.980000 5.940000 5.060000 216 217 214 0
2.200000 5.940000 5.940000 216 217 214 0
2.420000 5.940000 7.040000 216 217 214 0
2.640000 5.940000 7.040000 216 217 214 0
2.860000 5.940000 5.720000 216 217 214 0
3.080000 5.940000 5.720000 215 216 213 0
3.300000 5.940000 5.720000 215 216 213 0
3.520000 5.940000 7.260000 215 216 213 0
3.740000 5.940000 7.260000 216 217 214 0
3.960000 5.940000 7.260000 216 217 214 0
4.180000 5.940000 7.480000 217 219 213 0
4.400000 5.940000 7.480000 218 220 214 0
4.620000 5.940000 7.480000 217 219 213 0
4.840000 5.940000 7.480000 217 219 213 0
5.060000 5.940000 7.700000 217 219 213 0
5.280000 5.940000 7.700000 215 217 211 0
5.500000 5.940000 7.700000 214 215 212 0
5.720000 5.940000 7.700000 215 216 213 0
5.940000 5.940000 7.700000 217 219 213 0
6.160000 5.940000 9.240000 215 217 211 0
6.380000 5.940000 9.240000 216 218 212 0
6.600000 5.940000 9.460000 215 217 211 0
6.820000 5.940000 9.460000 214 216 210 0
7.040000 5.940000 9.460000 214 216 210 0
7.260000 5.940000 9.460000 215 217 211 0
7.480000 5.940000 9.460000 215 217 211 0
7.700000 5.940000 10.560000 213 215 209 0
7.920000 5.940000 12.760000 214 216 210 0
8.140000 5.940000 13.860000 214 216 210 0
8.360000 5.940000 13.860000 213 215 209 0
8.580000 5.940000 14.080000 212 214 208 0
8.800000 5.940000 14.080000 213 215 209 0
9.020000 5.940000 14.080000 214 216 210 0
9.240000 5.940000 14.080000 214 216 210 0
9.460000 5.940000 15.620000 215 217 211 0
9.680000 5.940000 15.620000 214 216 210 0
9.900000 5.940000 15.620000 212 214 208 0
10.120000 5.940000 15.840000 212 214 208 0
10.340000 5.940000 15.840000 214 216 210 0
10.560000 5.940000 15.840000 212 214 208 0
10.780000 5.940000 15.840000 212 214 208 0
11.000000 5.940000 16.060000 212 214 208 0
11.220000 5.940000 16.060000 212 214 208 0
11.440000 5.940000 16.060000 210 212 206 0
11.660000 5.940000 16.060000 210 212 204 0
11.880000 5.940000 16.280000 210 212 204 0
12.100000 5.940000 16.280000 209 211 205 0
12.320000 5.940000 16.280000 212 214 208 0
12.540000 5.940000 17.820000 215 217 211 0
12.760000 5.940000 17.820000 213 215 209 0
12.980000 5.940000 17.820000 211 213 207 0
13.200000 5.940000 17.820000 211 213 207 0
13.420000 5.940000 17.600000 212 214 206 0
13.640000 5.940000 19.800000 214 216 208 0
13.860000 5.940000 20.900000 214 216 208 0
14.080000 5.940000 20.900000 212 214 206 0
14.300000 5.940000 20.900000 211 213 205 0
14.520000 5.940000 20.900000 211 213 205 0
14.740000 5.940000 21.120000 212 214 206 0
14.960000 5.940000 21.120000 211 213 205 0
15.180000 5.940000 21.120000 212 214 206 0
15.400000 5.940000 21.120000 211 213 205 0
15.620000 5.940000 21.340000 212 214 206 0
15.840000 5.940000 21.340000 212 214 206 0
16.060000 5.940000 21.340000 212 214 206 0
16.280000 5.940000 21.340000 211 213 205 0
16.500000 5.940000 22.880000 214 216 208 0
16.720000 5.940000 22.880000 214 216 208 0
16.940000 5.940000 22.880000 212 214 206 0
17.160000 5.940000 23.100000 212 214 206 0
17.380000 5.940000 24.420000 211 213 205 0
17.600000 5.940000 24.420000 211 213 205 0
17.820000 5.940000 24.640000 212 214 206 0
18.040000 5.940000 24.640000 212 214 206 0
18.260000 5.940000 24.640000 212 214 206 0
18.480000 5.940000 24.640000 211 213 205 0
18.700000 5.940000 26.180000 211 213 203 0
18.920000 5.940000 25.960000 212 214 204 0
19.140000 5.940000 27.940000 211 213 203 0
19.360000 5.940000 29.040000 212 214 204 0
19.580000 5.940000 29.260000 213 215 207 0
19.800000 5.940000 29.260000 213 215 207 0
20.020000 5.940000 29.260000 211 213 203 0
20.240000 5.940000 29.260000 211 213 203 0
20.460000 5.940000 30.800000 211 213 203 0
20.680000 5.940000 30.800000 211 213 203 0
20.900000 5.940000 30.800000 211 213 203 0
21.120000 5.940000 31.020000 212 214 204 0
21.340000 5.940000 32.340000 212 214 204 0
21.560000 5.940000 32.340000 211 213 203 0
21.780000 5.940000 32.560000 210 212 202 0
22.000000 5.940000 32.560000 210 212 202 0
22.220000 5.940000 32.560000 212 214 204 0
22.440000 5.940000 32.560000 213 215 205 0
22.660000 5.940000 32.780000 212 214 204 0
22.880000 5.940000 34.100000 213 215 205 0
23.100000 5.940000 34.100000 211 213 203 0
23.320000 5.940000 34.320000 211 213 203 0
23.540000 5.940000 34.320000 210 212 202 0
23.760000 5.940000 34.320000 210 212 202 0
23.980000 5.940000 34.540000 210 212 202 0
24.200000 5.940000 34.320000 210 212 202 0
24.420000 5.940000 36.520000 208 210 200 0
24.640000 5.940000 37.400000 209 211 201 0
24.860000 5.940000 38.720000 210 212 202 0
25.080000 5.940000 38.940000 210 212 202 0
25.300000 5.940000 38.940000 210 212 202 0
25.520000 5.940000 38.940000 210 212 202 0
25.740000 5.940000 38.940000 212 213 203 0
25.960000 5.940000 40.480000 211 212 202 0
26.180000 5.940000 40.480000 209 211 201 0
26.400000 5.940000 40.480000 208 210 200 0
26.620000 5.940000 40.700000 209 211 201 0
26.840000 5.940000 40.700000 210 212 202 0
27.060000 5.940000 37.840000 211 212 201 0
27.280000 5.940000 25.520000 210 211 200 0
27.500000 5.940000 6.160000 209 210 200 0
29.480000 5.940000 10.120000 216 217 206 0
29.700000 5.940000 30.580000 211 213 203 0
29.920000 5.940000 40.480000 209 211 201 0
30.140000 5.940000 39.160000 210 211 201 0
30.360000 5.940000 39.380000 210 211 201 0
30.580000 5.940000 39.380000 209 211 201 0
30.800000 5.940000 38.280000 210 212 202 0
31.020000 5.940000 38.280000 210 211 201 0
31.240000 5.940000 36.960000 210 211 201 0
31.460000 5.940000 24.420000 210 211 201 0
31.680000 5.940000 6.600000 211 212 202 0
32.340000 5.940000 0.440000 207 209 199 0
32.560000 5.940000 1.540000 205 207 197 0
32.780000 5.940000 3.080000 205 207 199 0
33.000000 5.940000 8.580000 204 206 198 0
33.220000 5.940000 15.620000 206 207 197 0
33.440000 5.940000 26.620000 206 207 197 0
33.660000 5.940000 30.800000 206 208 198 0
33.880000 5.940000 22.660000 206 208 198 0
34.100000 5.940000 7.480000 208 210 200 0
34.540000 5.940000 0.660000 216 218 208 0
34.760000 5.940000 2.200000 198 200 190 0
34.980000 5.940000 2.200000 201 202 191 0
35.200000 5.940000 3.520000 199 200 189 0
35.420000 5.940000 3.740000 199 199 186 0
35.640000 5.940000 5.060000 194 194 181 0
35.860000 5.940000 6.600000 188 175 161 0
36.080000 5.940000 6.600000 174 161 147 0
36.300000 5.940000 6.600000 168 150 135 0
36.520000 5.940000 6.600000 161 143 128 0
36.740000 5.940000 8.140000 160 138 120 0
36.960000 5.940000 8.140000 156 134 116 0
37.180000 5.940000 8.140000 153 131 113 0
0.000000 6.160000 2.200000 215 216 213 0
0.220000 6.160000 2.420000 215 216 213 0
0.440000 6.160000 3.740000 214 215 212 0
0.660000 6.160000 3.740000 214 215 212 0
0.880000 6.160000 2.420000 216 217 214 0
1.100000 6.160000 2.640000 215 216 213 0
1.320000 6.160000 2.640000 215 216 213 0
1.540000 6.160000 2.640000 216 217 214 0
1.760000 6.160000 2.640000 217 218 215 0
1.980000 6.160000 3.740000 217 218 215 0
2.200000 6.160000 5.940000 216 217 214 0
2.420000 6.160000 7.040000 218 219 216 0
2.640000 6.160000 7.040000 218 219 216 0
2.860000 6.160000 5.720000 214 215 212 0
3.080000 6.160000 5.720000 214 215 212 0
3.300000 6.160000 5.720000 216 217 214 0
3.520000 6.160000 7.260000 216 217 214 0
3.740000 6.160000 7.260000 216 217 214 0
3.960000 6.160000 7.260000 215 216 213 0
4.180000 6.160000 7.480000 216 218 212 0
4.400000 6.160000 7.480000 216 218 212 0
4.620000 6.160000 7.480000 216 218 212 0
4.840000 6.160000 7.480000 217 219 213 0
5.060000 6.160000 7.700000 216 218 212 0
5.280000 6.160000 7.700000 216 218 212 0
5.500000 6.160000 7.700000 215 216 213 0
5.720000 6.160000 7.700000 216 217 214 0
5.940000 6.160000 7.700000 216 218 212 0
6.160000 6.160000 9.240000 215 217 211 0
6.380000 6.160000 9.240000 215 217 211 0
6.600000 6.160000 9.460000 216 218 212 0
6.820000 6.160000 9.460000 215 217 211 0
7.040000 6.160000 9.460000 215 217 211 0
7.260000 6.160000 9.460000 214 216 210 0
7.480000 6.160000 9.460000 215 217 211 0
7.700000 6.160000 10.560000 214 216 210 0
7.920000 6.160000 12.760000 214 216 210 0
8.140000 6.160000 13.860000 213 215 209 0
8.360000 6.160000 13.860000 213 215 209 0
8.580000 6.160000 14.080000 212 214 208 0
8.800000 6.160000 14.080000 213 215 209 0
9.020000 6.160000 14.080000 213 215 209 0
9.240000 6.160000 14.080000 213 215 209 0
9.460000 6.160000 14.080000 213 215 209 0
9.680000 6.160000 15.620000 213 215 209 0
9.900000 6.160000 15.620000 213 215 209 0
10.120000 6.160000 15.840000 215 217 211 0
10.340000 6.160000 15.840000 213 215 209 0
10.560000 6.160000 15.840000 212 214 208 0
10.780000 6.160000 15.840000 211 213 207 0
11.000000 6.160000 15.840000 213 215 209 0
11.220000 6.160000 16.060000 214 216 210 0
11.440000 6.160000 16.060000 212 214 208 0
11.660000 6.160000 16.060000 210 212 204 0
11.880000 6.160000 16.280000 210 212 204 0
12.100000 6.160000 16.280000 210 212 206 0
12.320000 6.160000 16.280000 212 214 208 0
12.540000 6.160000 16.280000 215 217 211 0
12.760000 6.160000 16.500000 216 218 212 0
12.980000 6.160000 17.820000 215 217 211 0
13.200000 6.160000 17.820000 211 213 207 0
13.420000 6.160000 17.600000 212 214 206 0
13.640000 6.160000 19.800000 212 214 206 0
13.860000 6.160000 20.900000 212 214 206 0
14.080000 6.160000 20.900000 212 214 206 0
14.300000 6.160000 20.900000 211 213 205 0
14.520000 6.160000 20.900000 212 214 206 0
14.740000 6.160000 21.120000 212 214 206 0
14.960000 6.160000 21.120000 212 214 206 0
15.180000 6.160000 21.120000 212 214 206 0
15.400000 6.160000 21.120000 212 214 206 0
15.620000 6.160000 21.340000 212 214 206 0
15.840000 6.160000 21.340000 213 215 207 0
16.060000 6.160000 21.340000 212 214 206 0
16.280000 6.160000 21.340000 212 214 206 0
16.500000 6.160000 22.880000 212 214 206 0
16.720000 6.160000 22.880000 212 214 206 0
16.940000 6.160000 22.880000 212 214 206 0
17.160000 6.160000 23.100000 212 214 206 0
17.380000 6.160000 24.420000 212 214 206 0
17.600000 6.160000 24.420000 211 213 205 0
17.820000 6.160000 24.640000 213 215 207 0
18.040000 6.160000 24.640000 213 215 207 0
18.260000 6.160000 24.640000 212 214 206 0
18.480000 6.160000 24.640000 214 216 208 0
18.700000 6.160000 26.180000 213 215 205 0
18.920000 6.160000 25.960000 212 214 204 0
19.140000 6.160000 27.940000 211 213 203 0
19.360000 6.160000 29.040000 212 214 204 0
19.580000 6.160000 29.260000 212 214 206 0
19.800000 6.160000 29.260000 214 216 208 0
20.020000 6.160000 29.260000 214 216 206 0
20.240000 6.160000 30.580000 211 213 203 0
20.460000 6.160000 30.800000 210 212 202 0
20.680000 6.160000 30.800000 210 212 202 0
20.900000 6.160000 30.800000 211 213 203 0
21.120000 6.160000 31.020000 212 214 204 0
21.340000 6.160000 32.340000 213 215 205 0
21.560000 6.160000 32.340000 211 213 203 0
21.780000 6.160000 32.560000 210 212 202 0
22.000000 6.160000 32.560000 210 212 202 0
22.220000 6.160000 32.560000 210 212 202 0
22.440000 6.160000 32.560000 211 213 203 0
22.660000 6.160000 32.780000 212 214 204 0
22.880000 6.160000 34.100000 213 215 205 0
23.100000 6.160000 34.100000 211 213 203 0
23.320000 6.160000 34.320000 210 212 202 0
23.540000 6.160000 34.320000 213 215 205 0
23.760000 6.160000 34.320000 210 212 202 0
23.980000 6.160000 34.540000 211 213 203 0
24.200000 6.160000 34.320000 211 213 203 0
24.420000 6.160000 35.420000 209 211 201 0
24.640000 6.160000 37.620000 209 211 201 0
24.860000 6.160000 37.400000 209 211 201 0
25.080000 6.160000 38.940000 209 211 201 0
25.300000 6.160000 38.940000 210 212 202 0
25.520000 6.160000 38.940000 211 213 203 0
25.740000 6.160000 38.940000 211 212 202 0
25.960000 6.160000 39.160000 210 211 201 0
26.180000 6.160000 40.480000 208 210 200 0
26.400000 6.160000 40.480000 209 211 201 0
26.620000 6.160000 40.700000 209 211 201 0
26.840000 6.160000 40.700000 211 213 203 0
27.060000 6.160000 33.880000 212 213 202 0
27.280000 6.160000 14.520000 210 211 200 0
27.500000 6.160000 0.660000 210 211 201 0
29.480000 6.160000 10.120000 211 212 201 0
29.700000 6.160000 30.580000 210 212 202 0
29.920000 6.160000 40.480000 209 211 201 0
30.140000 6.160000 39.160000 211 212 202 0
30.360000 6.160000 40.700000 212 213 203 0
30.580000 6.160000 39.380000 209 211 201 0
30.800000 6.160000 39.380000 208 210 200 0
31.020000 6.160000 38.280000 210 211 201 0
31.240000 6.160000 39.600000 209 210 200 0
31.460000 6.160000 30.140000 209 210 200 0
31.680000 6.160000 8.140000 210 211 201 0
32.340000 6.160000 0.440000 207 209 199 0
32.560000 6.160000 1.540000 206 208 198 0
32.780000 6.160000 1.540000 206 208 200 0
33.000000 6.160000 0.220000 206 208 200 0
33.220000 6.160000 3.080000 208 209 199 0
33.440000 6.160000 8.580000 207 208 198 0
33.660000 6.160000 10.120000 205 207 197 0
33.880000 6.160000 7.480000 206 208 198 0
34.100000 6.160000 1.980000 205 207 197 0
34.320000 6.160000 0.660000 212 214 204 0
34.540000 6.160000 0.660000 208 210 200 0
34.760000 6.160000 0.660000 199 201 191 0
34.980000 6.160000 0.880000 199 200 189 0
35.200000 6.160000 2.200000 197 198 187 0
35.420000 6.160000 3.740000 197 197 184 0
35.640000 6.160000 5.060000 190 190 177 0
35.860000 6.160000 6.600000 185 172 158 0
36.080000 6.160000 6.600000 169 156 142 0
36.300000 6.160000 6.600000 163 145 130 0
36.520000 6.160000 6.600000 158 140 125 0
36.740000 6.160000 8.140000 158 136 118 0
36.960000 6.160000 8.140000 153 131 113 0
37.180000 6.160000 8.140000 152 130 112 0
0.000000 6.380000 2.200000 215 215 210 0
0.220000 6.380000 2.420000 215 215 210 0
0.440000 6.380000 3.740000 216 216 211 0
0.660000 6.380000 3.740000 215 215 210 0
0.880000 6.380000 2.420000 216 216 211 0
1.100000 6.380000 2.640000 216 216 211 0
1.320000 6.380000 2.640000 214 214 209 0
1.540000 6.380000 2.640000 215 215 210 0
1.760000 6.380000 2.640000 217 217 212 0
1.980000 6.380000 3.740000 218 218 213 0
2.200000 6.380000 5.940000 218 218 213 0
2.420000 6.380000 7.040000 221 221 216 0
2.640000 6.380000 7.040000 221 221 216 0
2.860000 6.380000 5.720000 214 214 209 0
3.080000 6.380000 5.720000 214 214 209 0
3.300000 6.380000 5.720000 215 215 210 0
3.520000 6.380000 5.720000 216 216 211 0
3.740000 6.380000 7.260000 215 217 211 0
3.960000 6.380000 7.260000 214 216 210 0
4.180000 6.380000 7.480000 215 215 210 0
4.400000 6.380000 7.480000 215 215 210 0
4.620000 6.380000 7.480000 213 215 209 0
4.840000 6.380000 7.480000 216 218 212 0
5.060000 6.380000 7.700000 217 217 210 0
5.280000 6.380000 7.700000 216 216 209 0
5.500000 6.380000 7.700000 215 217 211 0
5.720000 6.380000 7.700000 215 217 211 0
5.940000 6.380000 7.700000 214 216 210 0
6.160000 6.380000 7.920000 214 216 210 0
6.380000 6.380000 9.240000 214 216 210 0
6.600000 6.380000 9.460000 214 216 210 0
6.820000 6.380000 9.460000 215 215 208 0
7.040000 6.380000 9.460000 215 215 208 0
7.260000 6.380000 9.460000 214 216 208 0
7.480000 6.380000 9.460000 215 217 209 0
7.700000 6.380000 10.560000 215 217 209 0
7.920000 6.380000 12.760000 213 215 207 0
8.140000 6.380000 13.860000 212 214 206 0
8.360000 6.380000 13.860000 212 214 206 0
8.580000 6.380000 14.080000 213 215 207 0
8.800000 6.380000 14.080000 212 214 206 0
9.020000 6.380000 14.080000 212 214 206 0
9.240000 6.380000 14.080000 212 214 206 0
9.460000 6.380000 14.080000 213 215 207 0
9.680000 6.380000 15.620000 213 215 207 0
9.900000 6.380000 15.620000 214 216 210 0
10.120000 6.380000 15.840000 214 216 210 0
10.340000 6.380000 15.840000 213 213 206 0
10.560000 6.380000 15.840000 212 212 205 0
10.780000 6.380000 15.840000 211 213 205 0
11.000000 6.380000 15.840000 212 214 206 0
11.220000 6.380000 16.060000 213 215 207 0
11.440000 6.380000 16.060000 212 214 206 0
11.660000 6.380000 16.060000 211 211 204 0
11.880000 6.380000 16.280000 211 211 204 0
12.100000 6.380000 16.280000 210 212 202 0
12.320000 6.380000 16.280000 211 213 203 0
12.540000 6.380000 16.280000 212 214 204 0
12.760000 6.380000 16.500000 215 217 207 0
12.980000 6.380000 16.500000 214 214 207 0
13.200000 6.380000 17.820000 212 212 205 0
13.420000 6.380000 17.600000 209 211 201 0
13.640000 6.380000 19.800000 210 212 202 0
13.860000 6.380000 20.900000 212 213 203 0
14.080000 6.380000 20.900000 212 213 203 0
14.300000 6.380000 20.900000 212 214 204 0
14.520000 6.380000 20.900000 213 215 205 0
14.740000 6.380000 20.900000 213 214 204 0
14.960000 6.380000 21.120000 212 213 203 0
15.180000 6.380000 21.120000 211 213 203 0
15.400000 6.380000 21.120000 211 213 203 0
15.620000 6.380000 21.340000 211 213 203 0
15.840000 6.380000 21.340000 212 214 204 0
16.060000 6.380000 21.340000 213 214 204 0
16.280000 6.380000 21.340000 212 213 203 0
16.500000 6.380000 22.880000 211 212 202 0
16.720000 6.380000 22.880000 211 212 202 0
16.940000 6.380000 22.880000 211 213 203 0
17.160000 6.380000 24.420000 214 216 206 0
17.380000 6.380000 24.420000 214 215 204 0
17.600000 6.380000 24.420000 213 214 203 0
17.820000 6.380000 24.640000 214 215 205 0
18.040000 6.380000 24.640000 213 214 204 0
18.260000 6.380000 25.960000 212 213 203 0
18.480000 6.380000 26.180000 214 215 205 0
18.700000 6.380000 26.180000 212 214 204 0
18.920000 6.380000 27.280000 211 213 203 0
19.140000 6.380000 27.940000 212 213 202 0
19.360000 6.380000 29.040000 213 214 203 0
19.580000 6.380000 29.260000 213 214 203 0
19.800000 6.380000 29.260000 215 216 205 0
20.020000 6.380000 30.580000 215 216 205 0
20.240000 6.380000 30.580000 214 215 204 0
20.460000 6.380000 30.800000 210 213 201 0
20.680000 6.380000 30.800000 211 214 202 0
20.900000 6.380000 30.800000 211 212 201 0
21.120000 6.380000 32.340000 213 214 203 0
21.340000 6.380000 32.340000 214 215 204 0
21.560000 6.380000 32.340000 212 213 202 0
21.780000 6.380000 32.560000 211 212 201 0
22.000000 6.380000 32.560000 209 210 199 0
22.220000 6.380000 32.560000 210 211 200 0
22.440000 6.380000 32.560000 210 211 200 0
22.660000 6.380000 32.780000 211 212 201 0
22.880000 6.380000 34.100000 214 215 204 0
23.100000 6.380000 34.100000 212 213 202 0
23.320000 6.380000 34.320000 212 213 202 0
23.540000 6.380000 34.320000 212 213 202 0
23.760000 6.380000 33.000000 211 212 201 0
23.980000 6.380000 33.000000 211 212 201 0
24.200000 6.380000 34.540000 212 213 202 0
24.420000 6.380000 34.100000 210 211 200 0
24.640000 6.380000 36.300000 209 210 199 0
24.860000 6.380000 37.400000 210 211 200 0
25.080000 6.380000 37.400000 210 211 200 0
25.300000 6.380000 37.400000 210 211 198 0
25.520000 6.380000 37.620000 212 213 200 0
25.740000 6.380000 38.940000 213 214 201 0
25.960000 6.380000 39.160000 211 212 199 0
26.180000 6.380000 40.480000 210 211 200 0
26.400000 6.380000 40.480000 211 212 201 0
26.620000 6.380000 40.700000 210 211 200 0
26.840000 6.380000 37.840000 211 212 201 0
27.060000 6.380000 25.520000 210 211 198 0
27.280000 6.380000 7.700000 210 211 198 0
29.260000 6.380000 0.440000 210 211 198 0
29.480000 6.380000 11.220000 210 211 198 0
29.700000 6.380000 30.580000 210 211 198 0
29.920000 6.380000 40.480000 211 212 199 0
30.140000 6.380000 40.480000 210 211 198 0
30.360000 6.380000 40.700000 211 212 199 0
30.580000 6.380000 40.700000 211 212 199 0
30.800000 6.380000 39.380000 210 211 198 0
31.020000 6.380000 39.600000 208 209 196 0
31.240000 6.380000 39.600000 209 210 197 0
31.460000 6.380000 30.140000 208 209 198 0
31.680000 6.380000 8.140000 209 210 199 0
32.340000 6.380000 1.760000 208 209 196 0
32.560000 6.380000 2.860000 207 208 195 0
32.780000 6.380000 1.540000 207 208 195 0
33.000000 6.380000 1.760000 206 207 194 0
33.220000 6.380000 0.220000 209 210 197 0
33.440000 6.380000 0.440000 206 207 194 0
33.660000 6.380000 3.300000 204 205 192 0
33.880000 6.380000 4.620000 205 206 193 0
34.100000 6.380000 1.980000 204 205 192 0
34.540000 6.380000 0.660000 202 204 188 0
34.760000 6.380000 0.660000 200 202 186 0
34.980000 6.380000 0.880000 196 200 181 0
35.200000 6.380000 0.880000 193 197 178 0
35.420000 6.380000 2.200000 196 196 181 0
35.640000 6.380000 3.740000 189 189 174 0
35.860000 6.380000 5.060000 180 162 143 0
36.080000 6.380000 5.060000 167 149 130 0
36.300000 6.380000 5.280000 163 141 123 0
36.520000 6.380000 6.600000 159 137 119 0
36.740000 6.380000 8.140000 157 134 115 0
36.960000 6.380000 8.140000 154 131 112 0
37.180000 6.380000 8.140000 151 128 109 0
0.000000 6.600000 2.200000 214 214 209 0
0.220000 6.600000 2.420000 215 215 210 0
0.440000 6.600000 3.740000 216 216 211 0
0.660000 6.600000 3.740000 216 216 211 0
0.880000 6.600000 2.420000 217 217 212 0
1.100000 6.600000 2.640000 217 217 212 0
1.320000 6.600000 2.640000 216 216 211 0
1.540000 6.600000 2.640000 215 215 210 0
1.760000 6.600000 2.640000 217 217 212 0
1.980000 6.600000 3.740000 218 218 213 0
2.200000 6.600000 5.940000 217 217 212 0
2.420000 6.600000 7.040000 219 219 214 0
2.640000 6.600000 7.040000 218 218 213 0
2.860000 6.600000 5.720000 216 216 211 0
3.080000 6.600000 5.720000 213 213 208 0
3.300000 6.600000 5.720000 214 214 209 0
3.520000 6.600000 5.720000 215 215 210 0
3.740000 6.600000 7.260000 214 216 210 0
3.960000 6.600000 7.260000 214 216 210 0
4.180000 6.600000 7.480000 214 214 209 0
4.400000 6.600000 7.480000 215 215 210 0
4.620000 6.600000 7.480000 214 216 210 0
4.840000 6.600000 7.480000 214 216 210 0
5.060000 6.600000 7.700000 216 216 209 0
5.280000 6.600000 7.700000 216 216 209 0
5.500000 6.600000 7.700000 216 218 212 0
5.720000 6.600000 7.700000 214 216 210 0
5.940000 6.600000 7.700000 215 217 211 0
6.160000 6.600000 7.920000 215 217 211 0
6.380000 6.600000 9.240000 215 217 211 0
6.600000 6.600000 9.460000 214 216 210 0
6.820000 6.600000 9.460000 214 214 207 0
7.040000 6.600000 9.460000 213 213 206 0
7.260000 6.600000 9.460000 213 215 207 0
7.480000 6.600000 9.460000 214 216 208 0
7.700000 6.600000 10.780000 215 217 209 0
7.920000 6.600000 11.660000 214 216 208 0
8.140000 6.600000 12.540000 214 216 208 0
8.360000 6.600000 13.860000 212 214 206 0
8.580000 6.600000 14.080000 212 214 206 0
8.800000 6.600000 14.080000 212 214 206 0
9.020000 6.600000 14.080000 212 214 206 0
9.240000 6.600000 14.080000 212 214 206 0
9.460000 6.600000 14.080000 212 214 206 0
9.680000 6.600000 15.620000 212 214 206 0
9.900000 6.600000 15.620000 212 214 208 0
10.120000 6.600000 15.840000 215 217 211 0
10.340000 6.600000 15.840000 214 214 207 0
10.560000 6.600000 15.840000 212 212 205 0
10.780000 6.600000 15.840000 211 213 205 0
11.000000 6.600000 15.840000 211 213 205 0
11.220000 6.600000 16.060000 212 214 206 0
11.440000 6.600000 16.060000 212 214 206 0
11.660000 6.600000 16.060000 211 211 204 0
11.880000 6.600000 16.280000 211 211 204 0
12.100000 6.600000 16.280000 210 212 202 0
12.320000 6.600000 16.280000 209 211 201 0
12.540000 6.600000 16.280000 209 211 201 0
12.760000 6.600000 16.500000 210 212 202 0
12.980000 6.600000 16.500000 213 213 206 0
13.200000 6.600000 17.820000 212 212 205 0
13.420000 6.600000 17.600000 209 211 201 0
13.640000 6.600000 19.800000 210 212 202 0
13.860000 6.600000 20.900000 211 212 202 0
14.080000 6.600000 20.900000 212 213 203 0
14.300000 6.600000 20.900000 211 213 203 0
14.520000 6.600000 20.900000 213 215 205 0
14.740000 6.600000 20.900000 213 214 204 0
14.960000 6.600000 21.120000 212 213 203 0
15.180000 6.600000 21.120000 211 213 203 0
15.400000 6.600000 21.120000 210 212 202 0
15.620000 6.600000 21.340000 211 213 203 0
15.840000 6.600000 21.340000 212 214 204 0
16.060000 6.600000 21.340000 214 215 205 0
16.280000 6.600000 22.880000 213 214 204 0
16.500000 6.600000 22.880000 212 213 203 0
16.720000 6.600000 22.880000 210 211 201 0
16.940000 6.600000 22.880000 211 213 203 0
17.160000 6.600000 24.420000 213 215 205 0
17.380000 6.600000 24.420000 217 218 207 0
17.600000 6.600000 24.420000 216 217 206 0
17.820000 6.600000 24.640000 214 215 205 0
18.040000 6.600000 25.960000 212 213 203 0
18.260000 6.600000 25.960000 211 212 202 0
18.480000 6.600000 26.180000 210 211 201 0
18.700000 6.600000 26.180000 212 214 204 0
18.920000 6.600000 27.280000 212 214 204 0
19.140000 6.600000 27.940000 213 214 203 0
19.360000 6.600000 29.040000 213 214 203 0
19.580000 6.600000 29.260000 213 214 203 0
19.800000 6.600000 29.260000 213 214 203 0
20.020000 6.600000 30.580000 214 215 204 0
20.240000 6.600000 30.580000 212 213 202 0
20.460000 6.600000 30.800000 210 213 201 0
20.680000 6.600000 30.800000 211 214 202 0
20.900000 6.600000 30.800000 211 212 201 0
21.120000 6.600000 32.340000 211 212 201 0
21.340000 6.600000 32.340000 210 211 200 0
21.560000 6.600000 32.340000 211 212 201 0
21.780000 6.600000 32.560000 211 212 201 0
22.000000 6.600000 32.560000 210 211 200 0
22.220000 6.600000 32.560000 210 211 200 0
22.440000 6.600000 32.560000 210 211 200 0
22.660000 6.600000 32.780000 211 212 201 0
22.880000 6.600000 34.100000 211 212 201 0
23.100000 6.600000 32.780000 211 212 201 0
23.320000 6.600000 32.780000 210 211 200 0
23.540000 6.600000 33.000000 211 212 201 0
23.760000 6.600000 33.000000 211 212 201 0
23.980000 6.600000 33.000000 210 211 200 0
24.200000 6.600000 33.000000 211 212 201 0
24.420000 6.600000 34.100000 210 211 200 0
24.640000 6.600000 36.300000 209 210 199 0
24.860000 6.600000 37.400000 209 210 199 0
25.080000 6.600000 37.400000 209 210 199 0
25.300000 6.600000 37.400000 210 211 198 0
25.520000 6.600000 37.620000 212 213 200 0
25.740000 6.600000 37.620000 214 215 202 0
25.960000 6.600000 39.160000 212 213 200 0
26.180000 6.600000 40.480000 210 211 200 0
26.400000 6.600000 40.480000 210 211 200 0
26.620000 6.600000 39.160000 210 211 200 0
26.840000 6.600000 28.160000 210 211 200 0
27.060000 6.600000 12.980000 211 212 199 0
27.280000 6.600000 3.520000 210 211 198 0
28.160000 6.600000 0.880000 209 210 197 0
28.380000 6.600000 3.740000 210 211 200 0
28.600000 6.600000 1.100000 211 212 201 0
29.260000 6.600000 0.440000 210 211 198 0
29.480000 6.600000 11.220000 210 211 198 0
29.700000 6.600000 30.580000 210 211 198 0
29.920000 6.600000 40.480000 212 213 200 0
30.140000 6.600000 40.480000 212 213 200 0
30.360000 6.600000 40.700000 210 211 198 0
30.580000 6.600000 40.700000 209 210 197 0
30.800000 6.600000 40.920000 209 210 197 0
31.020000 6.600000 39.600000 208 209 196 0
31.240000 6.600000 39.600000 209 210 197 0
31.460000 6.600000 30.140000 208 209 198 0
31.680000 6.600000 8.140000 208 209 198 0
32.120000 6.600000 0.440000 212 213 202 0
32.340000 6.600000 1.540000 212 213 200 0
32.560000 6.600000 2.860000 206 207 194 0
32.780000 6.600000 1.540000 206 207 194 0
33.000000 6.600000 1.540000 205 206 193 0
33.220000 6.600000 0.220000 204 205 192 0
33.440000 6.600000 3.080000 204 205 192 0
33.660000 6.600000 12.760000 204 205 192 0
33.880000 6.600000 21.120000 203 204 191 0
34.100000 6.600000 12.980000 202 203 190 0
34.320000 6.600000 1.980000 202 203 190 0
35.200000 6.600000 2.200000 193 197 178 0
35.420000 6.600000 5.060000 194 194 179 0
35.640000 6.600000 5.060000 178 178 163 0
35.860000 6.600000 3.740000 174 156 137 0
36.080000 6.600000 5.280000 163 145 126 0
36.300000 6.600000 5.280000 161 139 121 0
36.520000 6.600000 5.280000 156 134 116 0
36.740000 6.600000 6.600000 156 133 114 0
36.960000 6.600000 7.920000 153 130 111 0
37.180000 6.600000 7.920000 150 127 108 0
0.000000 6.820000 2.200000 215 215 210 0
0.220000 6.820000 2.420000 215 217 211 0
0.440000 6.820000 3.740000 215 217 211 0
0.660000 6.820000 3.740000 217 219 213 0
0.880000 6.820000 2.420000 217 219 213 0
1.100000 6.820000 2.640000 216 216 211 0
1.320000 6.820000 2.640000 215 215 210 0
1.540000 6.820000 2.640000 216 216 211 0
1.760000 6.820000 2.640000 216 216 211 0
1.980000 6.820000 3.740000 215 217 211 0
2.200000 6.820000 5.940000 217 219 213 0
2.420000 6.820000 7.040000 218 220 214 0
2.640000 6.820000 7.040000 216 218 212 0
2.860000 6.820000 5.720000 216 216 211 0
3.080000 6.820000 5.720000 215 215 210 0
3.300000 6.820000 5.720000 213 213 206 0
3.520000 6.820000 5.720000 215 215 208 0
3.740000 6.820000 5.940000 215 217 211 0
3.960000 6.820000 7.260000 215 217 211 0
4.180000 6.820000 7.480000 214 216 210 0
4.400000 6.820000 7.480000 213 215 209 0
4.620000 6.820000 7.480000 215 215 208 0
4.840000 6.820000 7.480000 214 214 207 0
5.060000 6.820000 7.700000 214 216 208 0
5.280000 6.820000 7.700000 218 220 212 0
5.500000 6.820000 7.700000 221 223 217 0
5.720000 6.820000 7.700000 216 218 212 0
5.940000 6.820000 7.700000 217 219 211 0
6.160000 6.820000 7.920000 215 217 209 0
6.380000 6.820000 9.240000 216 218 210 0
6.600000 6.820000 9.460000 216 218 210 0
6.820000 6.820000 9.460000 214 216 208 0
7.040000 6.820000 9.460000 212 214 206 0
7.260000 6.820000 9.460000 212 214 206 0
7.480000 6.820000 9.460000 212 214 206 0
7.700000 6.820000 11.000000 213 215 207 0
7.920000 6.820000 11.880000 215 217 209 0
8.140000 6.820000 12.760000 215 217 209 0
8.360000 6.820000 13.860000 216 218 210 0
8.580000 6.820000 14.080000 213 215 207 0
8.800000 6.820000 14.080000 212 214 206 0
9.020000 6.820000 14.080000 213 215 207 0
9.240000 6.820000 14.080000 212 214 206 0
9.460000 6.820000 14.080000 212 214 206 0
9.680000 6.820000 15.620000 212 214 206 0
9.900000 6.820000 15.620000 212 214 206 0
10.120000 6.820000 15.840000 212 214 206 0
10.340000 6.820000 15.840000 214 216 208 0
10.560000 6.820000 15.840000 213 215 207 0
10.780000 6.820000 15.840000 211 213 205 0
11.000000 6.820000 15.840000 211 213 205 0
11.220000 6.820000 16.060000 212 214 206 0
11.440000 6.820000 16.060000 211 213 205 0
11.660000 6.820000 16.060000 210 212 204 0
11.880000 6.820000 16.280000 210 212 204 0
12.100000 6.820000 16.280000 210 212 202 0
12.320000 6.820000 16.280000 209 211 201 0
12.540000 6.820000 16.280000 209 211 201 0
12.760000 6.820000 16.500000 210 212 202 0
12.980000 6.820000 17.820000 211 213 203 0
13.200000 6.820000 17.820000 211 213 203 0
13.420000 6.820000 18.920000 210 212 202 0
13.640000 6.820000 19.800000 210 212 202 0
13.860000 6.820000 20.900000 210 212 202 0
14.080000 6.820000 20.900000 212 214 204 0
14.300000 6.820000 20.900000 210 212 202 0
14.520000 6.820000 20.900000 212 214 204 0
14.740000 6.820000 20.900000 212 214 204 0
14.960000 6.820000 21.120000 211 213 203 0
15.180000 6.820000 21.120000 210 212 202 0
15.400000 6.820000 21.120000 211 213 203 0
15.620000 6.820000 21.340000 211 213 203 0
15.840000 6.820000 21.340000 212 214 204 0
16.060000 6.820000 21.340000 213 215 205 0
16.280000 6.820000 22.880000 214 216 206 0
16.500000 6.820000 22.880000 211 213 203 0
16.720000 6.820000 22.880000 211 213 203 0
16.940000 6.820000 22.880000 210 212 202 0
17.160000 6.820000 24.420000 212 214 204 0
17.380000 6.820000 24.420000 214 216 206 0
17.600000 6.820000 24.420000 213 215 205 0
17.820000 6.820000 24.640000 210 213 201 0
18.040000 6.820000 25.960000 210 213 201 0
18.260000 6.820000 25.960000 210 213 201 0
18.480000 6.820000 26.180000 209 212 200 0
18.700000 6.820000 26.180000 210 212 202 0
18.920000 6.820000 27.280000 214 216 206 0
19.140000 6.820000 27.940000 217 220 208 0
19.360000 6.820000 29.040000 211 214 202 0
19.580000 6.820000 29.260000 212 215 203 0
19.800000 6.820000 30.580000 212 215 203 0
20.020000 6.820000 30.580000 211 214 202 0
20.240000 6.820000 30.580000 211 214 202 0
20.460000 6.820000 30.800000 212 215 203 0
20.680000 6.820000 30.800000 211 214 202 0
20.900000 6.820000 32.340000 209 212 200 0
21.120000 6.820000 32.340000 209 212 200 0
21.340000 6.820000 32.340000 209 212 200 0
21.560000 6.820000 32.340000 209 212 200 0
21.780000 6.820000 32.560000 211 214 202 0
22.000000 6.820000 32.560000 211 214 202 0
22.220000 6.820000 32.560000 209 212 200 0
22.440000 6.820000 32.560000 209 212 200 0
22.660000 6.820000 34.100000 210 211 200 0
22.880000 6.820000 32.780000 210 211 200 0
23.100000 6.820000 32.780000 210 213 201 0
23.320000 6.820000 32.780000 210 213 201 0
23.540000 6.820000 33.000000 210 213 201 0
23.760000 6.820000 33.000000 209 212 200 0
23.980000 6.820000 33.000000 208 211 199 0
24.200000 6.820000 34.540000 209 212 200 0
24.420000 6.820000 35.640000 209 210 199 0
24.640000 6.820000 36.300000 209 210 199 0
24.860000 6.820000 37.400000 210 213 201 0
25.080000 6.820000 37.400000 209 212 200 0
25.300000 6.820000 37.400000 210 211 200 0
25.520000 6.820000 37.620000 211 212 201 0
25.740000 6.820000 38.940000 212 215 203 0
25.960000 6.820000 38.940000 210 213 201 0
26.180000 6.820000 40.480000 211 212 201 0
26.400000 6.820000 37.840000 210 211 200 0
26.620000 6.820000 28.160000 210 211 200 0
26.840000 6.820000 12.980000 209 210 199 0
27.060000 6.820000 3.300000 210 211 200 0
27.280000 6.820000 0.660000 210 211 200 0
27.500000 6.820000 0.660000 210 213 201 0
28.160000 6.820000 6.600000 210 211 200 0
28.380000 6.820000 14.960000 210 211 200 0
28.600000 6.820000 6.600000 212 213 202 0
29.260000 6.820000 0.440000 210 211 198 0
29.480000 6.820000 11.220000 210 211 198 0
29.700000 6.820000 31.900000 210 211 200 0
29.920000 6.820000 41.800000 212 213 202 0
30.140000 6.820000 40.480000 212 213 202 0
30.360000 6.820000 39.160000 211 212 201 0
30.580000 6.820000 36.520000 208 209 198 0
30.800000 6.820000 38.060000 208 209 198 0
31.020000 6.820000 40.920000 208 209 196 0
31.240000 6.820000 40.920000 207 208 195 0
31.460000 6.820000 30.140000 207 208 197 0
31.680000 6.820000 8.140000 207 208 197 0
32.120000 6.820000 0.440000 209 210 199 0
32.340000 6.820000 1.540000 212 213 202 0
32.560000 6.820000 1.540000 206 207 196 0
32.780000 6.820000 1.540000 205 206 193 0
33.000000 6.820000 1.540000 205 206 193 0
33.220000 6.820000 0.220000 205 206 195 0
33.440000 6.820000 8.580000 204 205 194 0
33.660000 6.820000 26.620000 204 205 194 0
33.880000 6.820000 36.520000 202 203 192 0
34.100000 6.820000 25.520000 201 202 191 0
34.320000 6.820000 7.480000 201 202 191 0
34.980000 6.820000 2.200000 195 198 182 0
35.200000 6.820000 9.020000 197 200 184 0
35.420000 6.820000 13.420000 196 182 168 0
35.640000 6.820000 6.380000 177 163 149 0
35.860000 6.820000 3.740000 170 151 132 0
36.080000 6.820000 3.740000 163 144 125 0
36.300000 6.820000 3.740000 160 138 119 0
36.520000 6.820000 5.280000 156 134 115 0
36.740000 6.820000 6.600000 154 130 113 0
36.960000 6.820000 7.920000 151 127 110 0
37.180000 6.820000 9.020000 150 126 109 0
0.000000 7.040000 2.200000 214 214 209 0
0.220000 7.040000 2.420000 212 214 208 0
0.440000 7.040000 3.740000 215 217 211 0
0.660000 7.040000 2.420000 217 219 213 0
0.880000 7.040000 2.420000 218 220 214 0
1.100000 7.040000 2.640000 217 217 212 0
1.320000 7.040000 2.640000 215 215 210 0
1.540000 7.040000 2.640000 215 215 210 0
1.760000 7.040000 2.640000 215 215 210 0
1.980000 7.040000 3.740000 215 217 211 0
2.200000 7.040000 5.940000 217 219 213 0
2.420000 7.040000 7.040000 220 222 216 0
2.640000 7.040000 7.040000 217 219 213 0
2.860000 7.040000 5.720000 216 216 211 0
3.080000 7.040000 5.720000 217 217 212 0
3.300000 7.040000 5.720000 215 215 208 0
3.520000 7.040000 5.720000 214 214 207 0
3.740000 7.040000 5.940000 214 216 210 0
3.960000 7.040000 5.940000 216 218 212 0
4.180000 7.040000 7.480000 215 217 211 0
4.400000 7.040000 7.480000 215 217 211 0
4.620000 7.040000 7.480000 216 216 209 0
4.840000 7.040000 7.480000 215 215 208 0
5.060000 7.040000 7.700000 214 216 208 0
5.280000 7.040000 7.700000 221 223 215 0
5.500000 7.040000 7.700000 223 225 219 0
5.720000 7.040000 7.700000 216 218 212 0
5.940000 7.040000 7.700000 216 218 210 0
6.160000 7.040000 7.920000 215 217 209 0
6.380000 7.040000 9.240000 215 217 209 0
6.600000 7.040000 9.460000 214 216 208 0
6.820000 7.040000 9.460000 213 215 207 0
7.040000 7.040000 9.460000 213 215 207 0
7.260000 7.040000 9.460000 213 215 207 0
7.480000 7.040000 9.460000 212 214 206 0
7.700000 7.040000 9.680000 212 214 206 0
7.920000 7.040000 10.780000 213 215 207 0
8.140000 7.040000 12.760000 214 216 208 0
8.360000 7.040000 13.860000 216 218 210 0
8.580000 7.040000 14.080000 218 220 212 0
8.800000 7.040000 14.080000 214 216 208 0
9.020000 7.040000 14.080000 213 215 207 0
9.240000 7.040000 14.080000 212 214 206 0
9.460000 7.040000 14.080000 211 213 205 0
9.680000 7.040000 15.620000 211 213 205 0
9.900000 7.040000 15.620000 211 213 205 0
10.120000 7.040000 15.840000 211 213 205 0
10.340000 7.040000 15.840000 211 213 205 0
10.560000 7.040000 15.840000 212 214 206 0
10.780000 7.040000 15.840000 211 213 205 0
11.000000 7.040000 15.840000 211 213 205 0
11.220000 7.040000 16.060000 212 214 206 0
11.440000 7.040000 16.060000 212 214 206 0
11.660000 7.040000 16.060000 210 212 204 0
11.880000 7.040000 16.280000 210 212 204 0
12.100000 7.040000 16.280000 210 212 202 0
12.320000 7.040000 16.280000 209 211 201 0
12.540000 7.040000 16.280000 208 210 200 0
12.760000 7.040000 16.500000 209 211 201 0
12.980000 7.040000 17.820000 210 212 202 0
13.200000 7.040000 17.820000 211 213 203 0
13.420000 7.040000 18.920000 211 213 203 0
13.640000 7.040000 19.800000 210 212 202 0
13.860000 7.040000 20.900000 211 213 203 0
14.080000 7.040000 20.900000 211 213 203 0
14.300000 7.040000 20.900000 211 213 203 0
14.520000 7.040000 20.900000 211 213 203 0
14.740000 7.040000 20.900000 213 215 205 0
14.960000 7.040000 21.120000 216 218 208 0
15.180000 7.040000 21.120000 210 212 202 0
15.400000 7.040000 21.120000 210 212 202 0
15.620000 7.040000 21.340000 211 213 203 0
15.840000 7.040000 21.340000 211 213 203 0
16.060000 7.040000 21.340000 213 215 205 0
16.280000 7.040000 22.880000 214 216 206 0
16.500000 7.040000 22.880000 212 214 204 0
16.720000 7.040000 22.880000 213 215 205 0
16.940000 7.040000 22.880000 211 213 203 0
17.160000 7.040000 24.420000 211 213 203 0
17.380000 7.040000 24.420000 211 213 203 0
17.600000 7.040000 24.420000 211 213 203 0
17.820000 7.040000 25.960000 210 213 201 0
18.040000 7.040000 25.960000 211 214 202 0
18.260000 7.040000 25.960000 209 212 200 0
18.480000 7.040000 26.180000 210 213 201 0
18.700000 7.040000 26.180000 210 212 202 0
18.920000 7.040000 27.280000 213 215 205 0
19.140000 7.040000 27.940000 217 220 208 0
19.360000 7.040000 29.040000 214 217 205 0
19.580000 7.040000 29.260000 212 215 203 0
19.800000 7.040000 30.580000 212 215 203 0
20.020000 7.040000 30.580000 211 214 202 0
20.240000 7.040000 30.580000 211 214 202 0
20.460000 7.040000 30.800000 213 216 204 0
20.680000 7.040000 30.800000 213 216 204 0
20.900000 7.040000 32.340000 211 214 202 0
21.120000 7.040000 32.340000 209 212 200 0
21.340000 7.040000 32.340000 208 211 199 0
21.560000 7.040000 32.340000 209 212 200 0
21.780000 7.040000 32.560000 210 213 201 0
22.000000 7.040000 32.560000 210 213 201 0
22.220000 7.040000 32.560000 210 213 201 0
22.440000 7.040000 34.100000 209 212 200 0
22.660000 7.040000 34.100000 210 211 200 0
22.880000 7.040000 32.780000 210 211 200 0
23.100000 7.040000 32.780000 208 211 199 0
23.320000 7.040000 32.780000 210 213 201 0
23.540000 7.040000 33.000000 210 213 201 0
23.760000 7.040000 33.000000 210 213 201 0
23.980000 7.040000 33.000000 209 212 200 0
24.200000 7.040000 34.540000 209 212 200 0
24.420000 7.040000 35.640000 209 210 199 0
24.640000 7.040000 36.300000 209 210 199 0
24.860000 7.040000 37.400000 211 214 202 0
25.080000 7.040000 37.400000 211 214 202 0
25.300000 7.040000 37.400000 210 211 200 0
25.520000 7.040000 38.940000 210 211 200 0
25.740000 7.040000 38.940000 210 213 201 0
25.960000 7.040000 40.480000 210 213 201 0
26.180000 7.040000 40.480000 211 212 201 0
26.400000 7.040000 33.660000 210 211 200 0
26.620000 7.040000 15.840000 210 211 200 0
26.840000 7.040000 1.980000 211 212 201 0
27.060000 7.040000 0.660000 210 211 200 0
27.280000 7.040000 1.980000 211 212 201 0
27.500000 7.040000 0.660000 210 213 201 0
27.720000 7.040000 0.880000 210 213 201 0
28.160000 7.040000 6.600000 210 211 200 0
28.380000 7.040000 17.600000 211 212 201 0
28.600000 7.040000 10.780000 211 212 201 0
28.820000 7.040000 1.320000 212 213 202 0
29.040000 7.040000 1.100000 212 213 202 0
29.260000 7.040000 7.480000 211 212 199 0
29.480000 7.040000 18.040000 209 210 197 0
29.700000 7.040000 34.760000 209 210 199 0
29.920000 7.040000 41.800000 211 212 201 0
30.140000 7.040000 40.480000 212 213 202 0
30.360000 7.040000 33.660000 211 212 201 0
30.580000 7.040000 25.520000 209 210 199 0
30.800000 7.040000 33.880000 208 209 198 0
31.020000 7.040000 40.920000 207 208 195 0
31.240000 7.040000 41.140000 205 206 193 0
31.460000 7.040000 30.140000 206 207 196 0
31.680000 7.040000 8.140000 207 208 197 0
32.120000 7.040000 0.440000 207 208 197 0
32.340000 7.040000 1.540000 207 208 197 0
32.560000 7.040000 4.180000 207 208 197 0
32.780000 7.040000 5.720000 206 207 194 0
33.000000 7.040000 3.080000 205 206 193 0
33.220000 7.040000 3.080000 205 206 195 0
33.440000 7.040000 15.620000 204 205 194 0
33.660000 7.040000 33.660000 203 204 193 0
33.880000 7.040000 42.020000 203 204 193 0
34.100000 7.040000 31.020000 201 202 191 0
34.320000 7.040000 10.340000 200 201 190 0
34.980000 7.040000 4.840000 195 198 182 0
35.200000 7.040000 11.880000 195 198 182 0
35.420000 7.040000 10.560000 195 181 167 0
35.640000 7.040000 5.060000 173 159 145 0
35.860000 7.040000 3.740000 167 148 129 0
36.080000 7.040000 3.740000 157 138 119 0
36.300000 7.040000 3.740000 156 134 115 0
36.520000 7.040000 5.280000 154 132 113 0
36.740000 7.040000 6.600000 153 129 112 0
36.960000 7.040000 9.240000 150 126 109 0
37.180000 7.040000 10.340000 149 125 108 0
0.000000 7.260000 2.200000 212 213 210 0
0.220000 7.260000 2.420000 214 214 211 0
0.440000 7.260000 3.740000 215 215 212 0
0.660000 7.260000 2.420000 216 217 214 0
0.880000 7.260000 2.420000 218 219 216 0
1.100000 7.260000 2.640000 218 220 214 0
1.320000 7.260000 2.640000 216 218 212 0
1.540000 7.260000 2.640000 214 216 210 0
1.760000 7.260000 2.640000 215 217 211 0
1.980000 7.260000 3.740000 214 216 210 0
2.200000 7.260000 5.940000 215 217 211 0
2.420000 7.260000 7.040000 218 220 214 0
2.640000 7.260000 7.040000 219 221 215 0
2.860000 7.260000 5.720000 216 218 212 0
3.080000 7.260000 5.720000 216 218 212 0
3.300000 7.260000 5.720000 215 217 211 0
3.520000 7.260000 5.720000 214 216 210 0
3.740000 7.260000 5.940000 215 217 211 0
3.960000 7.260000 5.940000 217 219 213 0
4.180000 7.260000 5.940000 216 218 212 0
4.400000 7.260000 7.480000 215 217 211 0
4.620000 7.260000 7.480000 216 218 212 0
4.840000 7.260000 7.480000 215 217 211 0
5.060000 7.260000 7.700000 216 216 211 0
5.280000 7.260000 7.700000 215 215 210 0
5.500000 7.260000 7.700000 218 220 214 0
5.720000 7.260000 7.700000 216 218 212 0
5.940000 7.260000 7.700000 215 217 211 0
6.160000 7.260000 7.920000 216 218 212 0
6.380000 7.260000 9.240000 215 217 211 0
6.600000 7.260000 9.460000 214 216 210 0
6.820000 7.260000 9.460000 213 215 209 0
7.040000 7.260000 9.460000 213 215 209 0
7.260000 7.260000 9.460000 213 215 209 0
7.480000 7.260000 9.460000 213 215 209 0
7.700000 7.260000 9.680000 213 215 209 0
7.920000 7.260000 10.780000 213 215 209 0
8.140000 7.260000 12.760000 213 215 207 0
8.360000 7.260000 13.860000 216 218 210 0
8.580000 7.260000 14.080000 216 218 212 0
8.800000 7.260000 14.080000 216 218 212 0
9.020000 7.260000 14.080000 213 215 209 0
9.240000 7.260000 14.080000 212 214 208 0
9.460000 7.260000 14.080000 212 214 206 0
9.680000 7.260000 15.620000 211 213 205 0
9.900000 7.260000 15.620000 211 213 205 0
10.120000 7.260000 15.840000 210 212 204 0
10.340000 7.260000 15.840000 210 212 204 0
10.560000 7.260000 15.840000 212 214 206 0
10.780000 7.260000 15.840000 212 214 206 0
11.000000 7.260000 15.840000 212 214 206 0
11.220000 7.260000 16.060000 213 215 207 0
11.440000 7.260000 16.060000 214 216 208 0
11.660000 7.260000 16.060000 212 214 206 0
11.880000 7.260000 16.280000 211 213 205 0
12.100000 7.260000 16.280000 211 213 205 0
12.320000 7.260000 16.280000 210 212 204 0
12.540000 7.260000 16.280000 209 211 203 0
12.760000 7.260000 16.500000 209 211 203 0
12.980000 7.260000 17.820000 210 212 204 0
13.200000 7.260000 17.820000 210 212 204 0
13.420000 7.260000 18.920000 212 214 206 0
13.640000 7.260000 19.800000 212 214 206 0
13.860000 7.260000 20.900000 211 213 205 0
14.080000 7.260000 20.900000 211 213 205 0
14.300000 7.260000 20.900000 211 213 205 0
14.520000 7.260000 20.900000 211 213 205 0
14.740000 7.260000 20.900000 212 214 206 0
14.960000 7.260000 21.120000 216 218 210 0
15.180000 7.260000 21.120000 214 216 208 0
15.400000 7.260000 21.120000 211 213 205 0
15.620000 7.260000 21.340000 211 213 203 0
15.840000 7.260000 21.340000 211 213 203 0
16.060000 7.260000 21.340000 212 214 204 0
16.280000 7.260000 22.880000 212 214 204 0
16.500000 7.260000 22.880000 215 217 207 0
16.720000 7.260000 22.880000 215 217 207 0
16.940000 7.260000 24.420000 213 215 205 0
17.160000 7.260000 24.420000 212 214 204 0
17.380000 7.260000 24.420000 212 214 204 0
17.600000 7.260000 24.420000 210 212 202 0
17.820000 7.260000 25.960000 211 213 203 0
18.040000 7.260000 25.960000 211 213 203 0
18.260000 7.260000 25.960000 211 213 203 0
18.480000 7.260000 26.180000 211 213 203 0
18.700000 7.260000 26.180000 210 212 202 0
18.920000 7.260000 27.280000 212 214 204 0
19.140000 7.260000 27.940000 213 215 205 0
19.360000 7.260000 29.040000 212 214 204 0
19.580000 7.260000 29.260000 212 214 204 0
19.800000 7.260000 30.580000 212 214 204 0
20.020000 7.260000 30.580000 212 214 204 0
20.240000 7.260000 30.580000 211 213 203 0
20.460000 7.260000 30.800000 212 214 204 0
20.680000 7.260000 30.800000 212 214 204 0
20.900000 7.260000 32.340000 212 214 204 0
21.120000 7.260000 32.340000 210 212 202 0
21.340000 7.260000 32.340000 209 211 201 0
21.560000 7.260000 32.340000 209 211 201 0
21.780000 7.260000 32.560000 210 212 202 0
22.000000 7.260000 32.560000 210 212 202 0
22.220000 7.260000 32.560000 212 214 204 0
22.440000 7.260000 34.100000 211 213 203 0
22.660000 7.260000 34.100000 209 211 201 0
22.880000 7.260000 32.780000 209 211 201 0
23.100000 7.260000 32.780000 209 212 200 0
23.320000 7.260000 32.780000 209 212 200 0
23.540000 7.260000 33.000000 211 214 202 0
23.760000 7.260000 33.000000 213 216 204 0
23.980000 7.260000 34.320000 209 211 201 0
24.200000 7.260000 34.540000 208 210 200 0
24.420000 7.260000 35.640000 209 210 199 0
24.640000 7.260000 37.620000 209 210 199 0
24.860000 7.260000 38.720000 212 215 203 0
25.080000 7.260000 38.940000 213 216 204 0
25.300000 7.260000 38.940000 210 211 200 0
25.520000 7.260000 38.940000 210 211 200 0
25.740000 7.260000 40.260000 210 213 201 0
25.960000 7.260000 40.480000 211 214 202 0
26.180000 7.260000 39.160000 211 212 201 0
26.400000 7.260000 25.300000 211 212 201 0
26.620000 7.260000 7.480000 210 211 200 0
26.840000 7.260000 0.660000 212 213 202 0
27.060000 7.260000 0.660000 213 214 203 0
27.280000 7.260000 1.980000 212 213 202 0
27.500000 7.260000 2.200000 210 213 201 0
27.720000 7.260000 0.880000 210 213 201 0
28.160000 7.260000 0.880000 211 212 201 0
28.380000 7.260000 12.100000 209 212 200 0
28.600000 7.260000 16.280000 210 213 201 0
