ply
format ascii 1.0
element vertex 1163
property float x
property float y
property float z
property uchar red
property uchar green
property uchar blue
property uchar alpha
end_header
28.380000 29.700000 5.720000 161 63 55 0
28.600000 29.700000 5.720000 161 63 55 0
28.820000 29.700000 5.060000 157 64 54 0
29.040000 29.700000 5.060000 159 66 56 0
29.260000 29.700000 5.060000 156 71 61 0
29.480000 29.700000 5.060000 160 75 65 0
29.700000 29.700000 5.170000 161 77 70 0
29.920000 29.700000 5.170000 165 81 74 0
30.140000 29.700000 5.940000 166 83 74 0
30.360000 29.700000 5.940000 166 83 74 0
30.580000 29.700000 5.940000 163 82 74 0
30.800000 29.700000 6.050000 163 82 74 0
31.020000 29.700000 6.050000 164 81 70 0
31.240000 29.700000 6.160000 163 80 69 0
31.460000 29.700000 6.820000 162 77 67 0
31.680000 29.700000 7.590000 163 78 68 0
31.900000 29.700000 8.250000 163 75 66 0
32.120000 29.700000 8.250000 164 76 67 0
32.340000 29.700000 7.590000 164 77 65 0
32.560000 29.700000 7.590000 163 76 64 0
32.780000 29.700000 6.710000 161 76 66 0
33.000000 29.700000 6.380000 162 77 67 0
33.220000 29.700000 5.500000 164 77 65 0
33.440000 29.700000 5.610000 163 76 64 0
33.660000 29.700000 5.610000 161 78 69 0
33.880000 29.700000 6.380000 163 80 71 0
34.100000 29.700000 6.380000 162 84 75 0
34.320000 29.700000 5.720000 166 88 79 0
34.540000 29.700000 5.830000 169 92 81 0
34.760000 29.700000 5.830000 170 93 82 0
34.980000 29.700000 5.830000 171 93 84 0
35.200000 29.700000 5.830000 169 91 82 0
35.420000 29.700000 6.380000 169 90 80 0
35.640000 29.700000 7.040000 168 89 79 0
35.860000 29.700000 7.150000 166 86 72 0
36.080000 29.700000 6.710000 165 85 71 0
36.300000 29.700000 6.820000 164 84 72 0
36.520000 29.700000 7.480000 163 83 71 0
36.740000 29.700000 8.140000 162 83 71 0
36.960000 29.700000 7.920000 162 83 71 0
37.180000 29.700000 7.150000 163 83 71 0
0.000000 29.920000 4.400000 149 112 91 0
0.220000 29.920000 4.400000 149 112 91 0
0.440000 29.920000 4.400000 149 112 91 0
0.660000 29.920000 4.400000 148 112 91 0
0.880000 29.920000 4.400000 147 111 90 0
1.100000 29.920000 4.290000 148 109 89 0
1.320000 29.920000 4.290000 149 110 90 0
1.540000 29.920000 4.400000 150 108 89 0
1.760000 29.920000 4.400000 150 108 89 0
1.980000 29.920000 4.400000 150 108 89 0
2.200000 29.920000 5.170000 149 107 88 0
2.420000 29.920000 5.940000 147 108 88 0
2.640000 29.920000 5.940000 146 107 87 0
2.860000 29.920000 5.280000 147 105 86 0
3.080000 29.920000 3.960000 146 104 85 0
3.300000 29.920000 3.300000 147 103 85 0
3.520000 29.920000 2.530000 148 104 86 0
3.740000 29.920000 2.530000 146 104 85 0
3.960000 29.920000 2.640000 146 104 85 0
4.180000 29.920000 1.980000 150 102 85 0
4.400000 29.920000 1.210000 152 104 87 0
4.620000 29.920000 0.550000 156 104 86 0
4.840000 29.920000 0.550000 157 105 87 0
5.940000 29.920000 0.220000 164 97 83 0
6.380000 29.920000 5.500000 165 97 83 0
6.600000 29.920000 15.950000 165 97 83 0
6.820000 29.920000 17.380000 166 96 83 0
7.040000 29.920000 9.350000 165 95 82 0
7.260000 29.920000 6.600000 166 93 79 0
7.480000 29.920000 8.470000 166 93 79 0
7.700000 29.920000 8.360000 167 93 79 0
7.920000 29.920000 9.020000 167 93 79 0
8.140000 29.920000 9.680000 166 92 78 0
8.360000 29.920000 9.680000 167 93 79 0
8.580000 29.920000 9.680000 168 91 78 0
8.800000 29.920000 9.680000 168 91 78 0
9.020000 29.920000 9.020000 168 91 78 0
9.240000 29.920000 9.020000 168 91 78 0
9.460000 29.920000 9.020000 169 92 79 0
9.680000 29.920000 8.470000 169 92 79 0
9.900000 29.920000 8.690000 169 92 79 0
10.120000 29.920000 9.350000 169 92 79 0
10.340000 29.920000 11.220000 171 92 80 0
10.560000 29.920000 13.200000 171 92 80 0
10.780000 29.920000 13.860000 171 92 80 0
11.000000 29.920000 14.080000 171 92 80 0
11.220000 29.920000 14.850000 172 94 79 0
11.440000 29.920000 15.400000 172 94 79 0
11.660000 29.920000 15.950000 173 95 80 0
11.880000 29.920000 16.610000 174 96 81 0
12.100000 29.920000 16.610000 175 95 81 0
12.320000 29.920000 17.270000 176 96 82 0
12.540000 29.920000 18.700000 177 97 81 0
12.760000 29.920000 20.130000 179 99 83 0
12.980000 29.920000 15.950000 178 98 82 0
13.200000 29.920000 5.610000 180 100 84 0
13.420000 29.920000 0.110000 180 100 84 0
13.640000 29.920000 0.110000 182 102 86 0
13.860000 29.920000 0.770000 183 104 86 0
14.080000 29.920000 1.430000 183 104 86 0
14.300000 29.920000 1.540000 184 106 88 0
14.520000 29.920000 2.200000 185 107 89 0
14.740000 29.920000 2.200000 186 106 90 0
14.960000 29.920000 2.200000 187 107 91 0
15.180000 29.920000 2.860000 191 114 93 0
15.400000 29.920000 2.970000 189 112 91 0
15.620000 29.920000 3.630000 189 110 88 0
15.840000 29.920000 3.740000 188 109 87 0
16.060000 29.920000 3.300000 182 98 82 0
16.280000 29.920000 2.750000 179 95 79 0
16.500000 29.920000 5.500000 181 95 79 0
16.720000 29.920000 11.660000 181 95 79 0
16.940000 29.920000 11.990000 182 96 78 0
17.160000 29.920000 5.610000 182 96 78 0
17.380000 29.920000 2.860000 182 96 78 0
17.600000 29.920000 4.400000 181 95 77 0
17.820000 29.920000 5.170000 180 94 76 0
18.040000 29.920000 5.170000 181 95 77 0
18.260000 29.920000 5.280000 181 93 76 0
18.480000 29.920000 3.960000 180 92 75 0
18.700000 29.920000 1.980000 181 91 75 0
18.920000 29.920000 0.550000 180 90 74 0
19.580000 29.920000 0.220000 177 87 71 0
19.800000 29.920000 4.180000 177 87 71 0
20.020000 29.920000 11.770000 177 87 73 0
20.240000 29.920000 13.200000 176 86 72 0
20.460000 29.920000 6.270000 178 85 72 0
20.680000 29.920000 1.540000 177 84 71 0
20.900000 29.920000 0.110000 178 85 72 0
21.120000 29.920000 0.220000 178 85 72 0
21.340000 29.920000 0.880000 175 85 69 0
21.560000 29.920000 0.990000 173 83 67 0
21.780000 29.920000 0.990000 174 80 67 0
22.000000 29.920000 1.100000 172 78 65 0
22.220000 29.920000 0.440000 172 75 64 0
22.440000 29.920000 0.440000 170 73 62 0
22.660000 29.920000 0.440000 169 72 61 0
22.880000 29.920000 1.210000 167 70 59 0
23.100000 29.920000 1.210000 166 67 57 0
23.320000 29.920000 1.870000 165 66 56 0
23.540000 29.920000 1.870000 164 67 56 0
23.760000 29.920000 1.980000 162 65 54 0
23.980000 29.920000 1.980000 163 65 57 0
24.200000 29.920000 1.980000 163 65 57 0
24.420000 29.920000 2.640000 164 66 58 0
24.640000 29.920000 2.640000 165 67 59 0
24.860000 29.920000 2.640000 164 66 58 0
25.080000 29.920000 2.640000 164 66 58 0
25.300000 29.920000 2.640000 163 66 55 0
25.520000 29.920000 2.750000 164 67 56 0
25.740000 29.920000 2.750000 163 65 57 0
25.960000 29.920000 2.090000 163 65 57 0
26.180000 29.920000 2.090000 162 64 56 0
26.400000 29.920000 2.750000 162 64 56 0
26.620000 29.920000 2.530000 162 64 56 0
26.840000 29.920000 3.630000 161 63 55 0
27.060000 29.920000 4.180000 162 64 56 0
27.280000 29.920000 4.180000 161 63 55 0
27.500000 29.920000 4.180000 161 63 55 0
27.720000 29.920000 4.950000 161 63 55 0
27.940000 29.920000 5.610000 162 64 56 0
28.160000 29.920000 5.610000 161 63 55 0
28.380000 29.920000 5.720000 160 62 54 0
28.600000 29.920000 5.720000 159 61 53 0
28.820000 29.920000 5.060000 157 64 54 0
29.040000 29.920000 5.060000 161 68 58 0
29.260000 29.920000 5.060000 158 73 63 0
29.480000 29.920000 5.170000 161 76 66 0
29.700000 29.920000 5.170000 164 80 73 0
29.920000 29.920000 5.170000 165 81 74 0
30.140000 29.920000 5.940000 165 82 73 0
30.360000 29.920000 5.940000 165 82 73 0
30.580000 29.920000 5.940000 162 81 73 0
30.800000 29.920000 6.050000 162 81 73 0
31.020000 29.920000 6.160000 163 80 69 0
31.240000 29.920000 6.820000 163 80 69 0
31.460000 29.920000 7.480000 162 77 67 0
31.680000 29.920000 8.250000 162 77 67 0
31.900000 29.920000 8.250000 163 75 66 0
32.120000 29.920000 7.590000 163 75 66 0
32.340000 29.920000 7.590000 162 75 63 0
32.560000 29.920000 6.820000 162 75 63 0
32.780000 29.920000 6.050000 160 75 65 0
33.000000 29.920000 5.720000 160 75 65 0
33.220000 29.920000 5.610000 162 75 63 0
33.440000 29.920000 5.610000 163 76 64 0
33.660000 29.920000 5.610000 162 79 70 0
33.880000 29.920000 6.380000 165 82 73 0
34.100000 29.920000 6.380000 164 86 77 0
34.320000 29.920000 5.720000 166 88 79 0
34.540000 29.920000 5.830000 168 91 80 0
34.760000 29.920000 5.830000 171 94 83 0
34.980000 29.920000 5.170000 171 93 84 0
35.200000 29.920000 5.830000 171 93 84 0
35.420000 29.920000 6.380000 170 91 81 0
35.640000 29.920000 6.930000 166 87 77 0
35.860000 29.920000 7.150000 165 85 71 0
36.080000 29.920000 6.710000 163 83 69 0
36.300000 29.920000 6.820000 163 83 71 0
36.520000 29.920000 7.480000 163 83 71 0
36.740000 29.920000 8.030000 162 83 71 0
36.960000 29.920000 7.260000 162 83 71 0
37.180000 29.920000 7.150000 164 84 72 0
0.000000 30.140000 4.400000 149 112 91 0
0.220000 30.140000 4.400000 149 112 91 0
0.440000 30.140000 4.400000 149 112 91 0
0.660000 30.140000 4.400000 147 111 90 0
0.880000 30.140000 4.400000 147 111 90 0
1.100000 30.140000 4.290000 147 110 89 0
1.320000 30.140000 4.290000 147 110 89 0
1.540000 30.140000 4.400000 148 109 89 0
1.760000 30.140000 3.740000 147 108 88 0
1.980000 30.140000 4.510000 147 108 88 0
2.200000 30.140000 5.280000 146 107 87 0
2.420000 30.140000 5.940000 146 107 87 0
2.640000 30.140000 5.940000 146 107 87 0
2.860000 30.140000 5.280000 146 104 85 0
3.080000 30.140000 3.960000 147 105 86 0
3.300000 30.140000 3.300000 147 105 86 0
3.520000 30.140000 2.530000 146 104 85 0
3.740000 30.140000 2.530000 147 104 83 0
3.960000 30.140000 2.640000 146 103 82 0
4.180000 30.140000 1.980000 151 103 84 0
4.400000 30.140000 0.550000 152 104 85 0
4.620000 30.140000 0.550000 157 103 86 0
4.840000 30.140000 0.660000 158 104 87 0
5.940000 30.140000 0.220000 164 97 83 0
6.160000 30.140000 0.660000 164 97 83 0
6.380000 30.140000 5.610000 166 96 81 0
6.600000 30.140000 14.630000 165 95 80 0
6.820000 30.140000 14.850000 167 94 80 0
7.040000 30.140000 8.690000 167 94 80 0
7.260000 30.140000 7.920000 166 93 79 0
7.480000 30.140000 8.360000 166 93 79 0
7.700000 30.140000 8.360000 166 92 78 0
7.920000 30.140000 9.020000 166 92 78 0
8.140000 30.140000 9.680000 167 93 79 0
8.360000 30.140000 9.680000 166 92 78 0
8.580000 30.140000 10.340000 168 91 78 0
8.800000 30.140000 10.340000 168 91 78 0
9.020000 30.140000 9.680000 168 91 78 0
9.240000 30.140000 9.020000 168 91 78 0
9.460000 30.140000 9.020000 169 92 79 0
9.680000 30.140000 9.020000 169 92 79 0
9.900000 30.140000 9.790000 169 92 79 0
10.120000 30.140000 10.560000 169 92 79 0
10.340000 30.140000 11.770000 170 93 78 0
10.560000 30.140000 13.860000 171 94 79 0
10.780000 30.140000 14.520000 172 94 79 0
11.000000 30.140000 14.520000 172 94 79 0
11.220000 30.140000 15.290000 172 94 79 0
11.440000 30.140000 15.950000 172 94 79 0
11.660000 30.140000 15.950000 173 95 80 0
11.880000 30.140000 16.610000 174 96 81 0
12.100000 30.140000 16.610000 175 95 79 0
12.320000 30.140000 17.270000 177 97 81 0
12.540000 30.140000 18.700000 177 97 81 0
12.760000 30.140000 20.130000 177 97 81 0
12.980000 30.140000 16.610000 178 98 82 0
13.200000 30.140000 7.700000 180 100 84 0
13.420000 30.140000 1.430000 180 100 84 0
13.640000 30.140000 0.110000 182 102 86 0
13.860000 30.140000 0.770000 182 103 85 0
14.080000 30.140000 1.430000 184 105 87 0
14.300000 30.140000 1.430000 184 105 87 0
14.520000 30.140000 2.200000 185 106 88 0
14.740000 30.140000 2.200000 186 107 89 0
14.960000 30.140000 2.200000 186 107 89 0
15.180000 30.140000 2.970000 188 109 89 0
15.400000 30.140000 2.970000 188 109 89 0
15.620000 30.140000 3.630000 189 107 90 0
15.840000 30.140000 3.740000 186 104 87 0
16.060000 30.140000 3.300000 181 98 79 0
16.280000 30.140000 2.750000 179 96 77 0
16.500000 30.140000 2.750000 179 95 79 0
16.720000 30.140000 4.070000 178 94 78 0
16.940000 30.140000 3.850000 179 96 77 0
17.160000 30.140000 2.970000 179 96 77 0
17.380000 30.140000 2.860000 180 97 78 0
17.600000 30.140000 4.290000 180 97 78 0
17.820000 30.140000 5.170000 181 95 77 0
18.040000 30.140000 5.170000 180 94 76 0
18.260000 30.140000 4.510000 181 93 76 0
18.480000 30.140000 2.530000 180 92 75 0
18.700000 30.140000 1.210000 180 92 75 0
18.920000 30.140000 0.550000 180 92 75 0
19.800000 30.140000 1.540000 176 88 71 0
20.020000 30.140000 4.180000 176 86 70 0
20.240000 30.140000 4.180000 175 85 69 0
20.460000 30.140000 1.430000 176 86 70 0
20.680000 30.140000 0.110000 176 86 70 0
20.900000 30.140000 0.110000 175 87 72 0
21.120000 30.140000 0.220000 175 87 72 0
21.340000 30.140000 0.880000 178 86 68 0
21.560000 30.140000 0.990000 176 84 66 0
21.780000 30.140000 0.990000 174 80 65 0
22.000000 30.140000 1.100000 172 78 63 0
22.220000 30.140000 0.440000 171 74 62 0
22.440000 30.140000 0.440000 169 72 60 0
22.660000 30.140000 0.440000 169 70 62 0
22.880000 30.140000 0.440000 167 68 60 0
23.100000 30.140000 1.210000 165 67 59 0
23.320000 30.140000 1.870000 165 67 59 0
23.540000 30.140000 1.870000 163 65 57 0
23.760000 30.140000 1.870000 162 64 56 0
23.980000 30.140000 1.980000 163 64 56 0
24.200000 30.140000 1.980000 163 64 56 0
24.420000 30.140000 1.980000 163 65 57 0
24.640000 30.140000 2.640000 163 65 57 0
24.860000 30.140000 2.640000 164 66 58 0
25.080000 30.140000 2.640000 163 65 57 0
25.300000 30.140000 1.980000 162 64 56 0
25.520000 30.140000 2.750000 162 64 56 0
25.740000 30.140000 2.750000 162 64 56 0
25.960000 30.140000 2.090000 163 65 57 0
26.180000 30.140000 2.750000 161 63 55 0
26.400000 30.140000 2.750000 163 65 57 0
26.620000 30.140000 2.640000 162 64 56 0
26.840000 30.140000 3.740000 162 64 56 0
27.060000 30.140000 4.180000 161 63 55 0
27.280000 30.140000 4.180000 161 63 55 0
27.500000 30.140000 4.950000 161 63 55 0
27.720000 30.140000 4.950000 162 64 56 0
27.940000 30.140000 5.610000 160 65 56 0
28.160000 30.140000 5.610000 159 64 55 0
28.380000 30.140000 5.720000 162 64 58 0
28.600000 30.140000 5.060000 161 63 57 0
28.820000 30.140000 5.060000 159 65 58 0
29.040000 30.140000 5.060000 162 68 61 0
29.260000 30.140000 5.060000 159 74 66 0
29.480000 30.140000 5.170000 162 77 69 0
29.700000 30.140000 5.170000 164 81 72 0
29.920000 30.140000 5.170000 164 81 72 0
30.140000 30.140000 5.940000 164 81 72 0
30.360000 30.140000 5.940000 164 81 72 0
30.580000 30.140000 6.050000 164 81 72 0
30.800000 30.140000 6.050000 163 80 71 0
31.020000 30.140000 6.160000 164 76 67 0
31.240000 30.140000 6.820000 164 76 67 0
31.460000 30.140000 7.480000 164 77 65 0
31.680000 30.140000 8.250000 162 75 63 0
31.900000 30.140000 8.250000 163 74 65 0
32.120000 30.140000 7.590000 162 73 64 0
32.340000 30.140000 6.820000 159 75 62 0
32.560000 30.140000 5.500000 158 74 61 0
32.780000 30.140000 5.280000 162 75 63 0
33.000000 30.140000 5.060000 162 75 63 0
33.220000 30.140000 5.610000 160 77 66 0
33.440000 30.140000 5.610000 161 78 67 0
33.660000 30.140000 6.270000 162 81 72 0
33.880000 30.140000 6.380000 163 82 73 0
34.100000 30.140000 6.380000 165 87 78 0
34.320000 30.140000 5.720000 167 89 80 0
34.540000 30.140000 5.720000 169 91 82 0
34.760000 30.140000 5.170000 170 92 83 0
34.980000 30.140000 5.170000 170 92 83 0
35.200000 30.140000 5.830000 170 92 83 0
35.420000 30.140000 6.380000 169 89 77 0
35.640000 30.140000 6.930000 166 86 74 0
35.860000 30.140000 7.150000 164 84 70 0
36.080000 30.140000 6.710000 163 83 69 0
36.300000 30.140000 7.480000 162 82 70 0
36.520000 30.140000 8.140000 163 83 71 0
36.740000 30.140000 7.370000 163 83 71 0
36.960000 30.140000 7.260000 164 84 72 0
37.180000 30.140000 6.380000 163 84 72 0
0.000000 30.360000 4.400000 148 111 90 0
0.220000 30.360000 4.400000 149 112 91 0
0.440000 30.360000 4.400000 149 112 91 0
0.660000 30.360000 4.400000 147 111 90 0
0.880000 30.360000 4.400000 146 110 89 0
1.100000 30.360000 4.290000 147 110 89 0
1.320000 30.360000 4.290000 147 110 89 0
1.540000 30.360000 4.400000 147 108 88 0
1.760000 30.360000 3.740000 147 108 88 0
1.980000 30.360000 4.510000 147 108 88 0
2.200000 30.360000 4.510000 146 107 87 0
2.420000 30.360000 5.280000 146 107 87 0
2.640000 30.360000 5.940000 145 106 86 0
2.860000 30.360000 4.620000 147 105 86 0
3.080000 30.360000 3.960000 146 104 85 0
3.300000 30.360000 3.300000 146 104 85 0
3.520000 30.360000 2.530000 146 104 85 0
3.740000 30.360000 2.530000 147 104 83 0
3.960000 30.360000 2.640000 147 104 83 0
4.180000 30.360000 1.980000 151 103 84 0
4.400000 30.360000 0.550000 151 103 84 0
4.620000 30.360000 0.550000 157 103 86 0
4.840000 30.360000 0.660000 157 103 86 0
5.940000 30.360000 0.220000 165 98 84 0
6.160000 30.360000 0.660000 163 96 82 0
6.380000 30.360000 4.950000 164 94 79 0
6.600000 30.360000 11.440000 165 95 80 0
6.820000 30.360000 8.800000 166 93 79 0
7.040000 30.360000 6.710000 166 93 79 0
7.260000 30.360000 7.810000 166 93 79 0
7.480000 30.360000 8.360000 166 93 79 0
7.700000 30.360000 8.360000 166 92 78 0
7.920000 30.360000 9.020000 166 92 78 0
8.140000 30.360000 9.680000 166 92 78 0
8.360000 30.360000 9.790000 166 92 78 0
8.580000 30.360000 10.450000 168 91 78 0
8.800000 30.360000 10.450000 168 91 78 0
9.020000 30.360000 9.680000 168 91 78 0
9.240000 30.360000 9.020000 167 90 77 0
9.460000 30.360000 9.020000 168 91 78 0
9.680000 30.360000 9.680000 168 91 78 0
9.900000 30.360000 9.680000 169 92 79 0
10.120000 30.360000 11.110000 169 92 79 0
10.340000 30.360000 12.430000 170 93 78 0
10.560000 30.360000 13.860000 170 93 78 0
10.780000 30.360000 14.520000 171 93 78 0
11.000000 30.360000 14.520000 171 93 78 0
11.220000 30.360000 15.180000 172 94 79 0
11.440000 30.360000 15.950000 172 94 79 0
11.660000 30.360000 15.950000 172 94 79 0
11.880000 30.360000 16.610000 174 96 81 0
12.100000 30.360000 16.610000 175 95 79 0
12.320000 30.360000 17.270000 176 96 80 0
12.540000 30.360000 18.700000 176 96 80 0
12.760000 30.360000 19.360000 178 98 82 0
12.980000 30.360000 19.360000 178 98 82 0
13.200000 30.360000 13.200000 179 99 83 0
13.420000 30.360000 4.180000 180 100 84 0
13.640000 30.360000 0.110000 181 101 85 0
13.860000 30.360000 0.770000 182 103 85 0
14.080000 30.360000 1.430000 183 104 86 0
14.300000 30.360000 1.430000 184 105 87 0
14.520000 30.360000 2.200000 184 105 87 0
14.740000 30.360000 2.200000 185 106 88 0
14.960000 30.360000 2.200000 185 106 88 0
15.180000 30.360000 2.970000 187 108 88 0
15.400000 30.360000 2.970000 188 109 89 0
15.620000 30.360000 2.970000 186 104 87 0
15.840000 30.360000 3.740000 186 104 87 0
16.060000 30.360000 3.300000 181 98 79 0
16.280000 30.360000 2.640000 180 97 78 0
16.500000 30.360000 1.980000 178 94 78 0
16.720000 30.360000 0.660000 178 94 78 0
16.940000 30.360000 0.550000 179 96 77 0
17.160000 30.360000 1.540000 178 95 76 0
17.380000 30.360000 2.860000 179 96 77 0
17.600000 30.360000 3.630000 179 96 77 0
17.820000 30.360000 4.400000 180 94 76 0
18.040000 30.360000 5.170000 180 94 76 0
18.260000 30.360000 5.170000 180 92 75 0
18.480000 30.360000 3.850000 180 92 75 0
18.700000 30.360000 1.870000 181 93 76 0
18.920000 30.360000 1.320000 180 92 75 0
19.140000 30.360000 0.660000 179 91 76 0
19.800000 30.360000 0.220000 177 89 72 0
20.460000 30.360000 0.110000 176 86 70 0
20.680000 30.360000 0.110000 177 87 71 0
20.900000 30.360000 0.110000 176 88 73 0
21.120000 30.360000 0.220000 177 89 74 0
21.340000 30.360000 0.880000 178 86 68 0
21.560000 30.360000 0.990000 176 84 66 0
21.780000 30.360000 0.990000 174 80 65 0
22.000000 30.360000 0.330000 171 77 62 0
22.220000 30.360000 0.330000 171 74 62 0
22.880000 30.360000 0.440000 167 68 60 0
23.100000 30.360000 1.210000 165 67 59 0
23.320000 30.360000 1.870000 164 66 58 0
23.540000 30.360000 1.870000 164 66 58 0
23.760000 30.360000 1.870000 163 65 57 0
23.980000 30.360000 1.980000 163 64 56 0
24.200000 30.360000 1.980000 165 66 58 0
24.420000 30.360000 1.980000 164 66 58 0
24.640000 30.360000 1.980000 163 65 57 0
24.860000 30.360000 1.980000 164 66 58 0
25.080000 30.360000 1.980000 164 66 58 0
25.300000 30.360000 1.980000 164 66 58 0
25.520000 30.360000 2.640000 162 64 56 0
25.740000 30.360000 2.750000 163 65 57 0
25.960000 30.360000 2.750000 162 64 56 0
26.180000 30.360000 2.750000 162 64 56 0
26.400000 30.360000 2.750000 162 64 56 0
26.620000 30.360000 2.750000 162 64 56 0
26.840000 30.360000 3.190000 161 63 55 0
27.060000 30.360000 4.290000 160 62 54 0
27.280000 30.360000 4.180000 161 63 55 0
27.500000 30.360000 4.950000 162 64 56 0
27.720000 30.360000 4.950000 162 64 56 0
27.940000 30.360000 5.610000 159 64 55 0
28.160000 30.360000 5.720000 160 65 56 0
28.380000 30.360000 4.950000 161 63 57 0
28.600000 30.360000 5.060000 161 63 57 0
28.820000 30.360000 5.060000 160 66 59 0
29.040000 30.360000 5.060000 163 69 62 0
29.260000 30.360000 5.170000 160 75 67 0
29.480000 30.360000 5.170000 163 78 70 0
29.700000 30.360000 5.170000 163 80 71 0
29.920000 30.360000 5.170000 165 82 73 0
30.140000 30.360000 5.940000 165 82 73 0
30.360000 30.360000 5.940000 164 81 72 0
30.580000 30.360000 6.050000 163 80 71 0
30.800000 30.360000 6.160000 162 79 70 0
31.020000 30.360000 6.820000 164 76 67 0
31.240000 30.360000 7.590000 163 75 66 0
31.460000 30.360000 8.250000 162 75 63 0
31.680000 30.360000 8.250000 162 75 63 0
31.900000 30.360000 8.250000 161 72 63 0
32.120000 30.360000 7.590000 161 72 63 0
32.340000 30.360000 6.160000 159 75 62 0
32.560000 30.360000 4.730000 159 75 62 0
32.780000 30.360000 4.620000 161 74 62 0
33.000000 30.360000 5.060000 162 75 63 0
33.220000 30.360000 5.610000 160 77 66 0
33.440000 30.360000 5.610000 163 80 69 0
33.660000 30.360000 6.270000 164 83 74 0
33.880000 30.360000 6.380000 166 85 76 0
34.100000 30.360000 6.380000 165 87 78 0
34.320000 30.360000 5.720000 167 89 80 0
34.540000 30.360000 5.720000 169 91 82 0
34.760000 30.360000 5.170000 170 92 83 0
34.980000 30.360000 5.170000 171 93 84 0
35.200000 30.360000 5.170000 169 91 82 0
35.420000 30.360000 5.720000 168 88 76 0
35.640000 30.360000 6.930000 165 85 73 0
35.860000 30.360000 7.040000 163 83 69 0
36.080000 30.360000 7.370000 163 83 69 0
36.300000 30.360000 7.480000 162 82 70 0
36.520000 30.360000 7.480000 163 83 71 0
36.740000 30.360000 7.370000 164 84 72 0
36.960000 30.360000 6.490000 164 84 72 0
37.180000 30.360000 6.380000 162 83 71 0
0.000000 30.580000 4.400000 148 112 91 0
0.220000 30.580000 4.400000 147 111 90 0
0.440000 30.580000 4.400000 147 111 90 0
0.660000 30.580000 4.400000 149 110 90 0
0.880000 30.580000 4.400000 148 109 89 0
1.100000 30.580000 4.290000 147 110 89 0
1.320000 30.580000 4.290000 147 110 89 0
1.540000 30.580000 4.400000 148 109 89 0
1.760000 30.580000 4.510000 148 109 89 0
1.980000 30.580000 3.850000 146 107 87 0
2.200000 30.580000 4.510000 146 107 87 0
2.420000 30.580000 5.280000 148 106 87 0
2.640000 30.580000 5.280000 147 105 86 0
2.860000 30.580000 4.620000 147 105 86 0
3.080000 30.580000 3.960000 146 104 85 0
3.300000 30.580000 3.300000 146 103 82 0
3.520000 30.580000 2.530000 146 103 82 0
3.740000 30.580000 2.530000 147 103 85 0
3.960000 30.580000 2.640000 148 104 86 0
4.180000 30.580000 1.980000 152 103 84 0
4.400000 30.580000 0.550000 155 106 87 0
4.620000 30.580000 0.550000 158 105 86 0
4.840000 30.580000 0.660000 157 104 85 0
5.940000 30.580000 0.220000 166 96 81 0
6.160000 30.580000 2.090000 166 96 81 0
6.380000 30.580000 7.810000 164 94 79 0
6.600000 30.580000 11.550000 165 95 80 0
6.820000 30.580000 6.930000 168 95 81 0
7.040000 30.580000 6.050000 166 93 79 0
7.260000 30.580000 8.470000 167 93 79 0
7.480000 30.580000 8.360000 166 92 78 0
7.700000 30.580000 8.360000 167 93 79 0
7.920000 30.580000 9.020000 166 92 78 0
8.140000 30.580000 9.680000 166 92 78 0
8.360000 30.580000 9.790000 166 92 78 0
8.580000 30.580000 9.900000 166 92 78 0
8.800000 30.580000 10.450000 165 91 77 0
9.020000 30.580000 10.340000 168 91 78 0
9.240000 30.580000 9.680000 167 90 77 0
9.460000 30.580000 9.680000 167 90 75 0
9.680000 30.580000 9.680000 168 91 76 0
9.900000 30.580000 10.450000 169 92 79 0
10.120000 30.580000 11.770000 170 93 80 0
10.340000 30.580000 13.200000 170 93 78 0
10.560000 30.580000 13.860000 170 93 78 0
10.780000 30.580000 14.520000 172 93 81 0
11.000000 30.580000 14.520000 170 91 79 0
11.220000 30.580000 15.180000 172 94 79 0
11.440000 30.580000 15.950000 173 95 80 0
11.660000 30.580000 15.950000 173 95 80 0
11.880000 30.580000 16.610000 174 96 81 0
12.100000 30.580000 16.610000 175 95 79 0
12.320000 30.580000 17.270000 176 96 80 0
12.540000 30.580000 18.040000 177 97 81 0
12.760000 30.580000 19.360000 177 97 81 0
12.980000 30.580000 20.790000 178 98 82 0
13.200000 30.580000 17.380000 179 99 83 0
13.420000 30.580000 9.020000 180 100 84 0
13.640000 30.580000 4.180000 181 101 85 0
13.860000 30.580000 2.200000 182 103 85 0
14.080000 30.580000 0.770000 183 104 86 0
14.300000 30.580000 1.430000 183 105 87 0
14.520000 30.580000 2.200000 184 106 88 0
14.740000 30.580000 2.200000 185 106 88 0
14.960000 30.580000 2.200000 184 105 87 0
15.180000 30.580000 2.200000 187 108 90 0
15.400000 30.580000 2.970000 186 107 89 0
15.620000 30.580000 2.970000 186 104 87 0
15.840000 30.580000 3.080000 185 103 86 0
16.060000 30.580000 3.190000 182 98 82 0
16.280000 30.580000 2.640000 179 95 79 0
16.500000 30.580000 1.980000 178 94 78 0
16.720000 30.580000 0.660000 178 94 78 0
16.940000 30.580000 0.550000 180 94 76 0
17.160000 30.580000 1.540000 180 94 76 0
17.380000 30.580000 2.860000 179 96 77 0
17.600000 30.580000 3.630000 179 96 77 0
17.820000 30.580000 4.400000 179 93 75 0
18.040000 30.580000 5.060000 180 94 76 0
18.260000 30.580000 5.060000 178 95 76 0
18.480000 30.580000 3.740000 177 94 75 0
18.700000 30.580000 2.530000 179 93 75 0
18.920000 30.580000 1.980000 179 93 75 0
19.140000 30.580000 1.320000 179 93 75 0
19.360000 30.580000 0.660000 178 92 74 0
19.580000 30.580000 0.550000 178 90 73 0
19.800000 30.580000 0.880000 178 90 73 0
20.020000 30.580000 0.770000 177 91 73 0
20.460000 30.580000 0.110000 177 89 72 0
20.680000 30.580000 0.110000 177 89 72 0
20.900000 30.580000 0.110000 178 90 73 0
21.120000 30.580000 0.220000 178 90 73 0
21.340000 30.580000 0.880000 176 87 68 0
21.560000 30.580000 0.990000 174 85 66 0
21.780000 30.580000 0.330000 175 78 66 0
22.000000 30.580000 1.760000 171 74 62 0
22.220000 30.580000 2.420000 169 72 61 0
22.440000 30.580000 1.100000 169 72 61 0
22.880000 30.580000 0.440000 166 69 58 0
23.100000 30.580000 1.210000 165 67 59 0
23.320000 30.580000 1.210000 165 67 59 0
23.540000 30.580000 1.870000 164 67 56 0
23.760000 30.580000 1.870000 163 66 55 0
23.980000 30.580000 1.980000 163 66 55 0
24.200000 30.580000 1.980000 163 66 55 0
24.420000 30.580000 1.980000 163 65 57 0
24.640000 30.580000 1.980000 164 66 58 0
24.860000 30.580000 1.980000 164 66 58 0
25.080000 30.580000 1.980000 164 66 58 0
25.300000 30.580000 2.640000 164 67 56 0
25.520000 30.580000 2.640000 164 67 56 0
25.740000 30.580000 2.750000 163 65 57 0
25.960000 30.580000 2.750000 162 64 56 0
26.180000 30.580000 2.750000 162 64 56 0
26.400000 30.580000 2.750000 162 64 56 0
26.620000 30.580000 2.750000 161 63 55 0
26.840000 30.580000 3.300000 162 64 56 0
27.060000 30.580000 4.290000 162 64 56 0
27.280000 30.580000 4.840000 161 63 55 0
27.500000 30.580000 4.840000 162 64 56 0
27.720000 30.580000 5.610000 162 64 56 0
27.940000 30.580000 5.610000 161 63 55 0
28.160000 30.580000 4.950000 161 63 55 0
28.380000 30.580000 4.950000 159 66 56 0
28.600000 30.580000 5.060000 160 67 57 0
28.820000 30.580000 5.060000 157 72 64 0
29.040000 30.580000 5.060000 160 75 67 0
29.260000 30.580000 5.170000 162 79 70 0
29.480000 30.580000 5.170000 163 80 71 0
29.700000 30.580000 5.170000 165 82 73 0
29.920000 30.580000 5.940000 164 81 72 0
30.140000 30.580000 5.940000 163 80 69 0
30.360000 30.580000 6.050000 163 80 69 0
30.580000 30.580000 6.050000 163 78 68 0
30.800000 30.580000 6.820000 162 77 67 0
31.020000 30.580000 6.820000 162 75 63 0
31.240000 30.580000 7.590000 162 75 63 0
31.460000 30.580000 8.140000 161 73 64 0
31.680000 30.580000 8.910000 161 73 64 0
31.900000 30.580000 8.250000 161 74 60 0
32.120000 30.580000 6.820000 161 74 60 0
32.340000 30.580000 5.390000 160 76 63 0
32.560000 30.580000 3.960000 159 75 62 0
32.780000 30.580000 4.510000 160 77 64 0
33.000000 30.580000 5.060000 160 77 64 0
33.220000 30.580000 5.610000 161 78 67 0
33.440000 30.580000 6.270000 165 82 71 0
33.660000 30.580000 6.270000 164 85 75 0
33.880000 30.580000 6.270000 165 86 76 0
34.100000 30.580000 6.380000 167 88 79 0
34.320000 30.580000 5.720000 168 89 80 0
34.540000 30.580000 5.060000 169 90 80 0
34.760000 30.580000 5.170000 169 90 80 0
34.980000 30.580000 5.280000 170 90 78 0
35.200000 30.580000 4.510000 169 89 77 0
35.420000 30.580000 5.720000 167 87 73 0
35.640000 30.580000 6.930000 165 85 71 0
35.860000 30.580000 7.150000 163 83 69 0
36.080000 30.580000 7.370000 163 83 69 0
36.300000 30.580000 7.480000 162 82 68 0
36.520000 30.580000 7.480000 164 84 70 0
36.740000 30.580000 7.370000 164 84 70 0
36.960000 30.580000 6.490000 164 84 70 0
37.180000 30.580000 6.380000 164 84 70 0
0.000000 30.800000 4.400000 148 112 91 0
0.220000 30.800000 4.400000 147 111 90 0
0.440000 30.800000 4.400000 147 111 90 0
0.660000 30.800000 4.400000 148 109 89 0
0.880000 30.800000 4.400000 148 109 89 0
1.100000 30.800000 4.290000 147 110 89 0
1.320000 30.800000 4.290000 147 110 89 0
1.540000 30.800000 4.400000 147 108 88 0
1.760000 30.800000 4.510000 146 107 87 0
1.980000 30.800000 3.850000 146 107 87 0
2.200000 30.800000 3.850000 145 106 86 0
2.420000 30.800000 5.280000 148 106 87 0
2.640000 30.800000 5.280000 147 105 86 0
2.860000 30.800000 4.620000 146 104 85 0
3.080000 30.800000 3.960000 146 104 85 0
3.300000 30.800000 3.300000 146 103 82 0
3.520000 30.800000 2.530000 147 104 83 0
3.740000 30.800000 2.640000 147 103 85 0
3.960000 30.800000 2.640000 148 104 86 0
4.180000 30.800000 1.210000 153 104 85 0
4.400000 30.800000 0.550000 155 106 87 0
4.620000 30.800000 0.660000 158 105 86 0
4.840000 30.800000 0.660000 158 105 86 0
5.940000 30.800000 0.220000 166 96 81 0
6.160000 30.800000 4.180000 165 95 80 0
6.380000 30.800000 11.880000 165 95 80 0
6.600000 30.800000 12.870000 166 96 81 0
6.820000 30.800000 7.480000 167 94 80 0
7.040000 30.800000 6.710000 166 93 79 0
7.260000 30.800000 8.470000 167 93 79 0
7.480000 30.800000 8.360000 168 94 80 0
7.700000 30.800000 8.360000 167 93 79 0
7.920000 30.800000 9.020000 166 92 78 0
8.140000 30.800000 9.680000 166 92 78 0
8.360000 30.800000 9.680000 166 92 78 0
8.580000 30.800000 10.450000 165 91 77 0
8.800000 30.800000 10.450000 166 92 78 0
9.020000 30.800000 10.340000 168 91 78 0
9.240000 30.800000 10.340000 168 91 78 0
9.460000 30.800000 10.450000 168 91 76 0
9.680000 30.800000 10.450000 169 92 77 0
9.900000 30.800000 10.450000 169 92 79 0
10.120000 30.800000 11.770000 170 93 80 0
10.340000 30.800000 13.200000 171 94 79 0
10.560000 30.800000 14.520000 170 93 78 0
10.780000 30.800000 14.520000 171 92 80 0
11.000000 30.800000 14.520000 171 92 80 0
11.220000 30.800000 15.180000 172 94 79 0
11.440000 30.800000 15.950000 172 94 79 0
11.660000 30.800000 15.950000 174 96 81 0
11.880000 30.800000 16.610000 174 96 81 0
12.100000 30.800000 16.610000 176 96 80 0
12.320000 30.800000 17.270000 176 96 80 0
12.540000 30.800000 18.040000 177 97 81 0
12.760000 30.800000 19.360000 178 98 82 0
12.980000 30.800000 20.790000 178 98 82 0
13.200000 30.800000 20.130000 179 99 83 0
13.420000 30.800000 17.380000 180 100 84 0
13.640000 30.800000 12.540000 181 101 85 0
13.860000 30.800000 4.180000 184 105 87 0
14.080000 30.800000 0.770000 182 103 85 0
14.300000 30.800000 1.540000 184 106 88 0
14.520000 30.800000 2.200000 184 106 88 0
14.740000 30.800000 2.200000 185 106 88 0
14.960000 30.800000 2.200000 185 106 88 0
15.180000 30.800000 2.200000 186 107 89 0
15.400000 30.800000 2.310000 186 107 89 0
15.620000 30.800000 2.970000 185 103 86 0
15.840000 30.800000 3.080000 184 102 85 0
16.060000 30.800000 3.190000 181 97 81 0
16.280000 30.800000 2.640000 179 95 79 0
16.500000 30.800000 1.980000 179 95 79 0
16.720000 30.800000 1.320000 178 94 78 0
16.940000 30.800000 1.210000 179 93 75 0
17.160000 30.800000 2.310000 180 94 76 0
17.380000 30.800000 2.860000 178 95 76 0
17.600000 30.800000 3.520000 178 95 76 0
17.820000 30.800000 4.290000 181 95 77 0
18.040000 30.800000 5.060000 180 94 76 0
18.260000 30.800000 5.060000 178 95 76 0
18.480000 30.800000 4.510000 178 95 76 0
18.700000 30.800000 3.190000 181 95 77 0
18.920000 30.800000 2.640000 180 94 76 0
19.140000 30.800000 1.980000 180 94 76 0
19.360000 30.800000 1.320000 179 93 75 0
19.580000 30.800000 1.210000 180 92 75 0
19.800000 30.800000 0.880000 179 91 74 0
20.020000 30.800000 0.770000 178 92 74 0
20.240000 30.800000 0.770000 178 92 74 0
20.460000 30.800000 0.770000 180 92 75 0
20.680000 30.800000 0.770000 180 92 75 0
20.900000 30.800000 0.770000 180 92 75 0
21.120000 30.800000 0.880000 178 90 73 0
21.340000 30.800000 0.880000 177 88 69 0
21.560000 30.800000 0.220000 174 85 66 0
21.780000 30.800000 0.330000 174 77 65 0
22.000000 30.800000 3.740000 171 74 62 0
22.220000 30.800000 9.350000 169 72 61 0
22.440000 30.800000 5.940000 168 71 60 0
22.660000 30.800000 1.100000 167 70 59 0
22.880000 30.800000 0.440000 166 69 58 0
23.100000 30.800000 1.210000 165 67 59 0
23.320000 30.800000 1.870000 164 66 58 0
23.540000 30.800000 1.870000 163 66 55 0
23.760000 30.800000 1.870000 164 67 56 0
23.980000 30.800000 1.870000 163 66 55 0
24.200000 30.800000 1.870000 163 66 55 0
24.420000 30.800000 1.980000 164 66 58 0
24.640000 30.800000 1.980000 164 66 58 0
24.860000 30.800000 1.980000 164 66 58 0
25.080000 30.800000 1.980000 164 66 58 0
25.300000 30.800000 2.640000 164 67 56 0
25.520000 30.800000 2.640000 164 67 56 0
25.740000 30.800000 2.750000 163 65 57 0
25.960000 30.800000 2.750000 163 65 57 0
26.180000 30.800000 2.750000 163 65 57 0
26.400000 30.800000 2.750000 161 63 55 0
26.620000 30.800000 2.750000 161 63 55 0
26.840000 30.800000 3.300000 161 63 55 0
27.060000 30.800000 3.740000 162 64 56 0
27.280000 30.800000 4.950000 162 64 56 0
27.500000 30.800000 4.840000 162 64 56 0
27.720000 30.800000 5.610000 161 63 55 0
27.940000 30.800000 5.610000 161 63 55 0
28.160000 30.800000 4.950000 161 63 55 0
28.380000 30.800000 4.950000 159 66 56 0
28.600000 30.800000 5.060000 162 69 59 0
28.820000 30.800000 5.060000 159 74 66 0
29.040000 30.800000 5.060000 162 77 69 0
29.260000 30.800000 5.170000 163 80 71 0
29.480000 30.800000 5.170000 164 81 72 0
29.700000 30.800000 5.170000 164 81 72 0
29.920000 30.800000 5.940000 163 80 71 0
30.140000 30.800000 5.940000 164 81 70 0
30.360000 30.800000 6.050000 163 80 69 0
30.580000 30.800000 6.050000 163 78 68 0
30.800000 30.800000 6.820000 162 77 67 0
31.020000 30.800000 7.480000 162 75 63 0
31.240000 30.800000 8.250000 161 74 62 0
31.460000 30.800000 8.910000 161 73 64 0
31.680000 30.800000 8.800000 161 73 64 0
31.900000 30.800000 8.140000 161 74 60 0
32.120000 30.800000 6.160000 161 74 60 0
32.340000 30.800000 5.390000 160 76 63 0
32.560000 30.800000 4.510000 161 77 64 0
32.780000 30.800000 4.950000 161 78 65 0
33.000000 30.800000 5.610000 163 80 67 0
33.220000 30.800000 6.270000 165 82 71 0
33.440000 30.800000 6.270000 166 83 72 0
33.660000 30.800000 6.270000 165 86 76 0
33.880000 30.800000 6.270000 167 88 78 0
34.100000 30.800000 5.720000 167 88 79 0
34.320000 30.800000 5.720000 169 90 81 0
34.540000 30.800000 5.170000 169 90 80 0
34.760000 30.800000 5.170000 168 89 79 0
34.980000 30.800000 4.620000 169 89 77 0
35.200000 30.800000 4.510000 168 88 76 0
35.420000 30.800000 5.060000 165 85 71 0
35.640000 30.800000 6.270000 165 85 71 0
35.860000 30.800000 7.150000 163 83 69 0
36.080000 30.800000 6.710000 163 83 69 0
36.300000 30.800000 6.820000 163 83 69 0
36.520000 30.800000 7.480000 163 83 69 0
36.740000 30.800000 6.710000 164 84 70 0
36.960000 30.800000 6.490000 165 85 71 0
37.180000 30.800000 6.380000 164 84 70 0
0.000000 31.020000 4.400000 149 112 91 0
0.220000 31.020000 4.400000 148 110 92 0
0.440000 31.020000 4.400000 147 109 91 0
0.660000 31.020000 4.400000 149 110 90 0
0.880000 31.020000 4.400000 149 110 90 0
1.100000 31.020000 5.060000 148 109 89 0
1.320000 31.020000 5.060000 148 109 89 0
1.540000 31.020000 4.400000 148 109 89 0
1.760000 31.020000 3.850000 146 107 87 0
1.980000 31.020000 3.850000 148 106 87 0
2.200000 31.020000 3.850000 147 105 86 0
2.420000 31.020000 4.620000 147 105 88 0
2.640000 31.020000 5.280000 147 105 88 0
2.860000 31.020000 3.960000 145 106 86 0
3.080000 31.020000 3.300000 144 105 85 0
3.300000 31.020000 3.300000 146 102 84 0
3.520000 31.020000 2.530000 147 103 85 0
3.740000 31.020000 2.640000 149 103 83 0
3.960000 31.020000 2.640000 151 105 85 0
4.180000 31.020000 1.320000 155 103 85 0
4.400000 31.020000 0.550000 157 105 87 0
4.620000 31.020000 0.660000 162 102 86 0
4.840000 31.020000 0.660000 162 102 86 0
5.940000 31.020000 0.220000 168 95 81 0
6.160000 31.020000 5.500000 168 95 81 0
6.380000 31.020000 12.540000 167 94 80 0
6.600000 31.020000 9.790000 168 95 81 0
6.820000 31.020000 6.490000 168 94 80 0
7.040000 31.020000 7.260000 168 94 80 0
7.260000 31.020000 8.470000 167 93 79 0
7.480000 31.020000 8.360000 167 93 79 0
7.700000 31.020000 8.360000 169 92 77 0
7.920000 31.020000 9.020000 168 91 76 0
8.140000 31.020000 9.680000 168 91 78 0
8.360000 31.020000 10.340000 168 91 78 0
8.580000 31.020000 11.110000 168 91 78 0
8.800000 31.020000 11.110000 168 91 78 0
9.020000 31.020000 11.110000 167 90 77 0
9.240000 31.020000 11.110000 169 92 79 0
9.460000 31.020000 10.450000 169 91 76 0
9.680000 31.020000 10.560000 170 92 77 0
9.900000 31.020000 10.560000 170 92 77 0
10.120000 31.020000 11.770000 171 93 78 0
10.340000 31.020000 13.200000 171 93 78 0
10.560000 31.020000 14.520000 171 93 78 0
10.780000 31.020000 14.520000 173 93 79 0
11.000000 31.020000 14.520000 173 93 79 0
11.220000 31.020000 15.180000 173 93 79 0
11.440000 31.020000 15.950000 174 94 80 0
11.660000 31.020000 15.950000 174 94 80 0
11.880000 31.020000 16.610000 175 95 81 0
12.100000 31.020000 16.610000 175 95 81 0
12.320000 31.020000 17.270000 176 96 82 0
12.540000 31.020000 18.040000 179 97 81 0
12.760000 31.020000 19.360000 179 97 81 0
12.980000 31.020000 20.790000 179 99 83 0
13.200000 31.020000 20.790000 179 99 83 0
13.420000 31.020000 21.450000 180 101 83 0
13.640000 31.020000 15.950000 182 103 85 0
13.860000 31.020000 5.610000 183 104 86 0
14.080000 31.020000 0.770000 185 106 88 0
14.300000 31.020000 1.540000 184 105 87 0
14.520000 31.020000 1.540000 186 107 89 0
14.740000 31.020000 2.200000 185 106 88 0
14.960000 31.020000 2.200000 185 106 88 0
15.180000 31.020000 2.200000 186 107 87 0
15.400000 31.020000 2.310000 186 107 87 0
15.620000 31.020000 2.970000 186 104 87 0
15.840000 31.020000 3.080000 185 103 86 0
16.060000 31.020000 3.190000 182 99 80 0
16.280000 31.020000 2.640000 180 97 78 0
16.500000 31.020000 1.980000 181 95 77 0
16.720000 31.020000 1.320000 180 94 76 0
16.940000 31.020000 1.320000 179 93 75 0
17.160000 31.020000 1.760000 180 94 76 0
17.380000 31.020000 2.970000 181 95 75 0
17.600000 31.020000 3.520000 181 95 75 0
17.820000 31.020000 4.290000 181 93 74 0
18.040000 31.020000 4.400000 182 94 75 0
18.260000 31.020000 5.060000 181 95 75 0
18.480000 31.020000 4.400000 182 96 76 0
18.700000 31.020000 3.850000 182 96 76 0
18.920000 31.020000 3.190000 181 95 75 0
19.140000 31.020000 2.530000 181 95 75 0
19.360000 31.020000 1.870000 181 95 75 0
19.580000 31.020000 1.210000 183 95 76 0
19.800000 31.020000 1.540000 180 92 73 0
20.020000 31.020000 1.430000 180 94 74 0
20.240000 31.020000 0.770000 180 94 74 0
20.460000 31.020000 0.770000 182 94 75 0
20.680000 31.020000 0.770000 183 95 76 0
20.900000 31.020000 1.540000 183 95 76 0
21.120000 31.020000 0.880000 180 92 73 0
21.340000 31.020000 0.880000 180 88 72 0
21.560000 31.020000 0.220000 176 84 68 0
21.780000 31.020000 0.330000 175 78 66 0
22.000000 31.020000 5.170000 172 75 63 0
22.220000 31.020000 14.080000 170 73 62 0
22.440000 31.020000 12.760000 168 71 60 0
22.660000 31.020000 3.850000 169 70 62 0
22.880000 31.020000 0.440000 168 69 61 0
23.100000 31.020000 1.100000 166 67 59 0
23.320000 31.020000 1.870000 165 66 58 0
23.540000 31.020000 1.870000 164 65 55 0
23.760000 31.020000 1.870000 165 66 56 0
23.980000 31.020000 1.870000 163 66 55 0
24.200000 31.020000 1.870000 164 67 56 0
24.420000 31.020000 1.870000 166 67 59 0
24.640000 31.020000 1.980000 166 67 59 0
24.860000 31.020000 1.980000 165 67 59 0
25.080000 31.020000 1.980000 165 67 59 0
25.300000 31.020000 2.640000 164 66 58 0
25.520000 31.020000 2.640000 165 67 59 0
25.740000 31.020000 2.640000 163 65 57 0
25.960000 31.020000 2.750000 163 65 57 0
26.180000 31.020000 2.750000 163 64 56 0
26.400000 31.020000 2.750000 163 64 56 0
26.620000 31.020000 2.750000 163 63 58 0
26.840000 31.020000 3.410000 165 65 60 0
27.060000 31.020000 3.850000 162 64 56 0
27.280000 31.020000 4.950000 161 63 55 0
27.500000 31.020000 5.610000 161 63 55 0
27.720000 31.020000 5.610000 161 63 55 0
27.940000 31.020000 5.610000 161 63 55 0
28.160000 31.020000 4.950000 162 64 56 0
28.380000 31.020000 4.950000 161 67 60 0
28.600000 31.020000 5.060000 163 69 62 0
28.820000 31.020000 5.060000 162 77 69 0
29.040000 31.020000 5.060000 163 78 70 0
29.260000 31.020000 5.170000 165 82 73 0
29.480000 31.020000 5.170000 165 82 73 0
29.700000 31.020000 5.170000 165 82 73 0
29.920000 31.020000 5.940000 165 82 73 0
30.140000 31.020000 5.940000 165 80 70 0
30.360000 31.020000 6.050000 165 80 70 0
30.580000 31.020000 6.820000 166 77 68 0
30.800000 31.020000 7.480000 165 76 67 0
31.020000 31.020000 8.140000 163 74 63 0
31.240000 31.020000 8.140000 163 74 63 0
31.460000 31.020000 8.800000 162 73 62 0
31.680000 31.020000 8.800000 162 73 62 0
31.900000 31.020000 8.250000 161 74 62 0
32.120000 31.020000 6.160000 161 74 62 0
32.340000 31.020000 4.620000 162 77 67 0
32.560000 31.020000 5.060000 163 78 68 0
32.780000 31.020000 4.840000 164 80 67 0
33.000000 31.020000 5.610000 165 81 68 0
33.220000 31.020000 6.270000 167 84 73 0
33.440000 31.020000 6.270000 169 86 75 0
33.660000 31.020000 6.270000 167 88 78 0
33.880000 31.020000 6.380000 169 90 80 0
34.100000 31.020000 5.720000 170 89 80 0
34.320000 31.020000 5.720000 169 88 79 0
34.540000 31.020000 5.170000 171 88 77 0
34.760000 31.020000 5.170000 170 87 76 0
34.980000 31.020000 4.620000 168 85 72 0
35.200000 31.020000 3.850000 168 85 72 0
35.420000 31.020000 5.060000 166 83 70 0
35.640000 31.020000 6.270000 165 82 69 0
35.860000 31.020000 6.380000 162 82 70 0
36.080000 31.020000 6.710000 162 82 70 0
36.300000 31.020000 6.820000 165 82 69 0
36.520000 31.020000 6.820000 166 83 70 0
36.740000 31.020000 6.710000 165 85 71 0
36.960000 31.020000 6.490000 165 85 71 0
37.180000 31.020000 7.150000 165 86 74 0
0.000000 31.240000 4.400000 148 111 90 0
0.220000 31.240000 4.400000 147 109 91 0
0.440000 31.240000 4.400000 148 110 92 0
0.660000 31.240000 4.400000 148 109 89 0
0.880000 31.240000 4.400000 148 109 89 0
1.100000 31.240000 5.060000 148 109 89 0
1.320000 31.240000 5.060000 147 108 88 0
1.540000 31.240000 4.400000 147 108 88 0
1.760000 31.240000 3.850000 147 108 88 0
1.980000 31.240000 3.190000 148 106 87 0
2.200000 31.240000 3.190000 148 106 87 0
2.420000 31.240000 4.620000 148 106 89 0
2.640000 31.240000 5.280000 146 104 87 0
2.860000 31.240000 3.960000 145 106 86 0
3.080000 31.240000 3.300000 144 105 85 0
3.300000 31.240000 2.640000 147 103 85 0
3.520000 31.240000 2.640000 147 103 85 0
3.740000 31.240000 2.640000 150 104 84 0
3.960000 31.240000 1.980000 151 105 85 0
4.180000 31.240000 1.320000 157 105 87 0
4.400000 31.240000 0.550000 158 106 88 0
4.620000 31.240000 0.660000 162 102 86 0
5.940000 31.240000 0.220000 169 96 82 0
6.160000 31.240000 5.500000 168 95 81 0
6.380000 31.240000 11.770000 167 94 80 0
6.600000 31.240000 9.020000 167 94 80 0
6.820000 31.240000 6.380000 168 94 80 0
7.040000 31.240000 7.260000 168 94 80 0
7.260000 31.240000 8.470000 167 93 79 0
7.480000 31.240000 8.360000 167 93 79 0
7.700000 31.240000 8.360000 168 91 76 0
7.920000 31.240000 9.020000 168 91 76 0
8.140000 31.240000 9.680000 168 91 78 0
8.360000 31.240000 10.340000 169 92 79 0
8.580000 31.240000 11.110000 168 91 78 0
8.800000 31.240000 11.110000 168 91 78 0
9.020000 31.240000 11.110000 169 92 79 0
9.240000 31.240000 11.110000 168 91 78 0
9.460000 31.240000 10.560000 170 92 77 0
9.680000 31.240000 10.010000 170 92 77 0
9.900000 31.240000 10.010000 171 93 78 0
10.120000 31.240000 11.880000 171 93 78 0
10.340000 31.240000 13.090000 171 93 78 0
10.560000 31.240000 14.520000 171 93 78 0
10.780000 31.240000 14.520000 174 94 80 0
11.000000 31.240000 14.520000 173 93 79 0
11.220000 31.240000 15.180000 174 94 80 0
11.440000 31.240000 15.180000 173 93 79 0
11.660000 31.240000 15.950000 174 94 80 0
11.880000 31.240000 16.610000 175 95 81 0
12.100000 31.240000 16.610000 176 96 82 0
12.320000 31.240000 17.270000 176 96 82 0
12.540000 31.240000 18.040000 179 97 81 0
12.760000 31.240000 19.360000 180 98 82 0
12.980000 31.240000 20.130000 179 99 83 0
13.200000 31.240000 20.790000 179 99 83 0
13.420000 31.240000 21.450000 180 101 83 0
13.640000 31.240000 15.950000 182 103 85 0
13.860000 31.240000 5.610000 182 103 85 0
14.080000 31.240000 0.770000 184 105 87 0
14.300000 31.240000 1.540000 184 105 87 0
14.520000 31.240000 1.540000 185 106 88 0
14.740000 31.240000 2.200000 185 106 88 0
14.960000 31.240000 2.200000 185 106 88 0
15.180000 31.240000 2.200000 185 106 86 0
15.400000 31.240000 2.310000 184 105 85 0
15.620000 31.240000 2.310000 184 102 85 0
15.840000 31.240000 3.080000 182 100 83 0
16.060000 31.240000 3.190000 182 99 80 0
16.280000 31.240000 2.640000 180 97 78 0
16.500000 31.240000 1.980000 181 95 77 0
16.720000 31.240000 1.980000 180 94 76 0
16.940000 31.240000 1.320000 180 94 76 0
17.160000 31.240000 1.870000 180 94 76 0
17.380000 31.240000 2.970000 181 95 75 0
17.600000 31.240000 3.520000 181 95 75 0
17.820000 31.240000 3.520000 182 94 75 0
18.040000 31.240000 4.290000 181 93 74 0
18.260000 31.240000 4.400000 181 95 75 0
18.480000 31.240000 4.400000 181 95 75 0
18.700000 31.240000 4.400000 182 96 76 0
18.920000 31.240000 3.740000 183 97 77 0
19.140000 31.240000 2.970000 184 98 78 0
19.360000 31.240000 2.420000 183 97 77 0
19.580000 31.240000 1.760000 183 95 76 0
19.800000 31.240000 2.310000 181 93 74 0
20.020000 31.240000 2.090000 182 96 76 0
20.240000 31.240000 1.430000 182 96 76 0
20.460000 31.240000 1.430000 184 96 77 0
20.680000 31.240000 1.430000 185 97 78 0
20.900000 31.240000 1.540000 184 96 77 0
21.120000 31.240000 1.540000 180 92 73 0
21.340000 31.240000 0.880000 181 89 73 0
21.560000 31.240000 0.990000 177 85 69 0
21.780000 31.240000 0.220000 174 77 65 0
22.000000 31.240000 5.060000 172 75 63 0
22.220000 31.240000 15.510000 171 74 63 0
22.440000 31.240000 15.510000 170 73 62 0
22.660000 31.240000 5.170000 169 70 62 0
22.880000 31.240000 0.440000 167 68 60 0
23.100000 31.240000 1.100000 166 67 59 0
23.320000 31.240000 1.870000 166 67 59 0
23.540000 31.240000 1.870000 166 67 57 0
23.760000 31.240000 1.870000 165 66 56 0
23.980000 31.240000 1.870000 164 67 56 0
24.200000 31.240000 1.870000 164 67 56 0
24.420000 31.240000 1.870000 165 66 58 0
24.640000 31.240000 1.980000 166 67 59 0
24.860000 31.240000 1.980000 165 67 59 0
25.080000 31.240000 1.980000 166 68 60 0
25.300000 31.240000 2.640000 165 67 59 0
25.520000 31.240000 2.640000 165 67 59 0
25.740000 31.240000 2.640000 164 66 58 0
25.960000 31.240000 2.750000 162 64 56 0
26.180000 31.240000 2.750000 163 64 56 0
26.400000 31.240000 2.750000 163 64 56 0
26.620000 31.240000 2.750000 163 63 58 0
26.840000 31.240000 3.410000 163 63 58 0
27.060000 31.240000 3.960000 163 65 57 0
27.280000 31.240000 5.060000 162 64 56 0
27.500000 31.240000 5.610000 162 64 56 0
27.720000 31.240000 5.610000 161 63 55 0
27.940000 31.240000 5.610000 162 64 56 0
28.160000 31.240000 4.950000 164 66 58 0
28.380000 31.240000 4.950000 162 68 61 0
28.600000 31.240000 5.060000 165 71 64 0
28.820000 31.240000 5.060000 163 78 70 0
29.040000 31.240000 5.060000 165 80 72 0
29.260000 31.240000 5.170000 165 82 73 0
29.480000 31.240000 5.170000 167 84 75 0
29.700000 31.240000 5.170000 166 83 74 0
29.920000 31.240000 5.280000 166 83 74 0
30.140000 31.240000 5.940000 166 81 71 0
30.360000 31.240000 6.050000 164 79 69 0
30.580000 31.240000 6.820000 166 77 68 0
30.800000 31.240000 7.480000 164 75 66 0
31.020000 31.240000 8.140000 164 75 64 0
31.240000 31.240000 8.140000 163 74 63 0
31.460000 31.240000 8.800000 161 72 61 0
31.680000 31.240000 8.910000 163 74 63 0
