ply
format ascii 1.0
element vertex 1151
property float x
property float y
property float z
property uchar red
property uchar green
property uchar blue
property uchar alpha
end_header
34.100000 1.320000 18.260000 178 90 81 0
34.320000 1.320000 19.800000 180 92 83 0
34.540000 1.320000 19.800000 181 92 81 0
34.760000 1.320000 19.800000 180 91 80 0
34.980000 1.320000 20.020000 179 90 79 0
35.200000 1.320000 20.020000 179 90 79 0
35.420000 1.320000 18.480000 178 89 78 0
35.640000 1.320000 17.160000 176 87 76 0
35.860000 1.320000 15.840000 176 87 76 0
36.080000 1.320000 14.520000 173 84 73 0
36.300000 1.320000 13.200000 172 83 72 0
36.520000 1.320000 13.200000 171 82 71 0
36.740000 1.320000 12.980000 170 81 70 0
36.960000 1.320000 12.980000 169 80 69 0
37.180000 1.320000 14.300000 167 78 67 0
0.000000 1.540000 0.660000 188 191 179 0
0.220000 1.540000 1.760000 176 177 167 0
0.440000 1.540000 1.540000 174 175 165 0
0.660000 1.540000 1.540000 174 174 161 0
0.880000 1.540000 1.540000 174 174 161 0
1.100000 1.540000 1.760000 175 172 158 0
1.320000 1.540000 1.980000 175 172 158 0
1.540000 1.540000 3.300000 174 171 159 0
1.760000 1.540000 3.080000 175 172 160 0
1.980000 1.540000 3.080000 174 171 159 0
2.200000 1.540000 1.980000 173 170 158 0
2.420000 1.540000 2.200000 174 169 158 0
2.640000 1.540000 0.880000 174 169 158 0
4.400000 1.540000 0.880000 180 163 151 0
4.620000 1.540000 1.980000 180 160 144 0
4.840000 1.540000 1.760000 182 162 146 0
5.060000 1.540000 9.900000 180 161 142 0
5.280000 1.540000 25.080000 181 162 143 0
5.500000 1.540000 31.900000 180 156 139 0
5.720000 1.540000 25.080000 179 155 138 0
5.940000 1.540000 9.900000 177 154 135 0
6.160000 1.540000 1.760000 173 150 131 0
6.380000 1.540000 4.400000 170 142 125 0
6.600000 1.540000 14.080000 167 139 122 0
6.820000 1.540000 19.800000 164 136 119 0
7.040000 1.540000 10.120000 163 135 118 0
7.260000 1.540000 3.300000 161 133 116 0
7.480000 1.540000 3.300000 160 132 115 0
7.700000 1.540000 3.300000 158 130 111 0
7.920000 1.540000 3.300000 159 131 112 0
8.140000 1.540000 4.840000 157 129 112 0
8.360000 1.540000 6.160000 156 128 111 0
8.580000 1.540000 7.700000 158 128 112 0
8.800000 1.540000 7.700000 156 126 110 0
9.020000 1.540000 7.700000 156 127 108 0
9.240000 1.540000 9.020000 156 127 108 0
9.460000 1.540000 10.340000 157 125 107 0
9.680000 1.540000 9.240000 157 125 107 0
9.900000 1.540000 9.460000 156 126 110 0
10.120000 1.540000 9.240000 154 124 108 0
10.340000 1.540000 10.780000 156 124 106 0
10.560000 1.540000 9.240000 156 124 106 0
10.780000 1.540000 9.240000 155 123 105 0
11.000000 1.540000 9.240000 156 124 106 0
11.220000 1.540000 9.020000 156 124 106 0
11.440000 1.540000 9.020000 156 124 106 0
11.660000 1.540000 7.700000 156 124 108 0
11.880000 1.540000 6.380000 156 124 108 0
12.100000 1.540000 6.380000 155 121 104 0
12.320000 1.540000 6.380000 156 122 105 0
12.540000 1.540000 4.840000 158 122 105 0
12.760000 1.540000 5.060000 158 122 105 0
12.980000 1.540000 6.380000 156 122 105 0
13.200000 1.540000 9.020000 156 122 105 0
13.420000 1.540000 11.660000 155 121 104 0
13.640000 1.540000 14.520000 156 122 105 0
13.860000 1.540000 16.060000 158 122 105 0
14.080000 1.540000 17.380000 157 121 104 0
14.300000 1.540000 18.920000 159 121 105 0
14.520000 1.540000 18.920000 158 120 104 0
14.740000 1.540000 17.600000 158 120 104 0
14.960000 1.540000 14.740000 159 121 105 0
15.180000 1.540000 10.560000 166 113 102 0
15.400000 1.540000 6.600000 165 112 101 0
15.620000 1.540000 5.280000 165 110 100 0
15.840000 1.540000 3.960000 165 110 100 0
16.060000 1.540000 3.960000 168 109 100 0
16.280000 1.540000 1.320000 168 109 100 0
16.720000 1.540000 6.820000 168 107 97 0
16.940000 1.540000 16.500000 171 108 98 0
17.160000 1.540000 11.000000 171 108 98 0
18.040000 1.540000 1.320000 168 107 99 0
18.260000 1.540000 3.960000 170 107 97 0
18.480000 1.540000 5.280000 170 107 97 0
18.700000 1.540000 6.600000 171 106 97 0
18.920000 1.540000 6.600000 171 106 97 0
19.140000 1.540000 6.600000 171 106 97 0
19.360000 1.540000 6.820000 172 107 98 0
19.580000 1.540000 6.820000 176 107 97 0
19.800000 1.540000 8.140000 176 107 97 0
20.020000 1.540000 8.140000 175 107 99 0
20.240000 1.540000 8.140000 175 107 99 0
20.460000 1.540000 9.460000 175 107 99 0
20.680000 1.540000 9.460000 176 108 100 0
20.900000 1.540000 9.460000 177 109 101 0
21.120000 1.540000 9.460000 177 109 101 0
21.340000 1.540000 10.780000 179 110 102 0
21.560000 1.540000 10.560000 179 110 102 0
21.780000 1.540000 10.780000 180 112 106 0
22.000000 1.540000 10.780000 180 112 106 0
22.220000 1.540000 10.560000 181 113 105 0
22.440000 1.540000 10.340000 181 113 105 0
22.660000 1.540000 10.120000 183 115 107 0
22.880000 1.540000 11.440000 184 116 108 0
23.100000 1.540000 11.440000 182 117 110 0
23.320000 1.540000 11.220000 184 119 112 0
23.540000 1.540000 11.220000 185 120 113 0
23.760000 1.540000 11.220000 187 122 115 0
23.980000 1.540000 11.220000 186 121 114 0
24.200000 1.540000 11.220000 188 123 116 0
24.420000 1.540000 11.220000 191 122 114 0
24.640000 1.540000 10.340000 189 120 112 0
24.860000 1.540000 10.560000 189 116 105 0
25.080000 1.540000 10.780000 187 114 103 0
25.300000 1.540000 10.780000 187 109 100 0
25.520000 1.540000 9.240000 186 108 99 0
25.740000 1.540000 9.240000 185 110 99 0
25.960000 1.540000 7.920000 184 109 98 0
26.180000 1.540000 7.920000 185 108 97 0
26.400000 1.540000 7.920000 187 110 99 0
26.620000 1.540000 9.240000 185 106 94 0
26.840000 1.540000 10.560000 186 107 95 0
27.060000 1.540000 12.100000 187 107 95 0
27.280000 1.540000 12.100000 187 107 95 0
27.500000 1.540000 13.640000 187 104 93 0
27.720000 1.540000 13.640000 188 105 94 0
27.940000 1.540000 14.960000 187 104 93 0
28.160000 1.540000 17.600000 186 103 92 0
28.380000 1.540000 17.600000 183 103 91 0
28.600000 1.540000 17.820000 184 104 92 0
28.820000 1.540000 16.500000 163 133 117 0
29.040000 1.540000 17.820000 219 189 173 0
29.260000 1.540000 18.700000 221 208 197 0
29.480000 1.540000 20.900000 220 207 196 0
29.700000 1.540000 20.900000 255 217 197 0
29.920000 1.540000 19.580000 214 175 155 0
30.140000 1.540000 16.940000 189 109 97 0
30.360000 1.540000 14.300000 181 101 89 0
30.580000 1.540000 12.980000 183 95 86 0
30.800000 1.540000 12.980000 182 94 85 0
31.020000 1.540000 13.200000 181 93 84 0
31.240000 1.540000 13.200000 179 91 82 0
31.460000 1.540000 13.200000 180 92 83 0
31.680000 1.540000 14.740000 178 90 81 0
31.900000 1.540000 17.380000 178 89 78 0
32.120000 1.540000 17.600000 178 89 78 0
32.340000 1.540000 17.820000 177 88 79 0
32.560000 1.540000 17.600000 176 87 78 0
32.780000 1.540000 19.800000 176 87 78 0
33.000000 1.540000 20.900000 175 86 77 0
33.220000 1.540000 22.220000 174 87 75 0
33.440000 1.540000 22.220000 175 88 76 0
33.660000 1.540000 22.220000 178 91 79 0
33.880000 1.540000 20.900000 179 92 80 0
34.100000 1.540000 21.120000 181 94 82 0
34.320000 1.540000 19.800000 184 97 85 0
34.540000 1.540000 21.120000 185 100 77 0
34.760000 1.540000 21.340000 185 100 77 0
34.980000 1.540000 21.340000 185 97 80 0
35.200000 1.540000 21.340000 184 96 79 0
35.420000 1.540000 20.020000 182 93 80 0
35.640000 1.540000 18.700000 179 90 77 0
35.860000 1.540000 15.840000 175 86 77 0
36.080000 1.540000 14.520000 173 84 75 0
36.300000 1.540000 13.200000 173 84 75 0
36.520000 1.540000 11.660000 171 82 73 0
36.740000 1.540000 12.980000 170 81 70 0
36.960000 1.540000 14.300000 169 80 69 0
37.180000 1.540000 14.300000 169 78 70 0
0.000000 1.760000 2.200000 187 190 178 0
0.220000 1.760000 1.760000 176 177 167 0
0.440000 1.760000 1.540000 173 174 164 0
0.660000 1.760000 1.540000 172 172 159 0
0.880000 1.760000 0.220000 172 172 159 0
1.100000 1.760000 0.440000 173 170 156 0
1.320000 1.760000 1.980000 173 170 156 0
1.540000 1.760000 3.300000 174 171 159 0
1.760000 1.760000 4.400000 173 170 158 0
1.980000 1.760000 4.400000 172 169 157 0
2.200000 1.760000 3.300000 172 169 157 0
2.420000 1.760000 2.200000 172 167 156 0
2.640000 1.760000 1.100000 171 166 155 0
2.860000 1.760000 1.100000 171 164 151 0
3.300000 1.760000 1.100000 170 162 147 0
3.520000 1.760000 2.200000 170 162 147 0
3.740000 1.760000 1.980000 172 157 147 0
3.960000 1.760000 3.080000 169 154 144 0
4.180000 1.760000 3.080000 169 152 140 0
4.400000 1.760000 3.080000 167 150 138 0
4.620000 1.760000 4.400000 168 148 132 0
4.840000 1.760000 4.180000 165 145 129 0
5.060000 1.760000 5.720000 164 145 126 0
5.280000 1.760000 11.220000 162 143 124 0
5.500000 1.760000 14.080000 165 141 124 0
5.720000 1.760000 11.440000 162 138 121 0
5.940000 1.760000 7.260000 161 138 119 0
6.160000 1.760000 4.400000 160 137 118 0
6.380000 1.760000 4.400000 162 134 117 0
6.600000 1.760000 5.940000 160 132 115 0
6.820000 1.760000 8.580000 159 131 114 0
7.040000 1.760000 7.260000 157 129 112 0
7.260000 1.760000 5.940000 156 128 111 0
7.480000 1.760000 4.620000 157 129 112 0
7.700000 1.760000 4.620000 154 126 107 0
7.920000 1.760000 6.160000 155 127 108 0
8.140000 1.760000 6.160000 155 127 110 0
8.360000 1.760000 7.700000 154 126 109 0
8.580000 1.760000 7.700000 154 124 108 0
8.800000 1.760000 9.020000 154 124 108 0
9.020000 1.760000 9.020000 153 124 105 0
9.240000 1.760000 10.120000 154 125 106 0
9.460000 1.760000 11.440000 156 124 106 0
9.680000 1.760000 10.120000 156 124 106 0
9.900000 1.760000 10.340000 153 123 107 0
10.120000 1.760000 11.660000 153 123 107 0
10.340000 1.760000 11.440000 155 123 105 0
10.560000 1.760000 11.440000 154 122 104 0
10.780000 1.760000 11.440000 155 123 105 0
11.000000 1.760000 11.440000 155 123 105 0
11.220000 1.760000 10.120000 155 123 105 0
11.440000 1.760000 10.120000 154 122 104 0
11.660000 1.760000 8.580000 155 123 107 0
11.880000 1.760000 8.580000 154 122 106 0
12.100000 1.760000 8.580000 156 122 105 0
12.320000 1.760000 7.260000 155 121 104 0
12.540000 1.760000 8.580000 158 122 105 0
12.760000 1.760000 8.580000 157 121 104 0
12.980000 1.760000 11.440000 155 121 104 0
13.200000 1.760000 12.760000 154 120 103 0
13.420000 1.760000 15.620000 155 121 104 0
13.640000 1.760000 15.840000 155 121 104 0
13.860000 1.760000 17.380000 157 121 104 0
14.080000 1.760000 18.700000 157 121 104 0
14.300000 1.760000 18.920000 158 120 104 0
14.520000 1.760000 17.380000 158 120 104 0
14.740000 1.760000 16.060000 158 120 104 0
14.960000 1.760000 14.740000 158 120 104 0
15.180000 1.760000 10.780000 165 112 101 0
15.400000 1.760000 7.920000 164 111 100 0
15.620000 1.760000 6.600000 164 109 99 0
15.840000 1.760000 5.280000 165 110 100 0
16.060000 1.760000 3.960000 168 109 100 0
16.280000 1.760000 2.640000 167 108 99 0
16.720000 1.760000 1.320000 168 107 97 0
16.940000 1.760000 2.640000 170 107 97 0
17.820000 1.760000 1.320000 168 107 99 0
18.040000 1.760000 2.640000 167 106 98 0
18.260000 1.760000 4.180000 168 105 95 0
18.480000 1.760000 5.500000 169 106 96 0
18.700000 1.760000 6.820000 170 105 96 0
18.920000 1.760000 6.820000 170 105 96 0
19.140000 1.760000 6.820000 171 106 97 0
19.360000 1.760000 8.140000 172 107 98 0
19.580000 1.760000 8.140000 175 106 96 0
19.800000 1.760000 8.140000 177 108 98 0
20.020000 1.760000 9.460000 175 107 99 0
20.240000 1.760000 9.680000 175 107 99 0
20.460000 1.760000 9.680000 175 107 99 0
20.680000 1.760000 9.680000 176 108 100 0
20.900000 1.760000 9.680000 177 109 101 0
21.120000 1.760000 9.680000 178 110 102 0
21.340000 1.760000 10.780000 179 110 102 0
21.560000 1.760000 11.880000 180 111 103 0
21.780000 1.760000 11.660000 180 112 106 0
22.000000 1.760000 10.340000 180 112 106 0
22.220000 1.760000 10.340000 182 114 106 0
22.440000 1.760000 11.440000 182 114 106 0
22.660000 1.760000 11.220000 183 115 107 0
22.880000 1.760000 12.760000 185 117 109 0
23.100000 1.760000 12.760000 184 119 112 0
23.320000 1.760000 11.220000 185 120 113 0
23.540000 1.760000 11.220000 185 120 113 0
23.760000 1.760000 11.220000 185 120 113 0
23.980000 1.760000 11.220000 187 122 115 0
24.200000 1.760000 11.220000 187 122 115 0
24.420000 1.760000 11.440000 188 119 111 0
24.640000 1.760000 10.340000 186 117 109 0
24.860000 1.760000 10.560000 187 114 103 0
25.080000 1.760000 10.560000 184 111 100 0
25.300000 1.760000 10.780000 186 108 99 0
25.520000 1.760000 9.240000 185 107 98 0
25.740000 1.760000 9.240000 184 109 98 0
25.960000 1.760000 9.240000 184 109 98 0
26.180000 1.760000 7.920000 186 109 98 0
26.400000 1.760000 7.920000 185 108 97 0
26.620000 1.760000 9.240000 187 108 96 0
26.840000 1.760000 10.560000 186 107 95 0
27.060000 1.760000 12.100000 186 106 94 0
27.280000 1.760000 13.420000 186 106 94 0
27.500000 1.760000 13.640000 186 103 92 0
27.720000 1.760000 14.960000 185 102 91 0
27.940000 1.760000 16.280000 186 103 92 0
28.160000 1.760000 17.600000 185 102 91 0
28.380000 1.760000 17.600000 183 103 91 0
28.600000 1.760000 16.280000 184 104 92 0
28.820000 1.760000 16.500000 157 127 111 0
29.040000 1.760000 16.280000 224 194 178 0
29.260000 1.760000 18.700000 225 212 201 0
29.480000 1.760000 20.900000 218 205 194 0
29.700000 1.760000 20.900000 241 202 182 0
29.920000 1.760000 19.580000 234 195 175 0
30.140000 1.760000 16.940000 201 121 109 0
30.360000 1.760000 14.300000 185 105 93 0
30.580000 1.760000 14.300000 184 96 87 0
30.800000 1.760000 14.300000 183 95 86 0
31.020000 1.760000 14.300000 181 93 84 0
31.240000 1.760000 13.200000 180 92 83 0
31.460000 1.760000 13.200000 180 92 83 0
31.680000 1.760000 14.520000 179 91 82 0
31.900000 1.760000 16.060000 178 89 78 0
32.120000 1.760000 17.600000 177 88 77 0
32.340000 1.760000 17.600000 176 87 78 0
32.560000 1.760000 17.600000 176 87 78 0
32.780000 1.760000 19.800000 176 87 78 0
33.000000 1.760000 20.900000 176 87 78 0
33.220000 1.760000 22.220000 175 88 76 0
33.440000 1.760000 22.220000 176 89 77 0
33.660000 1.760000 23.760000 178 91 79 0
33.880000 1.760000 23.760000 179 92 80 0
34.100000 1.760000 22.440000 183 96 84 0
34.320000 1.760000 22.440000 189 102 90 0
34.540000 1.760000 22.440000 192 107 84 0
34.760000 1.760000 22.660000 194 109 86 0
34.980000 1.760000 22.660000 198 110 93 0
35.200000 1.760000 22.660000 199 111 94 0
35.420000 1.760000 21.340000 194 105 92 0
35.640000 1.760000 18.480000 188 99 86 0
35.860000 1.760000 17.160000 183 94 85 0
36.080000 1.760000 14.520000 176 87 78 0
36.300000 1.760000 12.980000 173 84 75 0
36.520000 1.760000 12.980000 171 82 73 0
36.740000 1.760000 12.980000 169 80 69 0
36.960000 1.760000 14.300000 168 79 68 0
37.180000 1.760000 14.300000 168 77 69 0
0.000000 1.980000 0.660000 184 190 177 0
0.220000 1.980000 1.760000 176 176 161 0
0.440000 1.980000 1.540000 170 170 155 0
0.660000 1.980000 1.540000 173 168 157 0
0.880000 1.980000 0.220000 173 168 157 0
1.100000 1.980000 0.440000 174 167 156 0
1.320000 1.980000 1.980000 174 167 156 0
1.540000 1.980000 3.300000 173 166 153 0
1.760000 1.980000 4.400000 172 165 152 0
1.980000 1.980000 4.400000 172 165 150 0
2.200000 1.980000 4.620000 172 165 150 0
2.420000 1.980000 3.520000 173 160 147 0
2.640000 1.980000 2.420000 172 159 146 0
2.860000 1.980000 2.420000 172 155 140 0
3.080000 1.980000 2.200000 170 153 138 0
3.300000 1.980000 3.300000 169 149 133 0
3.520000 1.980000 4.400000 167 147 131 0
3.740000 1.980000 4.400000 167 145 129 0
3.960000 1.980000 4.180000 166 144 128 0
4.180000 1.980000 4.180000 164 140 123 0
4.400000 1.980000 5.720000 161 137 120 0
4.620000 1.980000 5.720000 161 135 118 0
4.840000 1.980000 4.400000 159 133 116 0
5.060000 1.980000 4.400000 159 133 116 0
5.280000 1.980000 4.400000 157 131 114 0
5.500000 1.980000 4.400000 155 129 112 0
5.720000 1.980000 5.940000 156 130 113 0
5.940000 1.980000 5.940000 153 127 109 0
6.160000 1.980000 5.940000 153 127 109 0
6.380000 1.980000 5.940000 153 125 108 0
6.600000 1.980000 5.940000 153 125 108 0
6.820000 1.980000 7.260000 154 124 108 0
7.040000 1.980000 7.260000 153 123 107 0
7.260000 1.980000 7.480000 152 124 107 0
7.480000 1.980000 6.160000 150 122 105 0
7.700000 1.980000 6.160000 149 121 104 0
7.920000 1.980000 7.480000 150 122 105 0
8.140000 1.980000 7.480000 150 121 102 0
8.360000 1.980000 9.020000 151 122 103 0
8.580000 1.980000 9.020000 152 120 104 0
8.800000 1.980000 9.020000 151 119 103 0
9.020000 1.980000 10.120000 151 119 103 0
9.240000 1.980000 11.220000 151 119 103 0
9.460000 1.980000 11.220000 149 119 103 0
9.680000 1.980000 11.220000 150 120 104 0
9.900000 1.980000 11.220000 151 119 101 0
10.120000 1.980000 11.220000 151 119 101 0
10.340000 1.980000 11.220000 153 117 100 0
10.560000 1.980000 11.220000 155 119 102 0
10.780000 1.980000 11.220000 151 117 102 0
11.000000 1.980000 11.220000 152 118 103 0
11.220000 1.980000 11.220000 151 117 102 0
11.440000 1.980000 9.680000 154 120 105 0
11.660000 1.980000 9.680000 154 120 103 0
11.880000 1.980000 9.680000 154 120 103 0
12.100000 1.980000 9.680000 155 119 102 0
12.320000 1.980000 9.680000 156 120 103 0
12.540000 1.980000 11.220000 157 119 105 0
12.760000 1.980000 12.540000 157 119 105 0
12.980000 1.980000 13.860000 158 118 103 0
13.200000 1.980000 15.400000 158 118 103 0
13.420000 1.980000 16.940000 158 120 104 0
13.640000 1.980000 17.160000 157 119 103 0
13.860000 1.980000 17.380000 157 119 103 0
14.080000 1.980000 18.700000 156 118 102 0
14.300000 1.980000 17.380000 159 116 102 0
14.520000 1.980000 17.380000 160 117 103 0
14.740000 1.980000 14.740000 163 116 103 0
14.960000 1.980000 13.420000 162 115 102 0
15.180000 1.980000 10.780000 164 111 100 0
15.400000 1.980000 7.920000 163 110 99 0
15.620000 1.980000 6.600000 163 110 99 0
15.840000 1.980000 5.280000 164 111 100 0
16.060000 1.980000 3.960000 167 109 100 0
16.280000 1.980000 1.320000 167 109 100 0
17.600000 1.980000 1.320000 170 107 97 0
17.820000 1.980000 2.640000 169 105 98 0
18.040000 1.980000 4.180000 169 105 98 0
18.260000 1.980000 5.500000 168 104 97 0
18.480000 1.980000 6.820000 169 105 98 0
18.700000 1.980000 8.140000 169 104 95 0
18.920000 1.980000 8.140000 170 105 96 0
19.140000 1.980000 8.140000 171 106 97 0
19.360000 1.980000 8.140000 171 106 97 0
19.580000 1.980000 8.140000 171 106 97 0
19.800000 1.980000 9.460000 173 108 99 0
20.020000 1.980000 9.460000 173 109 102 0
20.240000 1.980000 9.460000 172 108 101 0
20.460000 1.980000 9.680000 177 108 100 0
20.680000 1.980000 9.680000 177 108 100 0
20.900000 1.980000 9.680000 177 109 103 0
21.120000 1.980000 9.680000 178 110 104 0
21.340000 1.980000 10.780000 180 111 103 0
21.560000 1.980000 11.440000 180 111 103 0
21.780000 1.980000 11.220000 179 111 103 0
22.000000 1.980000 11.220000 180 112 104 0
22.220000 1.980000 11.220000 183 114 106 0
22.440000 1.980000 11.220000 184 115 107 0
22.660000 1.980000 12.540000 185 116 108 0
22.880000 1.980000 12.540000 187 118 110 0
23.100000 1.980000 11.220000 185 120 113 0
23.320000 1.980000 11.220000 185 120 113 0
23.540000 1.980000 11.220000 185 120 113 0
23.760000 1.980000 11.220000 187 122 115 0
23.980000 1.980000 11.220000 190 121 113 0
24.200000 1.980000 11.440000 189 120 112 0
24.420000 1.980000 11.440000 189 115 107 0
24.640000 1.980000 11.880000 187 113 105 0
24.860000 1.980000 10.560000 186 111 101 0
25.080000 1.980000 10.560000 184 109 99 0
25.300000 1.980000 10.780000 186 109 98 0
25.520000 1.980000 9.240000 186 109 98 0
25.740000 1.980000 9.240000 185 108 97 0
25.960000 1.980000 9.240000 186 109 98 0
26.180000 1.980000 7.920000 187 108 98 0
26.400000 1.980000 9.240000 186 107 97 0
26.620000 1.980000 9.240000 187 106 97 0
26.840000 1.980000 10.560000 186 105 96 0
27.060000 1.980000 12.100000 186 106 94 0
27.280000 1.980000 13.420000 184 104 92 0
27.500000 1.980000 13.640000 187 104 93 0
27.720000 1.980000 13.640000 185 102 91 0
27.940000 1.980000 14.960000 185 102 91 0
28.160000 1.980000 16.280000 184 101 90 0
28.380000 1.980000 16.280000 185 102 91 0
28.600000 1.980000 16.280000 184 101 90 0
28.820000 1.980000 14.960000 184 104 92 0
29.040000 1.980000 14.960000 203 123 111 0
29.260000 1.980000 17.380000 228 177 187 0
29.480000 1.980000 21.120000 248 197 207 0
29.700000 1.980000 20.900000 255 198 199 0
29.920000 1.980000 20.900000 232 175 176 0
30.140000 1.980000 18.260000 201 123 114 0
30.360000 1.980000 15.620000 188 110 101 0
30.580000 1.980000 15.840000 186 101 91 0
30.800000 1.980000 15.620000 181 96 86 0
31.020000 1.980000 15.620000 182 94 85 0
31.240000 1.980000 13.200000 181 93 84 0
31.460000 1.980000 13.200000 181 93 84 0
31.680000 1.980000 14.520000 180 92 83 0
31.900000 1.980000 16.060000 179 90 79 0
32.120000 1.980000 17.380000 178 89 78 0
32.340000 1.980000 17.600000 177 88 79 0
32.560000 1.980000 17.820000 177 88 79 0
32.780000 1.980000 18.920000 177 88 79 0
33.000000 1.980000 21.120000 177 88 79 0
33.220000 1.980000 22.220000 175 87 78 0
33.440000 1.980000 23.540000 176 88 79 0
33.660000 1.980000 23.540000 178 89 78 0
33.880000 1.980000 23.760000 181 92 81 0
34.100000 1.980000 23.760000 183 101 84 0
34.320000 1.980000 22.440000 190 108 91 0
34.540000 1.980000 23.760000 192 109 86 0
34.760000 1.980000 23.980000 197 114 91 0
34.980000 1.980000 23.980000 197 123 93 0
35.200000 1.980000 23.980000 196 122 92 0
35.420000 1.980000 22.660000 199 121 93 0
35.640000 1.980000 19.800000 196 118 90 0
35.860000 1.980000 17.160000 192 111 87 0
36.080000 1.980000 15.840000 182 101 77 0
36.300000 1.980000 12.980000 176 87 78 0
36.520000 1.980000 12.980000 171 82 73 0
36.740000 1.980000 14.300000 169 78 70 0
36.960000 1.980000 14.300000 169 78 70 0
37.180000 1.980000 15.840000 167 76 66 0
0.000000 2.200000 1.980000 186 192 179 0
0.220000 2.200000 1.760000 177 177 162 0
0.440000 2.200000 1.540000 170 170 155 0
0.660000 2.200000 1.540000 172 167 156 0
0.880000 2.200000 0.220000 171 166 155 0
1.100000 2.200000 0.220000 173 166 155 0
1.320000 2.200000 1.760000 171 164 153 0
1.540000 2.200000 4.400000 169 162 149 0
1.760000 2.200000 5.720000 169 162 149 0
1.980000 2.200000 5.720000 167 160 145 0
2.200000 2.200000 4.620000 165 158 143 0
2.420000 2.200000 4.620000 167 154 141 0
2.640000 2.200000 4.840000 163 150 137 0
2.860000 2.200000 4.840000 165 148 133 0
3.080000 2.200000 4.620000 161 144 129 0
3.300000 2.200000 5.720000 160 140 124 0
3.520000 2.200000 5.720000 156 136 120 0
3.740000 2.200000 5.720000 157 135 119 0
3.960000 2.200000 5.720000 155 133 117 0
4.180000 2.200000 5.720000 155 131 114 0
4.400000 2.200000 5.720000 154 130 113 0
4.620000 2.200000 5.720000 154 128 111 0
4.840000 2.200000 5.720000 152 126 109 0
5.060000 2.200000 5.720000 152 126 109 0
5.280000 2.200000 5.940000 152 126 109 0
5.500000 2.200000 5.940000 152 126 109 0
5.720000 2.200000 5.940000 149 123 106 0
5.940000 2.200000 7.260000 149 123 105 0
6.160000 2.200000 7.260000 149 123 105 0
6.380000 2.200000 7.260000 150 122 105 0
6.600000 2.200000 7.040000 149 121 104 0
6.820000 2.200000 8.580000 150 120 104 0
7.040000 2.200000 8.580000 150 120 104 0
7.260000 2.200000 7.260000 148 120 103 0
7.480000 2.200000 6.380000 148 120 103 0
7.700000 2.200000 7.700000 147 119 102 0
7.920000 2.200000 8.800000 145 117 100 0
8.140000 2.200000 8.800000 147 118 99 0
8.360000 2.200000 8.800000 146 117 98 0
8.580000 2.200000 8.800000 149 117 101 0
8.800000 2.200000 10.120000 149 117 101 0
9.020000 2.200000 11.220000 149 117 101 0
9.240000 2.200000 11.220000 149 117 101 0
9.460000 2.200000 11.220000 146 116 100 0
9.680000 2.200000 11.220000 145 115 99 0
9.900000 2.200000 11.220000 148 116 98 0
10.120000 2.200000 11.220000 148 116 98 0
10.340000 2.200000 11.220000 151 115 98 0
10.560000 2.200000 11.220000 150 114 97 0
10.780000 2.200000 11.220000 149 115 100 0
11.000000 2.200000 9.680000 149 115 100 0
11.220000 2.200000 9.680000 147 113 98 0
11.440000 2.200000 9.680000 149 115 100 0
11.660000 2.200000 9.680000 149 115 98 0
11.880000 2.200000 9.680000 150 116 99 0
12.100000 2.200000 9.680000 152 116 99 0
12.320000 2.200000 11.000000 152 116 99 0
12.540000 2.200000 13.860000 154 116 102 0
12.760000 2.200000 13.860000 153 115 101 0
12.980000 2.200000 15.180000 156 116 101 0
13.200000 2.200000 15.400000 156 116 101 0
13.420000 2.200000 16.060000 155 117 101 0
13.640000 2.200000 16.060000 154 116 100 0
13.860000 2.200000 17.380000 155 117 101 0
14.080000 2.200000 17.380000 156 118 102 0
14.300000 2.200000 16.060000 159 116 102 0
14.520000 2.200000 14.740000 159 116 102 0
14.740000 2.200000 13.420000 161 114 101 0
14.960000 2.200000 12.100000 160 113 100 0
15.180000 2.200000 9.240000 164 111 100 0
15.400000 2.200000 7.920000 163 110 99 0
15.620000 2.200000 6.600000 164 111 100 0
15.840000 2.200000 5.280000 163 110 99 0
16.060000 2.200000 2.640000 166 108 99 0
16.280000 2.200000 1.320000 166 108 99 0
17.600000 2.200000 2.640000 169 106 96 0
17.820000 2.200000 3.960000 169 105 98 0
18.040000 2.200000 6.820000 169 105 98 0
18.260000 2.200000 6.820000 168 104 97 0
18.480000 2.200000 8.140000 169 105 98 0
18.700000 2.200000 8.140000 169 104 95 0
18.920000 2.200000 9.680000 170 105 96 0
19.140000 2.200000 9.680000 171 106 97 0
19.360000 2.200000 9.680000 172 107 98 0
19.580000 2.200000 9.460000 171 106 97 0
19.800000 2.200000 9.460000 173 108 99 0
20.020000 2.200000 9.460000 172 108 101 0
20.240000 2.200000 9.460000 172 108 101 0
20.460000 2.200000 9.680000 177 108 100 0
20.680000 2.200000 9.680000 178 109 101 0
20.900000 2.200000 9.680000 178 110 104 0
21.120000 2.200000 9.680000 178 110 104 0
21.340000 2.200000 9.240000 180 111 103 0
21.560000 2.200000 11.440000 180 111 103 0
21.780000 2.200000 11.000000 180 112 104 0
22.000000 2.200000 11.000000 181 113 105 0
22.220000 2.200000 12.540000 183 114 106 0
22.440000 2.200000 12.540000 185 116 108 0
22.660000 2.200000 12.540000 186 117 109 0
22.880000 2.200000 11.220000 187 118 110 0
23.100000 2.200000 11.220000 185 120 113 0
23.320000 2.200000 11.220000 186 121 114 0
23.540000 2.200000 11.220000 186 121 114 0
23.760000 2.200000 11.220000 187 122 115 0
23.980000 2.200000 11.440000 188 119 111 0
24.200000 2.200000 10.340000 187 118 110 0
24.420000 2.200000 10.560000 187 113 105 0
24.640000 2.200000 10.560000 186 112 104 0
24.860000 2.200000 10.560000 184 109 99 0
25.080000 2.200000 10.780000 183 108 98 0
25.300000 2.200000 9.240000 186 109 98 0
25.520000 2.200000 9.240000 186 109 98 0
25.740000 2.200000 9.240000 185 108 97 0
25.960000 2.200000 9.240000 185 108 97 0
26.180000 2.200000 9.240000 186 107 97 0
26.400000 2.200000 9.460000 185 106 96 0
26.620000 2.200000 9.460000 185 104 95 0
26.840000 2.200000 10.780000 185 104 95 0
27.060000 2.200000 12.100000 184 104 92 0
27.280000 2.200000 12.100000 184 104 92 0
27.500000 2.200000 13.640000 184 101 90 0
27.720000 2.200000 13.640000 185 102 91 0
27.940000 2.200000 13.640000 185 102 91 0
28.160000 2.200000 14.740000 184 101 90 0
28.380000 2.200000 14.740000 184 101 90 0
28.600000 2.200000 16.060000 184 101 90 0
28.820000 2.200000 14.740000 182 102 90 0
29.040000 2.200000 14.960000 184 104 92 0
29.260000 2.200000 17.380000 169 118 128 0
29.480000 2.200000 19.580000 197 146 156 0
29.700000 2.200000 20.900000 208 151 152 0
29.920000 2.200000 19.580000 193 136 137 0
30.140000 2.200000 18.480000 196 118 109 0
30.360000 2.200000 15.840000 189 111 102 0
30.580000 2.200000 15.840000 188 103 93 0
30.800000 2.200000 15.840000 183 98 88 0
31.020000 2.200000 15.840000 183 95 86 0
31.240000 2.200000 14.740000 182 94 85 0
31.460000 2.200000 13.420000 182 94 85 0
31.680000 2.200000 14.520000 181 93 84 0
31.900000 2.200000 16.060000 181 92 81 0
32.120000 2.200000 16.060000 180 91 80 0
32.340000 2.200000 17.600000 178 89 80 0
32.560000 2.200000 17.820000 177 88 79 0
32.780000 2.200000 18.920000 177 88 79 0
33.000000 2.200000 21.120000 176 87 78 0
33.220000 2.200000 22.220000 175 87 78 0
33.440000 2.200000 23.540000 175 87 78 0
33.660000 2.200000 23.540000 177 88 77 0
33.880000 2.200000 23.760000 180 91 80 0
34.100000 2.200000 22.440000 182 100 83 0
34.320000 2.200000 22.440000 188 106 89 0
34.540000 2.200000 23.760000 193 110 87 0
34.760000 2.200000 23.980000 197 114 91 0
34.980000 2.200000 23.980000 196 122 92 0
35.200000 2.200000 23.980000 203 129 99 0
35.420000 2.200000 22.660000 205 127 99 0
35.640000 2.200000 21.120000 201 123 95 0
35.860000 2.200000 18.480000 197 116 92 0
36.080000 2.200000 15.620000 192 111 87 0
36.300000 2.200000 14.300000 188 99 90 0
36.520000 2.200000 14.300000 173 84 75 0
36.740000 2.200000 14.300000 169 78 70 0
36.960000 2.200000 15.840000 167 76 68 0
37.180000 2.200000 15.840000 166 75 65 0
0.000000 2.420000 1.980000 193 192 185 0
0.220000 2.420000 1.760000 185 174 165 0
0.440000 2.420000 1.540000 176 165 156 0
0.660000 2.420000 1.540000 177 162 150 0
0.880000 2.420000 0.220000 176 161 149 0
1.100000 2.420000 0.220000 175 158 145 0
1.320000 2.420000 1.760000 173 156 143 0
1.540000 2.420000 4.400000 169 151 134 0
1.760000 2.420000 5.720000 167 149 132 0
1.980000 2.420000 5.720000 166 146 130 0
2.200000 2.420000 4.620000 162 142 126 0
2.420000 2.420000 4.620000 161 139 123 0
2.640000 2.420000 4.620000 159 137 121 0
2.860000 2.420000 4.620000 160 133 119 0
3.080000 2.420000 4.620000 158 131 117 0
3.300000 2.420000 4.400000 158 132 115 0
3.520000 2.420000 4.400000 155 129 112 0
3.740000 2.420000 4.400000 153 127 110 0
3.960000 2.420000 4.400000 153 127 110 0
4.180000 2.420000 4.400000 153 124 111 0
4.400000 2.420000 4.400000 152 123 110 0
4.620000 2.420000 4.620000 150 122 106 0
4.840000 2.420000 4.620000 149 121 105 0
5.060000 2.420000 4.620000 149 121 104 0
5.280000 2.420000 4.400000 150 122 105 0
5.500000 2.420000 4.620000 150 120 104 0
5.720000 2.420000 5.940000 149 119 103 0
5.940000 2.420000 7.040000 147 118 105 0
6.160000 2.420000 7.040000 147 118 105 0
6.380000 2.420000 7.040000 148 118 102 0
6.600000 2.420000 7.040000 147 117 101 0
6.820000 2.420000 8.360000 148 118 102 0
7.040000 2.420000 8.360000 147 117 101 0
7.260000 2.420000 7.260000 149 117 101 0
7.480000 2.420000 7.700000 148 116 100 0
7.700000 2.420000 7.480000 145 115 100 0
7.920000 2.420000 8.580000 144 114 99 0
8.140000 2.420000 8.580000 147 115 97 0
8.360000 2.420000 9.900000 147 115 97 0
8.580000 2.420000 9.900000 150 114 97 0
8.800000 2.420000 9.900000 149 113 96 0
9.020000 2.420000 9.680000 148 114 97 0
9.240000 2.420000 9.680000 147 113 96 0
9.460000 2.420000 9.680000 147 113 98 0
9.680000 2.420000 9.680000 146 112 97 0
9.900000 2.420000 9.680000 148 112 95 0
10.120000 2.420000 9.680000 148 112 95 0
10.340000 2.420000 9.680000 149 111 95 0
10.560000 2.420000 9.680000 149 111 95 0
10.780000 2.420000 9.680000 147 111 94 0
11.000000 2.420000 9.680000 147 111 94 0
11.220000 2.420000 9.680000 146 109 95 0
11.440000 2.420000 9.680000 147 110 96 0
11.660000 2.420000 9.680000 148 110 94 0
11.880000 2.420000 9.680000 148 110 94 0
12.100000 2.420000 11.220000 150 110 95 0
12.320000 2.420000 13.860000 151 111 96 0
12.540000 2.420000 13.860000 148 110 94 0
12.760000 2.420000 14.080000 150 112 96 0
12.980000 2.420000 14.080000 151 111 96 0
13.200000 2.420000 14.520000 152 112 97 0
13.420000 2.420000 14.960000 149 111 93 0
13.640000 2.420000 14.960000 151 113 95 0
13.860000 2.420000 16.280000 154 111 97 0
14.080000 2.420000 14.740000 155 112 98 0
14.300000 2.420000 13.420000 156 112 98 0
14.520000 2.420000 12.100000 157 113 99 0
14.740000 2.420000 10.780000 164 110 97 0
14.960000 2.420000 10.780000 164 110 97 0
15.180000 2.420000 9.460000 166 108 99 0
15.400000 2.420000 8.140000 166 108 99 0
15.620000 2.420000 6.820000 166 108 99 0
15.840000 2.420000 3.960000 166 108 99 0
16.060000 2.420000 2.640000 168 107 97 0
16.280000 2.420000 1.320000 167 106 96 0
17.380000 2.420000 1.320000 168 105 95 0
17.600000 2.420000 3.960000 170 107 97 0
17.820000 2.420000 6.380000 171 106 97 0
18.040000 2.420000 7.700000 169 104 95 0
18.260000 2.420000 7.920000 170 106 99 0
18.480000 2.420000 8.140000 169 105 98 0
18.700000 2.420000 9.460000 172 104 96 0
18.920000 2.420000 9.460000 173 105 97 0
19.140000 2.420000 9.680000 173 105 97 0
19.360000 2.420000 9.680000 173 105 97 0
19.580000 2.420000 9.460000 174 106 98 0
19.800000 2.420000 9.460000 175 107 99 0
20.020000 2.420000 9.460000 174 106 100 0
20.240000 2.420000 9.460000 176 108 102 0
20.460000 2.420000 9.680000 177 108 100 0
20.680000 2.420000 9.680000 178 109 101 0
20.900000 2.420000 9.680000 178 109 101 0
21.120000 2.420000 9.680000 180 111 103 0
21.340000 2.420000 9.240000 180 111 103 0
21.560000 2.420000 10.120000 181 112 104 0
21.780000 2.420000 11.000000 182 113 105 0
22.000000 2.420000 11.000000 183 114 106 0
22.220000 2.420000 11.220000 183 114 106 0
22.440000 2.420000 11.220000 186 117 109 0
22.660000 2.420000 11.220000 186 116 111 0
22.880000 2.420000 11.220000 187 117 112 0
23.100000 2.420000 11.220000 187 119 113 0
23.320000 2.420000 11.220000 188 120 114 0
23.540000 2.420000 11.220000 189 121 113 0
23.760000 2.420000 11.220000 187 119 111 0
23.980000 2.420000 11.440000 191 116 108 0
24.200000 2.420000 10.560000 189 114 106 0
24.420000 2.420000 10.560000 190 111 101 0
24.640000 2.420000 10.560000 187 108 98 0
24.860000 2.420000 10.780000 186 107 97 0
25.080000 2.420000 10.780000 187 108 98 0
25.300000 2.420000 9.240000 187 108 96 0
25.520000 2.420000 9.240000 186 107 95 0
25.740000 2.420000 9.240000 187 106 97 0
25.960000 2.420000 9.240000 187 106 97 0
26.180000 2.420000 9.460000 186 106 94 0
26.400000 2.420000 9.460000 186 106 94 0
26.620000 2.420000 9.460000 185 105 93 0
26.840000 2.420000 9.460000 184 104 92 0
27.060000 2.420000 10.780000 185 102 91 0
27.280000 2.420000 12.320000 185 102 91 0
27.500000 2.420000 12.320000 185 100 90 0
27.720000 2.420000 12.320000 185 100 90 0
27.940000 2.420000 12.320000 185 100 90 0
28.160000 2.420000 13.200000 184 99 89 0
28.380000 2.420000 15.840000 184 99 89 0
28.600000 2.420000 15.840000 184 99 89 0
28.820000 2.420000 15.840000 185 97 88 0
29.040000 2.420000 15.840000 187 99 90 0
29.260000 2.420000 17.160000 186 98 89 0
29.480000 2.420000 19.580000 191 103 94 0
29.700000 2.420000 19.580000 191 106 96 0
29.920000 2.420000 18.260000 193 108 98 0
30.140000 2.420000 17.380000 192 107 97 0
30.360000 2.420000 15.840000 189 104 94 0
30.580000 2.420000 17.160000 189 101 92 0
30.800000 2.420000 17.380000 186 98 89 0
31.020000 2.420000 16.280000 185 96 87 0
31.240000 2.420000 14.960000 184 95 86 0
31.460000 2.420000 13.420000 184 95 86 0
31.680000 2.420000 14.740000 183 94 85 0
31.900000 2.420000 16.060000 182 94 85 0
32.120000 2.420000 16.060000 182 94 85 0
32.340000 2.420000 17.600000 181 92 83 0
32.560000 2.420000 17.820000 178 89 80 0
32.780000 2.420000 18.920000 177 88 79 0
33.000000 2.420000 21.120000 175 86 77 0
33.220000 2.420000 22.220000 175 86 77 0
33.440000 2.420000 22.220000 175 86 77 0
33.660000 2.420000 22.220000 176 86 80 0
33.880000 2.420000 22.220000 177 87 81 0
34.100000 2.420000 22.220000 180 91 82 0
34.320000 2.420000 22.440000 184 95 86 0
34.540000 2.420000 22.440000 187 100 86 0
34.760000 2.420000 23.760000 195 108 94 0
34.980000 2.420000 23.980000 198 113 90 0
35.200000 2.420000 23.980000 201 116 93 0
35.420000 2.420000 23.980000 205 119 99 0
35.640000 2.420000 21.120000 205 119 99 0
35.860000 2.420000 19.800000 201 118 95 0
36.080000 2.420000 17.160000 195 112 89 0
36.300000 2.420000 15.620000 193 107 91 0
36.520000 2.420000 14.300000 180 94 78 0
36.740000 2.420000 15.840000 171 81 68 0
36.960000 2.420000 15.840000 168 78 65 0
37.180000 2.420000 15.840000 167 73 66 0
0.000000 2.640000 1.980000 193 192 185 0
0.220000 2.640000 1.760000 185 174 165 0
0.440000 2.640000 1.540000 173 162 153 0
0.660000 2.640000 2.860000 173 158 146 0
0.880000 2.640000 5.720000 165 150 138 0
1.100000 2.640000 3.080000 163 146 133 0
1.320000 2.640000 1.760000 160 143 130 0
1.540000 2.640000 4.620000 158 140 123 0
1.760000 2.640000 5.940000 155 137 120 0
1.980000 2.640000 5.940000 154 134 118 0
2.200000 2.640000 4.620000 152 132 116 0
2.420000 2.640000 4.620000 153 131 115 0
2.640000 2.640000 4.620000 151 129 113 0
2.860000 2.640000 4.620000 151 124 110 0
3.080000 2.640000 4.620000 150 123 109 0
3.300000 2.640000 4.620000 151 125 108 0
3.520000 2.640000 4.620000 150 124 107 0
3.740000 2.640000 4.400000 149 123 106 0
3.960000 2.640000 4.400000 148 122 105 0
4.180000 2.640000 4.400000 150 121 108 0
4.400000 2.640000 4.620000 147 118 105 0
4.620000 2.640000 3.300000 147 119 103 0
4.840000 2.640000 3.520000 147 119 103 0
5.060000 2.640000 4.620000 146 118 101 0
5.280000 2.640000 4.620000 147 119 102 0
5.500000 2.640000 4.620000 147 117 101 0
5.720000 2.640000 4.620000 146 116 100 0
5.940000 2.640000 5.720000 146 117 104 0
6.160000 2.640000 7.040000 144 115 102 0
6.380000 2.640000 7.040000 145 115 99 0
6.600000 2.640000 7.040000 145 115 99 0
6.820000 2.640000 7.040000 145 115 99 0
7.040000 2.640000 8.360000 145 115 99 0
7.260000 2.640000 7.260000 145 113 97 0
7.480000 2.640000 7.480000 146 114 98 0
7.700000 2.640000 8.580000 143 113 98 0
7.920000 2.640000 8.360000 143 113 98 0
8.140000 2.640000 8.360000 145 113 95 0
8.360000 2.640000 8.360000 145 113 95 0
8.580000 2.640000 8.360000 147 111 94 0
8.800000 2.640000 8.360000 147 111 94 0
9.020000 2.640000 8.360000 146 112 95 0
9.240000 2.640000 8.360000 145 111 94 0
9.460000 2.640000 9.680000 145 111 96 0
9.680000 2.640000 9.680000 144 110 95 0
9.900000 2.640000 8.360000 146 110 93 0
10.120000 2.640000 8.360000 146 110 93 0
10.340000 2.640000 8.360000 147 109 93 0
10.560000 2.640000 8.360000 147 109 93 0
10.780000 2.640000 8.360000 145 109 92 0
11.000000 2.640000 8.360000 145 109 92 0
11.220000 2.640000 8.360000 146 109 95 0
11.440000 2.640000 8.360000 145 108 94 0
11.660000 2.640000 9.680000 146 108 92 0
11.880000 2.640000 11.220000 146 108 92 0
12.100000 2.640000 12.540000 146 106 91 0
12.320000 2.640000 13.860000 147 107 92 0
12.540000 2.640000 14.080000 146 108 92 0
12.760000 2.640000 12.980000 145 107 91 0
12.980000 2.640000 13.200000 147 107 92 0
13.200000 2.640000 13.420000 146 106 91 0
13.420000 2.640000 12.320000 145 107 89 0
13.640000 2.640000 12.320000 146 108 90 0
13.860000 2.640000 12.100000 148 105 91 0
14.080000 2.640000 12.100000 150 107 93 0
14.300000 2.640000 10.560000 152 108 94 0
14.520000 2.640000 9.240000 152 108 94 0
14.740000 2.640000 9.240000 162 108 95 0
14.960000 2.640000 9.460000 163 109 96 0
15.180000 2.640000 7.920000 164 106 97 0
15.400000 2.640000 8.140000 165 107 98 0
15.620000 2.640000 5.280000 165 107 98 0
15.840000 2.640000 3.960000 165 107 98 0
16.060000 2.640000 1.320000 167 106 96 0
16.280000 2.640000 1.320000 167 106 96 0
17.160000 2.640000 1.320000 171 106 97 0
17.380000 2.640000 2.640000 169 106 96 0
17.600000 2.640000 5.280000 168 105 95 0
17.820000 2.640000 8.800000 171 106 97 0
18.040000 2.640000 8.800000 169 104 95 0
18.260000 2.640000 9.240000 168 104 97 0
18.480000 2.640000 9.680000 169 105 98 0
18.700000 2.640000 9.460000 172 104 96 0
18.920000 2.640000 9.460000 173 105 97 0
19.140000 2.640000 9.680000 173 105 97 0
19.360000 2.640000 9.680000 174 106 98 0
19.580000 2.640000 9.460000 174 106 98 0
19.800000 2.640000 10.780000 174 106 98 0
20.020000 2.640000 10.780000 176 108 102 0
20.240000 2.640000 9.460000 174 106 100 0
20.460000 2.640000 9.680000 177 108 100 0
20.680000 2.640000 9.680000 178 109 101 0
20.900000 2.640000 9.680000 178 109 101 0
21.120000 2.640000 8.140000 178 109 101 0
21.340000 2.640000 9.240000 181 112 104 0
21.560000 2.640000 10.120000 181 112 104 0
21.780000 2.640000 11.000000 181 112 104 0
22.000000 2.640000 11.000000 183 114 106 0
22.220000 2.640000 11.220000 184 115 107 0
22.440000 2.640000 11.220000 185 116 108 0
22.660000 2.640000 11.220000 186 116 111 0
22.880000 2.640000 9.680000 187 117 112 0
23.100000 2.640000 9.680000 186 118 112 0
23.320000 2.640000 11.220000 188 120 114 0
23.540000 2.640000 11.220000 188 120 112 0
23.760000 2.640000 11.440000 185 117 109 0
23.980000 2.640000 10.340000 189 114 106 0
24.200000 2.640000 10.560000 185 110 102 0
24.420000 2.640000 10.560000 187 108 98 0
24.640000 2.640000 10.780000 185 106 96 0
24.860000 2.640000 10.780000 185 106 96 0
25.080000 2.640000 9.240000 185 106 96 0
25.300000 2.640000 9.240000 185 106 94 0
25.520000 2.640000 9.240000 186 107 95 0
25.740000 2.640000 9.240000 186 105 96 0
25.960000 2.640000 9.240000 186 105 96 0
26.180000 2.640000 9.460000 185 105 93 0
26.400000 2.640000 9.460000 185 105 93 0
26.620000 2.640000 9.460000 183 103 91 0
26.840000 2.640000 9.460000 183 103 91 0
27.060000 2.640000 9.460000 184 101 90 0
27.280000 2.640000 11.000000 184 101 90 0
27.500000 2.640000 11.000000 185 100 90 0
27.720000 2.640000 11.000000 184 99 89 0
27.940000 2.640000 12.320000 184 99 89 0
28.160000 2.640000 13.200000 183 98 88 0
28.380000 2.640000 14.300000 183 98 88 0
28.600000 2.640000 14.300000 182 97 87 0
28.820000 2.640000 15.840000 184 96 87 0
29.040000 2.640000 15.840000 184 96 87 0
29.260000 2.640000 15.840000 184 96 87 0
29.480000 2.640000 18.260000 183 95 86 0
29.700000 2.640000 18.260000 182 97 87 0
29.920000 2.640000 16.940000 183 98 88 0
30.140000 2.640000 15.840000 186 101 91 0
30.360000 2.640000 15.840000 186 101 91 0
30.580000 2.640000 16.940000 186 98 89 0
30.800000 2.640000 17.160000 184 96 87 0
31.020000 2.640000 16.060000 183 94 85 0
31.240000 2.640000 14.960000 182 93 84 0
31.460000 2.640000 14.960000 181 92 83 0
31.680000 2.640000 14.740000 184 95 86 0
31.900000 2.640000 16.060000 183 95 86 0
32.120000 2.640000 16.060000 183 95 86 0
32.340000 2.640000 16.280000 181 92 83 0
32.560000 2.640000 16.500000 179 90 81 0
32.780000 2.640000 18.920000 177 88 79 0
33.000000 2.640000 21.120000 174 85 76 0
33.220000 2.640000 22.220000 174 85 76 0
33.440000 2.640000 22.220000 174 85 76 0
33.660000 2.640000 20.900000 174 84 78 0
33.880000 2.640000 20.900000 175 85 79 0
34.100000 2.640000 20.900000 177 88 79 0
34.320000 2.640000 20.900000 178 89 80 0
34.540000 2.640000 21.120000 181 94 80 0
34.760000 2.640000 22.440000 185 98 84 0
34.980000 2.640000 23.760000 192 107 84 0
35.200000 2.640000 23.980000 196 111 88 0
35.420000 2.640000 23.980000 196 110 90 0
35.640000 2.640000 21.120000 198 112 92 0
35.860000 2.640000 19.800000 198 115 92 0
36.080000 2.640000 17.160000 195 112 89 0
36.300000 2.640000 15.620000 193 107 91 0
36.520000 2.640000 15.840000 184 98 82 0
36.740000 2.640000 15.840000 177 87 74 0
36.960000 2.640000 15.840000 169 79 66 0
37.180000 2.640000 17.160000 166 72 65 0
0.000000 2.860000 0.660000 191 182 180 0
0.220000 2.860000 1.760000 186 167 155 0
0.440000 2.860000 1.540000 174 155 143 0
0.660000 2.860000 5.720000 170 145 135 0
0.880000 2.860000 11.440000 166 141 131 0
1.100000 2.860000 5.940000 161 137 122 0
1.320000 2.860000 1.760000 158 134 119 0
1.540000 2.860000 4.620000 157 129 113 0
1.760000 2.860000 5.940000 155 127 111 0
1.980000 2.860000 5.940000 154 126 110 0
2.200000 2.860000 4.620000 151 123 107 0
2.420000 2.860000 4.620000 149 119 104 0
2.640000 2.860000 4.620000 147 117 102 0
2.860000 2.860000 3.300000 149 119 104 0
3.080000 2.860000 3.300000 146 116 101 0
3.300000 2.860000 3.300000 148 118 102 0
3.520000 2.860000 3.080000 147 117 101 0
3.740000 2.860000 3.080000 146 116 101 0
3.960000 2.860000 4.400000 146 116 101 0
4.180000 2.860000 4.400000 145 115 100 0
4.400000 2.860000 4.400000 146 116 101 0
4.620000 2.860000 4.400000 148 116 100 0
4.840000 2.860000 4.620000 146 114 98 0
5.060000 2.860000 4.400000 144 114 98 0
5.280000 2.860000 5.720000 143 113 97 0
5.500000 2.860000 5.720000 146 113 99 0
5.720000 2.860000 5.720000 145 112 98 0
5.940000 2.860000 5.720000 145 113 97 0
6.160000 2.860000 7.040000 145 113 97 0
6.380000 2.860000 7.040000 144 112 96 0
6.600000 2.860000 7.040000 144 112 96 0
6.820000 2.860000 7.040000 144 112 96 0
7.040000 2.860000 7.040000 144 112 96 0
7.260000 2.860000 7.040000 144 110 95 0
7.480000 2.860000 7.040000 145 111 96 0
7.700000 2.860000 7.040000 145 111 96 0
7.920000 2.860000 7.040000 144 110 95 0
8.140000 2.860000 7.040000 143 109 92 0
8.360000 2.860000 8.360000 144 110 93 0
8.580000 2.860000 8.360000 146 110 93 0
8.800000 2.860000 8.360000 146 110 93 0
9.020000 2.860000 8.360000 146 109 95 0
9.240000 2.860000 8.360000 145 108 94 0
9.460000 2.860000 8.360000 144 107 93 0
9.680000 2.860000 8.360000 145 108 94 0
9.900000 2.860000 8.360000 146 108 92 0
10.120000 2.860000 8.360000 146 108 92 0
10.340000 2.860000 8.360000 145 107 91 0
10.560000 2.860000 8.360000 145 107 91 0
10.780000 2.860000 8.360000 146 106 91 0
11.000000 2.860000 8.360000 146 106 91 0
11.220000 2.860000 8.360000 145 107 93 0
11.440000 2.860000 8.360000 146 108 94 0
11.660000 2.860000 9.680000 145 105 90 0
11.880000 2.860000 11.220000 145 105 90 0
12.100000 2.860000 13.860000 145 105 90 0
12.320000 2.860000 13.860000 146 106 91 0
12.540000 2.860000 14.080000 148 106 89 0
12.760000 2.860000 11.880000 148 106 89 0
12.980000 2.860000 12.100000 145 105 92 0
13.200000 2.860000 10.780000 145 105 92 0
13.420000 2.860000 10.780000 144 104 89 0
13.640000 2.860000 11.000000 144 104 89 0
13.860000 2.860000 9.460000 147 104 90 0
14.080000 2.860000 9.240000 147 104 90 0
14.300000 2.860000 7.920000 151 104 89 0
14.520000 2.860000 7.920000 153 106 91 0
14.740000 2.860000 7.920000 162 104 95 0
14.960000 2.860000 7.920000 164 106 97 0
15.180000 2.860000 8.140000 166 107 96 0
15.400000 2.860000 6.600000 165 106 95 0
15.620000 2.860000 3.960000 169 104 95 0
15.840000 2.860000 2.640000 169 104 95 0
16.060000 2.860000 1.320000 169 104 97 0
16.280000 2.860000 1.320000 170 105 98 0
16.500000 2.860000 1.100000 168 104 97 0
16.720000 2.860000 1.100000 167 103 96 0
16.940000 2.860000 1.100000 167 104 94 0
17.160000 2.860000 2.640000 169 106 96 0
17.380000 2.860000 3.960000 172 104 96 0
17.600000 2.860000 7.700000 171 103 95 0
17.820000 2.860000 9.900000 169 104 95 0
18.040000 2.860000 10.120000 169 104 95 0
18.260000 2.860000 9.240000 169 104 97 0
18.480000 2.860000 9.460000 170 105 98 0
18.700000 2.860000 9.460000 173 104 94 0
18.920000 2.860000 9.460000 173 104 94 0
19.140000 2.860000 9.680000 174 105 97 0
19.360000 2.860000 9.680000 174 105 97 0
19.580000 2.860000 11.000000 175 103 99 0
19.800000 2.860000 10.780000 176 104 100 0
20.020000 2.860000 10.780000 176 105 98 0
20.240000 2.860000 9.460000 178 107 100 0
20.460000 2.860000 9.680000 178 107 98 0
20.680000 2.860000 9.680000 178 107 98 0
20.900000 2.860000 8.140000 179 108 101 0
21.120000 2.860000 9.460000 180 109 102 0
21.340000 2.860000 9.020000 181 109 105 0
21.560000 2.860000 9.900000 182 110 106 0
21.780000 2.860000 11.000000 183 112 105 0
22.000000 2.860000 11.220000 184 113 106 0
22.220000 2.860000 11.220000 185 113 109 0
22.440000 2.860000 9.680000 186 114 110 0
22.660000 2.860000 9.900000 186 116 113 0
22.880000 2.860000 9.680000 187 117 114 0
23.100000 2.860000 9.680000 188 116 112 0
23.320000 2.860000 11.220000 189 117 113 0
23.540000 2.860000 11.440000 189 115 109 0
23.760000 2.860000 10.340000 187 113 107 0
23.980000 2.860000 10.560000 188 109 99 0
24.200000 2.860000 10.560000 186 107 97 0
24.420000 2.860000 10.780000 187 106 97 0
24.640000 2.860000 10.780000 186 105 96 0
24.860000 2.860000 9.460000 185 104 95 0
25.080000 2.860000 9.460000 186 105 96 0
25.300000 2.860000 9.240000 187 104 93 0
25.520000 2.860000 9.240000 189 106 95 0
25.740000 2.860000 9.240000 187 104 93 0
25.960000 2.860000 9.460000 186 103 92 0
26.180000 2.860000 9.460000 187 102 92 0
26.400000 2.860000 9.460000 185 100 90 0
26.620000 2.860000 9.460000 184 99 89 0
26.840000 2.860000 9.460000 184 99 89 0
27.060000 2.860000 9.460000 185 100 90 0
27.280000 2.860000 9.680000 184 99 89 0
27.500000 2.860000 9.680000 185 97 88 0
27.720000 2.860000 11.000000 185 97 88 0
27.940000 2.860000 12.100000 186 97 88 0
28.160000 2.860000 12.980000 185 96 87 0
28.380000 2.860000 14.080000 184 95 86 0
28.600000 2.860000 15.620000 184 95 86 0
28.820000 2.860000 15.620000 184 95 86 0
29.040000 2.860000 15.620000 184 95 86 0
29.260000 2.860000 15.840000 183 94 85 0
29.480000 2.860000 15.620000 183 94 85 0
29.700000 2.860000 16.940000 182 93 84 0
29.920000 2.860000 16.940000 184 95 86 0
30.140000 2.860000 15.620000 184 95 86 0
30.360000 2.860000 15.620000 185 96 87 0
30.580000 2.860000 16.720000 184 95 86 0
30.800000 2.860000 16.940000 182 93 84 0
31.020000 2.860000 17.160000 182 93 84 0
31.240000 2.860000 16.280000 180 91 82 0
31.460000 2.860000 14.960000 180 91 82 0
31.680000 2.860000 14.740000 182 93 84 0
31.900000 2.860000 16.060000 183 94 85 0
32.120000 2.860000 16.060000 184 95 86 0
32.340000 2.860000 16.280000 183 94 85 0
32.560000 2.860000 16.500000 180 91 82 0
