ply
format ascii 1.0
element vertex 1151
property float x
property float y
property float z
property uchar red
property uchar green
property uchar blue
property uchar alpha
end_header
20.900000 32.120000 20.680000 162 78 73 0
21.120000 32.120000 23.320000 161 77 72 0
21.340000 32.120000 24.640000 162 78 73 0
21.560000 32.120000 25.960000 162 78 73 0
21.780000 32.120000 25.960000 163 79 74 0
22.000000 32.120000 27.500000 163 79 74 0
22.220000 32.120000 28.820000 165 79 75 0
22.440000 32.120000 30.360000 163 77 73 0
22.660000 32.120000 30.360000 164 78 74 0
22.880000 32.120000 30.360000 164 78 74 0
23.100000 32.120000 31.680000 166 81 74 0
23.320000 32.120000 31.680000 166 81 74 0
23.540000 32.120000 31.680000 168 80 74 0
23.760000 32.120000 33.000000 170 82 76 0
23.980000 32.120000 34.100000 169 81 75 0
24.200000 32.120000 35.420000 171 83 77 0
24.420000 32.120000 35.420000 171 83 77 0
24.640000 32.120000 35.420000 171 83 77 0
24.860000 32.120000 35.640000 172 84 78 0
25.080000 32.120000 36.740000 173 85 79 0
25.300000 32.120000 38.940000 173 85 78 0
25.520000 32.120000 38.720000 174 86 79 0
25.740000 32.120000 38.940000 175 87 80 0
25.960000 32.120000 37.620000 176 88 81 0
26.180000 32.120000 37.620000 177 89 80 0
26.400000 32.120000 38.940000 178 90 81 0
26.620000 32.120000 40.260000 179 91 84 0
26.840000 32.120000 40.480000 181 93 86 0
27.060000 32.120000 39.600000 181 93 84 0
27.280000 32.120000 40.040000 182 94 85 0
27.500000 32.120000 32.780000 184 96 87 0
27.720000 32.120000 14.520000 184 96 87 0
27.940000 32.120000 0.880000 182 97 87 0
28.380000 32.120000 0.220000 185 100 92 0
28.600000 32.120000 1.320000 186 101 93 0
28.820000 32.120000 1.540000 187 102 92 0
29.040000 32.120000 1.540000 187 102 92 0
29.260000 32.120000 1.540000 188 105 94 0
29.480000 32.120000 2.860000 187 104 93 0
29.700000 32.120000 2.860000 189 104 94 0
29.920000 32.120000 1.540000 188 103 93 0
30.140000 32.120000 1.540000 189 101 94 0
30.360000 32.120000 4.180000 189 101 94 0
30.580000 32.120000 13.860000 188 100 91 0
30.800000 32.120000 26.400000 188 100 91 0
31.020000 32.120000 34.760000 187 99 90 0
31.240000 32.120000 38.940000 187 99 90 0
31.460000 32.120000 33.440000 187 99 90 0
31.680000 32.120000 15.620000 185 97 88 0
31.900000 32.120000 1.760000 186 96 90 0
34.760000 32.120000 0.440000 185 94 86 0
34.980000 32.120000 1.540000 185 94 86 0
35.200000 32.120000 2.860000 185 94 86 0
35.420000 32.120000 2.860000 186 95 87 0
35.640000 32.120000 4.400000 186 95 87 0
35.860000 32.120000 4.400000 186 95 87 0
36.080000 32.120000 4.620000 186 95 87 0
36.300000 32.120000 4.620000 188 97 89 0
36.520000 32.120000 3.520000 188 97 89 0
36.740000 32.120000 3.520000 188 97 89 0
36.960000 32.120000 3.300000 190 99 91 0
37.180000 32.120000 3.300000 191 100 92 0
0.000000 32.340000 10.120000 148 115 105 0
0.220000 32.340000 8.800000 149 116 106 0
0.440000 32.340000 8.800000 148 115 105 0
0.660000 32.340000 7.480000 148 115 105 0
0.880000 32.340000 8.800000 148 115 105 0
1.100000 32.340000 8.580000 148 113 104 0
1.320000 32.340000 8.580000 148 113 104 0
1.540000 32.340000 8.580000 148 115 105 0
1.760000 32.340000 8.580000 147 114 104 0
1.980000 32.340000 7.040000 147 112 103 0
2.200000 32.340000 7.040000 148 113 104 0
2.420000 32.340000 7.480000 148 113 104 0
2.640000 32.340000 9.460000 146 111 102 0
2.860000 32.340000 12.320000 146 111 104 0
3.080000 32.340000 16.500000 146 111 104 0
3.300000 32.340000 19.140000 146 111 102 0
3.520000 32.340000 21.780000 144 109 100 0
3.740000 32.340000 23.100000 145 110 101 0
3.960000 32.340000 24.420000 144 109 100 0
4.180000 32.340000 24.420000 143 108 99 0
4.400000 32.340000 25.740000 143 108 99 0
4.620000 32.340000 25.740000 145 107 99 0
4.840000 32.340000 27.280000 147 109 101 0
5.060000 32.340000 30.140000 145 110 101 0
5.280000 32.340000 32.780000 147 112 103 0
5.500000 32.340000 34.320000 145 110 101 0
5.720000 32.340000 35.640000 144 109 100 0
5.940000 32.340000 35.640000 148 104 98 0
6.160000 32.340000 35.860000 145 101 95 0
6.380000 32.340000 37.180000 152 101 93 0
6.600000 32.340000 38.500000 151 100 92 0
6.820000 32.340000 31.680000 157 99 92 0
7.040000 32.340000 13.860000 157 99 92 0
7.260000 32.340000 1.320000 161 95 91 0
7.480000 32.340000 1.100000 160 94 90 0
7.700000 32.340000 3.300000 158 92 88 0
7.920000 32.340000 5.720000 158 92 88 0
8.140000 32.340000 5.500000 160 92 86 0
8.360000 32.340000 4.180000 159 91 85 0
8.580000 32.340000 4.180000 157 89 83 0
8.800000 32.340000 4.180000 158 90 84 0
9.020000 32.340000 5.500000 158 88 83 0
9.240000 32.340000 7.040000 157 87 82 0
9.460000 32.340000 8.360000 156 86 81 0
9.680000 32.340000 9.680000 156 86 81 0
9.900000 32.340000 9.680000 156 84 80 0
10.120000 32.340000 9.680000 156 84 80 0
10.340000 32.340000 8.580000 156 84 80 0
10.560000 32.340000 6.380000 155 83 79 0
10.780000 32.340000 5.060000 155 83 79 0
11.000000 32.340000 4.400000 155 83 79 0
11.220000 32.340000 4.180000 154 82 78 0
11.440000 32.340000 4.180000 155 83 79 0
11.660000 32.340000 3.300000 157 83 79 0
11.880000 32.340000 2.420000 156 82 78 0
12.100000 32.340000 2.420000 156 82 78 0
12.320000 32.340000 3.300000 155 81 77 0
12.540000 32.340000 3.300000 155 81 77 0
12.760000 32.340000 2.420000 156 82 78 0
12.980000 32.340000 1.320000 155 81 77 0
13.200000 32.340000 2.420000 156 82 78 0
13.420000 32.340000 2.200000 156 80 77 0
13.640000 32.340000 2.420000 155 79 76 0
13.860000 32.340000 2.640000 156 80 77 0
14.080000 32.340000 2.640000 155 79 76 0
14.300000 32.340000 2.640000 155 79 76 0
14.520000 32.340000 2.640000 155 79 76 0
14.740000 32.340000 2.640000 155 79 74 0
14.960000 32.340000 2.640000 154 78 73 0
15.180000 32.340000 2.640000 157 79 74 0
15.400000 32.340000 3.960000 157 79 74 0
15.620000 32.340000 3.960000 155 76 74 0
15.840000 32.340000 3.960000 156 77 75 0
16.060000 32.340000 4.180000 156 77 75 0
16.280000 32.340000 4.180000 157 78 76 0
16.500000 32.340000 4.180000 155 77 72 0
16.720000 32.340000 3.960000 156 78 73 0
16.940000 32.340000 3.960000 158 78 74 0
17.160000 32.340000 3.960000 158 78 74 0
17.380000 32.340000 3.960000 157 77 73 0
17.600000 32.340000 5.500000 157 77 73 0
17.820000 32.340000 6.820000 157 77 73 0
18.040000 32.340000 8.140000 157 77 73 0
18.260000 32.340000 11.000000 157 77 71 0
18.480000 32.340000 11.000000 157 77 71 0
18.700000 32.340000 10.780000 156 76 70 0
18.920000 32.340000 9.460000 158 78 72 0
19.140000 32.340000 8.140000 159 77 74 0
19.360000 32.340000 6.820000 159 77 74 0
19.580000 32.340000 8.140000 157 75 72 0
19.800000 32.340000 9.460000 158 76 73 0
20.020000 32.340000 12.320000 158 76 73 0
20.240000 32.340000 16.500000 157 75 72 0
20.460000 32.340000 19.140000 158 77 71 0
20.680000 32.340000 19.140000 159 78 72 0
20.900000 32.340000 20.680000 159 78 72 0
21.120000 32.340000 20.460000 160 79 73 0
21.340000 32.340000 21.780000 161 77 72 0
21.560000 32.340000 21.780000 161 77 72 0
21.780000 32.340000 22.000000 163 79 74 0
22.000000 32.340000 24.640000 162 78 73 0
22.220000 32.340000 27.500000 162 78 73 0
22.440000 32.340000 28.820000 163 79 74 0
22.660000 32.340000 28.820000 164 79 72 0
22.880000 32.340000 30.360000 165 80 73 0
23.100000 32.340000 30.360000 164 79 72 0
23.320000 32.340000 31.680000 165 80 73 0
23.540000 32.340000 31.680000 165 80 73 0
23.760000 32.340000 31.680000 166 81 74 0
23.980000 32.340000 33.000000 167 82 75 0
24.200000 32.340000 34.100000 169 84 77 0
24.420000 32.340000 35.420000 170 82 76 0
24.640000 32.340000 34.320000 171 83 77 0
24.860000 32.340000 34.540000 170 82 75 0
25.080000 32.340000 35.640000 172 84 77 0
25.300000 32.340000 39.160000 173 85 79 0
25.520000 32.340000 38.720000 173 85 79 0
25.740000 32.340000 38.940000 173 85 78 0
25.960000 32.340000 37.620000 177 89 82 0
26.180000 32.340000 37.620000 175 87 80 0
26.400000 32.340000 38.940000 178 90 83 0
26.620000 32.340000 38.720000 179 91 84 0
26.840000 32.340000 40.260000 179 91 84 0
27.060000 32.340000 39.160000 180 92 85 0
27.280000 32.340000 39.600000 181 93 86 0
27.500000 32.340000 38.060000 182 94 85 0
27.720000 32.340000 29.480000 184 96 87 0
27.940000 32.340000 12.760000 184 96 89 0
28.160000 32.340000 3.080000 185 97 90 0
28.600000 32.340000 1.320000 185 100 92 0
28.820000 32.340000 1.540000 186 101 93 0
29.040000 32.340000 1.540000 186 101 93 0
29.260000 32.340000 1.540000 188 103 93 0
29.480000 32.340000 2.860000 188 103 93 0
29.700000 32.340000 2.860000 189 104 96 0
29.920000 32.340000 2.860000 188 103 95 0
30.140000 32.340000 2.860000 188 103 95 0
30.360000 32.340000 1.540000 188 103 95 0
30.580000 32.340000 4.180000 189 101 94 0
30.800000 32.340000 8.360000 190 102 95 0
31.020000 32.340000 15.400000 187 102 92 0
31.240000 32.340000 29.260000 187 102 92 0
31.460000 32.340000 37.620000 188 100 93 0
31.680000 32.340000 26.620000 186 98 91 0
31.900000 32.340000 7.260000 188 100 93 0
34.760000 32.340000 0.440000 184 95 86 0
34.980000 32.340000 1.540000 184 95 86 0
35.200000 32.340000 1.540000 185 96 87 0
35.420000 32.340000 2.860000 186 95 87 0
35.640000 32.340000 3.080000 186 95 87 0
35.860000 32.340000 4.400000 186 95 87 0
36.080000 32.340000 4.620000 187 96 88 0
36.300000 32.340000 4.620000 186 97 88 0
36.520000 32.340000 4.840000 187 98 89 0
36.740000 32.340000 3.520000 188 99 90 0
36.960000 32.340000 3.300000 190 101 92 0
37.180000 32.340000 3.300000 190 100 94 0
0.000000 32.560000 10.120000 149 116 106 0
0.220000 32.560000 8.800000 147 114 104 0
0.440000 32.560000 8.800000 148 115 105 0
0.660000 32.560000 7.480000 148 115 105 0
0.880000 32.560000 8.800000 147 114 104 0
1.100000 32.560000 8.580000 148 113 104 0
1.320000 32.560000 8.580000 148 113 104 0
1.540000 32.560000 8.580000 147 114 104 0
1.760000 32.560000 8.580000 147 114 104 0
1.980000 32.560000 7.040000 148 113 104 0
2.200000 32.560000 5.720000 148 113 104 0
2.420000 32.560000 5.940000 147 112 103 0
2.640000 32.560000 5.280000 146 111 102 0
2.860000 32.560000 6.820000 146 111 104 0
3.080000 32.560000 9.680000 145 110 103 0
3.300000 32.560000 15.180000 146 111 102 0
3.520000 32.560000 19.140000 143 108 99 0
3.740000 32.560000 23.100000 144 109 100 0
3.960000 32.560000 24.420000 144 109 100 0
4.180000 32.560000 24.420000 142 107 98 0
4.400000 32.560000 24.420000 143 108 99 0
4.620000 32.560000 25.740000 144 106 98 0
4.840000 32.560000 27.280000 144 106 98 0
5.060000 32.560000 28.600000 143 108 99 0
5.280000 32.560000 31.460000 144 109 100 0
5.500000 32.560000 35.640000 144 109 100 0
5.720000 32.560000 36.960000 144 109 100 0
5.940000 32.560000 37.180000 149 105 99 0
6.160000 32.560000 37.180000 146 102 96 0
6.380000 32.560000 37.180000 150 99 91 0
6.600000 32.560000 38.500000 152 101 93 0
6.820000 32.560000 37.180000 157 99 92 0
7.040000 32.560000 24.860000 157 99 92 0
7.260000 32.560000 6.820000 160 94 90 0
7.700000 32.560000 2.200000 158 92 88 0
7.920000 32.560000 4.400000 158 92 88 0
8.140000 32.560000 5.500000 160 92 86 0
8.360000 32.560000 4.180000 159 91 85 0
8.580000 32.560000 2.860000 159 91 85 0
8.800000 32.560000 2.860000 157 89 83 0
9.020000 32.560000 4.180000 158 88 83 0
9.240000 32.560000 5.500000 158 88 83 0
9.460000 32.560000 8.360000 157 87 82 0
9.680000 32.560000 8.360000 156 86 81 0
9.900000 32.560000 9.680000 155 83 79 0
10.120000 32.560000 9.680000 156 84 80 0
10.340000 32.560000 8.580000 155 83 79 0
10.560000 32.560000 5.280000 156 84 80 0
10.780000 32.560000 3.740000 155 83 79 0
11.000000 32.560000 4.400000 154 82 78 0
11.220000 32.560000 4.180000 155 83 79 0
11.440000 32.560000 4.180000 154 82 78 0
11.660000 32.560000 3.080000 156 82 78 0
11.880000 32.560000 2.420000 157 83 79 0
12.100000 32.560000 2.640000 156 82 78 0
12.320000 32.560000 2.420000 155 81 77 0
12.540000 32.560000 2.420000 156 82 78 0
12.760000 32.560000 1.320000 156 82 78 0
12.980000 32.560000 1.320000 155 81 77 0
13.200000 32.560000 1.320000 154 80 76 0
13.420000 32.560000 1.100000 154 78 75 0
13.640000 32.560000 2.640000 154 78 75 0
13.860000 32.560000 2.640000 154 78 75 0
14.080000 32.560000 2.640000 154 78 75 0
14.300000 32.560000 2.640000 155 79 76 0
14.520000 32.560000 3.960000 155 79 76 0
14.740000 32.560000 3.960000 154 78 73 0
14.960000 32.560000 2.640000 155 79 74 0
15.180000 32.560000 2.640000 158 80 75 0
15.400000 32.560000 2.640000 156 78 73 0
15.620000 32.560000 2.640000 155 76 74 0
15.840000 32.560000 2.640000 155 76 74 0
16.060000 32.560000 2.640000 155 76 74 0
16.280000 32.560000 3.960000 155 76 74 0
16.500000 32.560000 3.960000 156 78 73 0
16.720000 32.560000 3.960000 156 78 73 0
16.940000 32.560000 3.960000 158 78 74 0
17.160000 32.560000 3.960000 156 76 72 0
17.380000 32.560000 5.500000 157 77 73 0
17.600000 32.560000 5.280000 156 76 72 0
17.820000 32.560000 6.820000 156 76 72 0
18.040000 32.560000 9.460000 156 76 72 0
18.260000 32.560000 11.000000 158 78 72 0
18.480000 32.560000 10.780000 157 77 71 0
18.700000 32.560000 9.460000 156 76 70 0
18.920000 32.560000 8.140000 157 77 71 0
19.140000 32.560000 6.820000 158 76 73 0
19.360000 32.560000 6.820000 158 76 73 0
19.580000 32.560000 6.820000 157 75 72 0
19.800000 32.560000 6.820000 158 76 73 0
20.020000 32.560000 11.000000 158 76 73 0
20.240000 32.560000 16.500000 158 76 73 0
20.460000 32.560000 19.140000 159 78 72 0
20.680000 32.560000 19.140000 158 77 71 0
20.900000 32.560000 19.140000 158 77 71 0
21.120000 32.560000 19.140000 159 78 72 0
21.340000 32.560000 19.140000 160 76 71 0
21.560000 32.560000 19.140000 161 77 72 0
21.780000 32.560000 19.140000 162 78 73 0
22.000000 32.560000 20.680000 162 78 73 0
22.220000 32.560000 23.320000 162 78 73 0
22.440000 32.560000 26.180000 162 78 73 0
22.660000 32.560000 27.500000 165 80 73 0
22.880000 32.560000 28.820000 165 80 73 0
23.100000 32.560000 30.140000 164 79 72 0
23.320000 32.560000 30.140000 165 80 73 0
23.540000 32.560000 30.140000 165 80 73 0
23.760000 32.560000 31.680000 167 82 75 0
23.980000 32.560000 31.680000 167 82 75 0
24.200000 32.560000 32.780000 167 82 75 0
24.420000 32.560000 34.320000 170 82 76 0
24.640000 32.560000 34.320000 170 82 76 0
24.860000 32.560000 34.540000 169 81 74 0
25.080000 32.560000 36.960000 171 83 76 0
25.300000 32.560000 39.160000 171 83 77 0
25.520000 32.560000 38.720000 173 85 79 0
25.740000 32.560000 38.940000 173 85 78 0
25.960000 32.560000 37.620000 175 87 80 0
26.180000 32.560000 37.620000 175 87 80 0
26.400000 32.560000 37.620000 177 89 82 0
26.620000 32.560000 38.720000 177 89 82 0
26.840000 32.560000 38.720000 179 91 84 0
27.060000 32.560000 40.260000 179 91 84 0
27.280000 32.560000 40.480000 180 92 85 0
27.500000 32.560000 41.800000 181 93 84 0
27.720000 32.560000 40.260000 182 94 85 0
27.940000 32.560000 29.040000 183 95 88 0
28.160000 32.560000 13.860000 184 96 89 0
28.380000 32.560000 2.860000 183 98 90 0
28.820000 32.560000 1.540000 185 100 92 0
29.040000 32.560000 1.540000 186 101 93 0
29.260000 32.560000 1.540000 187 102 92 0
29.480000 32.560000 2.860000 188 103 93 0
29.700000 32.560000 2.860000 188 103 95 0
29.920000 32.560000 2.860000 189 104 96 0
30.140000 32.560000 2.860000 189 104 96 0
30.360000 32.560000 2.860000 189 104 96 0
30.580000 32.560000 1.540000 190 102 95 0
30.800000 32.560000 1.540000 190 102 95 0
31.020000 32.560000 2.860000 189 104 94 0
31.240000 32.560000 14.080000 188 103 93 0
31.460000 32.560000 29.260000 189 101 94 0
31.680000 32.560000 32.120000 188 100 93 0
31.900000 32.560000 18.260000 186 98 91 0
32.120000 32.560000 7.480000 187 99 92 0
32.340000 32.560000 1.980000 188 98 92 0
34.760000 32.560000 0.440000 185 96 87 0
34.980000 32.560000 1.320000 186 97 88 0
35.200000 32.560000 1.540000 185 96 87 0
35.420000 32.560000 1.540000 186 95 87 0
35.640000 32.560000 2.860000 187 96 88 0
35.860000 32.560000 4.400000 186 95 87 0
36.080000 32.560000 4.400000 186 95 87 0
36.300000 32.560000 4.620000 186 97 88 0
36.520000 32.560000 4.840000 188 99 90 0
36.740000 32.560000 3.520000 189 100 91 0
36.960000 32.560000 3.300000 190 101 92 0
37.180000 32.560000 3.300000 191 101 95 0
0.000000 32.780000 10.120000 147 113 106 0
0.220000 32.780000 8.800000 147 113 106 0
0.440000 32.780000 8.800000 148 114 107 0
0.660000 32.780000 8.800000 148 115 105 0
0.880000 32.780000 8.800000 148 115 105 0
1.100000 32.780000 8.580000 148 113 104 0
1.320000 32.780000 8.580000 149 114 105 0
1.540000 32.780000 8.580000 148 113 104 0
1.760000 32.780000 8.580000 147 112 103 0
1.980000 32.780000 7.040000 147 112 105 0
2.200000 32.780000 5.720000 148 113 106 0
2.420000 32.780000 4.620000 147 112 103 0
2.640000 32.780000 3.740000 147 112 103 0
2.860000 32.780000 2.640000 146 111 102 0
3.080000 32.780000 5.500000 146 111 102 0
3.300000 32.780000 13.640000 144 109 100 0
3.520000 32.780000 22.000000 145 110 101 0
3.740000 32.780000 24.640000 146 108 102 0
3.960000 32.780000 25.960000 146 108 102 0
4.180000 32.780000 25.740000 143 105 97 0
4.400000 32.780000 24.420000 144 106 98 0
4.620000 32.780000 24.420000 143 105 99 0
4.840000 32.780000 25.740000 142 104 98 0
5.060000 32.780000 27.280000 143 104 96 0
5.280000 32.780000 31.460000 143 104 96 0
5.500000 32.780000 35.640000 142 102 97 0
5.720000 32.780000 38.500000 143 103 98 0
5.940000 32.780000 38.500000 145 104 97 0
6.160000 32.780000 37.180000 144 103 96 0
6.380000 32.780000 37.180000 148 103 95 0
6.600000 32.780000 38.500000 147 102 94 0
6.820000 32.780000 38.720000 156 98 91 0
7.040000 32.780000 29.040000 156 98 91 0
7.260000 32.780000 8.140000 159 95 90 0
7.700000 32.780000 1.100000 158 92 88 0
7.920000 32.780000 3.080000 159 93 89 0
8.140000 32.780000 4.180000 160 92 86 0
8.360000 32.780000 4.180000 159 91 85 0
8.580000 32.780000 2.860000 156 91 84 0
8.800000 32.780000 2.860000 156 91 84 0
9.020000 32.780000 4.180000 157 89 83 0
9.240000 32.780000 5.500000 156 88 82 0
9.460000 32.780000 7.040000 157 87 82 0
9.680000 32.780000 8.360000 156 86 81 0
9.900000 32.780000 8.360000 156 84 80 0
10.120000 32.780000 8.360000 156 84 80 0
10.340000 32.780000 7.260000 155 83 79 0
10.560000 32.780000 5.060000 156 84 80 0
10.780000 32.780000 3.740000 154 84 79 0
11.000000 32.780000 3.300000 153 83 78 0
11.220000 32.780000 4.180000 154 82 78 0
11.440000 32.780000 4.180000 154 82 78 0
11.660000 32.780000 3.080000 154 82 78 0
11.880000 32.780000 2.420000 155 83 79 0
12.100000 32.780000 2.640000 155 81 77 0
12.320000 32.780000 2.640000 156 82 78 0
12.540000 32.780000 2.640000 155 81 77 0
12.760000 32.780000 1.320000 155 81 77 0
12.980000 32.780000 1.320000 155 81 77 0
13.200000 32.780000 1.320000 154 80 76 0
13.420000 32.780000 1.320000 155 79 76 0
13.640000 32.780000 2.640000 154 78 75 0
13.860000 32.780000 2.640000 155 79 76 0
14.080000 32.780000 3.740000 154 78 75 0
14.300000 32.780000 3.960000 154 78 75 0
14.520000 32.780000 3.960000 155 79 76 0
14.740000 32.780000 3.960000 155 79 76 0
14.960000 32.780000 2.640000 155 79 76 0
15.180000 32.780000 2.640000 156 77 75 0
15.400000 32.780000 2.640000 155 76 74 0
15.620000 32.780000 2.640000 155 76 74 0
15.840000 32.780000 2.640000 156 77 75 0
16.060000 32.780000 2.640000 155 76 74 0
16.280000 32.780000 2.640000 155 76 74 0
16.500000 32.780000 3.960000 155 77 72 0
16.720000 32.780000 3.960000 156 78 73 0
16.940000 32.780000 5.500000 155 75 71 0
17.160000 32.780000 5.500000 155 75 71 0
17.380000 32.780000 5.500000 156 76 72 0
17.600000 32.780000 6.820000 156 76 72 0
17.820000 32.780000 8.140000 157 77 73 0
18.040000 32.780000 8.140000 156 76 72 0
18.260000 32.780000 9.460000 157 77 73 0
18.480000 32.780000 9.460000 158 78 74 0
18.700000 32.780000 9.460000 158 76 73 0
18.920000 32.780000 8.140000 158 76 73 0
19.140000 32.780000 6.820000 156 76 72 0
19.360000 32.780000 5.280000 156 76 72 0
19.580000 32.780000 5.280000 157 76 70 0
19.800000 32.780000 6.820000 156 75 69 0
20.020000 32.780000 9.460000 157 75 72 0
20.240000 32.780000 14.960000 158 76 73 0
20.460000 32.780000 17.820000 158 77 71 0
20.680000 32.780000 19.140000 158 77 71 0
20.900000 32.780000 19.140000 159 78 72 0
21.120000 32.780000 19.140000 159 78 72 0
21.340000 32.780000 17.820000 160 76 69 0
21.560000 32.780000 17.820000 162 78 71 0
21.780000 32.780000 16.500000 162 76 74 0
22.000000 32.780000 17.820000 162 76 74 0
22.220000 32.780000 20.680000 162 78 73 0
22.440000 32.780000 23.320000 162 78 73 0
22.660000 32.780000 26.180000 163 79 74 0
22.880000 32.780000 28.820000 162 78 73 0
23.100000 32.780000 28.820000 164 79 72 0
23.320000 32.780000 30.140000 164 79 72 0
23.540000 32.780000 30.140000 164 79 72 0
23.760000 32.780000 30.140000 164 79 72 0
23.980000 32.780000 31.680000 164 78 74 0
24.200000 32.780000 31.680000 166 80 76 0
24.420000 32.780000 33.000000 167 82 75 0
24.640000 32.780000 34.320000 168 83 76 0
24.860000 32.780000 34.320000 169 81 74 0
25.080000 32.780000 35.640000 170 82 75 0
25.300000 32.780000 37.840000 170 82 75 0
25.520000 32.780000 38.940000 172 84 77 0
25.740000 32.780000 38.720000 172 84 78 0
25.960000 32.780000 37.620000 174 86 80 0
26.180000 32.780000 37.620000 175 85 80 0
26.400000 32.780000 37.620000 175 85 80 0
26.620000 32.780000 38.720000 178 88 82 0
26.840000 32.780000 38.720000 179 89 83 0
27.060000 32.780000 38.720000 178 90 83 0
27.280000 32.780000 40.260000 179 91 84 0
27.500000 32.780000 41.580000 180 92 85 0
27.720000 32.780000 41.580000 181 93 86 0
27.940000 32.780000 40.040000 181 93 86 0
28.160000 32.780000 26.180000 183 95 88 0
28.380000 32.780000 8.360000 183 95 88 0
28.820000 32.780000 1.540000 186 98 89 0
29.040000 32.780000 1.540000 187 99 90 0
29.260000 32.780000 1.540000 185 100 92 0
29.480000 32.780000 2.860000 187 102 94 0
29.700000 32.780000 2.860000 189 104 96 0
29.920000 32.780000 2.860000 189 104 96 0
30.140000 32.780000 2.860000 189 104 94 0
30.360000 32.780000 2.860000 189 104 94 0
30.580000 32.780000 2.860000 189 104 94 0
30.800000 32.780000 1.540000 190 105 95 0
31.020000 32.780000 1.540000 190 105 95 0
31.240000 32.780000 2.860000 189 104 94 0
31.460000 32.780000 14.080000 190 102 93 0
31.680000 32.780000 23.760000 190 102 93 0
31.900000 32.780000 26.620000 189 101 92 0
32.120000 32.780000 22.660000 187 99 90 0
32.340000 32.780000 13.200000 188 100 91 0
32.560000 32.780000 2.200000 187 99 90 0
34.760000 32.780000 0.440000 186 97 88 0
34.980000 32.780000 1.540000 186 97 88 0
35.200000 32.780000 1.540000 186 97 88 0
35.420000 32.780000 1.540000 186 95 87 0
35.640000 32.780000 2.860000 186 95 87 0
35.860000 32.780000 3.080000 186 95 89 0
36.080000 32.780000 4.400000 185 94 88 0
36.300000 32.780000 4.620000 186 97 88 0
36.520000 32.780000 4.840000 187 98 89 0
36.740000 32.780000 3.520000 189 100 91 0
36.960000 32.780000 3.300000 190 101 92 0
37.180000 32.780000 3.300000 192 103 94 0
0.000000 33.000000 10.120000 148 114 107 0
0.220000 33.000000 8.800000 147 113 106 0
0.440000 33.000000 8.800000 147 113 106 0
0.660000 33.000000 8.800000 148 115 105 0
0.880000 33.000000 8.800000 148 115 105 0
1.100000 33.000000 8.580000 148 113 104 0
1.320000 33.000000 8.580000 148 113 104 0
1.540000 33.000000 7.260000 148 113 104 0
1.760000 33.000000 7.260000 147 112 103 0
1.980000 33.000000 7.040000 148 113 106 0
2.200000 33.000000 7.040000 147 112 105 0
2.420000 33.000000 5.940000 148 113 104 0
2.640000 33.000000 3.740000 147 112 103 0
2.860000 33.000000 2.640000 146 111 102 0
3.080000 33.000000 5.500000 145 110 101 0
3.300000 33.000000 17.820000 145 110 101 0
3.520000 33.000000 28.820000 144 109 100 0
3.740000 33.000000 30.140000 145 107 101 0
3.960000 33.000000 27.280000 145 107 101 0
4.180000 33.000000 27.280000 144 106 98 0
4.400000 33.000000 25.740000 143 105 97 0
4.620000 33.000000 25.740000 143 105 99 0
4.840000 33.000000 25.740000 142 104 98 0
5.060000 33.000000 27.280000 142 103 95 0
5.280000 33.000000 29.920000 142 103 95 0
5.500000 33.000000 34.100000 141 101 96 0
5.720000 33.000000 38.280000 140 100 95 0
5.940000 33.000000 39.820000 141 100 93 0
6.160000 33.000000 38.500000 143 102 95 0
6.380000 33.000000 37.180000 146 101 93 0
6.600000 33.000000 37.180000 146 101 93 0
6.820000 33.000000 38.720000 156 98 91 0
7.040000 33.000000 31.680000 156 98 91 0
7.260000 33.000000 13.860000 160 96 91 0
7.480000 33.000000 1.320000 159 95 90 0
7.700000 33.000000 1.100000 159 93 89 0
7.920000 33.000000 3.080000 158 92 88 0
8.140000 33.000000 4.180000 159 91 85 0
8.360000 33.000000 4.180000 159 91 85 0
8.580000 33.000000 2.860000 157 92 85 0
8.800000 33.000000 2.860000 156 91 84 0
9.020000 33.000000 2.860000 157 89 83 0
9.240000 33.000000 4.180000 156 88 82 0
9.460000 33.000000 7.040000 156 86 81 0
9.680000 33.000000 8.360000 156 86 81 0
9.900000 33.000000 8.360000 156 84 80 0
10.120000 33.000000 8.360000 156 84 80 0
10.340000 33.000000 7.040000 156 84 80 0
10.560000 33.000000 6.160000 156 84 80 0
10.780000 33.000000 3.740000 155 85 80 0
11.000000 33.000000 2.420000 155 85 80 0
11.220000 33.000000 3.300000 155 83 79 0
11.440000 33.000000 4.400000 153 81 77 0
11.660000 33.000000 3.300000 155 83 79 0
11.880000 33.000000 2.420000 154 82 78 0
12.100000 33.000000 2.640000 156 82 78 0
12.320000 33.000000 2.640000 155 81 77 0
12.540000 33.000000 2.640000 155 81 77 0
12.760000 33.000000 2.640000 156 82 78 0
12.980000 33.000000 1.320000 154 80 76 0
13.200000 33.000000 1.320000 154 80 76 0
13.420000 33.000000 1.320000 154 78 75 0
13.640000 33.000000 2.640000 155 79 76 0
13.860000 33.000000 2.640000 155 79 76 0
14.080000 33.000000 2.640000 155 79 76 0
14.300000 33.000000 3.960000 155 79 76 0
14.520000 33.000000 3.960000 154 78 75 0
14.740000 33.000000 3.960000 154 78 75 0
14.960000 33.000000 3.960000 154 78 75 0
15.180000 33.000000 2.640000 155 76 74 0
15.400000 33.000000 2.640000 156 77 75 0
15.620000 33.000000 2.640000 155 76 74 0
15.840000 33.000000 2.640000 155 76 74 0
16.060000 33.000000 2.640000 154 75 73 0
16.280000 33.000000 3.960000 155 76 74 0
16.500000 33.000000 3.960000 154 76 71 0
16.720000 33.000000 3.960000 154 76 71 0
16.940000 33.000000 5.280000 156 76 72 0
17.160000 33.000000 6.820000 156 76 72 0
17.380000 33.000000 6.820000 155 75 71 0
17.600000 33.000000 8.140000 157 77 73 0
17.820000 33.000000 8.140000 157 77 73 0
18.040000 33.000000 8.140000 157 77 73 0
18.260000 33.000000 9.460000 156 76 72 0
18.480000 33.000000 9.460000 156 76 72 0
18.700000 33.000000 8.140000 157 75 72 0
18.920000 33.000000 6.820000 156 74 71 0
19.140000 33.000000 5.280000 155 75 71 0
19.360000 33.000000 5.280000 156 76 72 0
19.580000 33.000000 5.280000 156 75 69 0
19.800000 33.000000 6.820000 157 76 70 0
20.020000 33.000000 9.460000 156 74 71 0
20.240000 33.000000 13.640000 156 74 71 0
20.460000 33.000000 17.820000 157 76 70 0
20.680000 33.000000 19.140000 158 77 71 0
20.900000 33.000000 19.140000 157 76 70 0
21.120000 33.000000 17.820000 158 77 71 0
21.340000 33.000000 17.820000 160 76 69 0
21.560000 33.000000 16.280000 161 77 70 0
21.780000 33.000000 16.500000 161 75 73 0
22.000000 33.000000 16.500000 161 75 73 0
22.220000 33.000000 17.820000 161 77 72 0
22.440000 33.000000 22.000000 161 77 72 0
22.660000 33.000000 24.640000 161 77 72 0
22.880000 33.000000 27.500000 162 78 73 0
23.100000 33.000000 28.820000 162 77 70 0
23.320000 33.000000 28.820000 164 79 72 0
23.540000 33.000000 30.140000 164 79 72 0
23.760000 33.000000 30.140000 164 79 72 0
23.980000 33.000000 31.680000 165 79 75 0
24.200000 33.000000 31.680000 165 79 75 0
24.420000 33.000000 33.000000 166 81 74 0
24.640000 33.000000 34.320000 167 82 75 0
24.860000 33.000000 34.320000 169 81 74 0
25.080000 33.000000 35.860000 169 81 74 0
25.300000 33.000000 36.740000 170 82 75 0
25.520000 33.000000 38.940000 170 82 75 0
25.740000 33.000000 38.720000 171 83 77 0
25.960000 33.000000 37.400000 172 84 78 0
26.180000 33.000000 37.620000 173 83 78 0
26.400000 33.000000 38.940000 175 85 80 0
26.620000 33.000000 38.720000 176 86 80 0
26.840000 33.000000 38.720000 176 86 80 0
27.060000 33.000000 38.720000 177 89 82 0
27.280000 33.000000 40.260000 177 89 82 0
27.500000 33.000000 40.260000 178 90 83 0
27.720000 33.000000 41.580000 180 92 85 0
27.940000 33.000000 41.580000 180 92 85 0
28.160000 33.000000 34.540000 180 92 85 0
28.380000 33.000000 18.040000 182 94 87 0
28.600000 33.000000 8.360000 184 96 89 0
28.820000 33.000000 2.860000 185 97 88 0
29.040000 33.000000 1.540000 187 99 90 0
29.260000 33.000000 1.540000 185 100 92 0
29.480000 33.000000 2.860000 186 101 93 0
29.700000 33.000000 2.860000 187 102 94 0
29.920000 33.000000 2.860000 187 102 94 0
30.140000 33.000000 2.860000 188 103 93 0
30.360000 33.000000 2.860000 190 105 95 0
30.580000 33.000000 2.860000 190 105 95 0
30.800000 33.000000 2.860000 190 105 95 0
31.020000 33.000000 2.860000 191 106 96 0
31.240000 33.000000 1.540000 191 106 96 0
31.460000 33.000000 4.400000 192 104 95 0
31.680000 33.000000 8.580000 192 104 95 0
31.900000 33.000000 18.260000 191 103 94 0
32.120000 33.000000 31.020000 188 100 91 0
32.340000 33.000000 28.380000 188 100 91 0
32.560000 33.000000 11.880000 188 100 91 0
32.780000 33.000000 2.200000 189 101 92 0
34.980000 33.000000 0.440000 186 97 88 0
35.200000 33.000000 0.220000 186 97 88 0
35.420000 33.000000 1.540000 187 96 88 0
35.640000 33.000000 1.540000 186 95 87 0
35.860000 33.000000 2.860000 186 95 89 0
36.080000 33.000000 4.400000 185 94 88 0
36.300000 33.000000 4.620000 186 97 88 0
36.520000 33.000000 4.840000 186 97 88 0
36.740000 33.000000 4.840000 188 99 90 0
36.960000 33.000000 3.300000 189 100 91 0
37.180000 33.000000 3.300000 191 102 93 0
0.000000 33.220000 8.800000 149 115 108 0
0.220000 33.220000 8.800000 148 115 105 0
0.440000 33.220000 8.800000 147 114 104 0
0.660000 33.220000 8.800000 148 113 104 0
0.880000 33.220000 8.580000 148 113 104 0
1.100000 33.220000 8.580000 148 113 104 0
1.320000 33.220000 7.260000 148 113 104 0
1.540000 33.220000 7.260000 147 112 103 0
1.760000 33.220000 7.260000 147 112 103 0
1.980000 33.220000 7.040000 146 111 102 0
2.200000 33.220000 7.040000 147 112 103 0
2.420000 33.220000 5.940000 147 112 103 0
2.640000 33.220000 5.280000 147 112 103 0
2.860000 33.220000 3.960000 146 111 102 0
3.080000 33.220000 3.960000 146 111 102 0
3.300000 33.220000 12.100000 146 111 102 0
3.520000 33.220000 26.180000 145 110 101 0
3.740000 33.220000 31.680000 146 108 100 0
3.960000 33.220000 30.140000 145 107 99 0
4.180000 33.220000 28.600000 144 106 98 0
4.400000 33.220000 28.600000 144 106 98 0
4.620000 33.220000 27.060000 143 105 97 0
4.840000 33.220000 25.740000 142 104 96 0
5.060000 33.220000 25.740000 141 102 94 0
5.280000 33.220000 28.600000 141 102 94 0
5.500000 33.220000 32.780000 140 101 93 0
5.720000 33.220000 36.960000 139 100 92 0
5.940000 33.220000 38.280000 141 100 93 0
6.160000 33.220000 38.500000 142 101 94 0
6.380000 33.220000 38.500000 145 100 92 0
6.600000 33.220000 37.180000 146 101 93 0
6.820000 33.220000 37.180000 153 99 92 0
7.040000 33.220000 35.860000 153 99 92 0
7.260000 33.220000 23.540000 157 96 90 0
7.480000 33.220000 5.500000 157 96 90 0
7.920000 33.220000 1.980000 156 95 89 0
8.140000 33.220000 3.080000 158 92 88 0
8.360000 33.220000 3.080000 158 92 88 0
8.580000 33.220000 2.860000 156 91 84 0
8.800000 33.220000 2.860000 156 91 84 0
9.020000 33.220000 2.860000 159 89 84 0
9.240000 33.220000 4.180000 157 87 82 0
9.460000 33.220000 5.500000 157 85 81 0
9.680000 33.220000 7.040000 156 84 80 0
9.900000 33.220000 7.040000 156 84 80 0
10.120000 33.220000 7.040000 157 85 81 0
10.340000 33.220000 7.040000 156 84 80 0
10.560000 33.220000 5.940000 155 83 79 0
10.780000 33.220000 2.420000 154 82 78 0
11.000000 33.220000 2.640000 154 82 78 0
11.220000 33.220000 2.420000 156 82 78 0
11.440000 33.220000 3.520000 156 82 78 0
11.660000 33.220000 2.200000 155 81 77 0
11.880000 33.220000 2.420000 156 82 78 0
12.100000 33.220000 2.420000 155 81 77 0
12.320000 33.220000 2.640000 155 81 77 0
12.540000 33.220000 2.640000 155 81 77 0
12.760000 33.220000 2.640000 155 81 77 0
12.980000 33.220000 2.640000 155 81 77 0
13.200000 33.220000 2.640000 155 81 77 0
13.420000 33.220000 2.640000 155 79 76 0
13.640000 33.220000 2.640000 154 78 75 0
13.860000 33.220000 2.640000 154 78 75 0
14.080000 33.220000 2.640000 155 79 76 0
14.300000 33.220000 2.640000 154 78 75 0
14.520000 33.220000 3.960000 154 78 75 0
14.740000 33.220000 3.960000 154 78 75 0
14.960000 33.220000 3.960000 153 77 74 0
15.180000 33.220000 3.960000 156 77 75 0
15.400000 33.220000 3.960000 156 77 75 0
15.620000 33.220000 3.960000 154 75 73 0
15.840000 33.220000 3.960000 153 74 72 0
16.060000 33.220000 3.960000 154 76 71 0
16.280000 33.220000 3.960000 153 75 70 0
16.500000 33.220000 3.960000 155 75 73 0
16.720000 33.220000 5.500000 154 74 72 0
16.940000 33.220000 6.820000 156 76 72 0
17.160000 33.220000 8.140000 156 76 72 0
17.380000 33.220000 8.140000 156 76 74 0
17.600000 33.220000 8.140000 157 77 75 0
17.820000 33.220000 8.140000 155 75 71 0
18.040000 33.220000 8.140000 155 75 71 0
18.260000 33.220000 8.140000 155 75 73 0
18.480000 33.220000 8.140000 155 75 73 0
18.700000 33.220000 6.820000 156 74 71 0
18.920000 33.220000 5.280000 156 74 71 0
19.140000 33.220000 5.280000 156 74 71 0
19.360000 33.220000 5.280000 157 75 72 0
19.580000 33.220000 5.280000 155 73 70 0
19.800000 33.220000 6.820000 156 74 71 0
20.020000 33.220000 9.460000 156 74 71 0
20.240000 33.220000 13.640000 157 75 72 0
20.460000 33.220000 17.820000 160 76 73 0
20.680000 33.220000 19.140000 158 74 71 0
20.900000 33.220000 19.140000 159 75 72 0
21.120000 33.220000 17.820000 159 75 72 0
21.340000 33.220000 16.280000 159 75 72 0
21.560000 33.220000 16.280000 160 76 73 0
21.780000 33.220000 14.960000 159 75 72 0
22.000000 33.220000 16.500000 161 77 74 0
22.220000 33.220000 17.820000 161 75 73 0
22.440000 33.220000 19.140000 162 76 74 0
22.660000 33.220000 23.320000 162 76 72 0
22.880000 33.220000 25.960000 162 76 72 0
23.100000 33.220000 27.500000 163 75 69 0
23.320000 33.220000 28.820000 163 75 69 0
23.540000 33.220000 30.140000 166 77 74 0
23.760000 33.220000 30.140000 167 78 75 0
23.980000 33.220000 31.680000 166 77 74 0
24.200000 33.220000 31.680000 167 78 75 0
24.420000 33.220000 31.680000 168 80 74 0
24.640000 33.220000 33.000000 167 79 73 0
24.860000 33.220000 34.320000 169 79 74 0
25.080000 33.220000 35.860000 169 79 74 0
25.300000 33.220000 36.960000 170 80 75 0
25.520000 33.220000 37.840000 170 80 75 0
25.740000 33.220000 38.940000 170 82 76 0
25.960000 33.220000 38.720000 172 84 78 0
26.180000 33.220000 38.940000 174 84 79 0
26.400000 33.220000 38.720000 173 83 78 0
26.620000 33.220000 38.720000 174 84 79 0
26.840000 33.220000 38.720000 176 86 81 0
27.060000 33.220000 38.940000 176 86 80 0
27.280000 33.220000 38.940000 178 88 82 0
27.500000 33.220000 40.260000 178 89 80 0
27.720000 33.220000 40.260000 179 90 81 0
27.940000 33.220000 41.580000 179 91 82 0
28.160000 33.220000 38.720000 181 93 84 0
28.380000 33.220000 34.540000 181 93 86 0
28.600000 33.220000 23.540000 183 95 88 0
28.820000 33.220000 8.360000 183 95 88 0
29.040000 33.220000 1.540000 185 97 90 0
29.260000 33.220000 1.540000 186 98 89 0
29.480000 33.220000 1.540000 186 98 89 0
29.700000 33.220000 2.860000 186 101 91 0
29.920000 33.220000 2.860000 187 102 92 0
30.140000 33.220000 2.860000 189 101 92 0
30.360000 33.220000 2.860000 190 102 93 0
30.580000 33.220000 2.860000 192 104 95 0
30.800000 33.220000 2.860000 193 105 96 0
31.020000 33.220000 2.860000 191 106 98 0
31.240000 33.220000 2.860000 191 106 98 0
31.460000 33.220000 1.540000 191 106 98 0
31.680000 33.220000 1.540000 191 106 98 0
31.900000 33.220000 8.580000 193 105 96 0
32.120000 33.220000 26.840000 190 102 93 0
32.340000 33.220000 36.520000 190 101 92 0
32.560000 33.220000 25.740000 189 100 91 0
32.780000 33.220000 6.380000 188 98 92 0
35.420000 33.220000 0.220000 187 96 88 0
35.640000 33.220000 1.540000 186 95 87 0
35.860000 33.220000 2.860000 187 96 88 0
36.080000 33.220000 4.400000 186 95 87 0
36.300000 33.220000 4.400000 186 95 89 0
36.520000 33.220000 4.620000 187 96 90 0
36.740000 33.220000 4.840000 189 98 90 0
36.960000 33.220000 4.620000 190 99 91 0
37.180000 33.220000 4.620000 191 102 93 0
0.000000 33.440000 8.800000 147 113 106 0
0.220000 33.440000 8.800000 148 115 105 0
0.440000 33.440000 8.800000 148 115 105 0
0.660000 33.440000 8.800000 148 113 104 0
0.880000 33.440000 8.580000 147 112 103 0
1.100000 33.440000 8.580000 148 113 104 0
1.320000 33.440000 7.260000 149 114 105 0
1.540000 33.440000 7.260000 148 113 104 0
1.760000 33.440000 7.260000 148 113 104 0
1.980000 33.440000 7.040000 148 113 104 0
2.200000 33.440000 7.040000 147 112 103 0
2.420000 33.440000 7.260000 147 112 103 0
2.640000 33.440000 6.600000 146 111 102 0
2.860000 33.440000 5.060000 145 110 101 0
3.080000 33.440000 4.620000 146 111 102 0
3.300000 33.440000 4.840000 145 110 101 0
3.520000 33.440000 14.960000 145 110 101 0
3.740000 33.440000 28.820000 145 107 99 0
3.960000 33.440000 33.000000 144 106 98 0
4.180000 33.440000 30.140000 144 106 98 0
4.400000 33.440000 28.600000 143 105 97 0
4.620000 33.440000 28.600000 143 105 97 0
4.840000 33.440000 25.740000 142 104 96 0
5.060000 33.440000 25.740000 141 102 94 0
5.280000 33.440000 27.280000 141 102 94 0
5.500000 33.440000 29.920000 140 101 93 0
5.720000 33.440000 34.100000 139 100 92 0
5.940000 33.440000 36.960000 141 100 93 0
6.160000 33.440000 38.280000 141 100 93 0
6.380000 33.440000 38.500000 145 100 92 0
6.600000 33.440000 38.500000 145 100 92 0
6.820000 33.440000 37.180000 151 97 90 0
7.040000 33.440000 38.720000 152 98 91 0
7.260000 33.440000 31.680000 156 95 89 0
7.480000 33.440000 13.860000 158 97 91 0
7.700000 33.440000 1.320000 155 94 88 0
8.140000 33.440000 1.100000 157 91 87 0
8.360000 33.440000 2.200000 156 90 86 0
8.580000 33.440000 3.080000 155 90 83 0
8.800000 33.440000 2.860000 155 90 83 0
9.020000 33.440000 1.320000 158 88 83 0
9.240000 33.440000 2.860000 156 86 81 0
9.460000 33.440000 5.500000 158 86 82 0
9.680000 33.440000 7.040000 156 84 80 0
9.900000 33.440000 7.040000 156 84 80 0
10.120000 33.440000 7.040000 156 84 80 0
10.340000 33.440000 7.040000 156 84 80 0
10.560000 33.440000 5.720000 154 82 78 0
10.780000 33.440000 3.520000 155 83 79 0
11.000000 33.440000 2.640000 154 82 78 0
11.220000 33.440000 2.640000 156 82 78 0
11.440000 33.440000 2.640000 156 82 78 0
11.660000 33.440000 2.420000 154 80 76 0
11.880000 33.440000 3.300000 155 81 77 0
12.100000 33.440000 4.840000 155 81 77 0
12.320000 33.440000 3.960000 155 81 77 0
12.540000 33.440000 2.640000 155 81 77 0
12.760000 33.440000 2.640000 155 81 77 0
12.980000 33.440000 2.640000 154 80 76 0
13.200000 33.440000 2.640000 154 80 76 0
13.420000 33.440000 2.640000 155 79 76 0
13.640000 33.440000 2.640000 154 78 75 0
13.860000 33.440000 2.640000 154 78 75 0
14.080000 33.440000 2.640000 153 77 74 0
14.300000 33.440000 2.640000 153 77 74 0
14.520000 33.440000 3.960000 154 78 75 0
14.740000 33.440000 3.960000 153 77 74 0
14.960000 33.440000 3.960000 153 77 74 0
15.180000 33.440000 3.960000 155 76 74 0
15.400000 33.440000 3.960000 156 77 75 0
15.620000 33.440000 3.960000 155 76 74 0
15.840000 33.440000 3.960000 154 75 73 0
16.060000 33.440000 3.960000 153 75 70 0
16.280000 33.440000 3.960000 154 76 71 0
16.500000 33.440000 3.960000 156 76 74 0
16.720000 33.440000 5.500000 154 74 72 0
16.940000 33.440000 6.820000 155 75 71 0
17.160000 33.440000 9.460000 156 76 72 0
17.380000 33.440000 9.460000 156 76 74 0
17.600000 33.440000 9.460000 154 74 72 0
17.820000 33.440000 8.140000 155 75 71 0
18.040000 33.440000 8.140000 154 74 70 0
18.260000 33.440000 6.820000 156 76 74 0
18.480000 33.440000 6.820000 154 74 72 0
18.700000 33.440000 6.820000 156 74 71 0
18.920000 33.440000 5.280000 156 74 71 0
19.140000 33.440000 5.280000 155 73 70 0
19.360000 33.440000 5.280000 156 74 71 0
19.580000 33.440000 5.280000 156 74 71 0
19.800000 33.440000 6.820000 155 73 70 0
20.020000 33.440000 9.460000 156 74 71 0
20.240000 33.440000 13.640000 156 74 71 0
20.460000 33.440000 16.500000 159 75 72 0
20.680000 33.440000 17.820000 158 74 71 0
20.900000 33.440000 17.820000 158 74 71 0
21.120000 33.440000 17.820000 157 73 70 0
21.340000 33.440000 16.280000 158 74 71 0
21.560000 33.440000 14.960000 157 73 70 0
21.780000 33.440000 14.960000 159 75 72 0
22.000000 33.440000 16.280000 159 75 72 0
22.220000 33.440000 16.280000 160 74 72 0
22.440000 33.440000 17.820000 160 74 72 0
22.660000 33.440000 20.460000 162 76 72 0
22.880000 33.440000 24.640000 161 75 71 0
23.100000 33.440000 26.180000 162 74 68 0
23.320000 33.440000 27.500000 163 75 69 0
23.540000 33.440000 28.820000 164 75 72 0
23.760000 33.440000 30.140000 164 75 72 0
23.980000 33.440000 30.360000 165 76 73 0
24.200000 33.440000 30.360000 165 76 73 0
24.420000 33.440000 31.680000 165 77 71 0
24.640000 33.440000 33.000000 166 78 72 0
24.860000 33.440000 34.320000 168 78 73 0
25.080000 33.440000 35.860000 169 79 74 0
25.300000 33.440000 35.860000 169 79 74 0
25.520000 33.440000 36.740000 170 80 75 0
25.740000 33.440000 37.620000 169 81 75 0
25.960000 33.440000 38.720000 170 82 76 0
26.180000 33.440000 38.720000 172 82 77 0
26.400000 33.440000 38.720000 173 83 78 0
26.620000 33.440000 38.720000 174 84 79 0
26.840000 33.440000 38.720000 175 85 80 0
27.060000 33.440000 38.940000 175 85 79 0
27.280000 33.440000 38.940000 176 86 80 0
27.500000 33.440000 38.940000 177 88 79 0
27.720000 33.440000 40.260000 178 89 80 0
27.940000 33.440000 40.260000 178 90 81 0
28.160000 33.440000 41.580000 179 91 82 0
28.380000 33.440000 42.900000 181 93 86 0
28.600000 33.440000 31.900000 182 94 87 0
28.820000 33.440000 11.220000 182 94 87 0
29.260000 33.440000 1.540000 185 97 88 0
29.480000 33.440000 1.540000 186 98 89 0
29.700000 33.440000 1.540000 186 101 91 0
29.920000 33.440000 2.860000 186 101 91 0
30.140000 33.440000 2.860000 188 100 91 0
30.360000 33.440000 2.860000 190 102 93 0
30.580000 33.440000 2.860000 191 103 94 0
30.800000 33.440000 4.400000 192 104 95 0
31.020000 33.440000 4.400000 191 106 98 0
31.240000 33.440000 2.860000 191 106 98 0
31.460000 33.440000 2.860000 192 107 99 0
31.680000 33.440000 2.860000 191 106 98 0
31.900000 33.440000 4.400000 193 105 96 0
32.120000 33.440000 14.080000 192 104 95 0
32.340000 33.440000 29.480000 191 102 93 0
32.560000 33.440000 28.160000 190 101 92 0
32.780000 33.440000 12.980000 189 99 93 0
33.000000 33.440000 6.380000 189 99 93 0
33.220000 33.440000 6.600000 189 100 91 0
33.440000 33.440000 1.100000 188 99 90 0
35.420000 33.440000 0.440000 186 95 87 0
35.640000 33.440000 1.540000 187 96 88 0
35.860000 33.440000 2.860000 187 96 88 0
36.080000 33.440000 4.180000 186 95 87 0
36.300000 33.440000 4.400000 188 97 91 0
36.520000 33.440000 5.940000 187 96 90 0
36.740000 33.440000 4.620000 188 97 89 0
36.960000 33.440000 4.620000 190 99 91 0
37.180000 33.440000 4.620000 190 101 92 0
0.000000 33.660000 8.800000 149 114 105 0
0.220000 33.660000 8.800000 149 114 105 0
0.440000 33.660000 8.800000 148 113 104 0
0.660000 33.660000 8.800000 147 114 104 0
0.880000 33.660000 8.580000 146 113 103 0
1.100000 33.660000 8.580000 147 112 103 0
1.320000 33.660000 7.260000 147 112 103 0
1.540000 33.660000 7.260000 147 112 103 0
1.760000 33.660000 8.580000 147 112 103 0
1.980000 33.660000 8.580000 148 113 104 0
2.200000 33.660000 7.040000 147 112 103 0
2.420000 33.660000 7.260000 146 111 102 0
2.640000 33.660000 7.480000 146 111 102 0
2.860000 33.660000 7.260000 148 110 102 0
3.080000 33.660000 5.720000 147 109 101 0
3.300000 33.660000 4.620000 144 109 100 0
3.520000 33.660000 9.240000 144 109 100 0
3.740000 33.660000 23.320000 146 108 100 0
3.960000 33.660000 33.000000 144 106 98 0
4.180000 33.660000 31.460000 143 105 97 0
4.400000 33.660000 30.140000 143 105 97 0
4.620000 33.660000 28.600000 144 105 97 0
4.840000 33.660000 27.280000 143 104 96 0
5.060000 33.660000 25.740000 141 102 94 0
5.280000 33.660000 25.740000 140 101 93 0
5.500000 33.660000 27.280000 140 101 93 0
5.720000 33.660000 31.460000 139 100 92 0
5.940000 33.660000 35.640000 139 100 92 0
6.160000 33.660000 35.640000 139 100 92 0
6.380000 33.660000 34.320000 143 97 92 0
6.600000 33.660000 35.640000 143 97 92 0
6.820000 33.660000 38.500000 150 96 89 0
7.040000 33.660000 38.720000 151 97 90 0
7.260000 33.660000 35.860000 155 95 89 0
7.480000 33.660000 26.180000 155 95 89 0
7.700000 33.660000 11.000000 159 93 89 0
7.920000 33.660000 1.320000 159 93 89 0
8.360000 33.660000 1.100000 155 91 86 0
8.580000 33.660000 3.080000 157 89 85 0
8.800000 33.660000 2.860000 156 88 84 0
9.020000 33.660000 2.860000 157 87 84 0
9.240000 33.660000 2.860000 156 86 83 0
9.460000 33.660000 4.180000 156 84 80 0
9.680000 33.660000 5.500000 157 85 81 0
9.900000 33.660000 7.040000 156 84 80 0
10.120000 33.660000 7.040000 155 83 79 0
10.340000 33.660000 5.500000 155 83 81 0
10.560000 33.660000 5.720000 155 83 81 0
10.780000 33.660000 4.620000 155 83 79 0
11.000000 33.660000 2.420000 154 82 78 0
11.220000 33.660000 2.640000 154 82 78 0
11.440000 33.660000 2.640000 153 81 77 0
11.660000 33.660000 3.740000 154 80 76 0
11.880000 33.660000 4.620000 154 80 76 0
12.100000 33.660000 5.940000 154 79 78 0
12.320000 33.660000 3.740000 153 78 77 0
12.540000 33.660000 2.640000 154 80 76 0
12.760000 33.660000 2.640000 154 80 76 0
12.980000 33.660000 2.640000 154 78 75 0
13.200000 33.660000 2.640000 154 78 75 0
13.420000 33.660000 2.640000 154 78 75 0
13.640000 33.660000 2.640000 153 77 74 0
13.860000 33.660000 2.640000 153 77 74 0
14.080000 33.660000 2.640000 153 77 74 0
14.300000 33.660000 2.640000 153 77 74 0
14.520000 33.660000 3.960000 152 76 73 0
14.740000 33.660000 3.960000 152 76 73 0
14.960000 33.660000 3.960000 152 76 73 0
15.180000 33.660000 5.500000 155 76 74 0
15.400000 33.660000 5.500000 155 76 74 0
15.620000 33.660000 5.280000 154 75 73 0
15.840000 33.660000 5.500000 154 75 73 0
16.060000 33.660000 5.500000 155 76 74 0
16.280000 33.660000 3.960000 154 75 73 0
16.500000 33.660000 3.960000 152 72 70 0
16.720000 33.660000 5.500000 154 74 72 0
16.940000 33.660000 6.820000 153 73 69 0
17.160000 33.660000 9.460000 153 73 69 0
17.380000 33.660000 9.460000 153 73 69 0
17.600000 33.660000 9.460000 153 73 69 0
17.820000 33.660000 8.140000 153 73 69 0
18.040000 33.660000 6.820000 154 74 70 0
18.260000 33.660000 6.820000 155 73 72 0
18.480000 33.660000 6.820000 154 72 71 0
18.700000 33.660000 5.280000 154 72 69 0
18.920000 33.660000 5.280000 155 73 70 0
19.140000 33.660000 5.500000 155 73 70 0
19.360000 33.660000 5.500000 154 72 69 0
19.580000 33.660000 6.820000 155 73 70 0
19.800000 33.660000 8.140000 154 72 69 0
20.020000 33.660000 10.780000 154 72 69 0
20.240000 33.660000 13.640000 155 73 70 0
20.460000 33.660000 16.500000 155 73 70 0
20.680000 33.660000 17.820000 155 73 70 0
20.900000 33.660000 17.820000 157 73 68 0
21.120000 33.660000 16.500000 158 74 69 0
21.340000 33.660000 16.280000 158 74 71 0
21.560000 33.660000 14.960000 158 74 71 0
21.780000 33.660000 14.960000 158 74 71 0
22.000000 33.660000 16.280000 158 74 71 0
22.220000 33.660000 16.280000 158 74 71 0
22.440000 33.660000 17.820000 159 75 72 0
22.660000 33.660000 19.140000 160 74 70 0
22.880000 33.660000 22.000000 160 74 70 0
23.100000 33.660000 24.640000 162 73 70 0
23.320000 33.660000 26.180000 162 73 70 0
23.540000 33.660000 28.820000 164 75 72 0
23.760000 33.660000 30.360000 164 75 72 0
23.980000 33.660000 30.360000 164 76 70 0
24.200000 33.660000 30.360000 164 76 70 0
24.420000 33.660000 30.360000 164 76 70 0
24.640000 33.660000 33.000000 166 78 72 0
24.860000 33.660000 34.320000 167 77 74 0
25.080000 33.660000 35.860000 167 77 74 0
25.300000 33.660000 35.860000 168 78 73 0
25.520000 33.660000 35.640000 168 78 73 0
25.740000 33.660000 37.620000 168 78 73 0
25.960000 33.660000 38.720000 169 79 74 0
26.180000 33.660000 38.940000 172 82 77 0
26.400000 33.660000 38.940000 172 82 77 0
26.620000 33.660000 38.720000 174 82 78 0
26.840000 33.660000 38.720000 175 83 79 0
27.060000 33.660000 38.940000 174 84 78 0
27.280000 33.660000 38.940000 174 84 78 0
27.500000 33.660000 38.940000 177 86 80 0
27.720000 33.660000 38.940000 178 87 81 0
27.940000 33.660000 40.260000 178 88 82 0
28.160000 33.660000 41.580000 178 88 82 0
28.380000 33.660000 41.580000 180 90 84 0
28.600000 33.660000 34.760000 182 92 86 0
28.820000 33.660000 16.720000 183 94 85 0
29.040000 33.660000 2.860000 183 94 85 0
29.260000 33.660000 1.540000 183 95 86 0
29.480000 33.660000 1.540000 185 97 88 0
29.700000 33.660000 1.540000 186 98 91 0
29.920000 33.660000 1.540000 187 99 92 0
