ply
format ascii 1.0
element vertex 1131
property float x
property float y
property float z
property uchar red
property uchar green
property uchar blue
property uchar alpha
end_header
36.740000 1.540000 3.740000 198 227 238 0
36.960000 1.540000 3.740000 198 227 238 0
37.180000 1.540000 3.740000 197 229 237 0
0.000000 1.760000 4.180000 239 240 239 0
0.220000 1.760000 5.280000 238 242 240 0
0.440000 1.760000 5.940000 238 242 240 0
0.660000 1.760000 5.940000 240 241 240 0
0.880000 1.760000 3.740000 240 241 240 0
1.100000 1.760000 2.640000 240 241 240 0
1.320000 1.760000 3.740000 240 241 240 0
1.540000 1.760000 4.400000 238 242 240 0
1.760000 1.760000 4.180000 238 242 240 0
1.980000 1.760000 5.500000 238 242 240 0
2.200000 1.760000 7.040000 238 242 240 0
2.420000 1.760000 7.040000 240 241 240 0
2.640000 1.760000 7.040000 240 241 240 0
2.860000 1.760000 7.040000 240 241 240 0
3.080000 1.760000 7.040000 240 241 240 0
3.300000 1.760000 7.040000 238 242 240 0
3.520000 1.760000 7.040000 238 242 240 0
3.740000 1.760000 8.360000 238 242 240 0
3.960000 1.760000 8.360000 238 242 240 0
4.180000 1.760000 8.360000 240 241 240 0
4.400000 1.760000 8.360000 240 241 240 0
4.620000 1.760000 8.360000 240 241 240 0
4.840000 1.760000 8.580000 240 241 240 0
5.060000 1.760000 7.260000 238 242 240 0
5.280000 1.760000 7.480000 238 242 240 0
5.500000 1.760000 4.840000 236 241 240 0
5.720000 1.760000 2.420000 234 239 238 0
5.940000 1.760000 2.420000 207 242 243 0
6.160000 1.760000 2.420000 202 237 238 0
6.380000 1.760000 3.740000 192 235 239 0
6.600000 1.760000 5.060000 189 232 236 0
6.820000 1.760000 5.060000 192 232 235 0
7.040000 1.760000 5.060000 194 234 237 0
7.260000 1.760000 5.280000 195 235 238 0
7.480000 1.760000 5.280000 197 237 240 0
7.700000 1.760000 5.280000 199 238 241 0
7.920000 1.760000 5.280000 199 238 241 0
8.140000 1.760000 6.600000 198 237 240 0
8.360000 1.760000 9.460000 198 237 240 0
8.580000 1.760000 19.140000 197 237 242 0
8.800000 1.760000 22.000000 196 236 241 0
9.020000 1.760000 8.140000 194 237 239 0
10.560000 1.760000 8.140000 190 233 237 0
10.780000 1.760000 28.820000 190 234 238 0
11.000000 1.760000 30.360000 190 234 238 0
11.220000 1.760000 11.000000 191 235 239 0
11.440000 1.760000 3.960000 191 235 239 0
11.660000 1.760000 5.500000 191 235 239 0
11.880000 1.760000 5.500000 191 235 239 0
12.100000 1.760000 4.180000 191 236 237 0
12.320000 1.760000 2.640000 189 234 235 0
12.540000 1.760000 1.100000 189 236 239 0
12.760000 1.760000 2.200000 190 237 240 0
12.980000 1.760000 9.020000 190 237 240 0
13.200000 1.760000 22.660000 189 236 239 0
13.420000 1.760000 29.260000 187 236 238 0
13.640000 1.760000 27.720000 187 236 238 0
13.860000 1.760000 29.040000 189 236 237 0
14.080000 1.760000 30.580000 189 236 237 0
14.300000 1.760000 31.900000 188 237 239 0
14.520000 1.760000 34.760000 188 237 239 0
14.740000 1.760000 34.760000 190 237 240 0
14.960000 1.760000 34.760000 190 237 240 0
15.180000 1.760000 31.900000 190 237 240 0
15.400000 1.760000 31.900000 189 236 239 0
15.620000 1.760000 34.760000 189 236 237 0
15.840000 1.760000 37.400000 190 237 238 0
16.060000 1.760000 36.080000 189 238 238 0
16.280000 1.760000 33.220000 189 238 238 0
16.500000 1.760000 33.220000 190 239 241 0
16.720000 1.760000 36.080000 189 238 240 0
16.940000 1.760000 37.400000 190 237 238 0
17.160000 1.760000 37.400000 191 238 239 0
17.380000 1.760000 37.620000 191 238 239 0
17.600000 1.760000 36.740000 190 237 238 0
17.820000 1.760000 37.620000 188 239 240 0
18.040000 1.760000 37.400000 188 239 240 0
18.260000 1.760000 38.720000 190 237 238 0
18.480000 1.760000 38.720000 190 237 238 0
18.700000 1.760000 40.040000 190 237 238 0
18.920000 1.760000 40.040000 190 237 238 0
19.140000 1.760000 38.720000 189 238 238 0
19.360000 1.760000 37.400000 188 237 237 0
19.580000 1.760000 37.400000 190 237 238 0
19.800000 1.760000 37.400000 190 237 238 0
20.020000 1.760000 37.400000 191 238 239 0
20.240000 1.760000 36.080000 191 238 239 0
20.460000 1.760000 31.900000 191 238 239 0
20.680000 1.760000 31.900000 190 237 238 0
20.900000 1.760000 37.400000 189 238 238 0
21.120000 1.760000 38.940000 189 238 238 0
21.340000 1.760000 37.400000 188 239 238 0
21.560000 1.760000 38.940000 188 239 238 0
21.780000 1.760000 40.260000 189 238 238 0
22.000000 1.760000 40.260000 189 238 238 0
22.220000 1.760000 40.260000 190 237 238 0
22.440000 1.760000 38.720000 190 237 238 0
22.660000 1.760000 38.720000 188 239 240 0
22.880000 1.760000 33.220000 188 239 240 0
23.100000 1.760000 20.900000 190 239 241 0
23.320000 1.760000 23.540000 190 239 241 0
23.540000 1.760000 34.760000 189 240 241 0
23.760000 1.760000 40.260000 188 239 240 0
23.980000 1.760000 38.720000 189 238 240 0
24.200000 1.760000 29.040000 189 238 240 0
24.420000 1.760000 23.540000 188 239 240 0
24.640000 1.760000 33.220000 187 238 239 0
24.860000 1.760000 40.260000 187 238 239 0
25.080000 1.760000 40.260000 187 238 239 0
25.300000 1.760000 33.220000 188 239 240 0
25.520000 1.760000 18.040000 189 240 241 0
25.740000 1.760000 11.220000 188 239 240 0
25.960000 1.760000 18.040000 187 238 239 0
26.180000 1.760000 31.900000 188 239 240 0
26.400000 1.760000 40.260000 188 239 240 0
26.620000 1.760000 30.580000 190 239 241 0
26.840000 1.760000 11.220000 191 240 242 0
27.060000 1.760000 2.860000 189 238 238 0
27.280000 1.760000 2.860000 189 238 238 0
27.500000 1.760000 4.180000 188 239 240 0
27.720000 1.760000 4.400000 188 239 240 0
27.940000 1.760000 2.860000 189 238 240 0
28.160000 1.760000 4.400000 189 238 240 0
28.380000 1.760000 14.080000 191 238 239 0
28.600000 1.760000 27.720000 192 239 240 0
28.820000 1.760000 37.400000 190 239 241 0
29.040000 1.760000 38.940000 190 239 241 0
29.260000 1.760000 37.400000 189 238 240 0
29.480000 1.760000 37.400000 189 238 240 0
29.700000 1.760000 30.580000 193 237 241 0
29.920000 1.760000 18.040000 194 238 242 0
30.140000 1.760000 12.540000 199 239 242 0
30.360000 1.760000 9.900000 199 239 242 0
30.580000 1.760000 5.720000 201 238 241 0
30.800000 1.760000 4.400000 202 239 242 0
31.020000 1.760000 5.940000 204 239 240 0
31.240000 1.760000 5.940000 204 239 240 0
31.460000 1.760000 4.400000 202 239 242 0
31.680000 1.760000 2.860000 202 239 242 0
31.900000 1.760000 2.860000 201 240 243 0
32.120000 1.760000 2.860000 201 240 243 0
32.340000 1.760000 7.040000 201 238 241 0
32.560000 1.760000 22.220000 200 237 240 0
32.780000 1.760000 29.040000 202 236 240 0
33.000000 1.760000 19.360000 202 236 240 0
33.220000 1.760000 18.260000 200 234 239 0
33.440000 1.760000 31.460000 201 235 240 0
33.660000 1.760000 38.720000 200 234 239 0
33.880000 1.760000 37.180000 199 233 238 0
34.100000 1.760000 34.540000 197 231 236 0
34.320000 1.760000 37.180000 197 231 236 0
34.540000 1.760000 38.500000 198 230 238 0
34.760000 1.760000 35.420000 196 228 236 0
34.980000 1.760000 34.100000 197 229 239 0
35.200000 1.760000 35.640000 195 227 237 0
35.420000 1.760000 30.140000 195 227 237 0
35.640000 1.760000 10.780000 195 227 237 0
36.080000 1.760000 0.880000 197 226 237 0
36.300000 1.760000 3.520000 196 225 236 0
36.520000 1.760000 3.520000 197 226 237 0
36.740000 1.760000 3.740000 194 226 236 0
36.960000 1.760000 3.740000 195 227 237 0
37.180000 1.760000 3.740000 196 228 236 0
0.000000 1.980000 3.960000 239 240 239 0
0.220000 1.980000 3.960000 238 242 240 0
0.440000 1.980000 5.060000 238 242 240 0
0.660000 1.980000 4.840000 240 241 240 0
0.880000 1.980000 3.960000 240 241 240 0
1.100000 1.980000 2.640000 240 241 240 0
1.320000 1.980000 3.740000 240 241 240 0
1.540000 1.980000 3.300000 238 242 240 0
1.760000 1.980000 4.180000 238 242 240 0
1.980000 1.980000 5.500000 238 242 240 0
2.200000 1.980000 5.720000 238 242 240 0
2.420000 1.980000 5.720000 240 241 240 0
2.640000 1.980000 5.720000 240 241 240 0
2.860000 1.980000 5.720000 240 241 240 0
3.080000 1.980000 5.720000 240 241 240 0
3.300000 1.980000 5.720000 238 242 240 0
3.520000 1.980000 7.040000 238 242 240 0
3.740000 1.980000 7.040000 238 242 240 0
3.960000 1.980000 8.360000 238 242 240 0
4.180000 1.980000 8.360000 240 241 240 0
4.400000 1.980000 8.360000 240 241 240 0
4.620000 1.980000 8.360000 240 241 240 0
4.840000 1.980000 8.580000 240 241 240 0
5.060000 1.980000 7.260000 238 242 240 0
5.280000 1.980000 6.160000 237 241 239 0
5.500000 1.980000 4.840000 236 241 240 0
5.720000 1.980000 2.420000 235 240 239 0
5.940000 1.980000 1.100000 209 244 245 0
6.160000 1.980000 1.100000 204 239 240 0
6.380000 1.980000 2.420000 193 236 240 0
6.600000 1.980000 3.740000 191 234 238 0
6.820000 1.980000 5.060000 193 233 236 0
7.040000 1.980000 5.280000 195 235 238 0
7.260000 1.980000 5.280000 196 236 239 0
7.480000 1.980000 5.280000 197 237 240 0
7.700000 1.980000 5.280000 198 237 240 0
7.920000 1.980000 5.280000 198 237 240 0
8.140000 1.980000 6.600000 198 237 240 0
8.360000 1.980000 7.920000 198 237 240 0
8.580000 1.980000 13.640000 197 237 242 0
8.800000 1.980000 16.500000 195 235 240 0
9.020000 1.980000 6.820000 193 236 238 0
9.240000 1.980000 1.320000 193 236 238 0
9.460000 1.980000 1.320000 194 234 239 0
10.560000 1.980000 5.500000 193 236 240 0
10.780000 1.980000 22.000000 191 235 239 0
11.000000 1.980000 23.320000 191 235 239 0
11.220000 1.980000 9.680000 191 235 239 0
11.440000 1.980000 5.500000 192 236 240 0
11.660000 1.980000 5.500000 193 237 241 0
11.880000 1.980000 6.820000 192 236 240 0
12.100000 1.980000 6.820000 191 236 237 0
12.320000 1.980000 4.180000 192 237 238 0
12.540000 1.980000 3.960000 190 237 240 0
12.760000 1.980000 3.300000 190 237 240 0
12.980000 1.980000 12.760000 189 236 239 0
13.200000 1.980000 29.040000 189 236 239 0
13.420000 1.980000 36.080000 187 236 238 0
13.640000 1.980000 36.080000 187 236 238 0
13.860000 1.980000 36.080000 190 237 238 0
14.080000 1.980000 36.080000 190 237 238 0
14.300000 1.980000 36.080000 189 238 240 0
14.520000 1.980000 33.220000 188 237 239 0
14.740000 1.980000 33.220000 189 236 239 0
14.960000 1.980000 33.440000 190 237 240 0
15.180000 1.980000 34.760000 190 237 240 0
15.400000 1.980000 36.080000 189 236 239 0
15.620000 1.980000 34.760000 189 236 237 0
15.840000 1.980000 34.760000 190 237 238 0
16.060000 1.980000 37.400000 189 238 238 0
16.280000 1.980000 38.940000 190 239 239 0
16.500000 1.980000 38.940000 189 238 240 0
16.720000 1.980000 37.400000 188 237 239 0
16.940000 1.980000 36.080000 190 237 238 0
17.160000 1.980000 36.080000 190 237 238 0
17.380000 1.980000 34.980000 190 237 238 0
17.600000 1.980000 34.100000 190 237 238 0
17.820000 1.980000 34.980000 187 238 239 0
18.040000 1.980000 36.080000 187 238 239 0
18.260000 1.980000 35.860000 189 236 237 0
18.480000 1.980000 37.400000 191 238 239 0
18.700000 1.980000 37.400000 190 237 238 0
18.920000 1.980000 37.400000 190 237 238 0
19.140000 1.980000 37.400000 189 238 238 0
19.360000 1.980000 36.080000 188 237 237 0
19.580000 1.980000 36.080000 190 237 238 0
19.800000 1.980000 36.080000 191 238 239 0
20.020000 1.980000 36.080000 190 237 238 0
20.240000 1.980000 36.080000 190 237 238 0
20.460000 1.980000 37.400000 190 237 238 0
20.680000 1.980000 37.400000 190 237 238 0
20.900000 1.980000 37.400000 190 239 239 0
21.120000 1.980000 37.400000 189 238 238 0
21.340000 1.980000 36.080000 187 238 237 0
21.560000 1.980000 37.400000 187 238 237 0
21.780000 1.980000 38.940000 189 238 238 0
22.000000 1.980000 40.260000 189 238 238 0
22.220000 1.980000 38.720000 190 237 238 0
22.440000 1.980000 37.400000 190 237 238 0
22.660000 1.980000 37.400000 188 239 240 0
22.880000 1.980000 36.080000 188 239 240 0
23.100000 1.980000 33.220000 189 238 240 0
23.320000 1.980000 31.900000 189 238 240 0
23.540000 1.980000 36.300000 189 240 241 0
23.760000 1.980000 37.620000 187 238 239 0
23.980000 1.980000 38.720000 188 237 239 0
24.200000 1.980000 37.400000 188 237 239 0
24.420000 1.980000 36.080000 188 239 240 0
24.640000 1.980000 37.400000 188 239 240 0
24.860000 1.980000 38.720000 187 238 239 0
25.080000 1.980000 38.720000 187 238 239 0
25.300000 1.980000 37.400000 187 238 239 0
25.520000 1.980000 33.220000 187 238 239 0
25.740000 1.980000 30.580000 188 239 240 0
25.960000 1.980000 31.900000 188 239 240 0
26.180000 1.980000 36.080000 187 238 239 0
26.400000 1.980000 38.940000 187 238 239 0
26.620000 1.980000 30.580000 189 238 240 0
26.840000 1.980000 11.220000 189 238 240 0
27.060000 1.980000 2.860000 189 238 238 0
27.280000 1.980000 4.180000 189 238 238 0
27.500000 1.980000 5.720000 187 238 239 0
27.720000 1.980000 5.720000 188 239 240 0
27.940000 1.980000 4.400000 189 238 240 0
28.160000 1.980000 11.220000 189 238 240 0
28.380000 1.980000 26.400000 191 238 239 0
28.600000 1.980000 37.400000 191 238 239 0
28.820000 1.980000 38.940000 189 238 240 0
29.040000 1.980000 37.400000 188 237 239 0
29.260000 1.980000 37.620000 188 237 239 0
29.480000 1.980000 37.620000 188 237 239 0
29.700000 1.980000 29.260000 192 236 240 0
29.920000 1.980000 12.760000 193 237 241 0
30.140000 1.980000 4.400000 198 238 241 0
30.360000 1.980000 5.720000 199 239 242 0
30.580000 1.980000 4.400000 201 238 241 0
30.800000 1.980000 5.940000 201 238 241 0
31.020000 1.980000 6.160000 204 239 240 0
31.240000 1.980000 6.160000 205 240 241 0
31.460000 1.980000 4.620000 202 239 242 0
31.680000 1.980000 3.080000 201 238 241 0
31.900000 1.980000 1.540000 200 239 242 0
32.120000 1.980000 1.540000 200 239 242 0
32.340000 1.980000 8.360000 200 237 240 0
32.560000 1.980000 26.400000 200 237 240 0
32.780000 1.980000 37.400000 202 236 240 0
33.000000 1.980000 34.980000 202 236 240 0
33.220000 1.980000 33.880000 201 235 240 0
33.440000 1.980000 35.640000 200 234 239 0
33.660000 1.980000 37.180000 200 234 239 0
33.880000 1.980000 38.720000 199 233 238 0
34.100000 1.980000 38.720000 197 231 236 0
34.320000 1.980000 38.500000 197 231 236 0
34.540000 1.980000 36.960000 197 229 237 0
34.760000 1.980000 38.280000 197 229 237 0
34.980000 1.980000 38.280000 196 228 238 0
35.200000 1.980000 38.500000 195 227 237 0
35.420000 1.980000 28.820000 194 226 236 0
35.640000 1.980000 10.780000 194 226 236 0
36.080000 1.980000 0.880000 196 225 236 0
36.300000 1.980000 3.520000 196 225 236 0
36.520000 1.980000 3.520000 196 225 236 0
36.740000 1.980000 3.740000 195 227 237 0
36.960000 1.980000 3.740000 195 227 237 0
37.180000 1.980000 3.740000 195 227 235 0
0.000000 2.200000 3.960000 229 244 244 0
0.220000 2.200000 3.960000 236 241 240 0
0.440000 2.200000 3.960000 236 241 240 0
0.660000 2.200000 3.960000 237 240 240 0
0.880000 2.200000 3.960000 237 240 240 0
1.100000 2.200000 4.180000 237 241 239 0
1.320000 2.200000 3.960000 237 241 239 0
1.540000 2.200000 3.520000 236 241 240 0
1.760000 2.200000 3.080000 236 241 240 0
1.980000 2.200000 5.500000 237 240 240 0
2.200000 2.200000 5.500000 238 241 241 0
2.420000 2.200000 5.720000 237 241 239 0
2.640000 2.200000 5.720000 238 242 240 0
2.860000 2.200000 4.180000 238 242 240 0
3.080000 2.200000 4.180000 238 242 240 0
3.300000 2.200000 5.720000 237 242 241 0
3.520000 2.200000 5.720000 237 242 241 0
3.740000 2.200000 7.040000 238 241 241 0
3.960000 2.200000 7.040000 238 241 241 0
4.180000 2.200000 8.360000 238 242 240 0
4.400000 2.200000 8.360000 238 242 240 0
4.620000 2.200000 8.360000 237 241 239 0
4.840000 2.200000 8.580000 237 241 239 0
5.060000 2.200000 7.480000 236 241 240 0
5.280000 2.200000 6.160000 236 241 240 0
5.500000 2.200000 5.060000 233 242 242 0
5.720000 2.200000 3.740000 232 241 241 0
5.940000 2.200000 2.420000 214 243 244 0
6.160000 2.200000 1.100000 209 238 239 0
6.380000 2.200000 2.420000 197 237 242 0
6.600000 2.200000 3.740000 194 234 239 0
6.820000 2.200000 5.280000 195 234 237 0
7.040000 2.200000 5.280000 197 236 239 0
7.260000 2.200000 6.600000 196 236 239 0
7.480000 2.200000 6.600000 197 237 240 0
7.700000 2.200000 6.600000 197 237 240 0
7.920000 2.200000 6.600000 197 237 240 0
8.140000 2.200000 6.600000 197 237 240 0
8.360000 2.200000 7.920000 196 236 239 0
8.580000 2.200000 9.460000 196 235 238 0
8.800000 2.200000 8.140000 197 236 239 0
9.020000 2.200000 3.960000 192 235 237 0
9.240000 2.200000 2.640000 192 235 237 0
9.460000 2.200000 1.320000 193 236 240 0
10.560000 2.200000 1.320000 196 236 239 0
10.780000 2.200000 8.140000 192 236 240 0
11.000000 2.200000 11.000000 192 236 240 0
11.220000 2.200000 6.820000 193 237 241 0
11.440000 2.200000 6.820000 193 237 241 0
11.660000 2.200000 6.820000 194 237 241 0
11.880000 2.200000 8.360000 195 238 242 0
12.100000 2.200000 8.360000 193 238 239 0
12.320000 2.200000 8.360000 193 238 239 0
12.540000 2.200000 6.820000 193 237 241 0
12.760000 2.200000 6.380000 193 237 241 0
12.980000 2.200000 14.080000 191 238 241 0
13.200000 2.200000 26.400000 190 237 240 0
13.420000 2.200000 33.220000 190 237 240 0
13.640000 2.200000 33.220000 191 238 241 0
13.860000 2.200000 33.220000 191 238 241 0
14.080000 2.200000 33.220000 191 238 241 0
14.300000 2.200000 33.220000 191 238 241 0
14.520000 2.200000 31.900000 190 237 240 0
14.740000 2.200000 31.900000 190 237 240 0
14.960000 2.200000 31.900000 190 237 240 0
15.180000 2.200000 31.900000 191 238 241 0
15.400000 2.200000 33.440000 192 239 242 0
15.620000 2.200000 33.440000 190 239 241 0
15.840000 2.200000 33.440000 190 239 241 0
16.060000 2.200000 34.760000 191 238 239 0
16.280000 2.200000 36.080000 191 238 239 0
16.500000 2.200000 36.080000 190 237 238 0
16.720000 2.200000 36.080000 191 238 239 0
16.940000 2.200000 34.760000 191 238 239 0
17.160000 2.200000 33.660000 190 237 238 0
17.380000 2.200000 32.780000 189 238 238 0
17.600000 2.200000 33.000000 189 238 238 0
17.820000 2.200000 32.780000 190 237 238 0
18.040000 2.200000 33.660000 190 237 238 0
18.260000 2.200000 34.760000 190 239 239 0
18.480000 2.200000 34.760000 190 239 239 0
18.700000 2.200000 35.860000 189 238 238 0
18.920000 2.200000 36.080000 190 239 239 0
19.140000 2.200000 36.080000 189 238 238 0
19.360000 2.200000 34.540000 189 238 238 0
19.580000 2.200000 34.760000 189 238 238 0
19.800000 2.200000 34.760000 189 238 238 0
20.020000 2.200000 34.760000 190 239 239 0
20.240000 2.200000 34.760000 190 239 239 0
20.460000 2.200000 36.080000 189 238 238 0
20.680000 2.200000 36.080000 190 239 239 0
20.900000 2.200000 36.080000 188 239 240 0
21.120000 2.200000 36.080000 188 239 240 0
21.340000 2.200000 36.080000 189 238 238 0
21.560000 2.200000 36.080000 188 237 237 0
21.780000 2.200000 37.400000 188 237 237 0
22.000000 2.200000 38.940000 190 239 239 0
22.220000 2.200000 37.400000 191 240 240 0
22.440000 2.200000 37.400000 190 239 239 0
22.660000 2.200000 36.080000 188 239 240 0
22.880000 2.200000 37.400000 187 238 239 0
23.100000 2.200000 38.720000 188 239 238 0
23.320000 2.200000 38.940000 188 239 238 0
23.540000 2.200000 36.740000 188 239 240 0
23.760000 2.200000 36.740000 188 239 240 0
23.980000 2.200000 37.620000 188 239 238 0
24.200000 2.200000 38.720000 187 238 237 0
24.420000 2.200000 40.040000 187 238 239 0
24.640000 2.200000 38.720000 187 238 239 0
24.860000 2.200000 37.400000 185 238 239 0
25.080000 2.200000 37.400000 184 237 238 0
25.300000 2.200000 38.940000 188 239 240 0
25.520000 2.200000 40.260000 188 239 240 0
25.740000 2.200000 40.260000 185 238 241 0
25.960000 2.200000 38.940000 186 239 242 0
26.180000 2.200000 38.940000 187 238 239 0
26.400000 2.200000 38.940000 187 238 239 0
26.620000 2.200000 30.580000 187 238 239 0
26.840000 2.200000 12.540000 187 238 239 0
27.060000 2.200000 2.860000 187 238 239 0
27.280000 2.200000 4.180000 187 238 239 0
27.500000 2.200000 5.720000 187 238 239 0
27.720000 2.200000 7.040000 188 239 240 0
27.940000 2.200000 5.720000 192 237 238 0
28.160000 2.200000 14.080000 193 238 239 0
28.380000 2.200000 31.900000 194 237 239 0
28.600000 2.200000 40.260000 194 237 239 0
28.820000 2.200000 38.940000 191 240 242 0
29.040000 2.200000 37.620000 189 238 240 0
29.260000 2.200000 37.620000 187 235 240 0
29.480000 2.200000 36.300000 186 234 239 0
29.700000 2.200000 26.620000 191 234 238 0
29.920000 2.200000 12.760000 194 237 241 0
30.140000 2.200000 7.260000 198 238 241 0
30.360000 2.200000 7.260000 198 238 241 0
30.580000 2.200000 6.160000 200 239 241 0
30.800000 2.200000 6.380000 200 239 241 0
31.020000 2.200000 5.060000 201 240 242 0
31.240000 2.200000 5.280000 201 240 242 0
31.460000 2.200000 5.280000 201 240 243 0
31.680000 2.200000 5.060000 200 239 242 0
31.900000 2.200000 3.300000 200 239 242 0
32.120000 2.200000 3.080000 200 239 242 0
32.340000 2.200000 16.720000 200 237 240 0
32.560000 2.200000 34.540000 200 237 240 0
32.780000 2.200000 41.800000 201 235 240 0
33.000000 2.200000 40.920000 201 235 240 0
33.220000 2.200000 39.820000 199 236 240 0
33.440000 2.200000 38.500000 198 235 239 0
33.660000 2.200000 37.180000 198 232 239 0
33.880000 2.200000 37.180000 197 231 238 0
34.100000 2.200000 38.720000 195 232 238 0
34.320000 2.200000 37.180000 194 231 237 0
34.540000 2.200000 36.960000 197 229 237 0
34.760000 2.200000 36.960000 197 229 237 0
34.980000 2.200000 38.280000 198 227 238 0
35.200000 2.200000 38.500000 198 227 238 0
35.420000 2.200000 28.820000 194 225 238 0
35.640000 2.200000 10.780000 195 226 239 0
36.080000 2.200000 0.880000 193 225 235 0
36.300000 2.200000 3.520000 195 224 235 0
36.520000 2.200000 3.520000 196 225 236 0
36.740000 2.200000 3.740000 194 225 238 0
36.960000 2.200000 3.740000 194 225 238 0
37.180000 2.200000 3.740000 193 226 236 0
0.000000 2.420000 3.960000 226 241 241 0
0.220000 2.420000 3.960000 234 239 238 0
0.440000 2.420000 3.960000 234 239 238 0
0.660000 2.420000 2.640000 236 239 239 0
0.880000 2.420000 2.640000 236 239 239 0
1.100000 2.420000 2.640000 236 240 238 0
1.320000 2.420000 2.640000 236 240 238 0
1.540000 2.420000 2.420000 235 240 239 0
1.760000 2.420000 3.300000 235 240 239 0
1.980000 2.420000 5.720000 236 239 239 0
2.200000 2.420000 7.040000 237 240 240 0
2.420000 2.420000 5.500000 237 241 239 0
2.640000 2.420000 5.720000 237 241 239 0
2.860000 2.420000 4.180000 237 241 239 0
3.080000 2.420000 4.400000 237 241 239 0
3.300000 2.420000 4.400000 236 241 240 0
3.520000 2.420000 4.400000 236 241 240 0
3.740000 2.420000 5.720000 237 240 240 0
3.960000 2.420000 7.040000 237 240 240 0
4.180000 2.420000 7.040000 237 241 239 0
4.400000 2.420000 8.360000 237 241 239 0
4.620000 2.420000 8.580000 237 241 239 0
4.840000 2.420000 8.580000 237 241 239 0
5.060000 2.420000 7.480000 236 241 240 0
5.280000 2.420000 6.380000 235 240 239 0
5.500000 2.420000 5.060000 232 241 241 0
5.720000 2.420000 3.740000 230 239 239 0
5.940000 2.420000 2.420000 214 243 244 0
6.160000 2.420000 2.420000 211 240 241 0
6.380000 2.420000 2.420000 197 237 242 0
6.600000 2.420000 3.740000 194 234 239 0
6.820000 2.420000 5.280000 195 234 237 0
7.040000 2.420000 6.600000 197 236 239 0
7.260000 2.420000 6.600000 196 236 239 0
7.480000 2.420000 6.600000 197 237 240 0
7.700000 2.420000 6.600000 197 237 240 0
7.920000 2.420000 6.600000 196 236 239 0
8.140000 2.420000 6.600000 196 236 239 0
8.360000 2.420000 7.920000 196 236 239 0
8.580000 2.420000 6.600000 197 236 239 0
8.800000 2.420000 3.960000 197 236 239 0
9.020000 2.420000 2.640000 193 236 238 0
9.240000 2.420000 2.640000 193 236 238 0
9.460000 2.420000 1.320000 193 236 240 0
10.560000 2.420000 2.640000 196 236 239 0
10.780000 2.420000 5.500000 193 237 241 0
11.000000 2.420000 6.820000 192 236 240 0
11.220000 2.420000 6.820000 193 237 241 0
11.440000 2.420000 8.140000 192 236 240 0
11.660000 2.420000 8.140000 194 237 241 0
11.880000 2.420000 9.680000 194 237 241 0
12.100000 2.420000 9.680000 194 239 240 0
12.320000 2.420000 9.680000 193 238 239 0
12.540000 2.420000 9.680000 193 237 241 0
12.760000 2.420000 10.780000 193 237 241 0
12.980000 2.420000 14.300000 190 237 240 0
13.200000 2.420000 22.220000 190 237 240 0
13.420000 2.420000 29.040000 190 237 240 0
13.640000 2.420000 30.580000 190 237 240 0
13.860000 2.420000 30.580000 191 238 241 0
14.080000 2.420000 30.580000 191 238 241 0
14.300000 2.420000 30.580000 191 238 241 0
14.520000 2.420000 30.580000 190 237 240 0
14.740000 2.420000 30.580000 190 237 240 0
14.960000 2.420000 29.260000 190 237 240 0
15.180000 2.420000 29.260000 191 238 241 0
15.400000 2.420000 30.580000 191 238 241 0
15.620000 2.420000 31.900000 189 238 240 0
15.840000 2.420000 33.440000 189 238 240 0
16.060000 2.420000 33.220000 191 238 239 0
16.280000 2.420000 34.760000 191 238 239 0
16.500000 2.420000 34.760000 190 237 238 0
16.720000 2.420000 34.540000 191 238 239 0
16.940000 2.420000 33.440000 191 238 239 0
17.160000 2.420000 32.560000 191 238 239 0
17.380000 2.420000 31.680000 189 238 238 0
17.600000 2.420000 31.680000 189 238 238 0
17.820000 2.420000 31.680000 191 238 239 0
18.040000 2.420000 31.460000 191 238 239 0
18.260000 2.420000 32.560000 190 239 239 0
18.480000 2.420000 33.660000 188 237 237 0
18.700000 2.420000 34.760000 188 237 237 0
18.920000 2.420000 34.540000 188 237 237 0
19.140000 2.420000 34.540000 189 238 238 0
19.360000 2.420000 34.540000 190 239 239 0
19.580000 2.420000 34.540000 189 238 238 0
19.800000 2.420000 34.760000 188 237 237 0
20.020000 2.420000 34.760000 188 237 237 0
20.240000 2.420000 34.760000 188 237 237 0
20.460000 2.420000 34.760000 188 237 237 0
20.680000 2.420000 34.760000 189 238 238 0
20.900000 2.420000 36.080000 187 238 239 0
21.120000 2.420000 36.080000 186 237 238 0
21.340000 2.420000 36.080000 188 237 237 0
21.560000 2.420000 36.080000 188 237 237 0
21.780000 2.420000 37.400000 189 238 238 0
22.000000 2.420000 37.400000 189 238 238 0
22.220000 2.420000 37.400000 189 238 238 0
22.440000 2.420000 36.300000 189 238 238 0
22.660000 2.420000 36.300000 188 239 240 0
22.880000 2.420000 36.300000 187 238 239 0
23.100000 2.420000 37.400000 187 238 237 0
23.320000 2.420000 37.620000 187 238 237 0
23.540000 2.420000 35.640000 187 238 239 0
23.760000 2.420000 35.640000 187 238 239 0
23.980000 2.420000 37.620000 187 238 237 0
24.200000 2.420000 38.720000 187 238 237 0
24.420000 2.420000 38.720000 187 238 239 0
24.640000 2.420000 37.400000 187 238 239 0
24.860000 2.420000 37.400000 184 237 238 0
25.080000 2.420000 37.400000 184 237 238 0
25.300000 2.420000 38.720000 186 237 238 0
25.520000 2.420000 38.940000 187 238 239 0
25.740000 2.420000 38.940000 185 238 241 0
25.960000 2.420000 38.940000 184 237 240 0
26.180000 2.420000 38.940000 186 237 238 0
26.400000 2.420000 37.400000 187 238 239 0
26.620000 2.420000 26.400000 186 237 238 0
26.840000 2.420000 11.220000 186 237 238 0
27.060000 2.420000 4.180000 187 238 239 0
27.280000 2.420000 5.720000 186 237 238 0
27.500000 2.420000 7.040000 186 237 238 0
27.720000 2.420000 7.040000 187 238 239 0
27.940000 2.420000 5.720000 192 237 238 0
28.160000 2.420000 14.080000 194 239 240 0
28.380000 2.420000 31.900000 195 238 240 0
28.600000 2.420000 38.940000 196 239 241 0
28.820000 2.420000 38.940000 189 238 240 0
29.040000 2.420000 36.300000 188 237 239 0
29.260000 2.420000 32.120000 186 234 239 0
29.480000 2.420000 26.620000 185 233 238 0
29.700000 2.420000 16.940000 189 232 236 0
29.920000 2.420000 10.120000 192 235 239 0
30.140000 2.420000 6.380000 197 237 240 0
30.360000 2.420000 6.380000 198 238 241 0
30.580000 2.420000 6.380000 199 238 240 0
30.800000 2.420000 5.280000 199 238 240 0
31.020000 2.420000 5.280000 199 238 240 0
31.240000 2.420000 5.280000 200 239 241 0
31.460000 2.420000 9.460000 200 239 242 0
31.680000 2.420000 17.820000 200 239 242 0
31.900000 2.420000 13.640000 200 239 242 0
32.120000 2.420000 14.740000 199 238 241 0
32.340000 2.420000 28.160000 200 237 240 0
32.560000 2.420000 39.160000 200 237 240 0
32.780000 2.420000 40.700000 201 235 240 0
33.000000 2.420000 39.820000 200 234 239 0
33.220000 2.420000 38.720000 197 234 238 0
33.440000 2.420000 37.180000 197 234 238 0
33.660000 2.420000 37.180000 197 231 238 0
33.880000 2.420000 37.180000 197 231 238 0
34.100000 2.420000 37.180000 195 232 238 0
34.320000 2.420000 37.180000 194 231 237 0
34.540000 2.420000 35.640000 196 228 236 0
34.760000 2.420000 36.960000 196 228 236 0
34.980000 2.420000 38.280000 197 226 237 0
35.200000 2.420000 38.500000 196 225 236 0
35.420000 2.420000 28.820000 194 225 238 0
35.640000 2.420000 12.100000 193 224 237 0
35.860000 2.420000 5.280000 193 225 235 0
36.080000 2.420000 3.740000 193 225 235 0
36.300000 2.420000 2.200000 194 223 234 0
36.520000 2.420000 3.520000 195 224 235 0
36.740000 2.420000 3.740000 192 223 236 0
36.960000 2.420000 3.740000 192 223 236 0
37.180000 2.420000 3.740000 191 224 234 0
0.000000 2.640000 2.420000 214 241 243 0
0.220000 2.640000 2.420000 216 244 243 0
0.440000 2.640000 2.640000 216 244 243 0
0.660000 2.640000 2.640000 219 244 244 0
0.880000 2.640000 2.640000 219 244 244 0
1.100000 2.640000 2.640000 221 244 245 0
1.320000 2.640000 2.640000 221 244 245 0
1.540000 2.640000 2.640000 221 245 244 0
1.760000 2.640000 3.520000 221 245 244 0
1.980000 2.640000 5.720000 221 245 244 0
2.200000 2.640000 7.040000 221 245 244 0
2.420000 2.640000 7.040000 224 245 245 0
2.640000 2.640000 5.720000 224 245 245 0
2.860000 2.640000 5.720000 224 245 245 0
3.080000 2.640000 4.400000 224 245 245 0
3.300000 2.640000 4.400000 226 244 243 0
3.520000 2.640000 4.400000 226 244 243 0
3.740000 2.640000 5.720000 227 245 244 0
3.960000 2.640000 5.720000 227 245 244 0
4.180000 2.640000 7.260000 233 243 240 0
4.400000 2.640000 7.260000 233 243 240 0
4.620000 2.640000 7.260000 232 243 242 0
4.840000 2.640000 7.480000 231 242 241 0
5.060000 2.640000 6.160000 232 243 242 0
5.280000 2.640000 4.840000 231 242 241 0
5.500000 2.640000 5.060000 220 245 245 0
5.720000 2.640000 5.060000 219 244 244 0
5.940000 2.640000 3.740000 214 243 246 0
6.160000 2.640000 3.740000 211 240 243 0
6.380000 2.640000 2.420000 200 240 243 0
6.600000 2.640000 3.740000 196 236 239 0
6.820000 2.640000 5.280000 197 236 239 0
7.040000 2.640000 6.600000 197 236 239 0
7.260000 2.640000 6.600000 198 237 240 0
7.480000 2.640000 6.600000 196 235 238 0
7.700000 2.640000 5.280000 197 236 239 0
7.920000 2.640000 5.280000 197 236 239 0
8.140000 2.640000 6.600000 197 236 239 0
8.360000 2.640000 6.600000 197 236 239 0
8.580000 2.640000 5.280000 198 237 240 0
8.800000 2.640000 3.960000 198 237 240 0
9.020000 2.640000 2.640000 196 236 239 0
9.240000 2.640000 2.640000 197 237 240 0
9.460000 2.640000 2.640000 197 237 240 0
9.680000 2.640000 1.320000 197 237 240 0
10.120000 2.640000 1.320000 197 237 240 0
10.340000 2.640000 2.640000 195 238 240 0
10.560000 2.640000 5.500000 195 238 240 0
10.780000 2.640000 8.140000 198 237 240 0
11.000000 2.640000 8.140000 198 237 240 0
11.220000 2.640000 8.140000 195 238 240 0
11.440000 2.640000 8.140000 195 238 240 0
11.660000 2.640000 9.680000 196 239 241 0
11.880000 2.640000 9.680000 196 239 241 0
12.100000 2.640000 9.680000 195 238 240 0
12.320000 2.640000 11.000000 195 238 240 0
12.540000 2.640000 12.320000 196 239 241 0
12.760000 2.640000 12.320000 195 238 240 0
12.980000 2.640000 13.200000 194 239 240 0
13.200000 2.640000 18.260000 193 238 239 0
13.420000 2.640000 23.540000 193 237 241 0
13.640000 2.640000 26.400000 193 237 241 0
13.860000 2.640000 26.400000 195 238 240 0
14.080000 2.640000 26.400000 194 237 239 0
14.300000 2.640000 27.720000 195 238 240 0
14.520000 2.640000 29.040000 194 237 239 0
14.740000 2.640000 29.260000 191 238 241 0
14.960000 2.640000 27.720000 190 237 240 0
15.180000 2.640000 26.400000 191 238 241 0
15.400000 2.640000 27.940000 192 239 242 0
15.620000 2.640000 30.580000 190 239 241 0
15.840000 2.640000 31.900000 190 239 241 0
16.060000 2.640000 31.900000 193 238 239 0
16.280000 2.640000 31.900000 194 239 240 0
16.500000 2.640000 32.120000 192 239 240 0
16.720000 2.640000 32.120000 192 239 240 0
16.940000 2.640000 32.340000 192 239 240 0
17.160000 2.640000 31.460000 192 239 240 0
17.380000 2.640000 31.680000 190 239 239 0
17.600000 2.640000 31.680000 190 239 239 0
17.820000 2.640000 31.680000 191 238 239 0
18.040000 2.640000 31.680000 191 238 239 0
18.260000 2.640000 31.680000 191 238 239 0
18.480000 2.640000 32.560000 191 238 239 0
18.700000 2.640000 33.440000 189 238 238 0
18.920000 2.640000 34.540000 189 238 238 0
19.140000 2.640000 34.540000 190 239 239 0
19.360000 2.640000 34.540000 191 240 240 0
19.580000 2.640000 33.220000 189 238 238 0
19.800000 2.640000 33.220000 188 237 237 0
20.020000 2.640000 33.220000 189 236 237 0
20.240000 2.640000 33.220000 191 238 239 0
20.460000 2.640000 34.760000 189 238 238 0
20.680000 2.640000 34.760000 189 238 238 0
20.900000 2.640000 34.760000 189 238 238 0
21.120000 2.640000 34.760000 189 238 238 0
21.340000 2.640000 36.080000 188 237 237 0
21.560000 2.640000 36.080000 189 238 238 0
21.780000 2.640000 37.400000 189 238 238 0
22.000000 2.640000 37.400000 188 237 237 0
22.220000 2.640000 36.300000 190 239 239 0
22.440000 2.640000 35.420000 189 238 238 0
22.660000 2.640000 34.100000 189 238 238 0
22.880000 2.640000 35.420000 189 238 238 0
23.100000 2.640000 36.520000 189 238 238 0
23.320000 2.640000 35.200000 188 237 237 0
23.540000 2.640000 34.320000 189 238 238 0
23.760000 2.640000 34.100000 189 238 238 0
23.980000 2.640000 36.300000 187 238 237 0
24.200000 2.640000 37.400000 187 238 237 0
24.420000 2.640000 37.400000 187 238 237 0
24.640000 2.640000 37.400000 186 237 236 0
24.860000 2.640000 37.400000 185 236 237 0
25.080000 2.640000 37.400000 185 236 237 0
25.300000 2.640000 37.400000 187 236 236 0
25.520000 2.640000 38.940000 188 237 237 0
25.740000 2.640000 38.940000 185 238 239 0
25.960000 2.640000 38.940000 184 237 238 0
26.180000 2.640000 37.400000 188 237 237 0
26.400000 2.640000 27.720000 189 238 238 0
26.620000 2.640000 15.400000 192 237 238 0
26.840000 2.640000 7.040000 192 237 238 0
27.060000 2.640000 5.720000 192 235 236 0
27.280000 2.640000 7.040000 192 235 236 0
27.500000 2.640000 7.040000 204 233 232 0
27.720000 2.640000 7.040000 204 233 232 0
27.940000 2.640000 7.260000 227 231 229 0
28.160000 2.640000 14.080000 229 233 231 0
28.380000 2.640000 30.580000 226 237 236 0
28.600000 2.640000 36.080000 225 236 235 0
28.820000 2.640000 32.120000 197 240 241 0
29.040000 2.640000 25.300000 194 237 238 0
29.260000 2.640000 15.620000 187 235 240 0
29.480000 2.640000 10.120000 185 233 238 0
29.700000 2.640000 8.580000 189 232 236 0
29.920000 2.640000 7.480000 192 235 239 0
30.140000 2.640000 6.600000 198 237 239 0
30.360000 2.640000 5.280000 199 238 240 0
30.580000 2.640000 5.280000 200 239 241 0
30.800000 2.640000 5.280000 200 239 241 0
31.020000 2.640000 5.280000 201 238 241 0
31.240000 2.640000 6.600000 201 238 241 0
31.460000 2.640000 16.500000 202 239 243 0
31.680000 2.640000 29.040000 201 238 242 0
31.900000 2.640000 31.680000 200 237 240 0
32.120000 2.640000 31.680000 200 237 240 0
32.340000 2.640000 36.960000 199 238 241 0
32.560000 2.640000 39.820000 198 237 240 0
32.780000 2.640000 39.820000 199 236 240 0
33.000000 2.640000 39.820000 198 235 239 0
33.220000 2.640000 38.720000 197 234 240 0
33.440000 2.640000 37.180000 196 233 239 0
33.660000 2.640000 37.180000 195 232 238 0
33.880000 2.640000 37.180000 195 232 238 0
34.100000 2.640000 37.180000 194 230 239 0
34.320000 2.640000 37.180000 193 229 238 0
34.540000 2.640000 35.640000 195 228 238 0
34.760000 2.640000 36.960000 194 227 237 0
34.980000 2.640000 38.280000 194 226 236 0
35.200000 2.640000 38.500000 193 225 235 0
35.420000 2.640000 28.820000 194 225 238 0
35.640000 2.640000 17.600000 193 224 237 0
35.860000 2.640000 14.960000 190 226 237 0
36.080000 2.640000 7.920000 190 226 237 0
36.300000 2.640000 2.420000 191 224 236 0
36.520000 2.640000 3.740000 190 223 235 0
36.740000 2.640000 3.740000 189 226 239 0
36.960000 2.640000 3.740000 188 225 238 0
37.180000 2.640000 3.740000 189 225 236 0
0.000000 2.860000 2.420000 213 240 242 0
0.220000 2.860000 2.420000 213 241 240 0
0.440000 2.860000 2.420000 213 241 240 0
0.660000 2.860000 2.640000 216 241 241 0
0.880000 2.860000 2.640000 216 241 241 0
1.100000 2.860000 2.640000 218 241 242 0
1.320000 2.860000 2.640000 218 241 242 0
1.540000 2.860000 2.640000 219 243 242 0
1.760000 2.860000 3.740000 218 242 241 0
1.980000 2.860000 5.940000 218 242 241 0
2.200000 2.860000 8.360000 219 243 242 0
2.420000 2.860000 8.360000 221 242 242 0
2.640000 2.860000 7.040000 221 242 242 0
2.860000 2.860000 7.040000 220 241 241 0
3.080000 2.860000 5.720000 221 242 242 0
3.300000 2.860000 5.720000 223 241 240 0
3.520000 2.860000 5.720000 223 241 240 0
3.740000 2.860000 5.940000 224 242 241 0
3.960000 2.860000 5.940000 224 242 241 0
4.180000 2.860000 7.260000 230 240 237 0
4.400000 2.860000 7.260000 231 241 238 0
4.620000 2.860000 7.480000 230 241 240 0
4.840000 2.860000 7.480000 229 240 239 0
5.060000 2.860000 6.160000 229 240 239 0
5.280000 2.860000 4.840000 229 240 239 0
5.500000 2.860000 5.060000 218 243 243 0
5.720000 2.860000 5.060000 216 241 241 0
5.940000 2.860000 5.060000 212 241 244 0
6.160000 2.860000 5.280000 210 239 242 0
6.380000 2.860000 3.740000 200 240 243 0
6.600000 2.860000 3.960000 196 236 239 0
6.820000 2.860000 5.280000 197 236 239 0
7.040000 2.860000 6.600000 197 236 239 0
7.260000 2.860000 6.600000 197 236 239 0
7.480000 2.860000 5.280000 196 235 238 0
7.700000 2.860000 5.280000 197 236 239 0
7.920000 2.860000 5.280000 197 236 239 0
8.140000 2.860000 5.280000 198 237 240 0
8.360000 2.860000 5.280000 198 237 240 0
8.580000 2.860000 5.280000 198 237 240 0
8.800000 2.860000 3.960000 198 237 240 0
9.020000 2.860000 2.640000 197 237 240 0
9.240000 2.860000 2.640000 197 237 240 0
9.460000 2.860000 2.640000 196 236 239 0
9.680000 2.860000 1.100000 197 237 240 0
9.900000 2.860000 2.420000 197 237 240 0
10.120000 2.860000 3.740000 198 238 241 0
10.340000 2.860000 6.600000 195 238 240 0
10.560000 2.860000 7.920000 194 237 239 0
10.780000 2.860000 8.140000 198 237 240 0
11.000000 2.860000 8.140000 198 237 240 0
11.220000 2.860000 8.140000 195 238 240 0
11.440000 2.860000 8.140000 194 237 239 0
11.660000 2.860000 9.680000 195 238 240 0
11.880000 2.860000 9.680000 195 238 240 0
12.100000 2.860000 11.000000 195 238 240 0
12.320000 2.860000 12.320000 195 238 240 0
12.540000 2.860000 15.180000 195 238 240 0
12.760000 2.860000 13.860000 195 238 240 0
12.980000 2.860000 14.960000 194 239 240 0
13.200000 2.860000 19.800000 193 238 239 0
13.420000 2.860000 23.540000 193 237 241 0
13.640000 2.860000 23.540000 194 238 242 0
13.860000 2.860000 23.540000 195 238 240 0
14.080000 2.860000 23.540000 195 238 240 0
14.300000 2.860000 24.860000 195 238 240 0
14.520000 2.860000 27.720000 195 238 240 0
14.740000 2.860000 27.720000 192 239 242 0
14.960000 2.860000 25.080000 191 238 241 0
15.180000 2.860000 23.760000 192 239 242 0
15.400000 2.860000 26.400000 191 238 241 0
15.620000 2.860000 29.260000 190 239 241 0
15.840000 2.860000 30.580000 189 238 240 0
16.060000 2.860000 30.580000 193 238 239 0
16.280000 2.860000 29.480000 194 239 240 0
16.500000 2.860000 29.920000 193 240 241 0
16.720000 2.860000 30.140000 192 239 240 0
16.940000 2.860000 30.140000 192 239 240 0
17.160000 2.860000 30.360000 192 239 240 0
17.380000 2.860000 30.360000 191 240 240 0
17.600000 2.860000 30.360000 190 239 239 0
17.820000 2.860000 30.360000 190 237 238 0
18.040000 2.860000 30.360000 191 238 239 0
18.260000 2.860000 30.360000 190 237 238 0
18.480000 2.860000 31.460000 190 237 238 0
18.700000 2.860000 33.440000 190 239 239 0
18.920000 2.860000 34.540000 189 238 238 0
19.140000 2.860000 34.540000 189 238 238 0
19.360000 2.860000 34.540000 189 238 238 0
19.580000 2.860000 33.220000 188 237 237 0
19.800000 2.860000 33.220000 189 238 238 0
20.020000 2.860000 33.220000 189 236 237 0
20.240000 2.860000 33.220000 191 238 239 0
20.460000 2.860000 33.440000 188 237 237 0
20.680000 2.860000 34.760000 189 238 238 0
20.900000 2.860000 34.760000 189 238 238 0
21.120000 2.860000 34.760000 188 237 237 0
21.340000 2.860000 36.080000 188 237 237 0
21.560000 2.860000 36.080000 189 238 238 0
21.780000 2.860000 36.080000 189 238 238 0
22.000000 2.860000 36.080000 189 238 238 0
22.220000 2.860000 34.980000 190 239 239 0
22.440000 2.860000 34.100000 189 238 238 0
22.660000 2.860000 33.220000 188 237 237 0
22.880000 2.860000 34.540000 189 238 238 0
23.100000 2.860000 34.320000 189 238 238 0
23.320000 2.860000 34.100000 188 237 237 0
23.540000 2.860000 34.320000 187 236 236 0
23.760000 2.860000 34.100000 187 236 236 0
23.980000 2.860000 36.300000 187 238 237 0
24.200000 2.860000 37.400000 187 238 237 0
24.420000 2.860000 37.400000 187 238 237 0
24.640000 2.860000 37.400000 186 237 236 0
24.860000 2.860000 37.400000 185 236 237 0
25.080000 2.860000 37.400000 185 236 237 0
25.300000 2.860000 37.400000 188 237 237 0
25.520000 2.860000 38.940000 188 237 237 0
25.740000 2.860000 38.940000 185 238 239 0
25.960000 2.860000 37.400000 184 237 238 0
26.180000 2.860000 27.720000 188 237 237 0
26.400000 2.860000 14.080000 189 238 238 0
26.620000 2.860000 5.720000 192 237 238 0
26.840000 2.860000 5.720000 193 238 239 0
27.060000 2.860000 7.040000 194 237 238 0
27.280000 2.860000 7.040000 197 240 241 0
27.500000 2.860000 8.360000 209 238 237 0
27.720000 2.860000 8.580000 213 242 241 0
27.940000 2.860000 7.260000 233 237 235 0
28.160000 2.860000 12.760000 237 241 239 0
28.380000 2.860000 30.580000 232 243 242 0
28.600000 2.860000 32.120000 230 241 240 0
28.820000 2.860000 16.940000 200 243 244 0
29.040000 2.860000 8.800000 195 238 239 0
29.260000 2.860000 4.620000 187 235 240 0
29.480000 2.860000 4.620000 185 233 238 0
29.700000 2.860000 5.940000 190 233 237 0
29.920000 2.860000 6.160000 192 235 239 0
30.140000 2.860000 5.060000 198 237 239 0
30.360000 2.860000 5.280000 199 238 240 0
30.580000 2.860000 5.280000 199 238 240 0
30.800000 2.860000 5.280000 199 238 240 0
31.020000 2.860000 5.280000 200 237 240 0
31.240000 2.860000 12.100000 201 238 241 0
31.460000 2.860000 26.180000 201 238 242 0
31.680000 2.860000 37.180000 200 237 241 0
31.900000 2.860000 38.720000 200 237 240 0
32.120000 2.860000 38.720000 200 237 240 0
32.340000 2.860000 38.720000 198 237 240 0
32.560000 2.860000 38.720000 198 237 240 0
32.780000 2.860000 38.720000 198 235 239 0
33.000000 2.860000 38.500000 198 235 239 0
33.220000 2.860000 38.500000 197 234 240 0
33.440000 2.860000 37.180000 196 233 239 0
33.660000 2.860000 37.180000 194 231 237 0
33.880000 2.860000 37.180000 194 231 237 0
34.100000 2.860000 37.180000 193 229 238 0
34.320000 2.860000 37.180000 192 228 237 0
34.540000 2.860000 35.640000 194 227 237 0
34.760000 2.860000 36.960000 194 227 237 0
34.980000 2.860000 38.280000 194 226 236 0
35.200000 2.860000 38.500000 194 226 236 0
35.420000 2.860000 30.140000 193 224 237 0
35.640000 2.860000 24.640000 193 224 237 0
35.860000 2.860000 21.780000 190 226 237 0
36.080000 2.860000 9.460000 188 224 235 0
36.300000 2.860000 1.100000 190 223 235 0
36.520000 2.860000 2.420000 190 223 235 0
36.740000 2.860000 3.740000 187 224 237 0
36.960000 2.860000 3.740000 187 224 237 0
37.180000 2.860000 2.420000 189 225 236 0
0.000000 3.080000 2.420000 212 239 241 0
0.220000 3.080000 2.420000 213 240 242 0
0.440000 3.080000 2.420000 213 240 242 0
0.660000 3.080000 2.420000 213 241 240 0
0.880000 3.080000 2.640000 213 241 240 0
1.100000 3.080000 2.640000 213 240 242 0
1.320000 3.080000 2.640000 212 239 241 0
1.540000 3.080000 2.640000 213 240 242 0
1.760000 3.080000 3.740000 213 240 242 0
1.980000 3.080000 5.940000 213 241 240 0
2.200000 3.080000 8.360000 213 241 240 0
2.420000 3.080000 8.360000 213 240 242 0
2.640000 3.080000 7.040000 214 241 243 0
2.860000 3.080000 7.040000 213 240 242 0
3.080000 3.080000 7.040000 213 240 242 0
3.300000 3.080000 7.040000 215 240 242 0
3.520000 3.080000 7.260000 215 240 242 0
3.740000 3.080000 7.260000 215 240 242 0
3.960000 3.080000 7.260000 215 240 242 0
4.180000 3.080000 7.260000 214 241 243 0
4.400000 3.080000 7.480000 215 242 244 0
4.620000 3.080000 7.480000 215 242 244 0
4.840000 3.080000 6.160000 215 242 244 0
5.060000 3.080000 6.160000 215 242 244 0
5.280000 3.080000 4.840000 215 242 244 0
5.500000 3.080000 5.060000 214 241 243 0
5.720000 3.080000 5.060000 213 240 242 0
5.940000 3.080000 5.060000 211 240 241 0
6.160000 3.080000 5.060000 210 239 240 0
6.380000 3.080000 5.280000 206 239 243 0
6.600000 3.080000 5.280000 203 236 240 0
6.820000 3.080000 5.280000 198 235 239 0
7.040000 3.080000 6.600000 197 234 238 0
7.260000 3.080000 5.280000 197 234 238 0
7.480000 3.080000 3.960000 198 235 239 0
7.700000 3.080000 3.960000 198 235 238 0
7.920000 3.080000 3.960000 198 235 238 0
8.140000 3.080000 5.280000 199 236 239 0
8.360000 3.080000 5.280000 198 235 238 0
8.580000 3.080000 5.500000 201 234 238 0
8.800000 3.080000 3.960000 202 235 239 0
9.020000 3.080000 4.180000 198 237 240 0
9.240000 3.080000 2.640000 197 236 239 0
9.460000 3.080000 2.420000 198 237 239 0
9.680000 3.080000 4.620000 198 237 239 0
9.900000 3.080000 5.940000 197 237 240 0
10.120000 3.080000 7.260000 197 237 240 0
10.340000 3.080000 8.580000 199 236 240 0
10.560000 3.080000 10.120000 199 236 240 0
10.780000 3.080000 9.240000 199 236 239 0
11.000000 3.080000 8.140000 200 237 240 0
11.220000 3.080000 8.140000 198 237 240 0
11.440000 3.080000 8.140000 198 237 240 0
11.660000 3.080000 9.680000 197 236 239 0
11.880000 3.080000 9.680000 197 236 239 0
12.100000 3.080000 11.000000 199 236 239 0
12.320000 3.080000 15.180000 199 236 239 0
12.540000 3.080000 17.820000 197 236 238 0
12.760000 3.080000 17.820000 198 237 239 0
12.980000 3.080000 19.140000 193 238 239 0
13.200000 3.080000 21.560000 193 238 239 0
13.420000 3.080000 25.080000 193 238 239 0
13.640000 3.080000 24.860000 193 238 239 0
13.860000 3.080000 23.540000 195 238 240 0
14.080000 3.080000 22.220000 195 238 240 0
14.300000 3.080000 23.540000 197 237 240 0
14.520000 3.080000 26.400000 197 237 240 0
14.740000 3.080000 26.400000 192 239 240 0
14.960000 3.080000 23.540000 191 238 239 0
15.180000 3.080000 22.220000 191 238 239 0
15.400000 3.080000 25.080000 191 238 239 0
15.620000 3.080000 27.720000 193 238 239 0
15.840000 3.080000 29.260000 193 238 239 0
16.060000 3.080000 29.260000 193 238 239 0
16.280000 3.080000 28.160000 194 239 240 0
16.500000 3.080000 27.280000 192 239 240 0
16.720000 3.080000 27.500000 192 239 240 0
16.940000 3.080000 29.040000 195 238 240 0
17.160000 3.080000 29.040000 194 237 239 0
17.380000 3.080000 29.040000 195 238 240 0
17.600000 3.080000 27.500000 196 239 241 0
17.820000 3.080000 29.040000 191 238 239 0
18.040000 3.080000 30.360000 191 238 239 0
18.260000 3.080000 30.360000 193 238 239 0
18.480000 3.080000 30.140000 193 238 239 0
18.700000 3.080000 32.120000 194 239 240 0
18.920000 3.080000 33.220000 193 238 239 0
19.140000 3.080000 34.540000 191 238 239 0
19.360000 3.080000 34.540000 189 236 237 0
19.580000 3.080000 33.220000 189 236 237 0
19.800000 3.080000 33.220000 189 236 237 0
20.020000 3.080000 33.220000 189 236 237 0
20.240000 3.080000 33.220000 190 237 238 0
20.460000 3.080000 33.440000 190 237 238 0
20.680000 3.080000 34.760000 189 236 237 0
20.900000 3.080000 34.760000 190 239 239 0
21.120000 3.080000 34.760000 188 237 237 0
21.340000 3.080000 36.080000 188 237 237 0
21.560000 3.080000 36.080000 188 237 237 0
21.780000 3.080000 36.080000 190 237 238 0
22.000000 3.080000 34.760000 191 238 239 0
22.220000 3.080000 33.880000 189 238 238 0
22.440000 3.080000 32.780000 189 238 238 0
22.660000 3.080000 33.220000 187 238 237 0
22.880000 3.080000 34.540000 187 238 237 0
23.100000 3.080000 33.220000 186 237 236 0
23.320000 3.080000 33.000000 187 238 237 0
23.540000 3.080000 34.100000 187 238 237 0
23.760000 3.080000 34.100000 187 238 237 0
23.980000 3.080000 34.980000 187 238 237 0
24.200000 3.080000 37.400000 187 238 237 0
24.420000 3.080000 37.400000 184 238 236 0
24.640000 3.080000 37.400000 185 239 237 0
24.860000 3.080000 37.400000 186 237 236 0
25.080000 3.080000 37.400000 186 237 236 0
25.300000 3.080000 38.720000 186 237 236 0
25.520000 3.080000 40.260000 187 238 237 0
25.740000 3.080000 40.260000 187 238 237 0
25.960000 3.080000 33.440000 186 237 236 0
26.180000 3.080000 16.720000 189 237 236 0
26.400000 3.080000 5.720000 190 238 237 0
26.620000 3.080000 4.400000 209 230 230 0
26.840000 3.080000 5.720000 212 233 233 0
27.060000 3.080000 7.040000 227 230 230 0
27.280000 3.080000 8.360000 232 235 235 0
27.500000 3.080000 8.360000 237 238 237 0
27.720000 3.080000 8.580000 239 240 239 0
27.940000 3.080000 5.720000 240 241 240 0
28.160000 3.080000 12.760000 240 241 240 0
28.380000 3.080000 29.260000 236 241 240 0
