ply
format ascii 1.0
element vertex 1115
property float x
property float y
property float z
property uchar red
property uchar green
property uchar blue
property uchar alpha
end_header
12.980000 15.180000 9.350000 190 193 193 0
13.200000 15.180000 9.460000 182 185 185 0
13.420000 15.180000 9.460000 177 175 173 0
13.640000 15.180000 8.800000 172 170 168 0
13.860000 15.180000 8.800000 165 165 170 0
14.080000 15.180000 9.570000 162 162 167 0
14.300000 15.180000 10.230000 160 158 158 0
14.520000 15.180000 10.340000 158 156 156 0
14.740000 15.180000 11.660000 155 152 156 0
14.960000 15.180000 14.300000 154 151 155 0
15.180000 15.180000 15.510000 154 151 155 0
15.400000 15.180000 16.170000 152 149 153 0
15.620000 15.180000 16.940000 151 149 155 0
15.840000 15.180000 17.490000 149 147 153 0
16.060000 15.180000 13.860000 149 147 153 0
16.280000 15.180000 6.380000 148 146 152 0
16.500000 15.180000 1.100000 149 146 150 0
16.940000 15.180000 0.330000 150 147 151 0
17.160000 15.180000 0.990000 150 147 151 0
17.380000 15.180000 1.100000 149 147 153 0
17.600000 15.180000 1.870000 148 146 152 0
17.820000 15.180000 1.870000 149 146 150 0
18.040000 15.180000 1.870000 149 146 150 0
18.260000 15.180000 1.870000 153 148 150 0
18.480000 15.180000 1.210000 151 146 148 0
18.700000 15.180000 4.730000 150 145 147 0
18.920000 15.180000 13.090000 149 144 146 0
19.140000 15.180000 17.160000 146 143 147 0
19.360000 15.180000 17.930000 145 142 146 0
19.580000 15.180000 18.590000 144 141 147 0
19.800000 15.180000 16.500000 144 141 147 0
20.020000 15.180000 14.410000 142 139 143 0
20.240000 15.180000 15.840000 142 139 143 0
20.460000 15.180000 12.430000 143 138 140 0
20.680000 15.180000 2.750000 143 138 140 0
21.120000 15.180000 5.060000 143 136 138 0
21.340000 15.180000 11.110000 142 137 138 0
21.560000 15.180000 5.610000 141 136 137 0
22.220000 15.180000 0.110000 144 135 137 0
22.440000 15.180000 0.330000 144 135 137 0
22.660000 15.180000 0.880000 140 134 133 0
22.880000 15.180000 1.430000 140 134 133 0
23.100000 15.180000 1.430000 143 132 133 0
23.320000 15.180000 1.430000 142 131 132 0
23.540000 15.180000 1.540000 142 131 132 0
23.760000 15.180000 1.650000 142 131 132 0
23.980000 15.180000 1.540000 142 129 131 0
24.200000 15.180000 2.090000 143 130 132 0
24.420000 15.180000 2.090000 142 130 129 0
24.640000 15.180000 2.090000 141 129 128 0
24.860000 15.180000 2.860000 143 128 126 0
25.080000 15.180000 3.520000 142 127 125 0
25.300000 15.180000 3.520000 143 128 126 0
25.520000 15.180000 4.180000 143 128 126 0
25.740000 15.180000 4.950000 144 128 126 0
25.960000 15.180000 4.950000 143 127 125 0
26.180000 15.180000 5.610000 144 128 126 0
26.400000 15.180000 5.610000 144 128 126 0
26.620000 15.180000 5.610000 146 127 124 0
26.840000 15.180000 5.610000 145 126 123 0
27.060000 15.180000 5.610000 147 126 120 0
27.280000 15.180000 5.610000 145 124 118 0
27.500000 15.180000 4.840000 145 124 118 0
27.720000 15.180000 4.840000 144 123 117 0
27.940000 15.180000 4.840000 147 123 118 0
28.160000 15.180000 4.950000 145 121 116 0
28.380000 15.180000 5.720000 144 123 117 0
28.600000 15.180000 5.940000 142 121 115 0
28.820000 15.180000 6.050000 143 119 112 0
29.040000 15.180000 5.940000 142 118 111 0
29.260000 15.180000 6.050000 142 118 111 0
29.480000 15.180000 6.050000 142 118 111 0
29.700000 15.180000 6.050000 143 117 111 0
29.920000 15.180000 6.820000 142 116 110 0
30.140000 15.180000 6.820000 141 115 109 0
30.360000 15.180000 6.820000 141 115 109 0
30.580000 15.180000 6.160000 141 115 109 0
30.800000 15.180000 6.160000 144 118 112 0
31.020000 15.180000 6.160000 155 123 119 0
31.240000 15.180000 6.050000 159 127 123 0
31.460000 15.180000 5.390000 167 131 130 0
31.680000 15.180000 5.500000 167 131 130 0
31.900000 15.180000 5.500000 174 125 124 0
32.120000 15.180000 5.390000 174 125 124 0
32.340000 15.180000 5.170000 177 122 122 0
32.560000 15.180000 4.950000 177 122 122 0
32.780000 15.180000 4.180000 176 122 119 0
33.000000 15.180000 3.520000 175 121 118 0
33.220000 15.180000 2.750000 180 118 114 0
33.440000 15.180000 2.090000 178 116 112 0
33.660000 15.180000 4.180000 181 117 112 0
33.880000 15.180000 6.270000 181 117 112 0
34.100000 15.180000 5.610000 188 118 115 0
34.320000 15.180000 3.630000 189 119 116 0
34.540000 15.180000 3.740000 188 118 113 0
34.760000 15.180000 4.510000 189 119 114 0
34.980000 15.180000 4.510000 189 118 111 0
35.200000 15.180000 5.060000 188 117 110 0
35.420000 15.180000 6.380000 187 118 110 0
35.640000 15.180000 6.380000 186 117 109 0
35.860000 15.180000 6.600000 190 116 110 0
36.080000 15.180000 6.710000 189 115 109 0
36.300000 15.180000 6.710000 190 115 107 0
36.520000 15.180000 6.710000 189 114 106 0
36.740000 15.180000 7.370000 191 113 104 0
36.960000 15.180000 8.030000 191 113 104 0
37.180000 15.180000 8.690000 188 113 103 0
0.440000 15.400000 0.330000 182 203 204 0
0.660000 15.400000 0.990000 180 204 209 0
0.880000 15.400000 0.550000 181 205 210 0
1.100000 15.400000 0.660000 182 205 208 0
1.320000 15.400000 1.210000 182 205 208 0
1.540000 15.400000 1.540000 183 204 205 0
1.760000 15.400000 0.770000 184 205 206 0
1.980000 15.400000 1.540000 183 204 205 0
2.200000 15.400000 7.920000 183 204 205 0
2.420000 15.400000 16.940000 184 203 204 0
2.640000 15.400000 15.620000 183 202 203 0
2.860000 15.400000 4.510000 183 202 201 0
4.840000 15.400000 0.550000 201 211 208 0
5.060000 15.400000 1.540000 203 213 209 0
5.280000 15.400000 2.090000 203 213 209 0
5.500000 15.400000 2.200000 203 213 210 0
5.720000 15.400000 2.200000 204 214 211 0
5.940000 15.400000 2.860000 204 214 211 0
6.160000 15.400000 2.970000 204 214 211 0
6.380000 15.400000 2.970000 205 215 212 0
6.600000 15.400000 2.970000 205 215 212 0
6.820000 15.400000 2.970000 206 216 213 0
7.040000 15.400000 3.080000 205 215 212 0
7.260000 15.400000 3.080000 207 217 214 0
7.480000 15.400000 3.850000 206 216 213 0
7.700000 15.400000 3.850000 205 215 212 0
7.920000 15.400000 3.850000 206 216 213 0
8.140000 15.400000 3.850000 206 216 213 0
8.360000 15.400000 3.960000 206 216 213 0
8.580000 15.400000 3.960000 206 216 212 0
8.800000 15.400000 4.730000 206 216 212 0
9.020000 15.400000 4.730000 206 216 213 0
9.240000 15.400000 4.730000 206 216 213 0
9.460000 15.400000 4.730000 205 215 211 0
9.680000 15.400000 5.280000 206 216 212 0
9.900000 15.400000 6.380000 206 216 212 0
10.120000 15.400000 6.930000 205 215 211 0
10.340000 15.400000 6.930000 204 214 210 0
10.560000 15.400000 6.930000 204 214 210 0
10.780000 15.400000 7.040000 204 212 210 0
11.000000 15.400000 7.040000 203 211 209 0
11.220000 15.400000 7.810000 202 210 207 0
11.440000 15.400000 7.810000 201 209 206 0
11.660000 15.400000 7.810000 200 208 205 0
11.880000 15.400000 8.580000 200 208 205 0
12.100000 15.400000 8.580000 199 205 202 0
12.320000 15.400000 8.580000 198 204 201 0
12.540000 15.400000 8.580000 197 198 195 0
12.760000 15.400000 9.350000 193 194 191 0
12.980000 15.400000 9.350000 188 182 181 0
13.200000 15.400000 9.460000 181 175 174 0
13.420000 15.400000 8.690000 176 168 163 0
13.640000 15.400000 8.800000 171 163 158 0
13.860000 15.400000 9.460000 165 159 156 0
14.080000 15.400000 9.570000 162 156 153 0
14.300000 15.400000 10.230000 160 154 151 0
14.520000 15.400000 11.660000 158 152 149 0
14.740000 15.400000 12.430000 155 149 148 0
14.960000 15.400000 14.410000 154 148 147 0
15.180000 15.400000 15.070000 153 148 150 0
15.400000 15.400000 15.730000 151 146 148 0
15.620000 15.400000 16.500000 151 146 148 0
15.840000 15.400000 18.480000 151 146 148 0
16.060000 15.400000 18.150000 151 144 147 0
16.280000 15.400000 14.080000 151 144 147 0
16.500000 15.400000 5.940000 149 144 145 0
16.720000 15.400000 1.100000 148 143 144 0
16.940000 15.400000 0.220000 148 143 145 0
17.160000 15.400000 0.770000 149 144 146 0
17.380000 15.400000 1.650000 149 144 146 0
17.600000 15.400000 2.420000 148 143 145 0
17.820000 15.400000 3.080000 151 144 147 0
18.040000 15.400000 2.970000 150 143 146 0
18.260000 15.400000 2.310000 148 143 144 0
18.480000 15.400000 0.440000 149 144 145 0
18.700000 15.400000 4.730000 149 142 144 0
18.920000 15.400000 13.750000 148 141 143 0
19.140000 15.400000 18.590000 146 141 143 0
19.360000 15.400000 17.270000 147 142 144 0
19.580000 15.400000 15.180000 144 141 147 0
19.800000 15.400000 11.660000 144 141 147 0
20.020000 15.400000 9.680000 142 139 141 0
20.240000 15.400000 11.660000 142 139 141 0
20.460000 15.400000 11.000000 145 138 140 0
20.680000 15.400000 2.750000 144 137 139 0
21.120000 15.400000 3.630000 142 137 138 0
21.340000 15.400000 8.360000 144 137 139 0
21.560000 15.400000 4.180000 143 136 138 0
22.220000 15.400000 0.770000 142 135 137 0
22.440000 15.400000 0.880000 142 135 137 0
22.660000 15.400000 0.880000 141 134 136 0
22.880000 15.400000 1.540000 140 133 135 0
23.100000 15.400000 1.540000 142 133 133 0
23.320000 15.400000 1.430000 141 132 132 0
23.540000 15.400000 1.430000 142 133 133 0
23.760000 15.400000 1.430000 141 132 132 0
23.980000 15.400000 2.090000 141 130 131 0
24.200000 15.400000 2.090000 141 130 131 0
24.420000 15.400000 2.090000 140 129 130 0
24.640000 15.400000 2.090000 140 129 130 0
24.860000 15.400000 2.860000 141 129 128 0
25.080000 15.400000 3.520000 140 128 127 0
25.300000 15.400000 3.520000 141 129 126 0
25.520000 15.400000 4.180000 142 130 127 0
25.740000 15.400000 4.950000 143 128 126 0
25.960000 15.400000 4.950000 144 129 127 0
26.180000 15.400000 5.610000 142 127 125 0
26.400000 15.400000 5.610000 143 128 126 0
26.620000 15.400000 5.610000 145 129 127 0
26.840000 15.400000 5.610000 143 127 125 0
27.060000 15.400000 5.610000 144 126 121 0
27.280000 15.400000 5.610000 144 126 121 0
27.500000 15.400000 4.840000 145 125 119 0
27.720000 15.400000 4.840000 144 124 118 0
27.940000 15.400000 4.950000 145 124 118 0
28.160000 15.400000 5.060000 144 123 117 0
28.380000 15.400000 5.940000 145 121 116 0
28.600000 15.400000 6.050000 145 121 116 0
28.820000 15.400000 5.940000 143 119 112 0
29.040000 15.400000 5.940000 143 119 112 0
29.260000 15.400000 6.050000 144 118 112 0
29.480000 15.400000 6.050000 143 117 111 0
29.700000 15.400000 6.050000 142 116 110 0
29.920000 15.400000 6.160000 142 116 110 0
30.140000 15.400000 6.160000 142 116 110 0
30.360000 15.400000 5.390000 141 115 109 0
30.580000 15.400000 5.390000 143 117 111 0
30.800000 15.400000 6.160000 149 123 117 0
31.020000 15.400000 6.160000 161 122 120 0
31.240000 15.400000 6.160000 165 126 124 0
31.460000 15.400000 5.500000 175 125 123 0
31.680000 15.400000 5.390000 175 125 123 0
31.900000 15.400000 5.390000 177 121 117 0
32.120000 15.400000 5.280000 177 121 117 0
32.340000 15.400000 5.720000 176 120 116 0
32.560000 15.400000 4.840000 176 120 116 0
32.780000 15.400000 4.180000 178 117 111 0
33.000000 15.400000 3.520000 178 117 111 0
33.220000 15.400000 2.090000 177 115 111 0
33.440000 15.400000 0.770000 178 116 112 0
33.660000 15.400000 1.430000 180 115 108 0
33.880000 15.400000 2.090000 181 116 109 0
34.100000 15.400000 2.200000 186 118 112 0
34.320000 15.400000 2.970000 186 118 112 0
34.540000 15.400000 4.400000 187 115 111 0
34.760000 15.400000 4.510000 187 115 111 0
34.980000 15.400000 4.510000 189 114 106 0
35.200000 15.400000 4.400000 189 114 106 0
35.420000 15.400000 5.720000 188 113 105 0
35.640000 15.400000 6.380000 188 113 105 0
35.860000 15.400000 6.600000 187 112 104 0
36.080000 15.400000 6.710000 188 113 105 0
36.300000 15.400000 6.710000 188 112 107 0
36.520000 15.400000 6.710000 188 112 107 0
36.740000 15.400000 7.370000 190 112 103 0
36.960000 15.400000 8.690000 191 113 104 0
37.180000 15.400000 8.690000 191 112 103 0
0.440000 15.620000 0.990000 180 201 202 0
0.660000 15.620000 0.880000 179 203 208 0
0.880000 15.620000 0.550000 180 204 209 0
1.100000 15.620000 0.660000 181 204 207 0
1.320000 15.620000 1.210000 181 204 207 0
1.540000 15.620000 1.540000 183 204 205 0
1.760000 15.620000 0.770000 183 204 205 0
1.980000 15.620000 1.540000 184 205 206 0
2.200000 15.620000 7.920000 182 203 204 0
2.420000 15.620000 16.940000 183 202 203 0
2.640000 15.620000 15.620000 182 201 202 0
2.860000 15.620000 4.510000 182 201 200 0
4.840000 15.620000 0.550000 201 211 208 0
5.060000 15.620000 1.540000 201 211 207 0
5.280000 15.620000 2.090000 202 212 208 0
5.500000 15.620000 2.200000 203 213 210 0
5.720000 15.620000 2.200000 204 214 211 0
5.940000 15.620000 2.860000 203 213 210 0
6.160000 15.620000 2.970000 204 214 211 0
6.380000 15.620000 2.970000 204 214 211 0
6.600000 15.620000 2.970000 205 215 212 0
6.820000 15.620000 2.970000 205 215 212 0
7.040000 15.620000 3.080000 205 215 212 0
7.260000 15.620000 3.080000 204 214 211 0
7.480000 15.620000 3.850000 205 215 212 0
7.700000 15.620000 3.850000 205 215 212 0
7.920000 15.620000 3.850000 205 215 212 0
8.140000 15.620000 3.850000 205 215 212 0
8.360000 15.620000 3.960000 205 215 212 0
8.580000 15.620000 3.960000 206 216 212 0
8.800000 15.620000 4.730000 205 215 211 0
9.020000 15.620000 4.730000 204 214 211 0
9.240000 15.620000 4.730000 204 214 211 0
9.460000 15.620000 4.730000 205 215 211 0
9.680000 15.620000 5.280000 205 215 211 0
9.900000 15.620000 6.380000 204 214 210 0
10.120000 15.620000 6.930000 204 214 210 0
10.340000 15.620000 6.930000 204 214 210 0
10.560000 15.620000 6.930000 202 212 208 0
10.780000 15.620000 7.040000 203 211 209 0
11.000000 15.620000 7.700000 203 211 209 0
11.220000 15.620000 7.810000 202 210 207 0
11.440000 15.620000 7.810000 201 209 206 0
11.660000 15.620000 7.810000 199 207 204 0
11.880000 15.620000 8.580000 197 205 202 0
12.100000 15.620000 8.580000 197 203 200 0
12.320000 15.620000 8.580000 194 200 197 0
12.540000 15.620000 8.580000 192 193 190 0
12.760000 15.620000 8.690000 183 184 181 0
12.980000 15.620000 8.690000 181 175 174 0
13.200000 15.620000 8.690000 172 166 165 0
13.420000 15.620000 8.690000 171 163 158 0
13.640000 15.620000 9.460000 166 158 153 0
13.860000 15.620000 9.460000 161 155 152 0
14.080000 15.620000 10.230000 158 152 149 0
14.300000 15.620000 10.890000 157 151 148 0
14.520000 15.620000 12.320000 156 150 147 0
14.740000 15.620000 13.090000 153 147 146 0
14.960000 15.620000 14.410000 152 146 145 0
15.180000 15.620000 15.180000 150 145 147 0
15.400000 15.620000 15.840000 148 143 145 0
15.620000 15.620000 16.610000 148 143 145 0
15.840000 15.620000 17.930000 147 142 144 0
16.060000 15.620000 19.140000 149 142 145 0
16.280000 15.620000 18.920000 148 141 144 0
16.500000 15.620000 14.190000 147 142 143 0
16.720000 15.620000 7.920000 146 141 142 0
16.940000 15.620000 4.180000 146 141 143 0
17.160000 15.620000 2.090000 146 141 143 0
17.380000 15.620000 2.200000 147 142 144 0
17.600000 15.620000 2.860000 148 143 145 0
17.820000 15.620000 4.180000 147 140 143 0
18.040000 15.620000 3.520000 147 140 143 0
18.260000 15.620000 2.860000 146 141 142 0
18.480000 15.620000 0.880000 146 141 142 0
18.700000 15.620000 3.850000 145 138 140 0
18.920000 15.620000 10.890000 146 139 141 0
19.140000 15.620000 15.070000 146 141 143 0
19.360000 15.620000 12.320000 146 141 143 0
19.580000 15.620000 6.820000 144 141 147 0
19.800000 15.620000 3.410000 143 140 146 0
20.020000 15.620000 2.090000 142 139 141 0
20.240000 15.620000 2.750000 142 139 141 0
20.460000 15.620000 2.750000 145 138 140 0
21.120000 15.620000 1.540000 142 137 138 0
21.340000 15.620000 2.750000 143 136 138 0
21.560000 15.620000 1.430000 142 135 137 0
22.000000 15.620000 0.770000 142 136 135 0
22.220000 15.620000 0.770000 142 135 137 0
22.440000 15.620000 0.880000 142 135 137 0
22.660000 15.620000 0.440000 141 134 136 0
22.880000 15.620000 0.550000 141 134 136 0
23.100000 15.620000 1.100000 142 133 133 0
23.320000 15.620000 1.540000 142 133 133 0
23.540000 15.620000 2.090000 141 132 132 0
23.760000 15.620000 2.090000 141 132 132 0
23.980000 15.620000 2.090000 142 131 132 0
24.200000 15.620000 2.090000 142 131 132 0
24.420000 15.620000 2.090000 141 130 131 0
24.640000 15.620000 2.090000 140 129 130 0
24.860000 15.620000 2.860000 142 130 129 0
25.080000 15.620000 3.520000 142 130 129 0
25.300000 15.620000 3.520000 142 130 127 0
25.520000 15.620000 4.180000 142 130 127 0
25.740000 15.620000 4.950000 144 129 127 0
25.960000 15.620000 4.950000 143 128 126 0
26.180000 15.620000 4.950000 143 128 126 0
26.400000 15.620000 4.950000 143 128 126 0
26.620000 15.620000 5.610000 145 129 127 0
26.840000 15.620000 5.610000 144 128 126 0
27.060000 15.620000 5.610000 145 127 122 0
27.280000 15.620000 5.610000 145 127 122 0
27.500000 15.620000 4.840000 145 125 119 0
27.720000 15.620000 4.840000 144 124 118 0
27.940000 15.620000 4.950000 145 124 118 0
28.160000 15.620000 5.170000 144 123 117 0
28.380000 15.620000 6.050000 145 121 116 0
28.600000 15.620000 6.050000 145 121 116 0
28.820000 15.620000 5.940000 145 121 114 0
29.040000 15.620000 5.940000 144 120 113 0
29.260000 15.620000 6.050000 144 118 112 0
29.480000 15.620000 6.050000 144 118 112 0
29.700000 15.620000 5.390000 142 116 110 0
29.920000 15.620000 5.390000 142 116 110 0
30.140000 15.620000 5.390000 143 117 111 0
30.360000 15.620000 5.390000 144 118 112 0
30.580000 15.620000 5.390000 147 121 115 0
30.800000 15.620000 6.160000 151 125 119 0
31.020000 15.620000 6.160000 164 125 123 0
31.240000 15.620000 6.160000 165 126 124 0
31.460000 15.620000 5.500000 172 122 120 0
31.680000 15.620000 5.390000 172 122 120 0
31.900000 15.620000 5.940000 174 118 114 0
32.120000 15.620000 5.940000 174 118 114 0
32.340000 15.620000 5.060000 176 120 116 0
32.560000 15.620000 4.840000 174 118 114 0
32.780000 15.620000 4.180000 177 116 110 0
33.000000 15.620000 3.520000 177 116 110 0
33.220000 15.620000 2.090000 176 114 110 0
33.440000 15.620000 1.430000 175 113 109 0
33.660000 15.620000 2.090000 179 114 107 0
33.880000 15.620000 2.860000 180 115 108 0
34.100000 15.620000 3.520000 183 115 109 0
34.320000 15.620000 3.630000 184 116 110 0
34.540000 15.620000 4.400000 186 114 110 0
34.760000 15.620000 4.510000 185 113 109 0
34.980000 15.620000 4.510000 187 112 104 0
35.200000 15.620000 4.400000 187 112 104 0
35.420000 15.620000 5.720000 187 112 104 0
35.640000 15.620000 6.380000 187 112 104 0
35.860000 15.620000 6.490000 187 112 104 0
36.080000 15.620000 6.600000 187 112 104 0
36.300000 15.620000 6.710000 187 111 106 0
36.520000 15.620000 7.370000 187 111 106 0
36.740000 15.620000 8.030000 189 111 102 0
36.960000 15.620000 8.690000 189 111 102 0
37.180000 15.620000 9.350000 191 112 103 0
0.440000 15.840000 0.880000 180 201 202 0
0.660000 15.840000 0.880000 183 202 203 0
0.880000 15.840000 0.550000 183 202 203 0
1.100000 15.840000 0.660000 180 203 204 0
1.320000 15.840000 1.210000 181 204 205 0
1.540000 15.840000 1.540000 183 204 205 0
1.760000 15.840000 0.770000 184 205 206 0
1.980000 15.840000 4.290000 182 203 204 0
2.200000 15.840000 13.420000 181 202 203 0
2.420000 15.840000 19.690000 181 202 202 0
2.640000 15.840000 15.620000 181 202 202 0
2.860000 15.840000 4.510000 181 202 202 0
4.840000 15.840000 0.550000 200 210 207 0
5.060000 15.840000 1.540000 201 211 207 0
5.280000 15.840000 2.090000 202 212 208 0
5.500000 15.840000 2.200000 203 213 209 0
5.720000 15.840000 2.200000 203 213 209 0
5.940000 15.840000 2.860000 203 213 210 0
6.160000 15.840000 2.860000 204 214 211 0
6.380000 15.840000 2.970000 205 215 211 0
6.600000 15.840000 2.970000 205 215 211 0
6.820000 15.840000 2.970000 206 214 211 0
7.040000 15.840000 3.080000 205 213 210 0
7.260000 15.840000 3.080000 206 214 211 0
7.480000 15.840000 3.850000 207 215 212 0
7.700000 15.840000 3.850000 204 214 211 0
7.920000 15.840000 3.850000 204 214 211 0
8.140000 15.840000 3.850000 204 214 211 0
8.360000 15.840000 3.960000 205 215 212 0
8.580000 15.840000 3.960000 205 215 211 0
8.800000 15.840000 4.730000 205 215 211 0
9.020000 15.840000 4.730000 205 213 210 0
9.240000 15.840000 4.730000 205 213 210 0
9.460000 15.840000 4.730000 204 214 211 0
9.680000 15.840000 5.280000 205 215 212 0
9.900000 15.840000 6.380000 203 213 209 0
10.120000 15.840000 6.930000 203 213 209 0
10.340000 15.840000 6.930000 203 211 208 0
10.560000 15.840000 6.930000 202 210 207 0
10.780000 15.840000 7.040000 202 210 207 0
11.000000 15.840000 7.700000 201 209 206 0
11.220000 15.840000 7.810000 199 209 206 0
11.440000 15.840000 7.810000 198 208 205 0
11.660000 15.840000 7.810000 198 206 203 0
11.880000 15.840000 8.580000 195 203 200 0
12.100000 15.840000 8.580000 196 197 194 0
12.320000 15.840000 8.580000 191 192 189 0
12.540000 15.840000 8.580000 188 180 175 0
12.760000 15.840000 8.690000 181 173 168 0
12.980000 15.840000 8.690000 174 169 160 0
13.200000 15.840000 8.690000 168 163 154 0
13.420000 15.840000 8.690000 166 158 150 0
13.640000 15.840000 9.460000 162 154 146 0
13.860000 15.840000 9.460000 160 150 146 0
14.080000 15.840000 10.230000 159 149 145 0
14.300000 15.840000 10.890000 158 146 141 0
14.520000 15.840000 12.320000 156 144 139 0
14.740000 15.840000 13.750000 154 144 138 0
14.960000 15.840000 15.180000 153 143 137 0
15.180000 15.840000 15.840000 151 140 139 0
15.400000 15.840000 16.500000 151 140 139 0
15.620000 15.840000 17.270000 147 141 140 0
15.840000 15.840000 17.930000 146 140 139 0
16.060000 15.840000 19.140000 148 139 137 0
16.280000 15.840000 20.350000 147 138 136 0
16.500000 15.840000 19.580000 148 139 137 0
16.720000 15.840000 17.490000 148 139 137 0
16.940000 15.840000 12.540000 148 137 138 0
17.160000 15.840000 4.840000 149 138 139 0
17.380000 15.840000 2.860000 148 139 137 0
17.600000 15.840000 4.180000 147 138 136 0
17.820000 15.840000 4.840000 148 139 137 0
18.040000 15.840000 4.840000 147 138 136 0
18.260000 15.840000 3.520000 146 137 137 0
18.480000 15.840000 1.430000 146 137 137 0
18.700000 15.840000 1.540000 144 137 139 0
18.920000 15.840000 4.400000 145 138 140 0
19.140000 15.840000 5.720000 142 139 143 0
19.360000 15.840000 4.400000 144 141 145 0
19.580000 15.840000 1.760000 143 140 144 0
19.800000 15.840000 0.550000 143 140 144 0
20.020000 15.840000 0.550000 145 140 142 0
20.240000 15.840000 0.550000 144 139 141 0
20.900000 15.840000 0.220000 143 138 140 0
21.120000 15.840000 0.110000 143 138 140 0
21.780000 15.840000 0.770000 142 135 137 0
22.000000 15.840000 0.770000 141 134 136 0
22.220000 15.840000 0.770000 142 135 137 0
22.440000 15.840000 0.990000 142 135 137 0
22.660000 15.840000 0.550000 142 136 135 0
23.100000 15.840000 0.550000 143 134 134 0
23.320000 15.840000 1.540000 141 132 132 0
23.540000 15.840000 2.090000 139 133 132 0
23.760000 15.840000 2.090000 139 133 132 0
23.980000 15.840000 2.090000 139 133 132 0
24.200000 15.840000 2.090000 140 134 133 0
24.420000 15.840000 2.090000 139 133 132 0
24.640000 15.840000 2.090000 139 133 132 0
24.860000 15.840000 2.860000 141 130 129 0
25.080000 15.840000 2.860000 142 131 130 0
25.300000 15.840000 3.520000 143 132 131 0
25.520000 15.840000 4.180000 141 130 129 0
25.740000 15.840000 4.950000 142 130 127 0
25.960000 15.840000 4.950000 142 130 127 0
26.180000 15.840000 4.950000 142 130 127 0
26.400000 15.840000 4.950000 141 129 126 0
26.620000 15.840000 4.950000 145 129 125 0
26.840000 15.840000 4.840000 144 128 124 0
27.060000 15.840000 4.950000 143 127 123 0
27.280000 15.840000 4.950000 144 128 124 0
27.500000 15.840000 4.950000 144 124 120 0
27.720000 15.840000 4.950000 145 125 121 0
27.940000 15.840000 5.170000 144 124 120 0
28.160000 15.840000 5.280000 143 123 119 0
28.380000 15.840000 6.050000 144 123 117 0
28.600000 15.840000 6.050000 144 123 117 0
28.820000 15.840000 5.940000 142 121 113 0
29.040000 15.840000 6.050000 142 121 113 0
29.260000 15.840000 6.050000 142 121 115 0
29.480000 15.840000 5.390000 141 120 114 0
29.700000 15.840000 5.390000 143 117 111 0
29.920000 15.840000 4.730000 143 117 111 0
30.140000 15.840000 4.730000 144 118 112 0
30.360000 15.840000 4.730000 144 118 112 0
30.580000 15.840000 5.390000 159 119 115 0
30.800000 15.840000 6.160000 162 122 118 0
31.020000 15.840000 6.160000 172 124 119 0
31.240000 15.840000 5.500000 171 123 118 0
31.460000 15.840000 5.500000 175 121 116 0
31.680000 15.840000 6.050000 173 119 114 0
31.900000 15.840000 6.490000 175 117 111 0
32.120000 15.840000 5.830000 175 117 111 0
32.340000 15.840000 5.610000 177 116 110 0
32.560000 15.840000 4.840000 175 114 108 0
32.780000 15.840000 4.840000 179 114 107 0
33.000000 15.840000 3.520000 178 113 106 0
33.220000 15.840000 2.750000 180 112 106 0
33.440000 15.840000 2.090000 179 111 105 0
33.660000 15.840000 2.860000 181 111 106 0
33.880000 15.840000 3.520000 182 112 107 0
34.100000 15.840000 4.180000 183 115 109 0
34.320000 15.840000 4.290000 182 114 108 0
34.540000 15.840000 4.400000 186 112 104 0
34.760000 15.840000 4.510000 186 112 104 0
34.980000 15.840000 3.850000 186 111 103 0
35.200000 15.840000 3.740000 185 110 102 0
35.420000 15.840000 4.950000 188 110 103 0
35.640000 15.840000 5.610000 187 109 102 0
35.860000 15.840000 6.380000 188 110 103 0
36.080000 15.840000 6.600000 188 110 103 0
36.300000 15.840000 7.370000 190 111 102 0
36.520000 15.840000 7.370000 188 109 100 0
36.740000 15.840000 8.030000 188 110 101 0
36.960000 15.840000 8.690000 188 110 101 0
37.180000 15.840000 9.350000 188 110 101 0
0.440000 16.060000 0.880000 180 201 202 0
0.660000 16.060000 0.880000 183 202 203 0
0.880000 16.060000 0.550000 183 202 203 0
1.100000 16.060000 0.660000 180 203 204 0
1.320000 16.060000 1.210000 180 203 204 0
1.540000 16.060000 1.540000 182 203 204 0
1.760000 16.060000 0.770000 181 202 203 0
1.980000 16.060000 5.720000 181 202 203 0
2.200000 16.060000 15.510000 181 202 203 0
2.420000 16.060000 21.120000 180 201 201 0
2.640000 16.060000 15.620000 180 201 201 0
2.860000 16.060000 5.280000 180 201 201 0
4.840000 16.060000 0.550000 200 210 207 0
5.060000 16.060000 1.540000 200 210 206 0
5.280000 16.060000 2.090000 201 211 207 0
5.500000 16.060000 2.200000 202 212 208 0
5.720000 16.060000 2.200000 202 212 208 0
5.940000 16.060000 2.860000 203 213 210 0
6.160000 16.060000 2.860000 204 214 211 0
6.380000 16.060000 2.970000 204 214 210 0
6.600000 16.060000 2.970000 204 214 210 0
6.820000 16.060000 2.970000 205 213 210 0
7.040000 16.060000 3.080000 206 214 211 0
7.260000 16.060000 3.080000 205 213 210 0
7.480000 16.060000 3.850000 205 213 210 0
7.700000 16.060000 3.850000 204 214 211 0
7.920000 16.060000 3.850000 204 214 211 0
8.140000 16.060000 3.850000 203 213 210 0
8.360000 16.060000 3.960000 204 214 211 0
8.580000 16.060000 3.960000 203 213 209 0
8.800000 16.060000 4.730000 203 213 209 0
9.020000 16.060000 4.730000 204 212 209 0
9.240000 16.060000 4.730000 204 212 209 0
9.460000 16.060000 4.730000 203 213 210 0
9.680000 16.060000 5.280000 203 213 210 0
9.900000 16.060000 6.380000 203 213 209 0
10.120000 16.060000 6.930000 202 212 208 0
10.340000 16.060000 6.930000 202 210 207 0
10.560000 16.060000 6.930000 201 209 206 0
10.780000 16.060000 7.040000 200 208 205 0
11.000000 16.060000 7.700000 200 208 205 0
11.220000 16.060000 7.810000 198 208 205 0
11.440000 16.060000 7.810000 196 206 203 0
11.660000 16.060000 7.810000 194 202 199 0
11.880000 16.060000 8.580000 190 198 195 0
12.100000 16.060000 8.580000 189 190 187 0
12.320000 16.060000 8.580000 182 183 180 0
12.540000 16.060000 8.580000 180 172 167 0
12.760000 16.060000 8.690000 175 167 162 0
12.980000 16.060000 8.690000 166 161 152 0
13.200000 16.060000 8.690000 163 158 149 0
13.420000 16.060000 8.690000 161 153 145 0
13.640000 16.060000 9.460000 159 151 143 0
13.860000 16.060000 9.460000 158 148 144 0
14.080000 16.060000 10.230000 156 146 142 0
14.300000 16.060000 11.660000 155 143 138 0
14.520000 16.060000 12.980000 154 142 137 0
14.740000 16.060000 14.410000 152 142 136 0
14.960000 16.060000 15.840000 150 140 134 0
15.180000 16.060000 17.270000 149 138 137 0
15.400000 16.060000 17.270000 148 137 136 0
15.620000 16.060000 17.930000 144 138 137 0
15.840000 16.060000 18.700000 144 138 137 0
16.060000 16.060000 19.250000 147 138 136 0
16.280000 16.060000 20.350000 146 137 135 0
16.500000 16.060000 19.470000 145 136 134 0
16.720000 16.060000 17.380000 145 136 134 0
16.940000 16.060000 12.540000 147 136 137 0
17.160000 16.060000 6.270000 147 136 137 0
17.380000 16.060000 4.180000 145 136 134 0
17.600000 16.060000 5.610000 146 137 135 0
17.820000 16.060000 6.270000 144 135 133 0
18.040000 16.060000 5.610000 144 135 133 0
18.260000 16.060000 4.180000 145 136 136 0
18.480000 16.060000 2.200000 144 135 135 0
18.700000 16.060000 1.430000 142 135 137 0
18.920000 16.060000 1.430000 144 137 139 0
19.140000 16.060000 1.430000 143 140 144 0
19.360000 16.060000 1.430000 143 140 144 0
19.580000 16.060000 1.540000 143 140 144 0
19.800000 16.060000 2.310000 143 140 144 0
20.020000 16.060000 2.310000 144 139 141 0
20.240000 16.060000 2.310000 144 139 141 0
20.460000 16.060000 1.540000 145 138 140 0
20.680000 16.060000 1.540000 144 137 139 0
20.900000 16.060000 0.770000 143 138 140 0
21.120000 16.060000 0.660000 143 138 140 0
21.340000 16.060000 0.770000 144 137 139 0
21.560000 16.060000 0.770000 143 136 138 0
21.780000 16.060000 0.770000 143 136 138 0
22.000000 16.060000 0.660000 143 136 138 0
22.220000 16.060000 0.770000 142 135 137 0
22.440000 16.060000 0.990000 142 135 137 0
22.660000 16.060000 0.440000 141 135 134 0
22.880000 16.060000 0.550000 141 135 134 0
23.100000 16.060000 1.100000 143 134 134 0
23.320000 16.060000 1.540000 142 133 133 0
23.540000 16.060000 2.090000 139 133 132 0
23.760000 16.060000 2.090000 140 134 133 0
23.980000 16.060000 2.090000 139 133 132 0
24.200000 16.060000 2.090000 140 134 133 0
24.420000 16.060000 2.090000 139 133 132 0
24.640000 16.060000 2.090000 139 133 132 0
24.860000 16.060000 2.860000 141 130 129 0
25.080000 16.060000 2.860000 142 131 130 0
25.300000 16.060000 3.520000 142 131 130 0
25.520000 16.060000 4.180000 142 131 130 0
25.740000 16.060000 4.950000 143 131 128 0
25.960000 16.060000 4.950000 143 131 128 0
26.180000 16.060000 4.950000 142 130 127 0
26.400000 16.060000 4.950000 142 130 127 0
26.620000 16.060000 4.840000 145 129 125 0
26.840000 16.060000 4.840000 144 128 124 0
27.060000 16.060000 4.950000 143 127 123 0
27.280000 16.060000 4.400000 144 128 124 0
27.500000 16.060000 4.510000 147 127 123 0
27.720000 16.060000 4.510000 144 124 120 0
27.940000 16.060000 5.390000 145 125 121 0
28.160000 16.060000 6.050000 145 125 121 0
28.380000 16.060000 6.050000 144 123 117 0
28.600000 16.060000 6.710000 144 123 117 0
28.820000 16.060000 5.940000 142 121 113 0
29.040000 16.060000 6.050000 142 121 113 0
29.260000 16.060000 5.280000 142 121 115 0
29.480000 16.060000 5.390000 142 121 115 0
29.700000 16.060000 4.620000 144 118 112 0
29.920000 16.060000 3.960000 144 118 112 0
30.140000 16.060000 4.730000 145 119 113 0
30.360000 16.060000 4.730000 147 121 115 0
30.580000 16.060000 5.500000 160 120 116 0
30.800000 16.060000 5.500000 162 122 118 0
31.020000 16.060000 5.500000 170 122 117 0
31.240000 16.060000 5.500000 170 122 117 0
31.460000 16.060000 5.500000 173 119 114 0
31.680000 16.060000 6.050000 171 117 112 0
31.900000 16.060000 6.600000 174 116 110 0
32.120000 16.060000 5.720000 174 116 110 0
32.340000 16.060000 5.610000 174 113 107 0
32.560000 16.060000 5.500000 173 112 106 0
32.780000 16.060000 4.840000 176 111 104 0
33.000000 16.060000 3.520000 175 110 103 0
33.220000 16.060000 2.860000 178 110 104 0
33.440000 16.060000 2.860000 179 111 105 0
33.660000 16.060000 3.520000 180 110 105 0
33.880000 16.060000 4.180000 182 112 107 0
34.100000 16.060000 4.290000 180 112 106 0
34.320000 16.060000 4.290000 181 113 107 0
34.540000 16.060000 4.400000 184 110 102 0
34.760000 16.060000 4.510000 184 110 102 0
34.980000 16.060000 3.850000 185 110 102 0
35.200000 16.060000 3.190000 184 109 101 0
35.420000 16.060000 3.740000 186 108 101 0
35.640000 16.060000 5.610000 186 108 101 0
35.860000 16.060000 6.380000 186 108 101 0
36.080000 16.060000 6.600000 187 109 102 0
36.300000 16.060000 7.370000 188 109 100 0
36.520000 16.060000 7.370000 187 108 99 0
36.740000 16.060000 8.030000 186 108 99 0
36.960000 16.060000 8.690000 187 109 100 0
37.180000 16.060000 9.350000 187 109 100 0
0.440000 16.280000 0.880000 180 199 200 0
0.660000 16.280000 0.880000 180 201 201 0
0.880000 16.280000 0.550000 181 202 202 0
1.100000 16.280000 0.660000 183 202 201 0
1.320000 16.280000 1.210000 182 201 200 0
1.540000 16.280000 1.540000 183 202 203 0
1.760000 16.280000 0.770000 182 201 202 0
1.980000 16.280000 5.720000 183 202 201 0
2.200000 16.280000 15.510000 182 201 200 0
2.420000 16.280000 21.120000 181 202 202 0
2.640000 16.280000 15.620000 180 201 201 0
2.860000 16.280000 5.280000 181 200 199 0
4.840000 16.280000 0.550000 200 210 206 0
5.060000 16.280000 1.540000 201 211 207 0
5.280000 16.280000 2.090000 201 211 207 0
5.500000 16.280000 2.200000 203 212 206 0
5.720000 16.280000 2.200000 203 212 206 0
5.940000 16.280000 2.860000 202 212 208 0
6.160000 16.280000 2.860000 204 214 210 0
6.380000 16.280000 2.970000 204 214 210 0
6.600000 16.280000 2.970000 204 214 210 0
6.820000 16.280000 2.970000 204 214 210 0
7.040000 16.280000 3.080000 204 214 210 0
7.260000 16.280000 3.080000 205 214 208 0
7.480000 16.280000 3.850000 206 215 209 0
7.700000 16.280000 3.850000 204 214 210 0
7.920000 16.280000 3.850000 203 213 209 0
8.140000 16.280000 3.850000 204 214 210 0
8.360000 16.280000 3.960000 203 213 209 0
8.580000 16.280000 3.960000 203 213 209 0
8.800000 16.280000 4.730000 203 213 209 0
9.020000 16.280000 4.730000 204 213 207 0
9.240000 16.280000 4.730000 203 212 206 0
9.460000 16.280000 4.730000 203 213 209 0
9.680000 16.280000 5.280000 203 213 209 0
9.900000 16.280000 6.380000 203 212 206 0
10.120000 16.280000 6.930000 203 212 206 0
10.340000 16.280000 6.930000 202 210 207 0
10.560000 16.280000 6.930000 201 209 206 0
10.780000 16.280000 7.040000 200 209 203 0
11.000000 16.280000 7.700000 198 207 201 0
11.220000 16.280000 7.810000 197 205 202 0
11.440000 16.280000 7.810000 194 202 199 0
11.660000 16.280000 7.810000 192 198 195 0
11.880000 16.280000 8.580000 188 194 191 0
12.100000 16.280000 8.580000 187 181 176 0
12.320000 16.280000 8.580000 178 172 167 0
12.540000 16.280000 8.580000 175 168 157 0
12.760000 16.280000 8.690000 169 162 151 0
12.980000 16.280000 8.690000 167 156 147 0
13.200000 16.280000 8.690000 164 153 144 0
13.420000 16.280000 8.690000 165 151 143 0
13.640000 16.280000 9.460000 161 147 139 0
13.860000 16.280000 10.120000 159 145 139 0
14.080000 16.280000 10.890000 157 143 137 0
14.300000 16.280000 11.660000 156 141 133 0
14.520000 16.280000 13.750000 156 141 133 0
14.740000 16.280000 15.180000 155 140 132 0
14.960000 16.280000 16.500000 153 138 130 0
15.180000 16.280000 17.930000 152 136 131 0
15.400000 16.280000 17.930000 151 135 130 0
15.620000 16.280000 18.590000 147 136 129 0
15.840000 16.280000 19.250000 147 136 129 0
16.060000 16.280000 19.140000 149 135 130 0
16.280000 16.280000 20.350000 149 135 130 0
16.500000 16.280000 16.720000 148 134 128 0
16.720000 16.280000 9.680000 148 134 128 0
16.940000 16.280000 4.840000 149 135 130 0
17.160000 16.280000 4.840000 147 133 128 0
17.380000 16.280000 5.610000 145 135 131 0
17.600000 16.280000 6.930000 145 135 131 0
17.820000 16.280000 6.930000 146 134 131 0
18.040000 16.280000 6.270000 146 134 131 0
18.260000 16.280000 4.950000 145 133 128 0
18.480000 16.280000 3.520000 145 133 128 0
18.700000 16.280000 2.860000 143 134 134 0
18.920000 16.280000 2.860000 145 136 136 0
19.140000 16.280000 2.200000 141 140 141 0
19.360000 16.280000 2.200000 142 141 142 0
19.580000 16.280000 2.860000 143 140 144 0
19.800000 16.280000 3.520000 143 140 144 0
20.020000 16.280000 3.520000 145 140 141 0
20.240000 16.280000 3.520000 145 140 141 0
20.460000 16.280000 2.860000 145 140 141 0
20.680000 16.280000 2.200000 143 138 139 0
20.900000 16.280000 1.430000 141 139 139 0
21.120000 16.280000 0.660000 141 139 139 0
21.340000 16.280000 0.660000 142 137 138 0
21.560000 16.280000 0.770000 142 137 138 0
21.780000 16.280000 0.770000 141 136 137 0
22.000000 16.280000 0.660000 141 136 137 0
22.220000 16.280000 0.770000 143 136 138 0
22.440000 16.280000 1.540000 142 135 137 0
22.660000 16.280000 1.540000 141 136 135 0
22.880000 16.280000 1.540000 140 135 134 0
23.100000 16.280000 1.540000 143 134 134 0
23.320000 16.280000 1.430000 143 134 134 0
23.540000 16.280000 2.090000 140 134 133 0
23.760000 16.280000 2.090000 140 134 133 0
23.980000 16.280000 2.090000 139 133 132 0
24.200000 16.280000 2.090000 140 134 133 0
24.420000 16.280000 2.090000 139 133 132 0
24.640000 16.280000 2.860000 139 133 132 0
24.860000 16.280000 2.860000 143 131 130 0
25.080000 16.280000 3.520000 142 130 129 0
25.300000 16.280000 4.180000 143 131 130 0
25.520000 16.280000 4.180000 144 132 131 0
25.740000 16.280000 4.950000 142 131 130 0
25.960000 16.280000 4.950000 142 131 130 0
26.180000 16.280000 4.950000 143 131 128 0
26.400000 16.280000 4.950000 143 131 128 0
26.620000 16.280000 4.950000 144 129 127 0
26.840000 16.280000 4.950000 143 128 126 0
27.060000 16.280000 5.170000 147 127 123 0
27.280000 16.280000 4.620000 146 126 122 0
27.500000 16.280000 4.730000 145 127 120 0
27.720000 16.280000 4.730000 145 127 120 0
27.940000 16.280000 5.390000 144 124 120 0
28.160000 16.280000 6.050000 144 124 120 0
28.380000 16.280000 6.050000 145 124 118 0
28.600000 16.280000 5.940000 145 124 118 0
28.820000 16.280000 5.280000 144 123 117 0
29.040000 16.280000 5.280000 143 122 116 0
29.260000 16.280000 4.620000 141 121 115 0
29.480000 16.280000 4.620000 141 121 115 0
29.700000 16.280000 3.960000 144 118 116 0
29.920000 16.280000 3.960000 147 121 119 0
30.140000 16.280000 4.730000 157 119 114 0
30.360000 16.280000 4.730000 160 122 117 0
30.580000 16.280000 4.840000 169 119 113 0
30.800000 16.280000 4.840000 169 119 113 0
31.020000 16.280000 4.840000 173 119 114 0
31.240000 16.280000 4.840000 172 118 113 0
31.460000 16.280000 5.500000 174 116 109 0
31.680000 16.280000 6.160000 173 115 108 0
31.900000 16.280000 6.050000 177 113 108 0
32.120000 16.280000 5.280000 176 112 107 0
32.340000 16.280000 5.720000 177 112 105 0
32.560000 16.280000 5.610000 175 110 103 0
32.780000 16.280000 4.950000 177 109 101 0
33.000000 16.280000 4.290000 177 109 101 0
33.220000 16.280000 3.630000 177 109 101 0
33.440000 16.280000 3.520000 177 109 101 0
33.660000 16.280000 4.180000 182 108 100 0
33.880000 16.280000 4.290000 183 109 101 0
34.100000 16.280000 4.400000 182 111 104 0
34.320000 16.280000 4.400000 182 111 104 0
34.540000 16.280000 4.400000 183 109 101 0
34.760000 16.280000 4.510000 183 109 101 0
34.980000 16.280000 3.190000 186 108 101 0
35.200000 16.280000 2.530000 186 108 101 0
35.420000 16.280000 3.190000 186 107 98 0
35.640000 16.280000 5.060000 186 107 98 0
35.860000 16.280000 6.380000 186 107 98 0
36.080000 16.280000 7.260000 187 108 99 0
36.300000 16.280000 7.370000 187 108 98 0
36.520000 16.280000 7.370000 186 107 97 0
36.740000 16.280000 8.030000 187 108 99 0
36.960000 16.280000 9.350000 187 108 99 0
37.180000 16.280000 9.350000 187 108 98 0
0.440000 16.500000 0.880000 180 199 200 0
0.660000 16.500000 0.880000 180 201 201 0
0.880000 16.500000 0.550000 180 201 201 0
1.100000 16.500000 0.660000 182 201 200 0
1.320000 16.500000 1.210000 182 201 200 0
1.540000 16.500000 1.650000 181 200 201 0
1.760000 16.500000 0.770000 182 201 202 0
1.980000 16.500000 4.290000 182 201 200 0
2.200000 16.500000 13.420000 182 201 200 0
2.420000 16.500000 19.690000 180 201 201 0
2.640000 16.500000 15.620000 180 201 201 0
2.860000 16.500000 5.280000 180 199 198 0
4.840000 16.500000 0.550000 199 209 205 0
5.060000 16.500000 1.540000 200 210 206 0
5.280000 16.500000 2.090000 201 211 207 0
5.500000 16.500000 2.200000 203 212 206 0
5.720000 16.500000 2.200000 203 212 206 0
5.940000 16.500000 2.200000 202 212 208 0
6.160000 16.500000 2.860000 203 213 209 0
6.380000 16.500000 2.970000 203 213 209 0
6.600000 16.500000 2.970000 203 213 209 0
6.820000 16.500000 2.970000 203 213 209 0
7.040000 16.500000 3.080000 203 213 209 0
7.260000 16.500000 3.080000 204 213 207 0
7.480000 16.500000 3.850000 204 213 207 0
7.700000 16.500000 3.850000 203 213 209 0
7.920000 16.500000 3.850000 203 213 209 0
8.140000 16.500000 3.850000 203 213 209 0
8.360000 16.500000 3.960000 203 213 209 0
8.580000 16.500000 3.960000 203 213 209 0
8.800000 16.500000 4.730000 202 212 208 0
9.020000 16.500000 4.730000 203 212 206 0
9.240000 16.500000 4.730000 203 212 206 0
9.460000 16.500000 4.730000 202 212 208 0
9.680000 16.500000 5.390000 202 212 208 0
9.900000 16.500000 6.490000 202 211 205 0
10.120000 16.500000 6.930000 200 209 203 0
10.340000 16.500000 6.930000 199 207 204 0
10.560000 16.500000 6.930000 198 206 203 0
10.780000 16.500000 7.040000 197 206 200 0
11.000000 16.500000 7.700000 196 205 199 0
11.220000 16.500000 7.810000 194 202 199 0
11.440000 16.500000 7.810000 191 199 196 0
11.660000 16.500000 7.810000 186 192 189 0
11.880000 16.500000 8.580000 178 184 181 0
12.100000 16.500000 8.580000 178 172 167 0
12.320000 16.500000 8.580000 172 166 161 0
12.540000 16.500000 7.920000 169 162 151 0
12.760000 16.500000 7.920000 165 158 147 0
12.980000 16.500000 8.690000 164 153 144 0
13.200000 16.500000 8.690000 159 148 139 0
13.420000 16.500000 8.690000 161 147 139 0
13.640000 16.500000 9.350000 158 144 136 0
13.860000 16.500000 10.120000 157 143 137 0
14.080000 16.500000 10.890000 155 141 135 0
14.300000 16.500000 12.320000 155 140 132 0
14.520000 16.500000 13.750000 153 138 130 0
14.740000 16.500000 15.840000 153 138 130 0
14.960000 16.500000 17.160000 152 137 129 0
15.180000 16.500000 17.930000 151 135 130 0
15.400000 16.500000 18.590000 149 133 128 0
15.620000 16.500000 19.360000 146 135 128 0
15.840000 16.500000 19.250000 147 136 129 0
16.060000 16.500000 20.350000 147 133 128 0
16.280000 16.500000 19.470000 148 134 129 0
16.500000 16.500000 13.200000 147 133 127 0
16.720000 16.500000 4.840000 147 133 127 0
16.940000 16.500000 2.090000 147 133 128 0
17.160000 16.500000 4.180000 147 133 128 0
17.380000 16.500000 6.270000 143 133 129 0
17.600000 16.500000 6.930000 145 135 131 0
17.820000 16.500000 6.930000 145 133 130 0
18.040000 16.500000 6.270000 145 133 130 0
18.260000 16.500000 5.610000 145 133 128 0
18.480000 16.500000 4.290000 145 133 128 0
18.700000 16.500000 4.290000 142 133 133 0
18.920000 16.500000 3.520000 144 135 135 0
19.140000 16.500000 2.860000 140 139 140 0
19.360000 16.500000 2.860000 142 141 142 0
19.580000 16.500000 3.520000 143 140 144 0
19.800000 16.500000 4.290000 143 140 144 0
20.020000 16.500000 4.290000 144 139 140 0
20.240000 16.500000 4.290000 144 139 140 0
20.460000 16.500000 2.860000 143 138 139 0
20.680000 16.500000 2.310000 143 138 139 0
20.900000 16.500000 1.430000 141 139 139 0
21.120000 16.500000 1.430000 139 137 137 0
21.340000 16.500000 0.660000 142 137 138 0
21.560000 16.500000 0.660000 142 137 138 0
21.780000 16.500000 0.660000 143 138 139 0
22.000000 16.500000 1.430000 141 136 137 0
22.220000 16.500000 1.430000 142 135 137 0
22.440000 16.500000 1.430000 141 134 136 0
22.660000 16.500000 1.430000 141 136 135 0
22.880000 16.500000 2.090000 140 135 134 0
23.100000 16.500000 1.430000 142 133 133 0
23.320000 16.500000 2.090000 142 133 133 0
23.540000 16.500000 2.090000 140 134 133 0
23.760000 16.500000 2.090000 140 134 133 0
23.980000 16.500000 2.090000 140 134 133 0
24.200000 16.500000 2.860000 140 134 133 0
24.420000 16.500000 2.860000 139 133 132 0
24.640000 16.500000 3.520000 139 133 132 0
24.860000 16.500000 4.180000 143 131 130 0
25.080000 16.500000 4.180000 143 131 130 0
25.300000 16.500000 4.180000 143 131 130 0
25.520000 16.500000 4.950000 143 131 130 0
25.740000 16.500000 4.950000 141 130 129 0
25.960000 16.500000 5.610000 142 131 130 0
26.180000 16.500000 5.060000 144 132 129 0
26.400000 16.500000 5.170000 142 130 127 0
26.620000 16.500000 5.170000 144 129 127 0
26.840000 16.500000 5.280000 144 129 127 0
27.060000 16.500000 4.620000 147 127 123 0
27.280000 16.500000 4.730000 146 126 122 0
27.500000 16.500000 4.730000 144 126 119 0
27.720000 16.500000 4.730000 145 127 120 0
27.940000 16.500000 5.390000 145 125 121 0
28.160000 16.500000 5.280000 145 125 121 0
28.380000 16.500000 5.280000 145 124 118 0
28.600000 16.500000 5.280000 145 124 118 0
28.820000 16.500000 4.620000 144 123 117 0
29.040000 16.500000 4.620000 145 124 118 0
29.260000 16.500000 4.620000 145 125 119 0
29.480000 16.500000 4.730000 148 128 122 0
29.700000 16.500000 4.730000 156 130 128 0
29.920000 16.500000 4.070000 158 132 130 0
30.140000 16.500000 4.070000 166 128 123 0
30.360000 16.500000 4.070000 162 124 119 0
30.580000 16.500000 4.070000 170 120 114 0
30.800000 16.500000 4.070000 169 119 113 0
31.020000 16.500000 4.070000 172 118 113 0
31.240000 16.500000 4.070000 170 116 111 0
31.460000 16.500000 4.180000 172 114 107 0
31.680000 16.500000 4.840000 172 114 107 0
31.900000 16.500000 4.840000 176 112 107 0
32.120000 16.500000 4.730000 176 112 107 0
32.340000 16.500000 4.620000 175 110 103 0
32.560000 16.500000 5.170000 174 109 102 0
32.780000 16.500000 4.510000 176 108 100 0
33.000000 16.500000 4.400000 176 108 100 0
33.220000 16.500000 3.630000 176 108 100 0
33.440000 16.500000 3.520000 177 109 101 0
33.660000 16.500000 4.180000 181 107 99 0
33.880000 16.500000 4.400000 182 108 100 0
34.100000 16.500000 3.850000 180 109 102 0
34.320000 16.500000 4.510000 180 109 102 0
34.540000 16.500000 4.510000 182 108 100 0
34.760000 16.500000 3.850000 182 108 100 0
34.980000 16.500000 3.190000 184 106 99 0
35.200000 16.500000 2.640000 185 107 100 0
35.420000 16.500000 3.300000 185 106 97 0
35.640000 16.500000 5.060000 185 106 97 0
35.860000 16.500000 6.490000 185 106 97 0
36.080000 16.500000 7.370000 186 107 98 0
36.300000 16.500000 7.480000 186 107 97 0
36.520000 16.500000 7.370000 186 107 97 0
36.740000 16.500000 8.030000 185 106 97 0
36.960000 16.500000 9.350000 187 108 99 0
37.180000 16.500000 9.350000 186 107 97 0
0.440000 16.720000 0.880000 180 199 198 0
0.660000 16.720000 0.880000 180 199 198 0
0.880000 16.720000 0.550000 181 200 199 0
1.100000 16.720000 0.660000 181 200 201 0
1.320000 16.720000 0.550000 182 201 202 0
1.540000 16.720000 1.100000 180 201 202 0
1.760000 16.720000 0.880000 179 200 201 0
1.980000 16.720000 1.540000 181 200 199 0
2.200000 16.720000 7.920000 181 200 199 0
2.420000 16.720000 16.940000 180 199 198 0
2.640000 16.720000 15.620000 181 200 199 0
2.860000 16.720000 5.280000 179 198 197 0
4.840000 16.720000 0.550000 200 210 206 0
5.060000 16.720000 1.540000 200 210 206 0
5.280000 16.720000 2.090000 201 211 207 0
5.500000 16.720000 2.200000 202 210 207 0
5.720000 16.720000 2.200000 203 211 208 0
5.940000 16.720000 2.200000 202 212 208 0
6.160000 16.720000 2.860000 202 212 208 0
6.380000 16.720000 2.970000 204 212 209 0
6.600000 16.720000 2.970000 204 212 209 0
6.820000 16.720000 2.970000 203 212 206 0
7.040000 16.720000 3.080000 204 213 207 0
7.260000 16.720000 3.080000 204 212 209 0
7.480000 16.720000 3.850000 204 212 209 0
7.700000 16.720000 3.850000 203 213 209 0
7.920000 16.720000 3.850000 202 212 208 0
8.140000 16.720000 3.850000 203 211 208 0
8.360000 16.720000 3.960000 203 211 208 0
8.580000 16.720000 3.960000 203 211 208 0
8.800000 16.720000 4.730000 203 211 208 0
9.020000 16.720000 4.730000 203 211 208 0
9.240000 16.720000 4.730000 203 211 208 0
9.460000 16.720000 4.730000 202 212 208 0
9.680000 16.720000 5.390000 201 211 207 0
9.900000 16.720000 5.830000 203 209 204 0
10.120000 16.720000 7.040000 202 208 203 0
10.340000 16.720000 6.930000 201 207 202 0
10.560000 16.720000 6.930000 199 205 200 0
10.780000 16.720000 7.040000 198 204 199 0
11.000000 16.720000 7.700000 196 202 197 0
11.220000 16.720000 7.810000 196 197 194 0
11.440000 16.720000 7.810000 191 192 189 0
11.660000 16.720000 7.810000 186 182 176 0
11.880000 16.720000 7.810000 177 173 167 0
12.100000 16.720000 7.810000 173 164 154 0
12.320000 16.720000 7.920000 168 159 149 0
12.540000 16.720000 7.920000 169 155 147 0
12.760000 16.720000 7.920000 165 151 143 0
12.980000 16.720000 7.920000 163 149 141 0
13.200000 16.720000 8.580000 161 147 139 0
13.420000 16.720000 9.350000 159 144 134 0
13.640000 16.720000 10.120000 158 143 133 0
13.860000 16.720000 10.780000 155 140 130 0
14.080000 16.720000 11.550000 154 139 129 0
14.300000 16.720000 12.980000 153 138 128 0
14.520000 16.720000 15.070000 151 136 126 0
14.740000 16.720000 16.500000 151 136 128 0
14.960000 16.720000 17.930000 151 136 128 0
