ply
format ascii 1.0
element vertex 1130
property float x
property float y
property float z
property uchar red
property uchar green
property uchar blue
property uchar alpha
end_header
24.640000 9.020000 17.820000 206 211 202 0
24.860000 9.020000 18.810000 206 211 202 0
25.080000 9.020000 19.360000 207 212 203 0
25.300000 9.020000 19.360000 212 217 208 0
25.520000 9.020000 19.470000 209 214 205 0
25.740000 9.020000 20.130000 206 211 202 0
25.960000 9.020000 20.130000 205 210 201 0
26.180000 9.020000 20.900000 205 210 201 0
26.400000 9.020000 15.400000 205 210 201 0
26.620000 9.020000 5.060000 205 209 203 0
26.840000 9.020000 0.220000 205 209 203 0
27.060000 9.020000 0.330000 204 209 200 0
27.280000 9.020000 0.330000 204 209 200 0
27.500000 9.020000 0.990000 205 210 201 0
27.720000 9.020000 1.100000 205 210 201 0
27.940000 9.020000 0.440000 205 210 201 0
28.380000 9.020000 1.210000 204 209 200 0
28.600000 9.020000 6.710000 204 209 200 0
28.820000 9.020000 16.390000 203 208 199 0
29.040000 9.020000 19.910000 202 207 198 0
29.260000 9.020000 20.020000 202 207 198 0
29.480000 9.020000 15.070000 202 207 198 0
29.700000 9.020000 5.720000 201 206 197 0
29.920000 9.020000 0.770000 199 204 195 0
30.140000 9.020000 1.540000 198 202 196 0
30.360000 9.020000 2.200000 198 202 196 0
30.580000 9.020000 2.970000 196 198 188 0
30.800000 9.020000 3.740000 195 197 187 0
31.020000 9.020000 4.400000 191 186 175 0
31.240000 9.020000 4.510000 177 172 161 0
31.460000 9.020000 4.510000 169 152 140 0
31.680000 9.020000 4.510000 165 148 136 0
31.900000 9.020000 3.850000 160 140 124 0
32.120000 9.020000 3.850000 155 135 119 0
32.340000 9.020000 3.850000 152 132 118 0
32.560000 9.020000 3.960000 150 130 116 0
32.780000 9.020000 4.620000 147 127 113 0
33.000000 9.020000 4.730000 145 125 111 0
33.220000 9.020000 4.730000 143 123 109 0
33.440000 9.020000 4.730000 142 122 108 0
33.660000 9.020000 4.730000 143 121 105 0
33.880000 9.020000 4.730000 141 119 103 0
34.100000 9.020000 4.070000 139 117 101 0
34.320000 9.020000 4.070000 139 117 101 0
34.540000 9.020000 4.620000 139 115 100 0
34.760000 9.020000 5.060000 138 114 99 0
34.980000 9.020000 4.950000 137 113 98 0
35.200000 9.020000 4.950000 138 114 99 0
35.420000 9.020000 4.840000 138 114 99 0
35.640000 9.020000 4.950000 137 113 98 0
35.860000 9.020000 4.950000 137 113 96 0
36.080000 9.020000 4.950000 136 112 95 0
36.300000 9.020000 4.950000 139 113 96 0
36.520000 9.020000 5.060000 138 112 95 0
36.740000 9.020000 5.170000 138 112 95 0
36.960000 9.020000 5.170000 137 111 94 0
37.180000 9.020000 5.060000 137 111 94 0
0.000000 9.240000 1.100000 212 216 214 0
0.220000 9.240000 1.210000 212 216 214 0
0.440000 9.240000 1.870000 211 215 213 0
0.660000 9.240000 1.210000 210 214 212 0
0.880000 9.240000 1.210000 210 214 212 0
1.100000 9.240000 1.210000 213 216 216 0
1.320000 9.240000 1.320000 215 218 218 0
1.540000 9.240000 0.550000 212 216 214 0
1.760000 9.240000 0.660000 211 215 213 0
1.980000 9.240000 1.320000 213 217 215 0
2.200000 9.240000 1.320000 214 218 216 0
2.420000 9.240000 1.870000 213 217 215 0
2.640000 9.240000 2.970000 212 216 214 0
2.860000 9.240000 3.520000 212 216 214 0
3.080000 9.240000 2.860000 212 216 214 0
3.300000 9.240000 2.860000 211 215 211 0
3.520000 9.240000 2.860000 212 216 212 0
3.740000 9.240000 2.860000 212 216 214 0
3.960000 9.240000 2.970000 212 216 214 0
4.180000 9.240000 2.970000 212 216 214 0
4.400000 9.240000 2.970000 211 215 213 0
4.620000 9.240000 2.970000 213 217 215 0
4.840000 9.240000 3.080000 213 217 215 0
5.060000 9.240000 3.080000 214 218 214 0
5.280000 9.240000 3.080000 214 218 214 0
5.500000 9.240000 3.080000 212 216 212 0
5.720000 9.240000 3.190000 211 215 211 0
5.940000 9.240000 3.850000 210 216 213 0
6.160000 9.240000 3.850000 211 217 214 0
6.380000 9.240000 3.960000 211 215 211 0
6.600000 9.240000 3.960000 212 216 212 0
6.820000 9.240000 3.960000 210 214 210 0
7.040000 9.240000 4.070000 210 214 210 0
7.260000 9.240000 4.070000 211 215 211 0
7.480000 9.240000 4.730000 210 214 210 0
7.700000 9.240000 4.730000 210 214 210 0
7.920000 9.240000 4.840000 211 215 211 0
8.140000 9.240000 5.390000 211 215 211 0
8.360000 9.240000 5.720000 211 215 211 0
8.580000 9.240000 6.270000 210 214 210 0
8.800000 9.240000 6.270000 212 216 212 0
9.020000 9.240000 6.270000 213 217 213 0
9.240000 9.240000 7.040000 210 214 210 0
9.460000 9.240000 7.040000 209 215 210 0
9.680000 9.240000 7.040000 209 215 210 0
9.900000 9.240000 7.150000 208 214 209 0
10.120000 9.240000 7.150000 208 214 209 0
10.340000 9.240000 7.150000 209 213 209 0
10.560000 9.240000 7.920000 208 212 208 0
10.780000 9.240000 7.920000 208 212 208 0
11.000000 9.240000 7.920000 209 213 209 0
11.220000 9.240000 7.920000 208 214 209 0
11.440000 9.240000 8.030000 208 214 209 0
11.660000 9.240000 8.030000 209 215 210 0
11.880000 9.240000 8.030000 209 215 210 0
12.100000 9.240000 8.030000 210 216 211 0
12.320000 9.240000 8.140000 210 216 211 0
12.540000 9.240000 8.140000 211 215 211 0
12.760000 9.240000 8.140000 209 213 209 0
12.980000 9.240000 8.140000 208 214 209 0
13.200000 9.240000 8.250000 207 213 208 0
13.420000 9.240000 8.910000 207 213 206 0
13.640000 9.240000 8.250000 209 215 208 0
13.860000 9.240000 8.800000 212 216 212 0
14.080000 9.240000 9.900000 210 214 210 0
14.300000 9.240000 9.680000 208 212 206 0
14.520000 9.240000 9.790000 208 212 206 0
14.740000 9.240000 9.790000 206 212 205 0
14.960000 9.240000 9.790000 211 217 210 0
15.180000 9.240000 9.790000 209 221 214 0
15.400000 9.240000 9.900000 216 228 221 0
15.620000 9.240000 9.900000 217 223 216 0
15.840000 9.240000 9.900000 209 215 208 0
16.060000 9.240000 9.900000 208 212 206 0
16.280000 9.240000 10.010000 208 212 206 0
16.500000 9.240000 10.670000 210 216 209 0
16.720000 9.240000 10.670000 213 219 212 0
16.940000 9.240000 10.780000 215 221 214 0
17.160000 9.240000 11.440000 208 214 207 0
17.380000 9.240000 11.440000 208 212 206 0
17.600000 9.240000 11.550000 208 212 206 0
17.820000 9.240000 11.550000 207 211 205 0
18.040000 9.240000 11.550000 208 212 206 0
18.260000 9.240000 12.320000 208 214 207 0
18.480000 9.240000 12.320000 207 213 206 0
18.700000 9.240000 12.320000 209 214 205 0
18.920000 9.240000 12.430000 208 213 204 0
19.140000 9.240000 13.090000 208 212 206 0
19.360000 9.240000 13.640000 209 213 207 0
19.580000 9.240000 13.970000 207 212 203 0
19.800000 9.240000 15.290000 210 215 206 0
20.020000 9.240000 15.290000 212 217 208 0
20.240000 9.240000 15.290000 209 214 205 0
20.460000 9.240000 15.290000 210 214 208 0
20.680000 9.240000 16.060000 210 214 208 0
20.900000 9.240000 16.060000 210 214 208 0
21.120000 9.240000 16.060000 209 213 207 0
21.340000 9.240000 16.170000 208 213 204 0
21.560000 9.240000 16.170000 208 213 204 0
21.780000 9.240000 16.170000 207 212 203 0
22.000000 9.240000 16.170000 206 211 202 0
22.220000 9.240000 16.940000 207 212 203 0
22.440000 9.240000 16.940000 208 213 204 0
22.660000 9.240000 16.940000 211 216 207 0
22.880000 9.240000 17.050000 217 222 213 0
23.100000 9.240000 17.710000 216 221 212 0
23.320000 9.240000 17.820000 203 208 199 0
23.540000 9.240000 17.160000 207 212 203 0
23.760000 9.240000 17.160000 207 212 203 0
23.980000 9.240000 17.160000 217 222 213 0
24.200000 9.240000 17.160000 212 217 208 0
24.420000 9.240000 17.270000 208 213 204 0
24.640000 9.240000 17.820000 206 211 202 0
24.860000 9.240000 18.810000 206 211 202 0
25.080000 9.240000 19.360000 208 213 204 0
25.300000 9.240000 19.360000 210 215 206 0
25.520000 9.240000 19.470000 212 217 208 0
25.740000 9.240000 20.130000 209 214 205 0
25.960000 9.240000 20.130000 204 209 200 0
26.180000 9.240000 20.900000 205 210 201 0
26.400000 9.240000 15.400000 205 210 201 0
26.620000 9.240000 5.060000 205 209 203 0
26.840000 9.240000 0.220000 205 209 203 0
27.060000 9.240000 0.330000 205 210 201 0
27.280000 9.240000 0.330000 205 210 201 0
27.500000 9.240000 0.990000 205 210 201 0
27.720000 9.240000 1.100000 205 210 201 0
27.940000 9.240000 0.440000 205 210 201 0
28.380000 9.240000 3.190000 204 209 200 0
28.600000 9.240000 12.210000 204 209 200 0
28.820000 9.240000 18.480000 203 208 199 0
29.040000 9.240000 19.910000 202 207 198 0
29.260000 9.240000 20.020000 202 207 198 0
29.480000 9.240000 15.070000 202 207 198 0
29.700000 9.240000 5.720000 202 207 198 0
29.920000 9.240000 0.770000 199 204 195 0
30.140000 9.240000 1.540000 200 204 198 0
30.360000 9.240000 2.200000 199 203 197 0
30.580000 9.240000 2.970000 195 197 187 0
30.800000 9.240000 3.740000 188 190 180 0
31.020000 9.240000 4.400000 185 180 169 0
31.240000 9.240000 4.510000 171 166 155 0
31.460000 9.240000 4.510000 167 150 138 0
31.680000 9.240000 3.850000 162 145 133 0
31.900000 9.240000 3.850000 158 138 122 0
32.120000 9.240000 3.850000 156 136 120 0
32.340000 9.240000 3.850000 150 130 116 0
32.560000 9.240000 3.960000 148 128 114 0
32.780000 9.240000 4.620000 145 125 111 0
33.000000 9.240000 4.730000 143 123 109 0
33.220000 9.240000 4.730000 143 123 109 0
33.440000 9.240000 4.730000 141 121 107 0
33.660000 9.240000 4.730000 141 119 103 0
33.880000 9.240000 4.730000 140 118 102 0
34.100000 9.240000 4.070000 139 117 101 0
34.320000 9.240000 4.070000 138 116 100 0
34.540000 9.240000 4.620000 139 115 100 0
34.760000 9.240000 5.060000 137 113 98 0
34.980000 9.240000 4.840000 137 113 98 0
35.200000 9.240000 4.840000 137 113 98 0
35.420000 9.240000 4.840000 138 114 99 0
35.640000 9.240000 4.950000 138 114 99 0
35.860000 9.240000 4.950000 136 112 95 0
36.080000 9.240000 4.950000 136 112 95 0
36.300000 9.240000 4.950000 138 112 95 0
36.520000 9.240000 5.060000 138 112 95 0
36.740000 9.240000 5.170000 138 112 95 0
36.960000 9.240000 5.170000 138 112 95 0
37.180000 9.240000 5.060000 138 112 95 0
0.000000 9.460000 1.100000 212 215 215 0
0.220000 9.460000 1.210000 212 216 214 0
0.440000 9.460000 1.870000 211 215 213 0
0.660000 9.460000 1.210000 210 214 212 0
0.880000 9.460000 1.210000 210 214 212 0
1.100000 9.460000 1.210000 211 215 213 0
1.320000 9.460000 1.320000 211 215 213 0
1.540000 9.460000 0.550000 213 217 215 0
1.760000 9.460000 0.660000 212 216 214 0
1.980000 9.460000 1.320000 214 218 216 0
2.200000 9.460000 1.320000 213 217 215 0
2.420000 9.460000 1.870000 214 218 216 0
2.640000 9.460000 2.970000 212 216 214 0
2.860000 9.460000 3.520000 212 216 214 0
3.080000 9.460000 2.860000 212 216 214 0
3.300000 9.460000 2.860000 212 216 214 0
3.520000 9.460000 2.860000 211 215 213 0
3.740000 9.460000 2.860000 212 216 214 0
3.960000 9.460000 2.970000 212 216 214 0
4.180000 9.460000 2.970000 211 215 213 0
4.400000 9.460000 2.970000 212 216 214 0
4.620000 9.460000 2.970000 212 216 214 0
4.840000 9.460000 3.080000 216 220 218 0
5.060000 9.460000 3.080000 215 219 217 0
5.280000 9.460000 3.080000 214 218 216 0
5.500000 9.460000 3.080000 213 217 215 0
5.720000 9.460000 3.190000 211 215 213 0
5.940000 9.460000 3.850000 209 215 212 0
6.160000 9.460000 3.850000 210 216 213 0
6.380000 9.460000 3.960000 212 216 212 0
6.600000 9.460000 3.960000 212 216 212 0
6.820000 9.460000 3.960000 212 216 212 0
7.040000 9.460000 4.070000 211 215 211 0
7.260000 9.460000 4.730000 210 216 211 0
7.480000 9.460000 4.730000 209 215 210 0
7.700000 9.460000 4.730000 210 216 211 0
7.920000 9.460000 4.840000 210 216 211 0
8.140000 9.460000 5.390000 211 215 211 0
8.360000 9.460000 5.720000 211 215 211 0
8.580000 9.460000 6.270000 210 214 210 0
8.800000 9.460000 6.270000 211 215 211 0
9.020000 9.460000 6.270000 210 216 211 0
9.240000 9.460000 7.040000 209 215 210 0
9.460000 9.460000 7.040000 209 215 210 0
9.680000 9.460000 7.040000 209 215 210 0
9.900000 9.460000 7.150000 209 213 209 0
10.120000 9.460000 7.150000 209 213 209 0
10.340000 9.460000 7.150000 207 213 208 0
10.560000 9.460000 7.920000 208 214 209 0
10.780000 9.460000 7.920000 209 215 210 0
11.000000 9.460000 7.920000 207 213 208 0
11.220000 9.460000 7.920000 207 213 208 0
11.440000 9.460000 8.030000 207 213 208 0
11.660000 9.460000 8.030000 207 213 208 0
11.880000 9.460000 8.030000 208 214 209 0
12.100000 9.460000 8.030000 210 216 211 0
12.320000 9.460000 8.140000 211 217 212 0
12.540000 9.460000 8.140000 209 215 210 0
12.760000 9.460000 8.140000 209 215 210 0
12.980000 9.460000 8.140000 208 214 207 0
13.200000 9.460000 8.250000 206 212 205 0
13.420000 9.460000 8.250000 207 213 208 0
13.640000 9.460000 8.250000 209 215 210 0
13.860000 9.460000 8.800000 210 216 211 0
14.080000 9.460000 9.900000 208 214 209 0
14.300000 9.460000 9.680000 208 212 206 0
14.520000 9.460000 9.790000 207 211 205 0
14.740000 9.460000 9.790000 206 212 205 0
14.960000 9.460000 9.790000 206 212 205 0
15.180000 9.460000 9.790000 209 215 208 0
15.400000 9.460000 9.900000 211 217 210 0
15.620000 9.460000 10.560000 215 219 213 0
15.840000 9.460000 10.560000 209 213 207 0
16.060000 9.460000 10.670000 207 213 206 0
16.280000 9.460000 10.010000 206 212 205 0
16.500000 9.460000 10.670000 208 214 207 0
16.720000 9.460000 10.670000 213 219 212 0
16.940000 9.460000 10.780000 214 220 213 0
17.160000 9.460000 11.440000 210 216 209 0
17.380000 9.460000 11.440000 209 213 207 0
17.600000 9.460000 11.550000 208 212 206 0
17.820000 9.460000 11.550000 208 214 207 0
18.040000 9.460000 11.550000 208 214 207 0
18.260000 9.460000 12.320000 208 214 207 0
18.480000 9.460000 12.320000 208 214 207 0
18.700000 9.460000 12.320000 208 215 205 0
18.920000 9.460000 12.430000 206 213 203 0
19.140000 9.460000 13.090000 207 211 205 0
19.360000 9.460000 13.640000 207 211 205 0
19.580000 9.460000 13.970000 207 213 206 0
19.800000 9.460000 14.520000 209 215 208 0
20.020000 9.460000 15.290000 212 217 208 0
20.240000 9.460000 15.290000 209 214 205 0
20.460000 9.460000 15.290000 208 215 205 0
20.680000 9.460000 16.060000 208 215 205 0
20.900000 9.460000 16.060000 209 213 207 0
21.120000 9.460000 16.060000 209 213 207 0
21.340000 9.460000 16.170000 209 216 206 0
21.560000 9.460000 16.170000 206 213 203 0
21.780000 9.460000 16.170000 206 211 202 0
22.000000 9.460000 16.170000 205 210 201 0
22.220000 9.460000 16.940000 207 212 203 0
22.440000 9.460000 16.940000 208 213 204 0
22.660000 9.460000 16.940000 210 216 209 0
22.880000 9.460000 17.050000 217 223 216 0
23.100000 9.460000 17.710000 229 236 226 0
23.320000 9.460000 17.820000 205 212 202 0
23.540000 9.460000 17.820000 208 213 204 0
23.760000 9.460000 17.160000 211 216 207 0
23.980000 9.460000 17.160000 214 219 210 0
24.200000 9.460000 17.160000 213 218 209 0
24.420000 9.460000 17.270000 208 213 204 0
24.640000 9.460000 17.820000 206 211 202 0
24.860000 9.460000 18.150000 207 212 203 0
25.080000 9.460000 18.700000 207 212 203 0
25.300000 9.460000 19.360000 208 213 204 0
25.520000 9.460000 19.470000 210 215 206 0
25.740000 9.460000 19.470000 209 214 205 0
25.960000 9.460000 20.130000 205 210 201 0
26.180000 9.460000 20.900000 205 210 201 0
26.400000 9.460000 16.720000 205 210 201 0
26.620000 9.460000 7.810000 206 211 202 0
26.840000 9.460000 1.650000 205 210 201 0
27.060000 9.460000 0.330000 206 211 202 0
27.280000 9.460000 0.330000 205 210 201 0
27.500000 9.460000 0.990000 205 210 201 0
27.720000 9.460000 1.100000 205 210 201 0
27.940000 9.460000 0.440000 205 210 201 0
28.380000 9.460000 4.620000 206 211 202 0
28.600000 9.460000 14.960000 205 210 201 0
28.820000 9.460000 19.910000 202 207 198 0
29.040000 9.460000 19.910000 202 207 198 0
29.260000 9.460000 20.020000 202 207 198 0
29.480000 9.460000 14.960000 202 207 198 0
29.700000 9.460000 5.720000 200 205 196 0
29.920000 9.460000 0.770000 199 204 195 0
30.140000 9.460000 1.540000 200 205 196 0
30.360000 9.460000 2.200000 194 199 190 0
30.580000 9.460000 2.970000 197 192 183 0
30.800000 9.460000 3.740000 187 182 173 0
31.020000 9.460000 4.400000 182 172 158 0
31.240000 9.460000 4.510000 170 160 146 0
31.460000 9.460000 4.510000 166 148 133 0
31.680000 9.460000 3.850000 160 142 127 0
31.900000 9.460000 3.850000 155 137 120 0
32.120000 9.460000 3.850000 152 134 117 0
32.340000 9.460000 3.850000 150 130 114 0
32.560000 9.460000 4.620000 147 127 111 0
32.780000 9.460000 4.620000 145 125 109 0
33.000000 9.460000 4.730000 144 124 108 0
33.220000 9.460000 4.730000 144 122 106 0
33.440000 9.460000 4.730000 143 121 105 0
33.660000 9.460000 4.730000 141 119 103 0
33.880000 9.460000 4.730000 140 118 102 0
34.100000 9.460000 4.070000 140 118 102 0
34.320000 9.460000 4.070000 138 116 100 0
34.540000 9.460000 4.620000 138 114 97 0
34.760000 9.460000 5.060000 138 114 97 0
34.980000 9.460000 4.840000 137 113 98 0
35.200000 9.460000 4.840000 137 113 98 0
35.420000 9.460000 4.840000 137 113 98 0
35.640000 9.460000 4.950000 137 113 98 0
35.860000 9.460000 4.950000 137 113 96 0
36.080000 9.460000 4.950000 136 112 95 0
36.300000 9.460000 4.950000 136 112 95 0
36.520000 9.460000 5.060000 136 112 95 0
36.740000 9.460000 5.170000 138 112 95 0
36.960000 9.460000 5.170000 138 112 95 0
37.180000 9.460000 5.830000 137 111 94 0
0.000000 9.680000 1.100000 209 212 212 0
0.220000 9.680000 1.210000 213 217 215 0
0.440000 9.680000 1.870000 218 222 220 0
0.660000 9.680000 1.210000 214 218 216 0
0.880000 9.680000 1.210000 211 215 213 0
1.100000 9.680000 1.210000 210 214 212 0
1.320000 9.680000 1.320000 210 214 212 0
1.540000 9.680000 0.660000 212 216 214 0
1.760000 9.680000 0.660000 216 220 218 0
1.980000 9.680000 1.320000 216 220 218 0
2.200000 9.680000 2.090000 213 217 215 0
2.420000 9.680000 1.870000 213 217 215 0
2.640000 9.680000 2.970000 213 217 215 0
2.860000 9.680000 3.520000 212 216 214 0
3.080000 9.680000 2.860000 212 216 214 0
3.300000 9.680000 2.860000 212 216 214 0
3.520000 9.680000 2.860000 211 215 213 0
3.740000 9.680000 2.860000 211 215 213 0
3.960000 9.680000 2.970000 212 216 214 0
4.180000 9.680000 2.970000 212 216 214 0
4.400000 9.680000 2.970000 213 217 215 0
4.620000 9.680000 2.970000 214 218 216 0
4.840000 9.680000 3.080000 216 220 218 0
5.060000 9.680000 3.080000 214 218 216 0
5.280000 9.680000 3.080000 214 218 216 0
5.500000 9.680000 3.080000 214 218 216 0
5.720000 9.680000 3.190000 212 216 214 0
5.940000 9.680000 3.850000 209 215 212 0
6.160000 9.680000 3.850000 210 216 213 0
6.380000 9.680000 3.960000 212 216 212 0
6.600000 9.680000 3.960000 213 217 213 0
6.820000 9.680000 3.960000 213 217 213 0
7.040000 9.680000 4.070000 213 217 213 0
7.260000 9.680000 4.070000 210 216 211 0
7.480000 9.680000 4.730000 209 215 210 0
7.700000 9.680000 4.730000 209 215 210 0
7.920000 9.680000 4.840000 210 216 211 0
8.140000 9.680000 5.390000 211 215 211 0
8.360000 9.680000 5.720000 211 215 211 0
8.580000 9.680000 6.270000 210 214 210 0
8.800000 9.680000 6.270000 210 214 210 0
9.020000 9.680000 6.270000 209 215 210 0
9.240000 9.680000 7.040000 208 214 209 0
9.460000 9.680000 7.040000 208 214 209 0
9.680000 9.680000 7.040000 209 215 210 0
9.900000 9.680000 7.150000 209 213 209 0
10.120000 9.680000 7.150000 210 214 210 0
10.340000 9.680000 7.150000 208 214 209 0
10.560000 9.680000 7.150000 209 215 210 0
10.780000 9.680000 7.920000 209 215 210 0
11.000000 9.680000 7.920000 208 214 209 0
11.220000 9.680000 7.920000 208 214 209 0
11.440000 9.680000 8.030000 208 214 209 0
11.660000 9.680000 8.030000 207 213 208 0
11.880000 9.680000 8.030000 207 213 208 0
12.100000 9.680000 8.030000 209 215 210 0
12.320000 9.680000 8.140000 208 214 209 0
12.540000 9.680000 8.140000 207 213 208 0
12.760000 9.680000 8.140000 208 214 209 0
12.980000 9.680000 8.140000 208 214 207 0
13.200000 9.680000 8.250000 206 212 205 0
13.420000 9.680000 8.250000 207 213 208 0
13.640000 9.680000 8.250000 207 213 208 0
13.860000 9.680000 8.800000 208 214 209 0
14.080000 9.680000 9.900000 208 214 209 0
14.300000 9.680000 9.680000 209 213 207 0
14.520000 9.680000 9.790000 207 211 205 0
14.740000 9.680000 9.790000 206 212 205 0
14.960000 9.680000 9.790000 206 212 205 0
15.180000 9.680000 9.790000 207 213 206 0
15.400000 9.680000 9.900000 208 214 207 0
15.620000 9.680000 10.560000 210 214 208 0
15.840000 9.680000 10.560000 209 213 207 0
16.060000 9.680000 10.670000 206 212 205 0
16.280000 9.680000 10.670000 206 212 205 0
16.500000 9.680000 10.670000 206 212 205 0
16.720000 9.680000 10.670000 208 214 207 0
16.940000 9.680000 10.780000 211 217 210 0
17.160000 9.680000 11.440000 212 218 211 0
17.380000 9.680000 11.440000 214 218 212 0
17.600000 9.680000 11.550000 208 212 206 0
17.820000 9.680000 11.550000 210 216 209 0
18.040000 9.680000 11.550000 211 217 210 0
18.260000 9.680000 12.320000 208 214 207 0
18.480000 9.680000 12.320000 208 214 207 0
18.700000 9.680000 12.320000 208 215 205 0
18.920000 9.680000 12.430000 206 213 203 0
19.140000 9.680000 13.090000 206 210 204 0
19.360000 9.680000 13.640000 207 211 205 0
19.580000 9.680000 13.970000 206 212 205 0
19.800000 9.680000 14.520000 206 212 205 0
20.020000 9.680000 15.290000 209 214 205 0
20.240000 9.680000 15.290000 209 214 205 0
20.460000 9.680000 15.290000 208 215 205 0
20.680000 9.680000 16.060000 206 213 203 0
20.900000 9.680000 16.060000 208 212 206 0
21.120000 9.680000 16.060000 209 213 207 0
21.340000 9.680000 16.170000 209 216 206 0
21.560000 9.680000 16.170000 212 219 209 0
21.780000 9.680000 16.170000 206 211 202 0
22.000000 9.680000 16.940000 206 211 202 0
22.220000 9.680000 16.940000 207 212 203 0
22.440000 9.680000 16.940000 207 212 203 0
22.660000 9.680000 16.940000 206 212 205 0
22.880000 9.680000 17.710000 215 221 214 0
23.100000 9.680000 17.710000 223 230 220 0
23.320000 9.680000 17.820000 211 218 208 0
23.540000 9.680000 17.820000 209 214 205 0
23.760000 9.680000 17.160000 210 215 206 0
23.980000 9.680000 17.160000 208 213 204 0
24.200000 9.680000 17.160000 208 213 204 0
24.420000 9.680000 17.270000 207 212 203 0
24.640000 9.680000 17.820000 209 214 205 0
24.860000 9.680000 18.150000 206 211 202 0
25.080000 9.680000 18.700000 207 212 203 0
25.300000 9.680000 19.360000 207 212 203 0
25.520000 9.680000 19.470000 207 212 203 0
25.740000 9.680000 19.470000 209 214 205 0
25.960000 9.680000 20.130000 206 211 202 0
26.180000 9.680000 20.240000 206 211 202 0
26.400000 9.680000 19.580000 205 210 201 0
26.620000 9.680000 13.310000 206 211 202 0
26.840000 9.680000 3.740000 207 212 203 0
27.060000 9.680000 0.330000 206 211 202 0
27.280000 9.680000 0.330000 205 210 201 0
27.500000 9.680000 0.990000 204 209 200 0
27.720000 9.680000 1.100000 205 210 201 0
27.940000 9.680000 0.440000 205 210 201 0
28.380000 9.680000 4.620000 205 210 201 0
28.600000 9.680000 14.960000 206 211 202 0
28.820000 9.680000 19.910000 204 209 200 0
29.040000 9.680000 19.910000 202 207 198 0
29.260000 9.680000 20.020000 202 207 198 0
29.480000 9.680000 14.960000 201 206 197 0
29.700000 9.680000 5.720000 200 205 196 0
29.920000 9.680000 0.770000 200 205 196 0
30.140000 9.680000 1.540000 196 201 192 0
30.360000 9.680000 1.540000 190 195 186 0
30.580000 9.680000 2.970000 194 189 180 0
30.800000 9.680000 3.740000 181 176 167 0
31.020000 9.680000 4.400000 177 167 153 0
31.240000 9.680000 4.400000 167 157 143 0
31.460000 9.680000 3.740000 163 145 130 0
31.680000 9.680000 3.740000 158 140 125 0
31.900000 9.680000 3.080000 153 135 118 0
32.120000 9.680000 3.850000 150 132 115 0
32.340000 9.680000 3.850000 148 128 112 0
32.560000 9.680000 4.510000 146 126 110 0
32.780000 9.680000 4.620000 144 124 108 0
33.000000 9.680000 4.620000 143 123 107 0
33.220000 9.680000 4.730000 144 122 106 0
33.440000 9.680000 4.730000 142 120 104 0
33.660000 9.680000 4.730000 142 120 104 0
33.880000 9.680000 4.070000 138 116 100 0
34.100000 9.680000 4.070000 139 117 101 0
34.320000 9.680000 4.070000 138 116 100 0
34.540000 9.680000 4.620000 137 113 96 0
34.760000 9.680000 5.060000 137 113 96 0
34.980000 9.680000 4.840000 137 113 98 0
35.200000 9.680000 4.840000 138 114 99 0
35.420000 9.680000 4.840000 136 112 97 0
35.640000 9.680000 4.950000 137 113 98 0
35.860000 9.680000 4.950000 136 112 95 0
36.080000 9.680000 4.950000 136 112 95 0
36.300000 9.680000 4.950000 136 112 95 0
36.520000 9.680000 5.060000 136 112 95 0
36.740000 9.680000 5.170000 138 112 95 0
36.960000 9.680000 5.060000 138 112 95 0
37.180000 9.680000 5.830000 137 111 94 0
0.000000 9.900000 1.100000 209 212 212 0
0.220000 9.900000 1.210000 213 217 215 0
0.440000 9.900000 1.870000 216 220 218 0
0.660000 9.900000 1.210000 217 221 219 0
0.880000 9.900000 1.210000 213 217 215 0
1.100000 9.900000 1.210000 212 216 214 0
1.320000 9.900000 1.320000 210 214 212 0
1.540000 9.900000 0.660000 210 214 212 0
1.760000 9.900000 0.660000 213 217 215 0
1.980000 9.900000 1.320000 216 224 222 0
2.200000 9.900000 2.090000 213 221 219 0
2.420000 9.900000 1.870000 213 217 215 0
2.640000 9.900000 2.970000 213 217 215 0
2.860000 9.900000 3.520000 212 216 214 0
3.080000 9.900000 2.860000 211 215 213 0
3.300000 9.900000 2.860000 212 216 214 0
3.520000 9.900000 2.860000 212 216 214 0
3.740000 9.900000 2.860000 213 219 216 0
3.960000 9.900000 2.970000 211 217 214 0
4.180000 9.900000 2.970000 212 216 214 0
4.400000 9.900000 2.970000 212 216 214 0
4.620000 9.900000 2.970000 212 216 212 0
4.840000 9.900000 3.080000 215 219 215 0
5.060000 9.900000 3.080000 216 220 218 0
5.280000 9.900000 3.080000 213 217 215 0
5.500000 9.900000 3.080000 215 219 215 0
5.720000 9.900000 3.190000 214 218 214 0
5.940000 9.900000 3.190000 212 216 214 0
6.160000 9.900000 3.850000 211 215 213 0
6.380000 9.900000 3.960000 212 216 212 0
6.600000 9.900000 3.960000 212 216 212 0
6.820000 9.900000 3.960000 213 217 213 0
7.040000 9.900000 4.070000 212 216 212 0
7.260000 9.900000 4.070000 210 216 211 0
7.480000 9.900000 4.730000 209 215 210 0
7.700000 9.900000 4.730000 210 216 211 0
7.920000 9.900000 4.840000 211 217 212 0
8.140000 9.900000 5.390000 209 218 212 0
8.360000 9.900000 5.720000 207 216 210 0
8.580000 9.900000 6.270000 210 214 210 0
8.800000 9.900000 6.270000 210 214 210 0
9.020000 9.900000 6.270000 209 215 210 0
9.240000 9.900000 7.040000 208 214 209 0
9.460000 9.900000 7.040000 209 215 210 0
9.680000 9.900000 7.040000 209 215 210 0
9.900000 9.900000 7.150000 210 216 211 0
10.120000 9.900000 7.150000 209 215 210 0
10.340000 9.900000 7.150000 209 215 210 0
10.560000 9.900000 7.150000 208 214 209 0
10.780000 9.900000 7.920000 208 214 209 0
11.000000 9.900000 7.920000 208 214 209 0
11.220000 9.900000 7.920000 209 215 210 0
11.440000 9.900000 8.030000 208 214 209 0
11.660000 9.900000 8.030000 207 213 206 0
11.880000 9.900000 8.030000 208 214 207 0
12.100000 9.900000 8.030000 207 213 208 0
12.320000 9.900000 8.140000 207 213 208 0
12.540000 9.900000 8.140000 206 212 207 0
12.760000 9.900000 8.140000 207 213 208 0
12.980000 9.900000 8.140000 209 215 208 0
13.200000 9.900000 8.250000 208 214 207 0
13.420000 9.900000 8.250000 207 213 206 0
13.640000 9.900000 8.250000 207 213 206 0
13.860000 9.900000 8.800000 207 213 206 0
14.080000 9.900000 9.900000 208 214 207 0
14.300000 9.900000 9.680000 208 214 207 0
14.520000 9.900000 9.790000 208 214 207 0
14.740000 9.900000 9.790000 208 212 206 0
14.960000 9.900000 9.790000 207 211 205 0
15.180000 9.900000 9.790000 206 210 204 0
15.400000 9.900000 10.560000 207 211 205 0
15.620000 9.900000 10.560000 208 214 207 0
15.840000 9.900000 10.560000 208 214 207 0
16.060000 9.900000 10.670000 209 214 205 0
16.280000 9.900000 10.670000 207 212 203 0
16.500000 9.900000 10.670000 207 211 205 0
16.720000 9.900000 10.670000 208 212 206 0
16.940000 9.900000 10.780000 210 215 206 0
17.160000 9.900000 11.440000 213 218 209 0
17.380000 9.900000 11.440000 213 220 210 0
17.600000 9.900000 11.550000 211 218 208 0
17.820000 9.900000 11.550000 212 217 208 0
18.040000 9.900000 11.550000 213 218 209 0
18.260000 9.900000 12.320000 210 215 206 0
18.480000 9.900000 12.320000 209 214 205 0
18.700000 9.900000 12.320000 208 213 204 0
18.920000 9.900000 12.320000 208 213 204 0
19.140000 9.900000 13.090000 207 214 204 0
19.360000 9.900000 13.640000 206 213 203 0
19.580000 9.900000 13.970000 206 211 202 0
19.800000 9.900000 14.520000 206 211 202 0
20.020000 9.900000 15.290000 208 213 204 0
20.240000 9.900000 15.290000 211 216 207 0
20.460000 9.900000 15.290000 210 215 206 0
20.680000 9.900000 16.060000 207 212 203 0
20.900000 9.900000 16.060000 208 213 204 0
21.120000 9.900000 16.060000 211 216 207 0
21.340000 9.900000 16.170000 214 219 210 0
21.560000 9.900000 16.170000 213 218 209 0
21.780000 9.900000 16.170000 207 212 203 0
22.000000 9.900000 16.940000 208 213 204 0
22.220000 9.900000 16.940000 209 214 205 0
22.440000 9.900000 16.940000 208 213 204 0
22.660000 9.900000 16.940000 207 212 203 0
22.880000 9.900000 17.710000 208 213 204 0
23.100000 9.900000 17.710000 213 218 209 0
23.320000 9.900000 17.820000 210 215 206 0
23.540000 9.900000 17.820000 208 213 204 0
23.760000 9.900000 17.160000 207 212 203 0
23.980000 9.900000 17.160000 206 211 202 0
24.200000 9.900000 17.160000 206 211 202 0
24.420000 9.900000 17.270000 210 215 206 0
24.640000 9.900000 17.820000 214 219 210 0
24.860000 9.900000 18.150000 208 213 204 0
25.080000 9.900000 18.700000 206 211 202 0
25.300000 9.900000 18.700000 206 211 202 0
25.520000 9.900000 19.470000 207 212 203 0
25.740000 9.900000 19.470000 207 212 203 0
25.960000 9.900000 20.130000 206 211 202 0
26.180000 9.900000 20.240000 207 212 203 0
26.400000 9.900000 20.900000 207 212 203 0
26.620000 9.900000 15.400000 205 210 201 0
26.840000 9.900000 5.060000 206 211 202 0
27.060000 9.900000 0.330000 205 210 201 0
27.280000 9.900000 0.330000 206 211 202 0
27.500000 9.900000 0.990000 205 210 201 0
27.720000 9.900000 1.100000 204 209 200 0
27.940000 9.900000 0.440000 204 209 200 0
28.380000 9.900000 4.620000 205 210 201 0
28.600000 9.900000 14.960000 205 210 201 0
28.820000 9.900000 19.910000 204 209 200 0
29.040000 9.900000 19.910000 203 208 199 0
29.260000 9.900000 20.020000 202 207 198 0
29.480000 9.900000 14.960000 201 206 197 0
29.700000 9.900000 5.720000 201 206 197 0
29.920000 9.900000 0.770000 199 204 195 0
30.140000 9.900000 1.430000 200 200 193 0
30.360000 9.900000 1.540000 194 194 187 0
30.580000 9.900000 2.310000 192 181 174 0
30.800000 9.900000 3.740000 182 171 164 0
31.020000 9.900000 4.400000 172 158 142 0
31.240000 9.900000 3.740000 164 150 134 0
31.460000 9.900000 3.740000 159 141 122 0
31.680000 9.900000 3.740000 157 139 120 0
31.900000 9.900000 3.080000 155 135 119 0
32.120000 9.900000 3.740000 150 130 114 0
32.340000 9.900000 3.850000 148 128 112 0
32.560000 9.900000 4.510000 145 125 109 0
32.780000 9.900000 4.620000 144 124 108 0
33.000000 9.900000 4.620000 143 123 107 0
33.220000 9.900000 4.070000 143 121 105 0
33.440000 9.900000 4.070000 141 119 103 0
33.660000 9.900000 4.070000 140 118 102 0
33.880000 9.900000 4.070000 139 117 101 0
34.100000 9.900000 4.070000 139 117 101 0
34.320000 9.900000 4.070000 137 115 99 0
34.540000 9.900000 3.960000 138 114 97 0
34.760000 9.900000 5.060000 138 114 97 0
34.980000 9.900000 4.840000 137 113 96 0
35.200000 9.900000 4.840000 137 113 96 0
35.420000 9.900000 4.950000 137 113 96 0
35.640000 9.900000 4.950000 137 113 96 0
35.860000 9.900000 4.950000 136 112 95 0
36.080000 9.900000 4.840000 136 112 95 0
36.300000 9.900000 5.610000 137 111 94 0
36.520000 9.900000 5.060000 136 110 93 0
36.740000 9.900000 5.060000 137 111 93 0
36.960000 9.900000 5.060000 137 111 93 0
37.180000 9.900000 5.830000 137 111 94 0
0.000000 10.120000 1.100000 210 213 213 0
0.220000 10.120000 1.210000 210 214 212 0
0.440000 10.120000 1.870000 214 218 216 0
0.660000 10.120000 1.210000 215 219 217 0
0.880000 10.120000 1.210000 214 218 216 0
1.100000 10.120000 1.210000 212 216 214 0
1.320000 10.120000 1.320000 211 215 213 0
1.540000 10.120000 0.660000 210 214 212 0
1.760000 10.120000 0.660000 212 216 214 0
1.980000 10.120000 1.320000 216 224 222 0
2.200000 10.120000 2.090000 224 232 230 0
2.420000 10.120000 1.870000 218 222 220 0
2.640000 10.120000 2.970000 213 217 215 0
2.860000 10.120000 3.520000 213 217 215 0
3.080000 10.120000 2.860000 212 216 214 0
3.300000 10.120000 2.860000 211 215 213 0
3.520000 10.120000 2.860000 212 216 214 0
3.740000 10.120000 2.860000 214 220 217 0
3.960000 10.120000 2.860000 215 221 218 0
4.180000 10.120000 2.970000 212 216 214 0
4.400000 10.120000 2.970000 213 217 215 0
4.620000 10.120000 2.970000 213 217 213 0
4.840000 10.120000 3.080000 215 219 215 0
5.060000 10.120000 3.080000 216 220 218 0
5.280000 10.120000 3.080000 215 219 217 0
5.500000 10.120000 3.080000 215 219 215 0
5.720000 10.120000 3.190000 215 219 215 0
5.940000 10.120000 3.190000 215 219 217 0
6.160000 10.120000 3.190000 212 216 214 0
6.380000 10.120000 3.960000 212 216 212 0
6.600000 10.120000 3.960000 212 216 212 0
6.820000 10.120000 3.960000 212 216 212 0
7.040000 10.120000 4.070000 212 216 212 0
7.260000 10.120000 4.070000 209 215 210 0
7.480000 10.120000 4.730000 210 216 211 0
7.700000 10.120000 4.730000 211 217 212 0
7.920000 10.120000 4.840000 212 218 213 0
8.140000 10.120000 5.390000 216 225 219 0
8.360000 10.120000 5.720000 219 228 222 0
8.580000 10.120000 6.270000 211 215 211 0
8.800000 10.120000 6.270000 211 215 211 0
9.020000 10.120000 6.270000 210 216 211 0
9.240000 10.120000 7.040000 209 215 210 0
9.460000 10.120000 7.040000 209 215 210 0
9.680000 10.120000 7.040000 210 216 211 0
9.900000 10.120000 7.150000 211 217 212 0
10.120000 10.120000 7.150000 210 216 211 0
10.340000 10.120000 7.150000 209 215 210 0
10.560000 10.120000 7.920000 208 214 209 0
10.780000 10.120000 7.920000 207 213 208 0
11.000000 10.120000 7.920000 208 214 209 0
11.220000 10.120000 7.920000 213 219 214 0
11.440000 10.120000 8.030000 214 220 215 0
11.660000 10.120000 8.030000 209 215 208 0
11.880000 10.120000 8.030000 209 215 208 0
12.100000 10.120000 8.030000 207 213 208 0
12.320000 10.120000 8.140000 206 212 207 0
12.540000 10.120000 8.140000 207 213 208 0
12.760000 10.120000 8.140000 208 214 209 0
12.980000 10.120000 8.140000 209 215 208 0
13.200000 10.120000 8.250000 207 213 206 0
13.420000 10.120000 8.250000 209 215 208 0
13.640000 10.120000 8.250000 207 213 206 0
13.860000 10.120000 8.800000 206 212 205 0
14.080000 10.120000 9.900000 207 213 206 0
14.300000 10.120000 9.680000 208 214 207 0
14.520000 10.120000 9.790000 208 214 207 0
14.740000 10.120000 9.790000 211 215 209 0
14.960000 10.120000 9.790000 209 213 207 0
15.180000 10.120000 10.560000 207 211 205 0
15.400000 10.120000 10.560000 207 211 205 0
15.620000 10.120000 10.560000 207 213 206 0
15.840000 10.120000 10.560000 207 213 206 0
16.060000 10.120000 10.670000 209 214 205 0
16.280000 10.120000 10.670000 209 214 205 0
16.500000 10.120000 10.670000 208 212 206 0
16.720000 10.120000 10.670000 206 210 204 0
16.940000 10.120000 10.780000 207 212 203 0
17.160000 10.120000 10.780000 210 215 206 0
17.380000 10.120000 11.440000 209 216 206 0
17.600000 10.120000 11.550000 214 221 211 0
17.820000 10.120000 11.550000 211 216 207 0
18.040000 10.120000 11.550000 210 215 206 0
18.260000 10.120000 12.320000 209 214 205 0
18.480000 10.120000 12.320000 208 213 204 0
18.700000 10.120000 12.320000 207 212 203 0
18.920000 10.120000 12.320000 208 213 204 0
19.140000 10.120000 13.090000 211 218 208 0
19.360000 10.120000 13.640000 211 218 208 0
19.580000 10.120000 13.970000 205 210 201 0
19.800000 10.120000 14.520000 206 211 202 0
20.020000 10.120000 15.290000 207 212 203 0
20.240000 10.120000 15.290000 210 215 206 0
20.460000 10.120000 15.290000 211 216 207 0
20.680000 10.120000 16.060000 208 213 204 0
20.900000 10.120000 16.060000 207 212 203 0
21.120000 10.120000 16.060000 207 212 203 0
21.340000 10.120000 16.170000 208 213 204 0
21.560000 10.120000 16.170000 208 213 204 0
21.780000 10.120000 16.170000 208 213 204 0
22.000000 10.120000 16.940000 210 215 206 0
22.220000 10.120000 16.940000 208 213 204 0
22.440000 10.120000 16.940000 208 213 204 0
22.660000 10.120000 16.940000 209 214 205 0
22.880000 10.120000 17.710000 208 213 204 0
23.100000 10.120000 17.710000 208 213 204 0
23.320000 10.120000 17.820000 207 212 203 0
23.540000 10.120000 17.820000 206 211 202 0
23.760000 10.120000 17.160000 204 209 200 0
23.980000 10.120000 17.160000 204 209 200 0
24.200000 10.120000 17.160000 207 212 203 0
24.420000 10.120000 17.270000 209 214 205 0
24.640000 10.120000 17.820000 211 216 207 0
24.860000 10.120000 18.150000 208 213 204 0
25.080000 10.120000 18.700000 206 211 202 0
25.300000 10.120000 18.700000 206 211 202 0
25.520000 10.120000 19.470000 205 210 201 0
25.740000 10.120000 19.470000 205 210 201 0
25.960000 10.120000 20.130000 205 210 201 0
26.180000 10.120000 20.240000 207 212 203 0
26.400000 10.120000 20.900000 206 211 202 0
26.620000 10.120000 15.400000 206 211 202 0
26.840000 10.120000 5.060000 206 211 202 0
27.060000 10.120000 0.330000 206 211 202 0
27.280000 10.120000 0.330000 205 210 201 0
27.500000 10.120000 0.990000 205 210 201 0
27.720000 10.120000 1.100000 206 211 202 0
27.940000 10.120000 0.440000 205 210 201 0
28.380000 10.120000 4.620000 204 209 200 0
28.600000 10.120000 14.960000 204 209 200 0
28.820000 10.120000 19.910000 204 209 200 0
29.040000 10.120000 19.910000 203 208 199 0
29.260000 10.120000 19.910000 203 208 199 0
29.480000 10.120000 14.960000 200 205 196 0
29.700000 10.120000 5.720000 200 205 196 0
29.920000 10.120000 0.770000 198 203 194 0
30.140000 10.120000 1.430000 199 199 192 0
30.360000 10.120000 1.540000 190 190 183 0
30.580000 10.120000 2.310000 190 179 172 0
30.800000 10.120000 3.740000 177 166 159 0
31.020000 10.120000 3.740000 168 154 138 0
31.240000 10.120000 3.740000 162 148 132 0
31.460000 10.120000 3.740000 159 141 122 0
31.680000 10.120000 3.080000 154 136 117 0
31.900000 10.120000 3.080000 153 133 117 0
32.120000 10.120000 3.740000 149 129 113 0
32.340000 10.120000 3.850000 147 127 111 0
32.560000 10.120000 4.510000 145 125 109 0
32.780000 10.120000 4.620000 143 123 107 0
33.000000 10.120000 4.620000 142 122 106 0
33.220000 10.120000 4.070000 143 121 105 0
33.440000 10.120000 4.070000 142 120 104 0
33.660000 10.120000 4.070000 140 118 102 0
33.880000 10.120000 4.070000 139 117 101 0
34.100000 10.120000 4.070000 138 116 100 0
34.320000 10.120000 4.070000 138 116 100 0
34.540000 10.120000 3.960000 137 113 96 0
34.760000 10.120000 5.060000 137 113 96 0
34.980000 10.120000 4.840000 137 113 96 0
35.200000 10.120000 4.840000 138 114 97 0
35.420000 10.120000 4.950000 137 113 96 0
35.640000 10.120000 4.950000 136 112 95 0
35.860000 10.120000 4.950000 136 112 95 0
36.080000 10.120000 4.950000 135 111 94 0
36.300000 10.120000 5.610000 137 111 94 0
36.520000 10.120000 5.720000 137 111 94 0
36.740000 10.120000 5.060000 138 112 94 0
36.960000 10.120000 5.060000 137 111 93 0
37.180000 10.120000 5.830000 137 111 94 0
0.000000 10.340000 1.100000 213 214 211 0
0.220000 10.340000 1.210000 212 213 210 0
0.440000 10.340000 1.870000 213 214 211 0
0.660000 10.340000 1.210000 216 217 214 0
0.880000 10.340000 1.210000 214 215 212 0
1.100000 10.340000 1.210000 212 213 210 0
1.320000 10.340000 1.320000 213 214 211 0
1.540000 10.340000 0.550000 211 215 211 0
1.760000 10.340000 0.660000 210 214 210 0
1.980000 10.340000 1.320000 216 220 216 0
2.200000 10.340000 2.090000 223 227 223 0
2.420000 10.340000 2.530000 230 231 228 0
2.640000 10.340000 2.970000 216 217 214 0
2.860000 10.340000 3.520000 214 215 212 0
3.080000 10.340000 2.860000 214 215 212 0
3.300000 10.340000 2.860000 211 215 211 0
3.520000 10.340000 2.860000 212 216 212 0
3.740000 10.340000 2.860000 215 219 215 0
3.960000 10.340000 2.970000 214 218 214 0
4.180000 10.340000 2.970000 212 216 210 0
4.400000 10.340000 2.970000 212 216 210 0
4.620000 10.340000 2.970000 212 216 210 0
4.840000 10.340000 3.080000 213 217 211 0
5.060000 10.340000 3.080000 215 219 213 0
5.280000 10.340000 3.080000 215 219 213 0
5.500000 10.340000 3.080000 215 219 213 0
5.720000 10.340000 3.190000 215 219 213 0
5.940000 10.340000 3.190000 214 218 212 0
6.160000 10.340000 3.190000 211 215 209 0
6.380000 10.340000 3.960000 211 215 209 0
6.600000 10.340000 3.960000 211 215 209 0
6.820000 10.340000 3.960000 212 216 210 0
7.040000 10.340000 4.070000 211 215 209 0
7.260000 10.340000 4.070000 210 214 208 0
7.480000 10.340000 4.730000 210 214 208 0
7.700000 10.340000 4.730000 210 214 208 0
7.920000 10.340000 4.840000 212 216 210 0
8.140000 10.340000 5.390000 217 221 215 0
8.360000 10.340000 5.720000 220 224 218 0
8.580000 10.340000 6.270000 212 216 210 0
8.800000 10.340000 6.270000 211 215 209 0
9.020000 10.340000 6.270000 211 215 209 0
9.240000 10.340000 7.040000 210 214 208 0
9.460000 10.340000 7.040000 210 214 208 0
9.680000 10.340000 7.040000 212 216 210 0
9.900000 10.340000 7.150000 212 217 208 0
10.120000 10.340000 7.150000 213 218 209 0
10.340000 10.340000 7.150000 210 214 208 0
10.560000 10.340000 7.920000 209 213 207 0
10.780000 10.340000 7.920000 208 212 206 0
11.000000 10.340000 7.920000 208 212 206 0
11.220000 10.340000 7.920000 211 215 209 0
11.440000 10.340000 8.030000 216 220 214 0
11.660000 10.340000 8.030000 212 217 208 0
11.880000 10.340000 8.030000 210 215 206 0
12.100000 10.340000 8.030000 208 213 204 0
12.320000 10.340000 8.140000 207 212 203 0
12.540000 10.340000 8.140000 208 213 204 0
12.760000 10.340000 8.140000 208 213 204 0
12.980000 10.340000 8.140000 209 214 205 0
13.200000 10.340000 8.250000 208 213 204 0
13.420000 10.340000 8.250000 210 215 206 0
13.640000 10.340000 8.250000 210 215 206 0
13.860000 10.340000 8.800000 207 212 203 0
14.080000 10.340000 9.900000 207 212 203 0
14.300000 10.340000 9.680000 208 213 204 0
14.520000 10.340000 9.790000 210 215 206 0
14.740000 10.340000 9.790000 211 218 206 0
14.960000 10.340000 9.790000 212 219 207 0
15.180000 10.340000 10.560000 207 212 203 0
15.400000 10.340000 10.560000 207 212 203 0
15.620000 10.340000 10.560000 207 212 203 0
15.840000 10.340000 10.560000 207 212 203 0
16.060000 10.340000 10.670000 209 214 203 0
16.280000 10.340000 10.670000 211 216 205 0
16.500000 10.340000 10.670000 208 213 202 0
16.720000 10.340000 10.670000 207 212 201 0
16.940000 10.340000 10.780000 208 213 204 0
17.160000 10.340000 10.780000 208 213 204 0
17.380000 10.340000 11.440000 211 217 204 0
17.600000 10.340000 11.550000 216 222 209 0
17.820000 10.340000 11.550000 223 228 217 0
18.040000 10.340000 11.550000 207 212 201 0
18.260000 10.340000 12.320000 206 211 200 0
18.480000 10.340000 12.320000 207 212 201 0
18.700000 10.340000 12.320000 207 212 201 0
18.920000 10.340000 12.320000 208 213 202 0
19.140000 10.340000 13.090000 214 221 208 0
19.360000 10.340000 13.640000 217 224 211 0
19.580000 10.340000 13.970000 208 210 200 0
19.800000 10.340000 14.520000 207 209 199 0
20.020000 10.340000 15.290000 207 209 199 0
20.240000 10.340000 15.290000 209 211 201 0
20.460000 10.340000 15.290000 212 217 206 0
20.680000 10.340000 16.060000 215 220 209 0
20.900000 10.340000 16.060000 209 211 201 0
21.120000 10.340000 16.060000 208 210 200 0
21.340000 10.340000 16.170000 209 211 201 0
21.560000 10.340000 16.170000 209 211 201 0
21.780000 10.340000 16.170000 208 210 200 0
22.000000 10.340000 16.940000 209 211 201 0
22.220000 10.340000 16.940000 210 212 202 0
22.440000 10.340000 16.940000 209 211 201 0
22.660000 10.340000 16.940000 209 211 201 0
22.880000 10.340000 17.710000 210 212 202 0
23.100000 10.340000 17.710000 209 211 201 0
23.320000 10.340000 17.820000 208 210 200 0
23.540000 10.340000 17.160000 207 210 198 0
23.760000 10.340000 17.160000 207 210 198 0
23.980000 10.340000 17.160000 206 208 198 0
24.200000 10.340000 17.160000 207 209 199 0
24.420000 10.340000 17.270000 208 210 200 0
24.640000 10.340000 17.820000 207 209 199 0
24.860000 10.340000 18.810000 207 209 199 0
25.080000 10.340000 18.700000 208 210 200 0
25.300000 10.340000 18.700000 208 210 200 0
25.520000 10.340000 19.470000 206 208 198 0
25.740000 10.340000 19.470000 206 209 197 0
25.960000 10.340000 20.130000 206 209 197 0
26.180000 10.340000 20.240000 207 209 199 0
26.400000 10.340000 20.900000 209 211 201 0
26.620000 10.340000 15.400000 207 209 199 0
26.840000 10.340000 5.060000 207 209 199 0
27.060000 10.340000 0.220000 206 209 197 0
27.280000 10.340000 0.330000 207 210 198 0
27.500000 10.340000 0.990000 206 209 197 0
27.720000 10.340000 1.100000 207 210 198 0
27.940000 10.340000 0.440000 206 208 198 0
28.380000 10.340000 4.620000 205 208 196 0
28.600000 10.340000 14.960000 204 207 195 0
28.820000 10.340000 19.910000 204 207 195 0
29.040000 10.340000 19.910000 204 207 195 0
29.260000 10.340000 18.590000 205 208 196 0
29.480000 10.340000 12.320000 202 205 193 0
29.700000 10.340000 4.400000 201 204 188 0
29.920000 10.340000 0.770000 199 202 186 0
30.140000 10.340000 1.430000 197 195 175 0
30.360000 10.340000 1.540000 191 189 169 0
30.580000 10.340000 2.200000 188 174 156 0
30.800000 10.340000 3.630000 177 163 145 0
31.020000 10.340000 3.740000 169 151 126 0
31.240000 10.340000 3.740000 161 143 118 0
31.460000 10.340000 3.740000 158 139 120 0
31.680000 10.340000 3.080000 153 134 115 0
31.900000 10.340000 3.080000 152 133 114 0
32.120000 10.340000 3.740000 149 130 111 0
32.340000 10.340000 3.740000 146 127 108 0
32.560000 10.340000 4.510000 144 125 106 0
32.780000 10.340000 4.620000 144 122 104 0
33.000000 10.340000 3.960000 143 121 103 0
33.220000 10.340000 4.070000 142 120 102 0
33.440000 10.340000 4.070000 141 119 101 0
33.660000 10.340000 4.070000 141 117 100 0
33.880000 10.340000 4.070000 139 115 98 0
34.100000 10.340000 4.070000 138 114 97 0
34.320000 10.340000 3.410000 138 114 97 0
34.540000 10.340000 3.960000 138 114 97 0
34.760000 10.340000 5.060000 137 113 96 0
34.980000 10.340000 5.610000 137 114 95 0
35.200000 10.340000 4.840000 136 113 94 0
35.420000 10.340000 4.950000 139 113 95 0
35.640000 10.340000 4.950000 139 113 95 0
35.860000 10.340000 4.950000 137 111 93 0
36.080000 10.340000 5.610000 138 112 94 0
36.300000 10.340000 5.610000 137 111 93 0
36.520000 10.340000 5.720000 137 111 93 0
36.740000 10.340000 5.170000 136 110 92 0
36.960000 10.340000 5.830000 137 111 93 0
37.180000 10.340000 5.830000 137 109 92 0
0.000000 10.560000 1.100000 213 214 211 0
0.220000 10.560000 1.210000 212 213 210 0
0.440000 10.560000 1.870000 211 212 209 0
0.660000 10.560000 1.210000 214 215 212 0
0.880000 10.560000 1.210000 215 216 213 0
1.100000 10.560000 1.210000 213 214 211 0
1.320000 10.560000 1.320000 215 216 213 0
1.540000 10.560000 0.550000 215 219 215 0
1.760000 10.560000 0.660000 212 216 212 0
1.980000 10.560000 1.320000 209 213 209 0
2.200000 10.560000 2.090000 215 219 215 0
2.420000 10.560000 2.530000 219 220 217 0
2.640000 10.560000 2.970000 215 216 213 0
2.860000 10.560000 3.520000 213 214 211 0
3.080000 10.560000 2.860000 213 214 211 0
3.300000 10.560000 2.860000 210 214 210 0
3.520000 10.560000 2.860000 210 214 210 0
3.740000 10.560000 2.860000 211 215 211 0
3.960000 10.560000 2.970000 211 215 211 0
4.180000 10.560000 2.970000 211 215 209 0
4.400000 10.560000 2.970000 212 216 210 0
4.620000 10.560000 2.970000 211 215 209 0
4.840000 10.560000 3.080000 213 217 211 0
5.060000 10.560000 3.080000 212 216 210 0
5.280000 10.560000 3.080000 214 218 212 0
5.500000 10.560000 3.080000 213 217 211 0
5.720000 10.560000 3.190000 212 216 210 0
5.940000 10.560000 3.190000 212 216 210 0
6.160000 10.560000 3.190000 211 215 209 0
6.380000 10.560000 3.190000 211 215 209 0
6.600000 10.560000 3.960000 212 216 210 0
6.820000 10.560000 3.960000 211 215 209 0
7.040000 10.560000 4.070000 211 215 209 0
7.260000 10.560000 4.070000 210 214 208 0
7.480000 10.560000 4.730000 209 213 207 0
7.700000 10.560000 4.730000 210 214 208 0
7.920000 10.560000 4.840000 210 214 208 0
8.140000 10.560000 5.390000 211 215 209 0
8.360000 10.560000 5.720000 212 216 210 0
8.580000 10.560000 6.270000 213 217 211 0
8.800000 10.560000 6.270000 212 216 210 0
9.020000 10.560000 6.270000 211 215 209 0
9.240000 10.560000 7.040000 210 214 208 0
9.460000 10.560000 7.040000 210 214 208 0
9.680000 10.560000 7.040000 210 214 208 0
9.900000 10.560000 7.040000 214 219 210 0
10.120000 10.560000 7.150000 214 219 210 0
10.340000 10.560000 7.150000 210 214 208 0
10.560000 10.560000 7.920000 209 213 207 0
10.780000 10.560000 7.920000 208 212 206 0
11.000000 10.560000 7.920000 207 211 205 0
11.220000 10.560000 7.920000 210 214 208 0
11.440000 10.560000 8.030000 212 216 210 0
11.660000 10.560000 8.030000 211 216 207 0
11.880000 10.560000 8.030000 208 213 204 0
12.100000 10.560000 8.030000 208 213 204 0
12.320000 10.560000 8.140000 207 212 203 0
12.540000 10.560000 8.140000 208 213 204 0
12.760000 10.560000 8.140000 208 213 204 0
