ply
format ascii 1.0
element vertex 1199
property float x
property float y
property float z
property uchar red
property uchar green
property uchar blue
property uchar alpha
end_header
14.520000 7.700000 4.620000 137 95 78 0
14.740000 7.700000 3.960000 139 97 80 0
14.960000 7.700000 3.960000 138 96 79 0
15.180000 7.700000 3.300000 136 97 79 0
15.400000 7.700000 3.300000 136 97 79 0
15.620000 7.700000 2.640000 139 96 82 0
15.840000 7.700000 2.640000 140 97 83 0
16.060000 7.700000 2.640000 146 98 81 0
16.280000 7.700000 1.210000 148 100 83 0
18.040000 7.700000 5.060000 167 91 73 0
18.260000 7.700000 15.950000 162 88 72 0
18.480000 7.700000 20.790000 162 88 72 0
18.700000 7.700000 20.790000 166 86 70 0
18.920000 7.700000 20.790000 165 85 69 0
19.140000 7.700000 20.790000 167 85 69 0
19.360000 7.700000 20.790000 165 83 67 0
19.580000 7.700000 20.790000 165 83 66 0
19.800000 7.700000 20.790000 165 83 66 0
20.020000 7.700000 21.450000 166 82 66 0
20.240000 7.700000 21.450000 165 81 65 0
20.460000 7.700000 21.450000 166 79 65 0
20.680000 7.700000 21.450000 165 78 64 0
20.900000 7.700000 21.450000 166 77 64 0
21.120000 7.700000 21.450000 166 77 64 0
21.340000 7.700000 15.950000 167 79 64 0
21.560000 7.700000 6.930000 166 78 63 0
21.780000 7.700000 4.180000 168 75 63 0
22.000000 7.700000 6.930000 167 74 62 0
22.220000 7.700000 6.930000 165 75 62 0
22.440000 7.700000 2.860000 165 75 62 0
22.880000 7.700000 1.430000 165 72 60 0
23.100000 7.700000 2.860000 165 72 60 0
23.320000 7.700000 1.430000 165 72 60 0
24.200000 7.700000 0.770000 166 71 60 0
24.420000 7.700000 0.880000 168 71 60 0
24.640000 7.700000 0.550000 166 69 58 0
24.860000 7.700000 0.550000 166 69 58 0
25.080000 7.700000 1.540000 166 69 58 0
25.300000 7.700000 2.090000 167 70 59 0
25.520000 7.700000 2.090000 166 69 58 0
25.740000 7.700000 2.090000 168 71 60 0
25.960000 7.700000 2.090000 167 70 59 0
26.180000 7.700000 1.540000 167 70 59 0
26.400000 7.700000 1.650000 167 70 59 0
26.620000 7.700000 1.100000 167 70 59 0
26.840000 7.700000 0.550000 167 70 59 0
27.060000 7.700000 0.550000 168 69 59 0
27.280000 7.700000 0.440000 168 69 59 0
27.500000 7.700000 0.550000 167 70 59 0
27.720000 7.700000 0.550000 169 72 61 0
27.940000 7.700000 0.550000 169 70 60 0
28.160000 7.700000 1.320000 169 70 60 0
28.380000 7.700000 1.210000 169 70 60 0
28.600000 7.700000 1.210000 169 70 60 0
28.820000 7.700000 1.210000 169 70 60 0
29.040000 7.700000 1.320000 170 71 61 0
29.260000 7.700000 1.320000 170 71 61 0
29.480000 7.700000 1.320000 171 72 62 0
29.700000 7.700000 1.320000 170 71 60 0
29.920000 7.700000 1.320000 171 72 61 0
30.140000 7.700000 1.210000 172 73 63 0
30.360000 7.700000 1.210000 172 73 63 0
30.580000 7.700000 1.320000 172 73 63 0
30.800000 7.700000 1.320000 172 73 63 0
31.020000 7.700000 1.320000 173 74 64 0
31.240000 7.700000 1.320000 173 74 64 0
31.460000 7.700000 1.210000 174 75 64 0
31.680000 7.700000 1.210000 174 75 64 0
31.900000 7.700000 1.320000 175 76 65 0
32.120000 7.700000 1.320000 175 76 65 0
32.340000 7.700000 1.320000 175 76 66 0
32.560000 7.700000 1.320000 176 77 67 0
32.780000 7.700000 1.320000 178 79 68 0
33.000000 7.700000 1.210000 177 78 67 0
33.220000 7.700000 1.760000 179 80 69 0
33.440000 7.700000 1.760000 179 80 69 0
33.660000 7.700000 1.760000 179 80 69 0
33.880000 7.700000 2.310000 180 81 70 0
34.100000 7.700000 2.090000 180 83 72 0
34.320000 7.700000 2.200000 181 84 73 0
34.540000 7.700000 2.200000 179 84 73 0
34.760000 7.700000 2.200000 179 84 73 0
34.980000 7.700000 2.200000 179 84 73 0
35.200000 7.700000 2.200000 181 86 75 0
35.420000 7.700000 2.090000 181 86 75 0
35.640000 7.700000 2.200000 182 87 76 0
35.860000 7.700000 2.200000 182 89 77 0
36.080000 7.700000 2.090000 183 90 78 0
36.300000 7.700000 2.090000 183 90 78 0
36.520000 7.700000 2.860000 183 90 78 0
36.740000 7.700000 2.310000 184 91 81 0
36.960000 7.700000 2.310000 186 93 83 0
37.180000 7.700000 2.310000 184 91 79 0
0.000000 7.920000 2.970000 130 98 82 0
0.220000 7.920000 3.080000 129 97 81 0
0.440000 7.920000 1.870000 129 97 81 0
0.660000 7.920000 1.870000 130 96 79 0
0.880000 7.920000 2.970000 130 96 79 0
1.100000 7.920000 3.520000 130 96 81 0
1.320000 7.920000 2.970000 130 96 81 0
1.540000 7.920000 1.870000 130 96 81 0
1.760000 7.920000 1.870000 129 95 80 0
1.980000 7.920000 1.650000 129 95 80 0
2.200000 7.920000 1.100000 130 96 81 0
2.420000 7.920000 0.660000 130 96 79 0
2.640000 7.920000 0.660000 129 95 78 0
2.860000 7.920000 0.660000 128 94 79 0
3.080000 7.920000 0.660000 129 95 80 0
3.300000 7.920000 0.660000 130 94 77 0
3.520000 7.920000 0.660000 129 93 76 0
3.740000 7.920000 0.660000 131 95 78 0
3.960000 7.920000 0.660000 131 95 78 0
4.180000 7.920000 0.660000 131 95 78 0
4.400000 7.920000 0.660000 129 93 76 0
4.620000 7.920000 0.660000 129 93 76 0
4.840000 7.920000 0.660000 130 94 77 0
5.060000 7.920000 0.660000 131 93 77 0
5.280000 7.920000 0.660000 131 93 77 0
5.500000 7.920000 0.660000 131 93 77 0
5.720000 7.920000 0.660000 130 92 76 0
5.940000 7.920000 0.660000 130 92 74 0
6.160000 7.920000 0.660000 129 91 73 0
6.380000 7.920000 1.320000 130 90 75 0
6.600000 7.920000 0.550000 130 90 75 0
6.820000 7.920000 0.660000 131 91 76 0
7.040000 7.920000 0.660000 131 91 76 0
7.260000 7.920000 0.660000 131 91 76 0
7.480000 7.920000 1.320000 130 90 75 0
7.700000 7.920000 1.320000 131 92 74 0
7.920000 7.920000 1.320000 130 91 73 0
8.140000 7.920000 0.660000 132 90 73 0
8.360000 7.920000 0.660000 132 90 73 0
8.580000 7.920000 1.980000 132 89 75 0
8.800000 7.920000 4.070000 132 89 75 0
9.020000 7.920000 8.910000 132 90 73 0
9.240000 7.920000 11.000000 132 90 73 0
9.460000 7.920000 7.480000 132 90 73 0
9.680000 7.920000 4.070000 132 90 73 0
9.900000 7.920000 4.730000 133 91 74 0
10.120000 7.920000 5.500000 133 91 74 0
10.340000 7.920000 6.160000 133 90 76 0
10.560000 7.920000 6.820000 133 90 76 0
10.780000 7.920000 6.050000 135 93 76 0
11.000000 7.920000 5.390000 135 93 76 0
11.220000 7.920000 4.620000 136 94 77 0
11.440000 7.920000 4.620000 136 94 77 0
11.660000 7.920000 4.730000 135 93 76 0
11.880000 7.920000 4.730000 137 95 78 0
12.100000 7.920000 4.730000 137 94 80 0
12.320000 7.920000 4.840000 137 94 80 0
12.540000 7.920000 4.070000 138 96 79 0
12.760000 7.920000 4.070000 139 97 80 0
12.980000 7.920000 4.730000 138 96 79 0
13.200000 7.920000 5.060000 138 96 79 0
13.420000 7.920000 5.060000 136 97 79 0
13.640000 7.920000 5.280000 136 97 79 0
13.860000 7.920000 4.620000 139 96 82 0
14.080000 7.920000 4.620000 139 96 82 0
14.300000 7.920000 4.620000 138 96 79 0
14.520000 7.920000 3.960000 138 96 79 0
14.740000 7.920000 3.960000 138 96 79 0
14.960000 7.920000 3.960000 137 95 78 0
15.180000 7.920000 3.300000 136 97 79 0
15.400000 7.920000 3.300000 137 98 80 0
15.620000 7.920000 2.640000 139 96 82 0
15.840000 7.920000 2.640000 140 97 83 0
16.060000 7.920000 2.640000 146 98 81 0
16.280000 7.920000 1.210000 147 99 82 0
18.040000 7.920000 5.060000 165 89 71 0
18.260000 7.920000 15.950000 163 89 73 0
18.480000 7.920000 20.790000 163 89 73 0
18.700000 7.920000 20.790000 166 86 70 0
18.920000 7.920000 20.790000 164 84 68 0
19.140000 7.920000 20.790000 166 84 68 0
19.360000 7.920000 20.790000 165 83 67 0
19.580000 7.920000 20.790000 165 83 66 0
19.800000 7.920000 20.790000 165 83 66 0
20.020000 7.920000 21.450000 166 82 66 0
20.240000 7.920000 21.450000 165 81 65 0
20.460000 7.920000 21.450000 167 80 66 0
20.680000 7.920000 21.450000 166 79 65 0
20.900000 7.920000 21.450000 167 78 65 0
21.120000 7.920000 21.450000 167 78 65 0
21.340000 7.920000 15.950000 165 77 62 0
21.560000 7.920000 5.610000 165 77 62 0
22.000000 7.920000 4.180000 167 74 62 0
22.220000 7.920000 9.680000 165 75 62 0
22.440000 7.920000 6.930000 164 74 61 0
22.660000 7.920000 1.430000 165 72 60 0
23.760000 7.920000 0.110000 165 70 59 0
24.200000 7.920000 0.770000 166 71 60 0
24.420000 7.920000 0.880000 168 71 60 0
24.640000 7.920000 0.440000 166 69 58 0
24.860000 7.920000 1.100000 166 69 58 0
25.080000 7.920000 1.540000 166 69 58 0
25.300000 7.920000 2.090000 166 69 58 0
25.520000 7.920000 2.090000 166 69 58 0
25.740000 7.920000 2.090000 167 70 59 0
25.960000 7.920000 2.090000 166 69 58 0
26.180000 7.920000 2.090000 166 69 58 0
26.400000 7.920000 2.200000 168 71 60 0
26.620000 7.920000 1.650000 167 70 59 0
26.840000 7.920000 1.100000 166 69 58 0
27.060000 7.920000 1.100000 168 69 59 0
27.280000 7.920000 1.100000 168 69 59 0
27.500000 7.920000 1.210000 168 71 60 0
27.720000 7.920000 1.210000 169 72 61 0
27.940000 7.920000 0.550000 169 70 60 0
28.160000 7.920000 1.320000 169 70 60 0
28.380000 7.920000 1.210000 167 68 58 0
28.600000 7.920000 1.210000 169 70 60 0
28.820000 7.920000 1.210000 169 70 60 0
29.040000 7.920000 1.320000 169 70 60 0
29.260000 7.920000 0.660000 170 71 61 0
29.480000 7.920000 0.660000 170 71 61 0
29.700000 7.920000 1.320000 170 71 60 0
29.920000 7.920000 1.320000 171 72 61 0
30.140000 7.920000 1.320000 171 72 62 0
30.360000 7.920000 1.320000 170 71 61 0
30.580000 7.920000 1.320000 172 73 63 0
30.800000 7.920000 1.320000 173 74 64 0
31.020000 7.920000 1.320000 173 74 64 0
31.240000 7.920000 1.210000 174 75 65 0
31.460000 7.920000 1.210000 174 75 64 0
31.680000 7.920000 1.210000 175 76 65 0
31.900000 7.920000 1.320000 175 76 65 0
32.120000 7.920000 1.320000 175 76 65 0
32.340000 7.920000 1.320000 175 76 66 0
32.560000 7.920000 1.320000 177 78 68 0
32.780000 7.920000 1.320000 177 78 67 0
33.000000 7.920000 1.760000 178 79 68 0
33.220000 7.920000 2.310000 179 80 69 0
33.440000 7.920000 1.650000 179 80 69 0
33.660000 7.920000 1.760000 178 79 68 0
33.880000 7.920000 2.200000 180 81 70 0
34.100000 7.920000 2.090000 179 82 71 0
34.320000 7.920000 2.090000 180 83 72 0
34.540000 7.920000 2.090000 179 84 73 0
34.760000 7.920000 2.200000 180 85 74 0
34.980000 7.920000 2.200000 180 85 74 0
35.200000 7.920000 2.090000 181 86 75 0
35.420000 7.920000 2.090000 181 86 75 0
35.640000 7.920000 2.200000 182 87 76 0
35.860000 7.920000 2.200000 182 89 77 0
36.080000 7.920000 2.090000 183 90 78 0
36.300000 7.920000 2.090000 184 91 79 0
36.520000 7.920000 2.860000 184 91 79 0
36.740000 7.920000 2.310000 184 91 81 0
36.960000 7.920000 2.310000 184 91 81 0
37.180000 7.920000 2.310000 185 92 80 0
0.000000 8.140000 3.630000 129 97 81 0
0.220000 8.140000 3.080000 129 97 79 0
0.440000 8.140000 2.530000 129 97 79 0
0.660000 8.140000 1.870000 130 98 80 0
0.880000 8.140000 2.970000 130 98 80 0
1.100000 8.140000 3.520000 130 96 79 0
1.320000 8.140000 2.970000 129 95 78 0
1.540000 8.140000 1.870000 130 96 81 0
1.760000 8.140000 1.870000 129 95 80 0
1.980000 8.140000 1.650000 129 95 78 0
2.200000 8.140000 0.990000 129 95 78 0
2.420000 8.140000 0.550000 129 95 78 0
2.640000 8.140000 0.660000 128 94 77 0
2.860000 8.140000 0.660000 130 94 77 0
3.080000 8.140000 0.660000 129 93 76 0
6.380000 8.140000 0.660000 130 91 73 0
7.700000 8.140000 0.660000 131 89 72 0
8.580000 8.140000 2.640000 129 90 72 0
8.800000 8.140000 7.480000 129 90 72 0
9.020000 8.140000 11.000000 131 89 72 0
9.240000 8.140000 10.340000 132 90 73 0
9.460000 8.140000 4.730000 132 90 73 0
9.680000 8.140000 1.980000 132 90 73 0
9.900000 8.140000 3.410000 132 90 73 0
10.120000 8.140000 4.730000 133 91 74 0
10.340000 8.140000 5.500000 135 93 76 0
10.560000 8.140000 6.160000 134 92 75 0
10.780000 8.140000 6.050000 135 93 76 0
11.000000 8.140000 5.390000 136 94 77 0
11.220000 8.140000 4.730000 137 95 78 0
11.440000 8.140000 4.730000 136 94 77 0
11.660000 8.140000 4.730000 134 95 77 0
11.880000 8.140000 4.730000 134 95 77 0
12.100000 8.140000 4.840000 137 95 78 0
12.320000 8.140000 4.840000 137 95 78 0
12.540000 8.140000 4.840000 137 95 78 0
12.760000 8.140000 4.070000 138 96 79 0
12.980000 8.140000 4.730000 138 96 79 0
13.200000 8.140000 5.060000 138 96 79 0
13.420000 8.140000 5.060000 137 98 80 0
13.640000 8.140000 5.280000 137 98 80 0
13.860000 8.140000 4.620000 138 96 79 0
14.080000 8.140000 4.620000 139 97 80 0
14.300000 8.140000 3.850000 139 97 80 0
14.520000 8.140000 3.960000 139 97 80 0
14.740000 8.140000 3.960000 136 97 79 0
14.960000 8.140000 3.960000 135 96 78 0
15.180000 8.140000 3.300000 136 97 79 0
15.400000 8.140000 3.300000 136 97 79 0
15.620000 8.140000 2.640000 137 95 78 0
15.840000 8.140000 2.640000 140 98 81 0
16.060000 8.140000 2.640000 145 97 80 0
16.280000 8.140000 1.210000 147 99 82 0
18.040000 8.140000 5.060000 162 90 73 0
18.260000 8.140000 15.950000 165 89 71 0
18.480000 8.140000 20.790000 165 89 71 0
18.700000 8.140000 20.790000 164 86 69 0
18.920000 8.140000 20.790000 164 86 69 0
19.140000 8.140000 20.790000 165 85 69 0
19.360000 8.140000 20.790000 163 83 67 0
19.580000 8.140000 20.790000 166 82 66 0
19.800000 8.140000 20.790000 166 82 66 0
20.020000 8.140000 21.450000 165 81 65 0
20.240000 8.140000 21.450000 165 81 65 0
20.460000 8.140000 21.450000 166 80 64 0
20.680000 8.140000 21.450000 166 80 64 0
20.900000 8.140000 21.450000 166 79 65 0
21.120000 8.140000 20.130000 165 78 64 0
21.340000 8.140000 13.200000 166 78 63 0
21.560000 8.140000 4.180000 165 77 62 0
21.780000 8.140000 1.430000 166 76 62 0
22.000000 8.140000 8.360000 165 75 61 0
22.220000 8.140000 15.950000 167 74 62 0
22.440000 8.140000 13.200000 167 74 62 0
22.660000 8.140000 4.180000 164 71 59 0
23.540000 8.140000 0.110000 165 72 60 0
23.760000 8.140000 0.110000 164 71 59 0
24.200000 8.140000 0.770000 165 70 59 0
24.420000 8.140000 0.770000 165 70 59 0
24.640000 8.140000 0.880000 164 69 58 0
24.860000 8.140000 1.540000 164 69 58 0
25.080000 8.140000 2.090000 164 69 58 0
25.300000 8.140000 2.090000 165 70 59 0
25.520000 8.140000 2.090000 164 69 58 0
25.740000 8.140000 2.090000 167 70 59 0
25.960000 8.140000 2.090000 166 69 58 0
26.180000 8.140000 2.090000 167 70 59 0
26.400000 8.140000 2.090000 166 69 58 0
26.620000 8.140000 2.200000 166 69 58 0
26.840000 8.140000 1.650000 169 72 61 0
27.060000 8.140000 1.100000 168 71 60 0
27.280000 8.140000 1.100000 168 71 60 0
27.500000 8.140000 1.100000 168 71 60 0
27.720000 8.140000 1.210000 169 72 61 0
27.940000 8.140000 1.210000 169 72 61 0
28.160000 8.140000 1.210000 168 71 60 0
28.380000 8.140000 1.210000 169 72 61 0
28.600000 8.140000 1.210000 169 72 61 0
28.820000 8.140000 1.320000 168 71 60 0
29.040000 8.140000 1.320000 170 73 62 0
29.260000 8.140000 0.660000 170 71 61 0
29.480000 8.140000 0.660000 171 72 62 0
29.700000 8.140000 1.320000 172 73 63 0
29.920000 8.140000 1.320000 171 72 62 0
30.140000 8.140000 1.210000 172 73 63 0
30.360000 8.140000 1.320000 172 73 63 0
30.580000 8.140000 1.320000 172 73 63 0
30.800000 8.140000 1.210000 173 74 64 0
31.020000 8.140000 1.210000 172 73 63 0
31.240000 8.140000 1.210000 174 75 65 0
31.460000 8.140000 1.210000 175 76 66 0
31.680000 8.140000 1.210000 175 76 66 0
31.900000 8.140000 1.320000 176 77 67 0
32.120000 8.140000 1.320000 174 75 65 0
32.340000 8.140000 1.320000 175 78 67 0
32.560000 8.140000 1.320000 175 78 67 0
32.780000 8.140000 1.210000 175 78 66 0
33.000000 8.140000 1.760000 178 81 69 0
33.220000 8.140000 2.200000 178 81 70 0
33.440000 8.140000 2.310000 178 81 70 0
33.660000 8.140000 2.200000 178 81 69 0
33.880000 8.140000 2.090000 179 82 70 0
34.100000 8.140000 2.090000 179 82 71 0
34.320000 8.140000 2.090000 180 83 72 0
34.540000 8.140000 2.200000 178 83 72 0
34.760000 8.140000 2.200000 180 85 74 0
34.980000 8.140000 2.200000 180 85 74 0
35.200000 8.140000 2.090000 181 86 75 0
35.420000 8.140000 2.090000 181 86 75 0
35.640000 8.140000 2.200000 181 86 75 0
35.860000 8.140000 2.200000 181 88 76 0
36.080000 8.140000 2.090000 183 90 78 0
36.300000 8.140000 2.090000 183 90 78 0
36.520000 8.140000 2.860000 184 91 79 0
36.740000 8.140000 2.310000 184 91 81 0
36.960000 8.140000 2.310000 185 92 82 0
37.180000 8.140000 2.310000 183 93 80 0
0.000000 8.360000 3.630000 129 97 81 0
0.220000 8.360000 3.740000 129 97 79 0
0.440000 8.360000 2.530000 130 98 80 0
0.660000 8.360000 2.530000 130 98 80 0
0.880000 8.360000 2.970000 130 98 80 0
1.100000 8.360000 3.520000 130 96 79 0
1.320000 8.360000 2.970000 129 95 78 0
1.540000 8.360000 1.870000 129 95 80 0
1.760000 8.360000 1.870000 130 96 81 0
1.980000 8.360000 2.310000 129 95 78 0
2.200000 8.360000 1.540000 129 95 78 0
2.420000 8.360000 1.210000 129 95 78 0
2.640000 8.360000 0.550000 128 94 77 0
2.860000 8.360000 0.550000 130 94 77 0
3.080000 8.360000 0.660000 130 94 77 0
8.140000 8.360000 0.660000 131 89 72 0
8.360000 8.360000 0.660000 131 89 72 0
8.580000 8.360000 1.980000 130 91 73 0
8.800000 8.360000 4.730000 130 91 73 0
9.020000 8.360000 6.160000 131 89 72 0
9.240000 8.360000 6.160000 132 90 73 0
9.460000 8.360000 4.070000 131 89 72 0
9.680000 8.360000 3.410000 132 90 73 0
9.900000 8.360000 4.070000 132 90 73 0
10.120000 8.360000 4.840000 133 91 74 0
10.340000 8.360000 5.500000 134 92 75 0
10.560000 8.360000 5.390000 134 92 75 0
10.780000 8.360000 5.390000 135 93 76 0
11.000000 8.360000 5.390000 135 93 76 0
11.220000 8.360000 4.730000 135 93 76 0
11.440000 8.360000 4.730000 136 94 77 0
11.660000 8.360000 4.730000 134 95 77 0
11.880000 8.360000 4.730000 135 96 78 0
12.100000 8.360000 4.840000 137 95 78 0
12.320000 8.360000 4.840000 136 94 77 0
12.540000 8.360000 4.840000 138 96 79 0
12.760000 8.360000 4.180000 138 96 79 0
12.980000 8.360000 4.070000 138 96 79 0
13.200000 8.360000 4.620000 138 96 79 0
13.420000 8.360000 5.170000 136 97 79 0
13.640000 8.360000 5.280000 136 97 79 0
13.860000 8.360000 4.620000 138 96 79 0
14.080000 8.360000 4.620000 138 96 79 0
14.300000 8.360000 3.850000 137 95 78 0
14.520000 8.360000 3.960000 139 97 80 0
14.740000 8.360000 3.960000 136 97 79 0
14.960000 8.360000 3.960000 136 97 79 0
15.180000 8.360000 3.300000 136 97 79 0
15.400000 8.360000 3.300000 136 97 79 0
15.620000 8.360000 2.640000 138 96 79 0
15.840000 8.360000 2.640000 139 97 80 0
16.060000 8.360000 2.640000 146 98 81 0
16.280000 8.360000 1.210000 147 99 82 0
18.040000 8.360000 5.060000 164 92 75 0
18.260000 8.360000 15.950000 165 89 71 0
18.480000 8.360000 21.450000 164 88 70 0
18.700000 8.360000 20.790000 165 87 70 0
18.920000 8.360000 20.790000 165 87 70 0
19.140000 8.360000 20.790000 164 84 68 0
19.360000 8.360000 20.790000 164 84 68 0
19.580000 8.360000 20.790000 166 82 66 0
19.800000 8.360000 20.790000 166 82 66 0
20.020000 8.360000 21.450000 165 81 65 0
20.240000 8.360000 21.450000 166 82 66 0
20.460000 8.360000 21.450000 167 81 65 0
20.680000 8.360000 21.450000 166 80 64 0
20.900000 8.360000 21.450000 165 78 64 0
21.120000 8.360000 17.270000 166 79 65 0
21.340000 8.360000 8.360000 167 79 64 0
21.560000 8.360000 1.430000 165 77 62 0
21.780000 8.360000 4.180000 165 75 61 0
22.000000 8.360000 13.200000 166 76 62 0
22.220000 8.360000 20.130000 167 74 62 0
22.440000 8.360000 15.950000 166 73 61 0
22.660000 8.360000 5.610000 165 72 60 0
22.880000 8.360000 0.110000 166 73 61 0
23.100000 8.360000 0.110000 167 74 61 0
23.540000 8.360000 0.110000 164 71 59 0
23.760000 8.360000 0.110000 165 72 60 0
23.980000 8.360000 0.110000 166 71 60 0
24.200000 8.360000 0.770000 165 70 59 0
24.420000 8.360000 0.770000 165 70 59 0
24.640000 8.360000 1.430000 165 70 59 0
24.860000 8.360000 1.430000 165 70 59 0
25.080000 8.360000 2.090000 165 70 59 0
25.300000 8.360000 2.090000 165 70 59 0
25.520000 8.360000 2.090000 164 69 58 0
25.740000 8.360000 2.090000 167 70 59 0
25.960000 8.360000 2.090000 166 69 58 0
26.180000 8.360000 2.090000 167 70 59 0
26.400000 8.360000 2.090000 166 69 58 0
26.620000 8.360000 2.090000 167 70 59 0
26.840000 8.360000 2.200000 168 71 60 0
27.060000 8.360000 1.650000 168 71 60 0
27.280000 8.360000 1.100000 168 71 60 0
27.500000 8.360000 1.100000 168 71 60 0
27.720000 8.360000 1.210000 169 72 61 0
27.940000 8.360000 1.210000 168 71 60 0
28.160000 8.360000 1.210000 168 71 60 0
28.380000 8.360000 1.320000 169 72 61 0
28.600000 8.360000 1.320000 168 71 60 0
28.820000 8.360000 1.320000 168 71 60 0
29.040000 8.360000 1.320000 168 71 60 0
29.260000 8.360000 1.320000 170 71 61 0
29.480000 8.360000 1.320000 172 73 63 0
29.700000 8.360000 1.320000 172 73 63 0
29.920000 8.360000 1.320000 172 73 63 0
30.140000 8.360000 1.210000 172 73 63 0
30.360000 8.360000 1.210000 173 74 64 0
30.580000 8.360000 1.210000 172 73 63 0
30.800000 8.360000 1.210000 171 72 62 0
31.020000 8.360000 1.210000 173 74 64 0
31.240000 8.360000 1.210000 174 75 65 0
31.460000 8.360000 1.210000 174 75 65 0
31.680000 8.360000 1.210000 175 76 66 0
31.900000 8.360000 1.320000 174 75 65 0
32.120000 8.360000 1.320000 175 76 66 0
32.340000 8.360000 1.320000 174 77 66 0
32.560000 8.360000 1.320000 176 79 68 0
32.780000 8.360000 1.320000 176 79 67 0
33.000000 8.360000 1.760000 176 79 67 0
33.220000 8.360000 1.650000 177 80 69 0
33.440000 8.360000 1.650000 177 80 69 0
33.660000 8.360000 2.200000 179 82 70 0
33.880000 8.360000 2.750000 179 82 70 0
34.100000 8.360000 2.090000 180 83 72 0
34.320000 8.360000 2.090000 180 83 72 0
34.540000 8.360000 2.200000 179 84 73 0
34.760000 8.360000 2.200000 179 84 73 0
34.980000 8.360000 2.200000 180 85 74 0
35.200000 8.360000 2.200000 181 86 75 0
35.420000 8.360000 2.090000 181 86 75 0
35.640000 8.360000 2.200000 181 86 75 0
35.860000 8.360000 2.200000 181 88 76 0
36.080000 8.360000 2.090000 182 89 77 0
36.300000 8.360000 2.090000 183 90 78 0
36.520000 8.360000 2.860000 184 91 79 0
36.740000 8.360000 2.310000 185 92 82 0
36.960000 8.360000 2.310000 185 92 82 0
37.180000 8.360000 2.310000 184 94 81 0
0.000000 8.580000 4.290000 130 98 82 0
0.220000 8.580000 3.630000 129 97 81 0
0.440000 8.580000 3.850000 130 98 82 0
0.660000 8.580000 3.190000 129 97 81 0
0.880000 8.580000 3.630000 129 97 81 0
1.100000 8.580000 4.180000 130 96 79 0
1.320000 8.580000 3.630000 130 96 79 0
1.540000 8.580000 3.190000 129 95 78 0
1.760000 8.580000 2.530000 129 95 78 0
1.980000 8.580000 2.310000 129 95 80 0
2.200000 8.580000 2.310000 129 95 80 0
2.420000 8.580000 1.760000 128 94 79 0
2.640000 8.580000 1.650000 128 94 79 0
2.860000 8.580000 1.650000 130 94 77 0
3.080000 8.580000 1.210000 130 94 77 0
3.300000 8.580000 0.660000 130 94 77 0
3.520000 8.580000 0.660000 130 94 77 0
4.840000 8.580000 0.660000 128 92 75 0
5.060000 8.580000 0.660000 129 91 75 0
5.280000 8.580000 0.660000 129 91 75 0
5.500000 8.580000 0.660000 129 91 75 0
5.720000 8.580000 0.660000 130 92 76 0
5.940000 8.580000 0.660000 129 91 75 0
6.160000 8.580000 0.660000 129 91 75 0
6.380000 8.580000 0.660000 130 91 73 0
6.600000 8.580000 0.660000 130 91 73 0
6.820000 8.580000 0.660000 129 90 72 0
7.040000 8.580000 0.660000 129 90 72 0
7.260000 8.580000 0.660000 129 89 74 0
7.480000 8.580000 0.660000 128 88 73 0
7.700000 8.580000 1.320000 129 90 72 0
7.920000 8.580000 1.320000 130 91 73 0
8.140000 8.580000 1.320000 130 91 73 0
8.360000 8.580000 1.980000 130 91 73 0
8.580000 8.580000 2.750000 129 89 74 0
8.800000 8.580000 3.410000 130 90 75 0
9.020000 8.580000 4.070000 129 90 72 0
9.240000 8.580000 4.070000 129 90 72 0
9.460000 8.580000 4.840000 132 90 73 0
9.680000 8.580000 5.500000 131 89 72 0
9.900000 8.580000 5.500000 130 91 73 0
10.120000 8.580000 5.500000 132 93 75 0
10.340000 8.580000 5.500000 134 91 77 0
10.560000 8.580000 5.390000 135 92 78 0
10.780000 8.580000 5.390000 132 92 77 0
11.000000 8.580000 4.730000 133 93 78 0
11.220000 8.580000 4.730000 134 95 77 0
11.440000 8.580000 4.730000 134 95 77 0
11.660000 8.580000 4.730000 135 96 78 0
11.880000 8.580000 4.840000 135 96 78 0
12.100000 8.580000 4.840000 137 95 78 0
12.320000 8.580000 4.840000 137 95 78 0
12.540000 8.580000 4.840000 135 96 78 0
12.760000 8.580000 4.180000 136 97 79 0
12.980000 8.580000 4.180000 136 96 81 0
13.200000 8.580000 4.070000 137 97 82 0
13.420000 8.580000 4.730000 136 97 79 0
13.640000 8.580000 5.390000 136 97 79 0
13.860000 8.580000 5.280000 138 96 79 0
14.080000 8.580000 4.620000 138 96 79 0
14.300000 8.580000 3.850000 136 97 79 0
14.520000 8.580000 3.960000 137 98 80 0
14.740000 8.580000 3.960000 136 97 79 0
14.960000 8.580000 3.960000 136 97 79 0
15.180000 8.580000 3.300000 136 97 79 0
15.400000 8.580000 3.300000 135 96 78 0
15.620000 8.580000 2.640000 138 96 79 0
15.840000 8.580000 2.640000 139 97 80 0
16.060000 8.580000 2.640000 149 97 79 0
16.280000 8.580000 1.320000 150 98 80 0
18.040000 8.580000 5.060000 161 93 77 0
18.260000 8.580000 15.950000 164 90 74 0
18.480000 8.580000 21.450000 163 89 73 0
18.700000 8.580000 20.790000 165 87 72 0
18.920000 8.580000 20.790000 165 87 72 0
19.140000 8.580000 20.790000 163 85 68 0
19.360000 8.580000 20.790000 163 85 68 0
19.580000 8.580000 20.790000 166 84 68 0
19.800000 8.580000 20.790000 166 84 68 0
20.020000 8.580000 21.450000 165 81 65 0
20.240000 8.580000 21.450000 165 81 65 0
20.460000 8.580000 21.450000 167 80 66 0
20.680000 8.580000 21.450000 166 79 65 0
20.900000 8.580000 20.130000 165 78 64 0
21.120000 8.580000 13.200000 165 78 64 0
21.340000 8.580000 4.180000 166 77 64 0
21.780000 8.580000 5.610000 165 77 62 0
22.000000 8.580000 15.950000 165 77 62 0
22.220000 8.580000 21.450000 165 75 62 0
22.440000 8.580000 15.950000 164 74 61 0
22.660000 8.580000 5.610000 166 73 61 0
22.880000 8.580000 0.770000 166 73 61 0
23.100000 8.580000 0.770000 166 73 61 0
23.540000 8.580000 0.110000 165 72 60 0
23.760000 8.580000 0.110000 165 72 60 0
23.980000 8.580000 0.770000 165 72 60 0
24.200000 8.580000 0.770000 164 71 59 0
24.420000 8.580000 0.770000 165 70 59 0
24.640000 8.580000 1.430000 166 71 60 0
24.860000 8.580000 1.430000 165 70 59 0
25.080000 8.580000 2.090000 165 70 59 0
25.300000 8.580000 2.090000 166 71 60 0
25.520000 8.580000 2.090000 165 70 59 0
25.740000 8.580000 2.090000 166 69 58 0
25.960000 8.580000 2.200000 166 69 58 0
26.180000 8.580000 2.090000 166 69 58 0
26.400000 8.580000 2.090000 166 69 58 0
26.620000 8.580000 2.090000 167 70 59 0
26.840000 8.580000 2.200000 167 70 59 0
27.060000 8.580000 1.650000 167 70 59 0
27.280000 8.580000 1.760000 167 70 59 0
27.500000 8.580000 1.100000 168 71 60 0
27.720000 8.580000 1.210000 169 72 61 0
27.940000 8.580000 1.210000 169 72 61 0
28.160000 8.580000 1.210000 168 71 60 0
28.380000 8.580000 1.320000 168 71 60 0
28.600000 8.580000 1.320000 168 71 60 0
28.820000 8.580000 1.320000 168 71 60 0
29.040000 8.580000 1.320000 167 70 59 0
29.260000 8.580000 1.320000 169 70 60 0
29.480000 8.580000 1.320000 169 70 60 0
29.700000 8.580000 1.320000 170 71 61 0
29.920000 8.580000 1.210000 171 72 62 0
30.140000 8.580000 1.210000 170 71 61 0
30.360000 8.580000 1.210000 172 73 63 0
30.580000 8.580000 1.210000 171 72 62 0
30.800000 8.580000 1.210000 171 72 62 0
31.020000 8.580000 1.210000 172 73 63 0
31.240000 8.580000 1.210000 173 74 64 0
31.460000 8.580000 1.210000 174 75 65 0
31.680000 8.580000 1.210000 174 75 65 0
31.900000 8.580000 1.320000 175 76 66 0
32.120000 8.580000 1.320000 174 75 65 0
32.340000 8.580000 1.320000 174 77 65 0
32.560000 8.580000 1.320000 175 78 66 0
32.780000 8.580000 1.320000 176 77 67 0
33.000000 8.580000 1.210000 177 78 68 0
33.220000 8.580000 1.760000 175 78 66 0
33.440000 8.580000 1.760000 178 81 69 0
33.660000 8.580000 2.310000 179 82 71 0
33.880000 8.580000 2.860000 178 81 70 0
34.100000 8.580000 2.860000 179 82 71 0
34.320000 8.580000 2.090000 180 83 72 0
34.540000 8.580000 2.200000 180 83 72 0
34.760000 8.580000 2.310000 181 84 73 0
34.980000 8.580000 2.310000 180 85 74 0
35.200000 8.580000 2.200000 181 86 75 0
35.420000 8.580000 2.200000 181 86 77 0
35.640000 8.580000 2.200000 182 87 78 0
35.860000 8.580000 2.200000 182 87 76 0
36.080000 8.580000 2.090000 183 88 77 0
36.300000 8.580000 2.750000 183 90 80 0
36.520000 8.580000 2.860000 182 89 79 0
36.740000 8.580000 2.310000 184 91 81 0
36.960000 8.580000 2.310000 185 92 82 0
37.180000 8.580000 2.310000 185 92 82 0
0.000000 8.800000 4.290000 131 99 83 0
0.220000 8.800000 4.290000 130 98 82 0
0.440000 8.800000 4.400000 129 97 81 0
0.660000 8.800000 3.850000 129 97 81 0
0.880000 8.800000 4.400000 129 97 81 0
1.100000 8.800000 4.180000 130 96 79 0
1.320000 8.800000 4.290000 130 96 79 0
1.540000 8.800000 3.740000 129 95 78 0
1.760000 8.800000 3.740000 129 95 78 0
1.980000 8.800000 3.630000 129 95 80 0
2.200000 8.800000 2.860000 129 95 80 0
2.420000 8.800000 3.080000 129 95 80 0
2.640000 8.800000 2.860000 128 94 79 0
2.860000 8.800000 2.970000 130 94 77 0
3.080000 8.800000 1.870000 130 94 77 0
3.300000 8.800000 1.320000 131 95 78 0
3.520000 8.800000 1.320000 130 94 77 0
3.740000 8.800000 1.320000 129 93 76 0
3.960000 8.800000 1.320000 129 93 76 0
4.180000 8.800000 0.660000 129 92 78 0
4.400000 8.800000 0.660000 129 92 78 0
4.620000 8.800000 0.660000 130 94 77 0
4.840000 8.800000 1.320000 129 93 76 0
5.060000 8.800000 1.320000 130 92 76 0
5.280000 8.800000 1.320000 130 92 76 0
5.500000 8.800000 1.320000 129 91 75 0
5.720000 8.800000 1.320000 129 91 75 0
5.940000 8.800000 1.320000 129 91 75 0
6.160000 8.800000 1.320000 128 90 74 0
6.380000 8.800000 1.320000 130 91 73 0
6.600000 8.800000 1.320000 129 90 72 0
6.820000 8.800000 1.320000 130 91 73 0
7.040000 8.800000 1.320000 130 91 73 0
7.260000 8.800000 1.320000 129 89 74 0
7.480000 8.800000 2.090000 130 90 75 0
7.700000 8.800000 1.980000 130 91 73 0
7.920000 8.800000 2.640000 129 90 72 0
8.140000 8.800000 3.300000 130 91 73 0
8.360000 8.800000 3.410000 129 90 72 0
8.580000 8.800000 4.070000 130 90 75 0
8.800000 8.800000 4.840000 129 89 74 0
9.020000 8.800000 5.500000 129 90 72 0
9.240000 8.800000 5.500000 130 91 73 0
9.460000 8.800000 6.160000 132 90 73 0
9.680000 8.800000 6.820000 132 90 73 0
9.900000 8.800000 6.820000 130 91 73 0
10.120000 8.800000 6.160000 130 91 73 0
10.340000 8.800000 5.500000 134 91 77 0
10.560000 8.800000 5.390000 134 91 77 0
10.780000 8.800000 4.730000 132 92 77 0
11.000000 8.800000 4.730000 132 92 77 0
11.220000 8.800000 4.730000 133 94 76 0
11.440000 8.800000 4.840000 134 95 77 0
11.660000 8.800000 4.840000 134 95 77 0
11.880000 8.800000 4.840000 135 96 78 0
12.100000 8.800000 4.840000 137 95 78 0
12.320000 8.800000 4.840000 137 95 78 0
12.540000 8.800000 4.180000 135 96 78 0
12.760000 8.800000 4.180000 136 97 79 0
12.980000 8.800000 4.180000 135 95 80 0
13.200000 8.800000 4.180000 135 95 80 0
13.420000 8.800000 4.840000 136 97 79 0
13.640000 8.800000 5.390000 136 97 79 0
13.860000 8.800000 5.280000 138 96 79 0
14.080000 8.800000 3.850000 138 96 79 0
14.300000 8.800000 3.850000 135 96 78 0
14.520000 8.800000 3.960000 135 96 78 0
14.740000 8.800000 3.960000 136 97 79 0
14.960000 8.800000 3.960000 136 97 79 0
15.180000 8.800000 3.300000 135 96 78 0
15.400000 8.800000 3.300000 136 97 79 0
15.620000 8.800000 2.640000 138 96 79 0
15.840000 8.800000 2.640000 139 97 80 0
16.060000 8.800000 2.640000 148 96 78 0
16.280000 8.800000 1.320000 150 98 80 0
18.040000 8.800000 5.060000 160 92 76 0
18.260000 8.800000 15.950000 164 90 74 0
18.480000 8.800000 21.450000 162 88 72 0
18.700000 8.800000 20.790000 165 87 72 0
18.920000 8.800000 20.790000 164 86 71 0
19.140000 8.800000 20.790000 164 86 69 0
19.360000 8.800000 20.790000 164 86 69 0
19.580000 8.800000 20.790000 166 84 68 0
19.800000 8.800000 20.790000 166 84 68 0
20.020000 8.800000 21.450000 165 81 65 0
20.240000 8.800000 21.450000 165 81 65 0
20.460000 8.800000 21.450000 167 80 66 0
20.680000 8.800000 21.450000 166 79 65 0
20.900000 8.800000 17.380000 164 77 63 0
21.120000 8.800000 8.360000 165 78 64 0
21.340000 8.800000 1.430000 165 76 63 0
21.780000 8.800000 5.610000 165 77 62 0
22.000000 8.800000 15.950000 164 76 61 0
22.220000 8.800000 20.130000 165 75 62 0
22.440000 8.800000 13.200000 165 75 62 0
22.660000 8.800000 4.180000 166 73 61 0
22.880000 8.800000 0.770000 166 73 61 0
23.100000 8.800000 0.770000 166 73 61 0
23.320000 8.800000 0.110000 166 73 61 0
23.540000 8.800000 0.110000 166 73 61 0
23.760000 8.800000 0.110000 165 72 60 0
23.980000 8.800000 0.770000 165 72 60 0
24.200000 8.800000 0.770000 164 71 59 0
24.420000 8.800000 0.770000 165 70 59 0
24.640000 8.800000 1.430000 165 70 59 0
24.860000 8.800000 1.430000 166 71 60 0
25.080000 8.800000 2.090000 164 69 58 0
25.300000 8.800000 2.090000 164 69 58 0
25.520000 8.800000 2.090000 165 70 59 0
25.740000 8.800000 2.200000 166 69 58 0
25.960000 8.800000 2.200000 166 69 58 0
26.180000 8.800000 2.200000 166 69 58 0
26.400000 8.800000 2.090000 166 69 58 0
26.620000 8.800000 2.090000 166 69 58 0
26.840000 8.800000 2.090000 166 69 58 0
27.060000 8.800000 1.540000 168 71 60 0
27.280000 8.800000 1.760000 168 71 60 0
27.500000 8.800000 1.100000 167 70 59 0
27.720000 8.800000 1.760000 167 70 59 0
27.940000 8.800000 1.870000 169 72 61 0
28.160000 8.800000 1.210000 167 70 59 0
28.380000 8.800000 1.320000 168 71 60 0
28.600000 8.800000 1.320000 168 71 60 0
28.820000 8.800000 1.320000 168 71 60 0
29.040000 8.800000 1.320000 168 71 60 0
29.260000 8.800000 1.320000 169 70 60 0
29.480000 8.800000 1.210000 170 71 61 0
29.700000 8.800000 1.210000 171 72 62 0
29.920000 8.800000 1.870000 171 72 62 0
30.140000 8.800000 1.870000 171 72 62 0
30.360000 8.800000 1.980000 170 71 61 0
30.580000 8.800000 1.210000 172 73 63 0
30.800000 8.800000 1.320000 172 73 63 0
31.020000 8.800000 1.320000 172 73 63 0
31.240000 8.800000 1.210000 174 75 65 0
31.460000 8.800000 1.210000 174 75 65 0
31.680000 8.800000 1.210000 174 75 65 0
31.900000 8.800000 1.320000 173 74 64 0
32.120000 8.800000 1.320000 174 75 65 0
32.340000 8.800000 1.320000 173 76 64 0
32.560000 8.800000 1.320000 175 78 66 0
32.780000 8.800000 1.320000 176 77 67 0
33.000000 8.800000 1.210000 176 77 67 0
33.220000 8.800000 1.760000 177 80 68 0
33.440000 8.800000 1.760000 178 81 69 0
33.660000 8.800000 1.760000 178 81 70 0
33.880000 8.800000 2.200000 178 81 70 0
34.100000 8.800000 2.750000 179 82 71 0
34.320000 8.800000 2.090000 180 83 72 0
34.540000 8.800000 2.200000 180 83 72 0
34.760000 8.800000 2.310000 181 84 73 0
34.980000 8.800000 2.310000 179 84 73 0
35.200000 8.800000 2.200000 181 86 75 0
35.420000 8.800000 2.200000 180 85 76 0
35.640000 8.800000 2.200000 181 86 77 0
35.860000 8.800000 2.200000 182 87 76 0
36.080000 8.800000 2.090000 183 88 77 0
36.300000 8.800000 2.090000 182 89 79 0
36.520000 8.800000 2.310000 183 90 80 0
36.740000 8.800000 2.420000 183 90 80 0
36.960000 8.800000 2.310000 185 92 82 0
37.180000 8.800000 2.310000 185 92 82 0
0.000000 9.020000 4.290000 130 98 82 0
0.220000 9.020000 4.950000 129 97 81 0
0.440000 9.020000 5.060000 129 97 81 0
0.660000 9.020000 4.510000 129 97 79 0
0.880000 9.020000 4.400000 130 98 80 0
1.100000 9.020000 4.950000 129 97 79 0
1.320000 9.020000 4.950000 129 97 79 0
1.540000 9.020000 4.950000 128 96 78 0
1.760000 9.020000 4.290000 129 97 79 0
1.980000 9.020000 4.180000 129 95 80 0
2.200000 9.020000 4.180000 130 96 81 0
2.420000 9.020000 3.520000 129 95 78 0
2.640000 9.020000 3.520000 129 95 78 0
2.860000 9.020000 3.630000 129 95 78 0
3.080000 9.020000 2.640000 129 95 78 0
3.300000 9.020000 2.090000 128 94 77 0
3.520000 9.020000 1.980000 127 93 76 0
3.740000 9.020000 1.870000 131 95 78 0
3.960000 9.020000 2.420000 130 94 77 0
4.180000 9.020000 1.980000 130 94 77 0
4.400000 9.020000 1.320000 129 93 76 0
4.620000 9.020000 1.320000 129 93 76 0
4.840000 9.020000 1.320000 129 93 76 0
5.060000 9.020000 2.090000 129 93 76 0
5.280000 9.020000 2.090000 129 93 76 0
5.500000 9.020000 1.320000 130 92 76 0
5.720000 9.020000 1.320000 130 92 76 0
5.940000 9.020000 1.320000 129 91 75 0
6.160000 9.020000 2.090000 129 91 75 0
6.380000 9.020000 2.090000 128 90 74 0
6.600000 9.020000 2.090000 128 90 74 0
6.820000 9.020000 1.980000 130 90 75 0
7.040000 9.020000 2.640000 130 90 75 0
7.260000 9.020000 2.530000 130 91 73 0
7.480000 9.020000 2.640000 130 91 73 0
7.700000 9.020000 3.300000 130 90 75 0
7.920000 9.020000 3.740000 129 89 74 0
8.140000 9.020000 4.400000 131 91 76 0
8.360000 9.020000 3.960000 130 90 75 0
8.580000 9.020000 4.070000 130 90 75 0
8.800000 9.020000 4.840000 129 89 74 0
9.020000 9.020000 5.500000 132 90 73 0
9.240000 9.020000 6.160000 132 90 73 0
9.460000 9.020000 6.160000 131 91 76 0
9.680000 9.020000 6.600000 130 90 75 0
9.900000 9.020000 6.600000 132 90 73 0
10.120000 9.020000 6.050000 132 90 73 0
10.340000 9.020000 5.390000 134 92 75 0
10.560000 9.020000 4.730000 134 92 75 0
10.780000 9.020000 4.730000 134 92 75 0
11.000000 9.020000 4.840000 134 92 75 0
11.220000 9.020000 4.730000 132 92 77 0
11.440000 9.020000 4.730000 133 93 78 0
11.660000 9.020000 4.730000 134 94 79 0
11.880000 9.020000 4.730000 134 94 79 0
12.100000 9.020000 4.730000 136 94 77 0
12.320000 9.020000 4.840000 137 95 78 0
12.540000 9.020000 4.070000 137 95 78 0
12.760000 9.020000 4.180000 138 96 79 0
12.980000 9.020000 3.410000 137 95 78 0
13.200000 9.020000 3.410000 137 95 78 0
13.420000 9.020000 4.840000 138 96 79 0
13.640000 9.020000 5.390000 137 95 78 0
13.860000 9.020000 5.280000 138 96 79 0
14.080000 9.020000 3.850000 137 95 78 0
14.300000 9.020000 3.850000 137 95 78 0
14.520000 9.020000 3.960000 138 96 79 0
14.740000 9.020000 3.960000 138 95 81 0
14.960000 9.020000 3.300000 137 94 80 0
15.180000 9.020000 3.300000 135 96 78 0
15.400000 9.020000 3.300000 135 96 78 0
15.620000 9.020000 2.640000 138 96 79 0
15.840000 9.020000 2.640000 139 97 80 0
16.060000 9.020000 2.640000 146 96 80 0
16.280000 9.020000 1.320000 147 97 81 0
17.820000 9.020000 0.550000 164 92 75 0
18.040000 9.020000 7.810000 163 91 74 0
18.260000 9.020000 17.270000 166 90 72 0
18.480000 9.020000 20.790000 165 89 71 0
18.700000 9.020000 20.790000 164 86 69 0
18.920000 9.020000 20.790000 164 86 69 0
19.140000 9.020000 20.790000 165 85 69 0
19.360000 9.020000 20.790000 165 85 69 0
19.580000 9.020000 20.790000 165 83 67 0
19.800000 9.020000 20.790000 165 83 67 0
20.020000 9.020000 21.450000 165 81 65 0
20.240000 9.020000 21.450000 164 80 64 0
20.460000 9.020000 21.450000 165 81 65 0
20.680000 9.020000 21.450000 164 80 64 0
20.900000 9.020000 15.950000 167 78 65 0
21.120000 9.020000 5.610000 166 77 64 0
21.560000 9.020000 1.430000 164 76 61 0
21.780000 9.020000 8.360000 165 76 63 0
22.000000 9.020000 17.380000 165 76 63 0
22.220000 9.020000 17.380000 164 76 61 0
22.440000 9.020000 8.360000 165 77 62 0
22.660000 9.020000 1.430000 167 74 62 0
22.880000 9.020000 0.770000 166 73 61 0
23.100000 9.020000 0.110000 165 72 60 0
23.320000 9.020000 0.110000 165 72 60 0
23.540000 9.020000 0.110000 166 73 61 0
23.760000 9.020000 0.110000 165 72 60 0
23.980000 9.020000 0.770000 165 70 59 0
24.200000 9.020000 0.770000 165 70 59 0
24.420000 9.020000 0.770000 166 71 60 0
24.640000 9.020000 0.770000 165 70 59 0
24.860000 9.020000 1.430000 165 70 59 0
25.080000 9.020000 1.430000 164 69 58 0
25.300000 9.020000 2.090000 167 70 59 0
25.520000 9.020000 2.090000 167 70 59 0
25.740000 9.020000 2.200000 166 69 58 0
25.960000 9.020000 2.200000 167 70 59 0
26.180000 9.020000 2.200000 167 70 59 0
26.400000 9.020000 2.090000 166 69 58 0
26.620000 9.020000 2.090000 167 70 59 0
26.840000 9.020000 2.090000 167 70 59 0
27.060000 9.020000 2.200000 169 70 60 0
27.280000 9.020000 1.650000 168 69 59 0
27.500000 9.020000 1.650000 168 69 59 0
27.720000 9.020000 2.200000 168 69 59 0
27.940000 9.020000 2.310000 169 70 60 0
28.160000 9.020000 1.760000 169 70 60 0
28.380000 9.020000 1.210000 169 70 60 0
28.600000 9.020000 1.320000 169 70 60 0
28.820000 9.020000 1.320000 168 69 59 0
29.040000 9.020000 1.320000 168 69 59 0
29.260000 9.020000 1.210000 169 70 59 0
29.480000 9.020000 1.210000 170 71 60 0
29.700000 9.020000 1.870000 171 72 62 0
29.920000 9.020000 1.870000 170 71 61 0
30.140000 9.020000 1.870000 170 71 61 0
30.360000 9.020000 1.980000 170 71 61 0
30.580000 9.020000 1.320000 172 71 62 0
30.800000 9.020000 1.320000 173 72 63 0
31.020000 9.020000 1.320000 172 73 62 0
31.240000 9.020000 1.210000 174 75 64 0
31.460000 9.020000 1.980000 172 73 63 0
31.680000 9.020000 1.210000 174 75 65 0
31.900000 9.020000 1.320000 174 75 64 0
32.120000 9.020000 1.320000 174 75 64 0
32.340000 9.020000 1.320000 175 76 65 0
32.560000 9.020000 1.320000 176 77 66 0
32.780000 9.020000 1.320000 176 77 66 0
33.000000 9.020000 1.320000 177 78 67 0
33.220000 9.020000 1.210000 177 78 68 0
33.440000 9.020000 1.210000 177 78 68 0
33.660000 9.020000 1.870000 177 78 67 0
33.880000 9.020000 2.420000 178 79 68 0
34.100000 9.020000 2.200000 178 81 69 0
34.320000 9.020000 2.200000 178 81 69 0
34.540000 9.020000 2.200000 180 83 71 0
34.760000 9.020000 2.310000 181 84 72 0
34.980000 9.020000 2.200000 181 84 73 0
35.200000 9.020000 2.200000 183 86 75 0
35.420000 9.020000 2.200000 182 85 74 0
35.640000 9.020000 2.200000 183 86 75 0
35.860000 9.020000 2.200000 181 86 75 0
36.080000 9.020000 2.090000 182 87 76 0
36.300000 9.020000 2.200000 182 89 77 0
36.520000 9.020000 2.420000 182 89 77 0
36.740000 9.020000 2.420000 184 89 78 0
36.960000 9.020000 2.310000 184 89 78 0
37.180000 9.020000 2.310000 184 91 79 0
0.000000 9.240000 4.290000 131 99 83 0
0.220000 9.240000 4.950000 130 98 82 0
0.440000 9.240000 5.060000 129 97 81 0
0.660000 9.240000 4.510000 129 97 79 0
0.880000 9.240000 4.290000 129 97 79 0
1.100000 9.240000 4.950000 130 98 80 0
1.320000 9.240000 4.950000 130 98 80 0
1.540000 9.240000 4.840000 129 97 79 0
1.760000 9.240000 4.840000 129 97 79 0
1.980000 9.240000 4.840000 130 96 81 0
2.200000 9.240000 4.180000 129 95 80 0
2.420000 9.240000 4.180000 130 96 79 0
2.640000 9.240000 4.180000 130 96 79 0
2.860000 9.240000 3.630000 130 96 79 0
3.080000 9.240000 2.640000 130 96 79 0
3.300000 9.240000 2.750000 129 95 78 0
3.520000 9.240000 2.640000 129 95 78 0
3.740000 9.240000 2.420000 131 95 78 0
3.960000 9.240000 2.420000 131 95 78 0
4.180000 9.240000 1.980000 130 94 77 0
4.400000 9.240000 2.090000 129 93 76 0
4.620000 9.240000 1.980000 130 94 77 0
4.840000 9.240000 2.090000 130 94 77 0
5.060000 9.240000 2.090000 130 94 77 0
5.280000 9.240000 2.090000 130 94 77 0
5.500000 9.240000 2.090000 130 92 76 0
5.720000 9.240000 2.090000 130 92 76 0
5.940000 9.240000 2.090000 131 93 77 0
6.160000 9.240000 2.090000 130 92 76 0
6.380000 9.240000 2.750000 129 91 75 0
6.600000 9.240000 2.750000 129 91 75 0
6.820000 9.240000 3.190000 130 90 75 0
7.040000 9.240000 3.740000 130 90 75 0
7.260000 9.240000 3.630000 130 91 73 0
7.480000 9.240000 3.740000 130 91 73 0
7.700000 9.240000 3.740000 129 89 74 0
7.920000 9.240000 4.290000 131 91 76 0
8.140000 9.240000 4.290000 132 92 77 0
8.360000 9.240000 4.620000 130 90 75 0
8.580000 9.240000 4.070000 130 90 75 0
8.800000 9.240000 4.840000 130 90 75 0
9.020000 9.240000 5.500000 132 90 73 0
9.240000 9.240000 5.500000 132 90 73 0
9.460000 9.240000 6.160000 130 90 75 0
9.680000 9.240000 6.050000 130 90 75 0
9.900000 9.240000 6.600000 132 90 73 0
10.120000 9.240000 6.050000 133 91 74 0
10.340000 9.240000 5.390000 134 92 75 0
10.560000 9.240000 4.730000 134 92 75 0
10.780000 9.240000 4.730000 134 92 75 0
11.000000 9.240000 4.070000 134 92 75 0
11.220000 9.240000 4.730000 134 94 79 0
11.440000 9.240000 5.170000 134 94 79 0
11.660000 9.240000 5.170000 134 94 79 0
11.880000 9.240000 4.620000 135 95 80 0
12.100000 9.240000 4.730000 137 95 78 0
12.320000 9.240000 4.730000 137 95 78 0
12.540000 9.240000 4.070000 136 94 77 0
12.760000 9.240000 4.180000 138 96 79 0
12.980000 9.240000 3.410000 138 96 79 0
13.200000 9.240000 3.410000 138 96 79 0
13.420000 9.240000 4.840000 137 95 78 0
13.640000 9.240000 5.390000 138 96 79 0
13.860000 9.240000 4.620000 138 96 79 0
14.080000 9.240000 3.850000 138 96 79 0
14.300000 9.240000 3.190000 137 95 78 0
14.520000 9.240000 3.960000 138 96 79 0
14.740000 9.240000 3.960000 138 95 81 0
14.960000 9.240000 3.300000 137 94 80 0
15.180000 9.240000 3.300000 134 95 77 0
15.400000 9.240000 3.300000 135 96 78 0
15.620000 9.240000 2.640000 138 96 79 0
15.840000 9.240000 2.640000 139 97 80 0
16.060000 9.240000 1.980000 145 95 79 0
16.280000 9.240000 1.320000 148 98 82 0
17.820000 9.240000 3.190000 164 92 75 0
18.040000 9.240000 13.310000 162 90 73 0
18.260000 9.240000 20.020000 165 89 71 0
18.480000 9.240000 20.790000 163 87 69 0
18.700000 9.240000 20.790000 164 86 69 0
18.920000 9.240000 20.790000 164 86 69 0
19.140000 9.240000 20.790000 164 84 68 0
19.360000 9.240000 20.790000 164 84 68 0
19.580000 9.240000 20.790000 165 83 67 0
19.800000 9.240000 20.790000 165 83 67 0
20.020000 9.240000 21.450000 165 81 65 0
20.240000 9.240000 21.450000 165 81 65 0
20.460000 9.240000 21.450000 164 80 64 0
20.680000 9.240000 21.450000 164 80 64 0
20.900000 9.240000 15.950000 166 77 64 0
21.120000 9.240000 5.610000 166 77 64 0
21.560000 9.240000 4.180000 165 77 62 0
21.780000 9.240000 13.200000 164 75 62 0
22.000000 9.240000 20.130000 164 75 62 0
22.220000 9.240000 15.950000 163 75 60 0
22.440000 9.240000 5.610000 165 77 62 0
22.660000 9.240000 0.110000 167 74 62 0
23.100000 9.240000 1.430000 165 72 60 0
23.320000 9.240000 2.860000 165 72 60 0
23.540000 9.240000 1.430000 164 71 59 0
23.760000 9.240000 0.110000 166 73 61 0
23.980000 9.240000 0.770000 166 71 60 0
24.200000 9.240000 0.770000 165 70 59 0
24.420000 9.240000 0.770000 165 70 59 0
24.640000 9.240000 0.770000 165 70 59 0
24.860000 9.240000 0.770000 165 70 59 0
25.080000 9.240000 1.430000 166 71 60 0
25.300000 9.240000 1.430000 166 69 58 0
25.520000 9.240000 2.090000 165 68 57 0
25.740000 9.240000 2.200000 166 69 58 0
25.960000 9.240000 1.540000 166 69 58 0
26.180000 9.240000 2.200000 167 70 59 0
26.400000 9.240000 2.200000 165 68 57 0
26.620000 9.240000 2.090000 166 69 58 0
26.840000 9.240000 2.090000 166 69 58 0
27.060000 9.240000 2.200000 168 69 59 0
27.280000 9.240000 2.200000 167 68 58 0
27.500000 9.240000 2.200000 168 69 59 0
27.720000 9.240000 2.090000 169 70 60 0
27.940000 9.240000 2.200000 168 69 59 0
28.160000 9.240000 1.760000 169 70 60 0
28.380000 9.240000 1.870000 169 70 60 0
28.600000 9.240000 1.210000 168 69 59 0
28.820000 9.240000 1.210000 168 69 59 0
29.040000 9.240000 1.210000 169 70 60 0
29.260000 9.240000 1.210000 169 70 59 0
29.480000 9.240000 1.210000 170 71 60 0
29.700000 9.240000 1.870000 170 71 61 0
29.920000 9.240000 1.870000 169 70 60 0
30.140000 9.240000 1.980000 170 71 61 0
30.360000 9.240000 1.980000 171 72 62 0
30.580000 9.240000 1.320000 171 70 61 0
30.800000 9.240000 1.320000 172 71 62 0
31.020000 9.240000 1.320000 172 73 62 0
31.240000 9.240000 1.210000 172 73 62 0
31.460000 9.240000 1.210000 173 74 64 0
31.680000 9.240000 1.320000 173 74 64 0
31.900000 9.240000 1.320000 173 74 63 0
32.120000 9.240000 1.320000 175 76 65 0
32.340000 9.240000 1.320000 174 75 64 0
32.560000 9.240000 1.320000 175 76 65 0
32.780000 9.240000 1.320000 176 77 66 0
33.000000 9.240000 1.320000 177 78 67 0
33.220000 9.240000 1.320000 177 78 68 0
33.440000 9.240000 1.320000 178 79 69 0
33.660000 9.240000 1.320000 178 79 68 0
33.880000 9.240000 1.210000 178 79 68 0
34.100000 9.240000 1.760000 178 81 69 0
34.320000 9.240000 2.310000 179 82 70 0
34.540000 9.240000 1.760000 180 83 71 0
34.760000 9.240000 1.650000 181 84 72 0
34.980000 9.240000 2.200000 181 84 73 0
35.200000 9.240000 2.090000 182 85 74 0
35.420000 9.240000 2.200000 183 86 75 0
35.640000 9.240000 2.200000 182 85 74 0
35.860000 9.240000 2.200000 182 87 76 0
36.080000 9.240000 2.090000 182 87 76 0
36.300000 9.240000 2.200000 182 89 77 0
36.520000 9.240000 1.870000 182 89 77 0
36.740000 9.240000 2.530000 184 89 78 0
36.960000 9.240000 2.310000 184 89 78 0
37.180000 9.240000 2.310000 184 91 79 0
0.000000 9.460000 4.290000 131 99 83 0
0.220000 9.460000 4.950000 130 98 82 0
0.440000 9.460000 5.060000 130 98 82 0
0.660000 9.460000 4.510000 130 98 80 0
0.880000 9.460000 4.290000 130 98 80 0
1.100000 9.460000 4.950000 131 97 82 0
1.320000 9.460000 4.950000 131 97 82 0
1.540000 9.460000 4.840000 131 97 80 0
1.760000 9.460000 4.840000 131 97 80 0
1.980000 9.460000 4.840000 130 96 81 0
2.200000 9.460000 4.840000 131 97 82 0
2.420000 9.460000 4.180000 131 97 80 0
2.640000 9.460000 4.180000 130 96 79 0
2.860000 9.460000 3.630000 130 96 81 0
3.080000 9.460000 2.640000 129 95 80 0
3.300000 9.460000 2.640000 131 95 78 0
3.520000 9.460000 3.190000 131 95 78 0
3.740000 9.460000 2.530000 131 95 78 0
3.960000 9.460000 2.640000 131 95 78 0
4.180000 9.460000 1.980000 132 96 79 0
4.400000 9.460000 1.980000 131 95 78 0
4.620000 9.460000 1.980000 131 95 78 0
4.840000 9.460000 2.090000 131 95 78 0
5.060000 9.460000 2.090000 131 93 77 0
5.280000 9.460000 2.090000 131 93 77 0
5.500000 9.460000 2.090000 131 93 77 0
5.720000 9.460000 2.090000 131 93 77 0
5.940000 9.460000 1.980000 131 93 77 0
6.160000 9.460000 2.640000 131 93 77 0
