ply
format ascii 1.0
element vertex 1147
property float x
property float y
property float z
property uchar red
property uchar green
property uchar blue
property uchar alpha
end_header
27.060000 27.060000 9.680000 198 110 104 0
27.280000 27.060000 11.220000 199 111 105 0
27.500000 27.060000 11.220000 200 112 106 0
27.720000 27.060000 11.220000 201 113 107 0
27.940000 27.060000 10.120000 203 115 109 0
28.160000 27.060000 10.120000 202 114 108 0
28.380000 27.060000 10.340000 203 115 109 0
28.600000 27.060000 9.020000 203 115 108 0
28.820000 27.060000 9.240000 202 114 107 0
29.040000 27.060000 9.240000 200 115 108 0
29.260000 27.060000 9.240000 201 116 109 0
29.480000 27.060000 9.240000 204 116 110 0
29.700000 27.060000 7.920000 203 115 109 0
29.920000 27.060000 8.140000 202 114 108 0
30.140000 27.060000 8.140000 202 114 108 0
30.360000 27.060000 8.140000 202 114 107 0
30.580000 27.060000 9.460000 201 113 106 0
30.800000 27.060000 9.680000 199 111 105 0
31.020000 27.060000 9.680000 197 109 103 0
31.240000 27.060000 9.680000 197 107 102 0
31.460000 27.060000 11.000000 197 107 102 0
31.680000 27.060000 11.880000 197 107 101 0
31.900000 27.060000 12.760000 198 108 102 0
32.120000 27.060000 13.860000 198 108 102 0
32.340000 27.060000 13.860000 197 107 101 0
32.560000 27.060000 13.860000 197 109 103 0
32.780000 27.060000 13.860000 197 109 103 0
33.000000 27.060000 12.760000 198 108 103 0
33.220000 27.060000 11.880000 198 108 103 0
33.440000 27.060000 12.100000 196 108 102 0
33.660000 27.060000 12.320000 198 110 104 0
33.880000 27.060000 12.320000 198 110 104 0
34.100000 27.060000 12.320000 200 112 106 0
34.320000 27.060000 13.640000 200 112 106 0
34.540000 27.060000 14.960000 200 112 106 0
34.760000 27.060000 14.960000 199 114 107 0
34.980000 27.060000 14.960000 199 114 107 0
35.200000 27.060000 16.500000 202 114 107 0
35.420000 27.060000 17.600000 202 114 107 0
35.640000 27.060000 19.800000 202 117 110 0
35.860000 27.060000 20.680000 202 117 110 0
36.080000 27.060000 20.680000 201 116 109 0
36.300000 27.060000 20.900000 203 118 111 0
36.520000 27.060000 22.220000 201 120 112 0
36.740000 27.060000 22.220000 205 124 116 0
36.960000 27.060000 22.220000 200 131 123 0
37.180000 27.060000 22.220000 208 139 131 0
0.000000 27.280000 2.420000 160 70 65 0
0.220000 27.280000 2.640000 159 69 64 0
0.440000 27.280000 2.640000 159 69 66 0
0.660000 27.280000 2.640000 159 69 66 0
0.880000 27.280000 2.640000 160 70 67 0
1.100000 27.280000 2.640000 160 70 67 0
1.320000 27.280000 2.640000 159 69 66 0
1.540000 27.280000 2.640000 159 69 66 0
1.760000 27.280000 2.420000 159 69 66 0
1.980000 27.280000 3.300000 159 69 66 0
2.200000 27.280000 4.400000 158 68 65 0
2.420000 27.280000 5.720000 158 68 65 0
2.640000 27.280000 5.500000 160 70 67 0
2.860000 27.280000 5.500000 160 70 67 0
3.080000 27.280000 5.500000 160 70 67 0
3.300000 27.280000 5.500000 159 69 66 0
3.520000 27.280000 5.500000 162 70 68 0
3.740000 27.280000 4.180000 162 70 68 0
3.960000 27.280000 5.720000 161 69 67 0
4.180000 27.280000 5.720000 161 69 67 0
4.400000 27.280000 5.720000 161 69 67 0
4.620000 27.280000 7.040000 161 69 67 0
4.840000 27.280000 7.040000 161 69 67 0
5.060000 27.280000 7.260000 161 69 67 0
5.280000 27.280000 7.260000 160 68 66 0
5.500000 27.280000 7.480000 161 69 67 0
5.720000 27.280000 7.700000 161 69 67 0
5.940000 27.280000 7.700000 161 69 67 0
6.160000 27.280000 7.920000 162 70 68 0
6.380000 27.280000 7.920000 161 69 67 0
6.600000 27.280000 7.920000 161 69 67 0
6.820000 27.280000 7.920000 161 69 67 0
7.040000 27.280000 7.920000 160 68 66 0
7.260000 27.280000 8.140000 161 69 67 0
7.480000 27.280000 6.600000 162 70 68 0
7.700000 27.280000 6.600000 162 70 68 0
7.920000 27.280000 6.600000 164 69 68 0
8.140000 27.280000 5.280000 165 70 69 0
8.360000 27.280000 5.280000 165 70 69 0
8.580000 27.280000 3.960000 164 69 68 0
8.800000 27.280000 2.420000 165 70 69 0
9.020000 27.280000 1.100000 165 70 69 0
9.240000 27.280000 2.640000 164 69 68 0
9.460000 27.280000 12.320000 165 70 69 0
9.680000 27.280000 16.280000 165 70 69 0
9.900000 27.280000 6.600000 164 69 68 0
10.560000 27.280000 1.100000 167 72 71 0
10.780000 27.280000 1.100000 168 73 72 0
11.000000 27.280000 1.100000 167 72 71 0
13.640000 27.280000 1.100000 170 74 71 0
13.860000 27.280000 2.200000 171 75 72 0
14.080000 27.280000 3.080000 173 77 74 0
14.300000 27.280000 4.180000 172 76 73 0
14.520000 27.280000 4.180000 172 76 73 0
14.740000 27.280000 4.180000 174 78 75 0
14.960000 27.280000 4.180000 173 77 74 0
15.180000 27.280000 4.180000 173 77 74 0
15.400000 27.280000 4.180000 174 78 74 0
15.620000 27.280000 4.180000 176 80 76 0
15.840000 27.280000 4.180000 178 79 77 0
16.060000 27.280000 4.180000 177 78 76 0
16.280000 27.280000 4.180000 176 80 77 0
16.500000 27.280000 4.180000 177 81 78 0
16.720000 27.280000 4.180000 177 81 78 0
16.940000 27.280000 4.180000 177 81 78 0
17.160000 27.280000 3.080000 178 82 78 0
17.380000 27.280000 2.200000 179 83 79 0
17.600000 27.280000 1.320000 181 83 79 0
17.820000 27.280000 1.320000 181 83 79 0
18.040000 27.280000 1.320000 181 85 81 0
18.260000 27.280000 1.320000 181 85 81 0
18.480000 27.280000 1.320000 182 86 82 0
18.700000 27.280000 1.320000 182 86 82 0
18.920000 27.280000 1.320000 182 88 83 0
19.140000 27.280000 1.320000 182 88 83 0
19.360000 27.280000 1.320000 183 87 83 0
19.580000 27.280000 1.320000 183 87 83 0
19.800000 27.280000 1.320000 184 90 85 0
20.020000 27.280000 1.320000 184 90 85 0
20.240000 27.280000 1.320000 185 91 84 0
20.460000 27.280000 1.320000 185 91 84 0
20.680000 27.280000 1.320000 185 94 86 0
20.900000 27.280000 1.320000 186 95 87 0
21.120000 27.280000 1.320000 189 95 90 0
21.340000 27.280000 1.320000 189 95 90 0
21.560000 27.280000 1.320000 188 97 91 0
21.780000 27.280000 1.320000 188 97 91 0
22.000000 27.280000 1.320000 190 99 91 0
22.220000 27.280000 1.320000 191 100 92 0
22.440000 27.280000 1.320000 189 99 93 0
22.660000 27.280000 1.320000 190 100 94 0
22.880000 27.280000 1.320000 190 100 94 0
23.100000 27.280000 1.320000 191 101 95 0
23.320000 27.280000 1.320000 191 101 96 0
23.540000 27.280000 1.320000 192 102 97 0
23.760000 27.280000 1.320000 193 103 97 0
23.980000 27.280000 1.320000 194 104 98 0
24.200000 27.280000 2.640000 193 105 98 0
24.420000 27.280000 2.640000 192 104 97 0
24.640000 27.280000 2.640000 194 104 98 0
24.860000 27.280000 2.640000 193 103 97 0
25.080000 27.280000 2.640000 193 105 99 0
25.300000 27.280000 4.180000 193 105 99 0
25.520000 27.280000 4.180000 194 106 100 0
25.740000 27.280000 3.960000 194 106 100 0
25.960000 27.280000 6.380000 197 109 103 0
26.180000 27.280000 7.260000 196 108 102 0
26.400000 27.280000 8.360000 196 108 102 0
26.620000 27.280000 9.680000 196 108 102 0
26.840000 27.280000 9.680000 197 109 103 0
27.060000 27.280000 9.680000 198 110 104 0
27.280000 27.280000 9.680000 198 110 104 0
27.500000 27.280000 11.220000 198 110 104 0
27.720000 27.280000 11.220000 198 110 104 0
27.940000 27.280000 9.900000 201 113 107 0
28.160000 27.280000 10.120000 204 116 110 0
28.380000 27.280000 10.120000 205 117 111 0
28.600000 27.280000 10.340000 204 116 109 0
28.820000 27.280000 9.020000 205 117 110 0
29.040000 27.280000 9.240000 200 115 108 0
29.260000 27.280000 9.240000 201 116 109 0
29.480000 27.280000 9.240000 203 115 109 0
29.700000 27.280000 9.240000 203 115 109 0
29.920000 27.280000 7.920000 202 114 108 0
30.140000 27.280000 8.140000 202 114 108 0
30.360000 27.280000 8.140000 201 113 106 0
30.580000 27.280000 9.460000 200 112 105 0
30.800000 27.280000 9.680000 199 111 105 0
31.020000 27.280000 9.680000 198 110 104 0
31.240000 27.280000 9.680000 198 108 103 0
31.460000 27.280000 9.680000 197 107 102 0
31.680000 27.280000 10.780000 198 108 102 0
31.900000 27.280000 12.760000 197 107 101 0
32.120000 27.280000 13.860000 198 108 102 0
32.340000 27.280000 13.860000 198 108 102 0
32.560000 27.280000 13.860000 196 108 102 0
32.780000 27.280000 13.860000 197 109 103 0
33.000000 27.280000 12.760000 197 107 102 0
33.220000 27.280000 11.660000 197 107 102 0
33.440000 27.280000 11.880000 197 109 103 0
33.660000 27.280000 12.100000 198 110 104 0
33.880000 27.280000 12.320000 198 110 104 0
34.100000 27.280000 12.320000 198 110 104 0
34.320000 27.280000 13.640000 200 112 106 0
34.540000 27.280000 14.960000 200 112 106 0
34.760000 27.280000 14.960000 199 114 107 0
34.980000 27.280000 14.960000 200 115 108 0
35.200000 27.280000 16.500000 201 113 106 0
35.420000 27.280000 17.600000 202 114 107 0
35.640000 27.280000 19.800000 200 115 108 0
35.860000 27.280000 20.680000 200 115 108 0
36.080000 27.280000 20.900000 201 116 109 0
36.300000 27.280000 20.900000 202 117 110 0
36.520000 27.280000 20.900000 200 119 111 0
36.740000 27.280000 22.220000 203 122 114 0
36.960000 27.280000 22.220000 198 129 121 0
37.180000 27.280000 22.220000 202 133 125 0
0.000000 27.500000 2.420000 158 69 66 0
0.220000 27.500000 2.640000 159 70 67 0
0.440000 27.500000 2.640000 159 69 66 0
0.660000 27.500000 2.640000 160 70 67 0
0.880000 27.500000 2.640000 160 70 67 0
1.100000 27.500000 2.200000 159 69 66 0
1.320000 27.500000 3.520000 158 68 65 0
1.540000 27.500000 2.420000 158 68 65 0
1.760000 27.500000 2.420000 158 68 65 0
1.980000 27.500000 4.400000 158 68 65 0
2.200000 27.500000 4.180000 159 69 66 0
2.420000 27.500000 5.500000 159 69 66 0
2.640000 27.500000 5.500000 160 70 67 0
2.860000 27.500000 5.500000 160 70 67 0
3.080000 27.500000 5.500000 160 70 67 0
3.300000 27.500000 5.500000 160 70 67 0
3.520000 27.500000 5.720000 160 70 67 0
3.740000 27.500000 5.720000 160 70 67 0
3.960000 27.500000 5.720000 161 71 68 0
4.180000 27.500000 5.720000 160 70 67 0
4.400000 27.500000 7.040000 160 68 66 0
4.620000 27.500000 7.040000 161 69 67 0
4.840000 27.500000 5.940000 160 68 66 0
5.060000 27.500000 6.160000 161 69 67 0
5.280000 27.500000 7.260000 160 70 67 0
5.500000 27.500000 5.940000 159 69 66 0
5.720000 27.500000 6.380000 160 68 66 0
5.940000 27.500000 6.380000 161 69 67 0
6.160000 27.500000 7.920000 161 69 67 0
6.380000 27.500000 7.920000 161 69 67 0
6.600000 27.500000 9.460000 162 70 68 0
6.820000 27.500000 9.240000 162 70 68 0
7.040000 27.500000 7.920000 162 70 68 0
7.260000 27.500000 6.600000 162 70 68 0
7.480000 27.500000 6.600000 162 70 68 0
7.700000 27.500000 5.280000 161 69 67 0
7.920000 27.500000 5.280000 162 70 66 0
8.140000 27.500000 3.960000 162 70 66 0
8.360000 27.500000 3.960000 164 69 68 0
8.580000 27.500000 3.960000 164 69 68 0
8.800000 27.500000 1.100000 161 69 67 0
9.020000 27.500000 2.640000 162 70 68 0
9.240000 27.500000 10.780000 163 71 69 0
9.460000 27.500000 27.500000 162 70 68 0
9.680000 27.500000 27.500000 165 71 67 0
9.900000 27.500000 9.460000 165 71 67 0
10.340000 27.500000 1.100000 166 71 70 0
10.560000 27.500000 1.100000 166 71 70 0
10.780000 27.500000 1.100000 167 72 71 0
11.000000 27.500000 1.100000 167 72 71 0
13.420000 27.500000 1.100000 169 75 71 0
13.640000 27.500000 1.980000 169 75 71 0
13.860000 27.500000 3.080000 170 76 72 0
14.080000 27.500000 2.860000 169 75 71 0
14.300000 27.500000 4.180000 171 77 73 0
14.520000 27.500000 4.180000 171 77 73 0
14.740000 27.500000 4.180000 171 77 73 0
14.960000 27.500000 4.180000 172 76 73 0
15.180000 27.500000 4.180000 173 77 74 0
15.400000 27.500000 4.180000 173 79 74 0
15.620000 27.500000 4.180000 174 80 75 0
15.840000 27.500000 4.180000 175 79 76 0
16.060000 27.500000 4.180000 174 78 75 0
16.280000 27.500000 4.180000 175 79 75 0
16.500000 27.500000 4.180000 177 81 77 0
16.720000 27.500000 3.080000 176 82 78 0
16.940000 27.500000 3.080000 176 82 78 0
17.160000 27.500000 1.980000 178 82 78 0
17.380000 27.500000 1.100000 179 83 79 0
17.600000 27.500000 1.320000 179 83 79 0
17.820000 27.500000 1.320000 179 83 79 0
18.040000 27.500000 1.320000 180 84 80 0
18.260000 27.500000 1.320000 179 83 79 0
18.480000 27.500000 1.320000 181 85 81 0
18.700000 27.500000 1.320000 181 85 81 0
18.920000 27.500000 1.320000 181 85 81 0
19.140000 27.500000 1.320000 182 86 82 0
19.360000 27.500000 1.320000 182 86 82 0
19.580000 27.500000 1.320000 184 88 84 0
19.800000 27.500000 1.320000 183 89 84 0
20.020000 27.500000 1.320000 184 90 85 0
20.240000 27.500000 1.320000 185 91 86 0
20.460000 27.500000 1.320000 185 91 86 0
20.680000 27.500000 1.320000 187 93 88 0
20.900000 27.500000 1.320000 186 92 87 0
21.120000 27.500000 1.100000 186 92 87 0
21.340000 27.500000 1.320000 188 94 89 0
21.560000 27.500000 1.320000 186 95 89 0
21.780000 27.500000 1.320000 187 96 90 0
22.000000 27.500000 1.320000 187 96 90 0
22.220000 27.500000 1.320000 189 98 92 0
22.440000 27.500000 1.320000 189 98 92 0
22.660000 27.500000 1.320000 190 99 93 0
22.880000 27.500000 1.320000 189 99 93 0
23.100000 27.500000 1.320000 190 100 94 0
23.320000 27.500000 1.320000 190 100 94 0
23.540000 27.500000 1.320000 191 101 95 0
23.760000 27.500000 1.320000 191 103 97 0
23.980000 27.500000 1.320000 192 104 98 0
24.200000 27.500000 2.640000 192 104 98 0
24.420000 27.500000 2.640000 193 105 99 0
24.640000 27.500000 2.640000 192 104 98 0
24.860000 27.500000 2.640000 192 104 98 0
25.080000 27.500000 2.640000 194 106 100 0
25.300000 27.500000 2.640000 193 105 99 0
25.520000 27.500000 4.180000 193 105 99 0
25.740000 27.500000 4.180000 194 106 100 0
25.960000 27.500000 5.280000 192 107 100 0
26.180000 27.500000 6.160000 194 109 102 0
26.400000 27.500000 7.260000 194 109 102 0
26.620000 27.500000 8.580000 194 109 102 0
26.840000 27.500000 8.360000 196 108 102 0
27.060000 27.500000 9.680000 196 108 102 0
27.280000 27.500000 9.680000 196 111 104 0
27.500000 27.500000 9.900000 196 111 104 0
27.720000 27.500000 9.900000 198 110 104 0
27.940000 27.500000 9.900000 200 112 106 0
28.160000 27.500000 9.900000 201 116 109 0
28.380000 27.500000 10.120000 202 117 110 0
28.600000 27.500000 10.340000 203 118 111 0
28.820000 27.500000 10.340000 203 118 111 0
29.040000 27.500000 9.020000 202 117 110 0
29.260000 27.500000 9.240000 200 115 108 0
29.480000 27.500000 9.240000 202 113 110 0
29.700000 27.500000 9.240000 201 112 109 0
29.920000 27.500000 9.460000 202 114 108 0
30.140000 27.500000 8.140000 201 113 107 0
30.360000 27.500000 8.140000 200 112 106 0
30.580000 27.500000 9.460000 200 112 106 0
30.800000 27.500000 9.680000 199 111 105 0
31.020000 27.500000 9.680000 198 110 104 0
31.240000 27.500000 9.680000 198 110 104 0
31.460000 27.500000 9.680000 197 109 103 0
31.680000 27.500000 10.780000 198 110 104 0
31.900000 27.500000 12.760000 197 109 103 0
32.120000 27.500000 13.860000 198 110 104 0
32.340000 27.500000 13.860000 197 109 103 0
32.560000 27.500000 12.540000 197 109 103 0
32.780000 27.500000 12.540000 196 108 102 0
33.000000 27.500000 12.540000 196 108 102 0
33.220000 27.500000 12.760000 197 109 103 0
33.440000 27.500000 12.760000 195 110 103 0
33.660000 27.500000 12.980000 195 110 103 0
33.880000 27.500000 12.100000 199 111 105 0
34.100000 27.500000 12.320000 199 111 105 0
34.320000 27.500000 13.640000 199 110 107 0
34.540000 27.500000 14.960000 199 110 107 0
34.760000 27.500000 14.960000 198 113 106 0
34.980000 27.500000 14.960000 199 114 107 0
35.200000 27.500000 15.180000 199 114 107 0
35.420000 27.500000 17.600000 199 114 107 0
35.640000 27.500000 19.800000 199 114 107 0
35.860000 27.500000 20.680000 200 115 108 0
36.080000 27.500000 20.900000 200 115 108 0
36.300000 27.500000 20.900000 201 116 109 0
36.520000 27.500000 20.900000 200 119 111 0
36.740000 27.500000 22.220000 202 121 113 0
36.960000 27.500000 22.440000 200 126 120 0
37.180000 27.500000 22.440000 204 130 124 0
0.000000 27.720000 3.740000 159 70 67 0
0.220000 27.720000 3.740000 159 70 67 0
0.440000 27.720000 2.640000 160 70 67 0
0.660000 27.720000 2.420000 159 69 66 0
0.880000 27.720000 3.740000 159 69 66 0
1.100000 27.720000 4.620000 159 69 66 0
1.320000 27.720000 4.620000 159 69 66 0
1.540000 27.720000 3.740000 158 68 65 0
1.760000 27.720000 3.740000 158 68 65 0
1.980000 27.720000 4.400000 158 68 65 0
2.200000 27.720000 4.180000 159 69 66 0
2.420000 27.720000 5.500000 159 69 66 0
2.640000 27.720000 5.500000 158 68 65 0
2.860000 27.720000 5.500000 158 68 65 0
3.080000 27.720000 5.500000 159 69 66 0
3.300000 27.720000 5.500000 160 70 67 0
3.520000 27.720000 5.720000 161 71 68 0
3.740000 27.720000 5.720000 160 70 67 0
3.960000 27.720000 5.720000 161 71 68 0
4.180000 27.720000 7.040000 159 69 66 0
4.400000 27.720000 7.260000 160 68 66 0
4.620000 27.720000 6.160000 160 68 66 0
4.840000 27.720000 5.060000 161 69 67 0
5.060000 27.720000 5.060000 160 68 66 0
5.280000 27.720000 5.940000 161 71 68 0
5.500000 27.720000 5.940000 160 70 67 0
5.720000 27.720000 5.060000 160 68 66 0
5.940000 27.720000 6.380000 161 69 67 0
6.160000 27.720000 6.600000 160 68 66 0
6.380000 27.720000 7.920000 162 70 68 0
6.600000 27.720000 9.460000 161 69 67 0
6.820000 27.720000 9.240000 161 69 67 0
7.040000 27.720000 9.240000 161 69 67 0
7.260000 27.720000 6.600000 162 70 68 0
7.480000 27.720000 6.600000 161 69 67 0
7.700000 27.720000 5.280000 161 69 67 0
7.920000 27.720000 3.960000 161 69 65 0
8.140000 27.720000 3.960000 161 69 65 0
8.360000 27.720000 3.960000 164 69 68 0
8.580000 27.720000 2.420000 163 68 67 0
8.800000 27.720000 1.100000 161 69 67 0
9.020000 27.720000 6.600000 162 70 68 0
9.240000 27.720000 24.640000 162 70 68 0
9.460000 27.720000 37.180000 162 70 68 0
9.680000 27.720000 28.820000 165 71 67 0
9.900000 27.720000 9.460000 164 70 66 0
10.340000 27.720000 1.100000 165 70 69 0
10.560000 27.720000 1.100000 165 70 69 0
10.780000 27.720000 1.100000 166 71 70 0
11.000000 27.720000 1.320000 166 71 70 0
13.420000 27.720000 1.100000 170 76 72 0
13.640000 27.720000 3.080000 169 75 71 0
13.860000 27.720000 4.180000 169 75 71 0
14.080000 27.720000 4.180000 169 75 71 0
14.300000 27.720000 4.180000 171 77 73 0
14.520000 27.720000 4.180000 171 77 73 0
14.740000 27.720000 4.180000 170 76 72 0
14.960000 27.720000 4.180000 172 76 73 0
15.180000 27.720000 4.180000 173 77 74 0
15.400000 27.720000 4.180000 171 77 72 0
15.620000 27.720000 4.180000 175 81 76 0
15.840000 27.720000 4.180000 174 78 75 0
16.060000 27.720000 4.180000 175 79 76 0
16.280000 27.720000 4.180000 176 80 76 0
16.500000 27.720000 3.080000 176 80 76 0
16.720000 27.720000 2.200000 175 81 77 0
16.940000 27.720000 2.420000 176 82 78 0
17.160000 27.720000 1.100000 178 82 78 0
17.380000 27.720000 1.320000 179 83 79 0
17.600000 27.720000 1.320000 178 82 78 0
17.820000 27.720000 1.320000 178 82 78 0
18.040000 27.720000 1.320000 179 83 79 0
18.260000 27.720000 1.320000 181 85 81 0
18.480000 27.720000 1.320000 180 84 80 0
18.700000 27.720000 1.320000 181 85 81 0
18.920000 27.720000 1.320000 181 85 81 0
19.140000 27.720000 1.320000 181 85 81 0
19.360000 27.720000 2.640000 182 86 82 0
19.580000 27.720000 2.640000 183 87 83 0
19.800000 27.720000 2.640000 183 89 84 0
20.020000 27.720000 2.640000 182 88 83 0
20.240000 27.720000 2.640000 184 90 85 0
20.460000 27.720000 2.640000 184 90 85 0
20.680000 27.720000 1.320000 186 92 87 0
20.900000 27.720000 1.320000 186 92 87 0
21.120000 27.720000 1.320000 186 92 87 0
21.340000 27.720000 1.320000 188 94 89 0
21.560000 27.720000 1.320000 187 96 90 0
21.780000 27.720000 1.320000 187 96 90 0
22.000000 27.720000 1.320000 187 96 90 0
22.220000 27.720000 1.320000 188 97 91 0
22.440000 27.720000 1.320000 189 98 92 0
22.660000 27.720000 1.320000 189 98 92 0
22.880000 27.720000 1.320000 188 98 92 0
23.100000 27.720000 1.320000 190 100 94 0
23.320000 27.720000 1.320000 190 100 94 0
23.540000 27.720000 1.320000 192 102 96 0
23.760000 27.720000 1.320000 191 103 97 0
23.980000 27.720000 1.320000 191 103 97 0
24.200000 27.720000 2.640000 191 103 97 0
24.420000 27.720000 2.640000 192 104 98 0
24.640000 27.720000 2.640000 193 105 99 0
24.860000 27.720000 2.640000 192 104 98 0
25.080000 27.720000 2.640000 194 106 100 0
25.300000 27.720000 2.640000 193 105 99 0
25.520000 27.720000 2.640000 193 105 99 0
25.740000 27.720000 4.180000 193 105 99 0
25.960000 27.720000 3.960000 192 107 100 0
26.180000 27.720000 5.280000 191 106 99 0
26.400000 27.720000 6.380000 193 108 101 0
26.620000 27.720000 7.480000 192 107 100 0
26.840000 27.720000 8.580000 196 108 102 0
27.060000 27.720000 8.360000 196 108 102 0
27.280000 27.720000 9.680000 196 111 104 0
27.500000 27.720000 9.680000 197 112 105 0
27.720000 27.720000 9.900000 200 112 106 0
27.940000 27.720000 9.900000 200 112 106 0
28.160000 27.720000 9.900000 199 114 107 0
28.380000 27.720000 10.120000 202 117 110 0
28.600000 27.720000 10.120000 204 119 112 0
28.820000 27.720000 10.340000 202 117 110 0
29.040000 27.720000 10.340000 201 116 109 0
29.260000 27.720000 9.240000 201 116 109 0
29.480000 27.720000 9.240000 201 112 109 0
29.700000 27.720000 9.240000 200 111 108 0
29.920000 27.720000 9.460000 200 112 106 0
30.140000 27.720000 9.460000 200 112 106 0
30.360000 27.720000 9.460000 200 112 106 0
30.580000 27.720000 9.460000 200 112 106 0
30.800000 27.720000 9.680000 200 112 106 0
31.020000 27.720000 9.680000 200 112 106 0
31.240000 27.720000 9.680000 201 113 107 0
31.460000 27.720000 9.680000 201 113 107 0
31.680000 27.720000 10.780000 199 111 105 0
31.900000 27.720000 12.760000 199 111 105 0
32.120000 27.720000 13.860000 198 110 104 0
32.340000 27.720000 13.860000 199 111 105 0
32.560000 27.720000 12.540000 197 109 103 0
32.780000 27.720000 12.540000 197 109 103 0
33.000000 27.720000 12.540000 197 109 103 0
33.220000 27.720000 13.860000 198 110 104 0
33.440000 27.720000 13.860000 195 110 103 0
33.660000 27.720000 12.760000 197 112 105 0
33.880000 27.720000 12.100000 198 110 104 0
34.100000 27.720000 12.320000 199 111 105 0
34.320000 27.720000 13.640000 199 110 107 0
34.540000 27.720000 14.960000 199 110 107 0
34.760000 27.720000 14.960000 197 112 105 0
34.980000 27.720000 14.960000 198 113 106 0
35.200000 27.720000 15.180000 199 114 107 0
35.420000 27.720000 16.280000 199 114 107 0
35.640000 27.720000 19.800000 200 115 108 0
35.860000 27.720000 19.360000 200 115 108 0
36.080000 27.720000 19.360000 200 115 108 0
36.300000 27.720000 20.900000 201 116 109 0
36.520000 27.720000 20.900000 199 118 110 0
36.740000 27.720000 22.220000 201 120 112 0
36.960000 27.720000 22.440000 199 125 119 0
37.180000 27.720000 22.440000 203 129 123 0
0.000000 27.940000 4.840000 159 70 67 0
0.220000 27.940000 3.520000 160 71 68 0
0.440000 27.940000 3.740000 159 70 67 0
0.660000 27.940000 2.420000 159 70 67 0
0.880000 27.940000 4.620000 158 69 66 0
1.100000 27.940000 4.180000 158 69 66 0
1.320000 27.940000 4.400000 159 69 66 0
1.540000 27.940000 3.300000 159 69 66 0
1.760000 27.940000 4.620000 159 69 66 0
1.980000 27.940000 4.180000 159 69 66 0
2.200000 27.940000 4.180000 159 69 66 0
2.420000 27.940000 5.500000 159 69 66 0
2.640000 27.940000 5.500000 158 68 65 0
2.860000 27.940000 5.500000 158 68 65 0
3.080000 27.940000 5.500000 159 69 66 0
3.300000 27.940000 5.720000 160 70 67 0
3.520000 27.940000 5.720000 160 69 69 0
3.740000 27.940000 5.720000 160 69 69 0
3.960000 27.940000 7.040000 160 70 67 0
4.180000 27.940000 5.940000 160 70 67 0
4.400000 27.940000 6.380000 159 69 66 0
4.620000 27.940000 5.280000 159 69 66 0
4.840000 27.940000 3.960000 160 68 66 0
5.060000 27.940000 3.740000 160 68 66 0
5.280000 27.940000 4.840000 161 69 67 0
5.500000 27.940000 5.060000 160 68 66 0
5.720000 27.940000 3.740000 162 70 68 0
5.940000 27.940000 5.060000 161 69 67 0
6.160000 27.940000 6.600000 161 69 67 0
6.380000 27.940000 7.920000 161 69 67 0
6.600000 27.940000 9.460000 162 70 68 0
6.820000 27.940000 10.780000 162 70 68 0
7.040000 27.940000 9.240000 160 68 68 0
7.260000 27.940000 6.600000 160 68 68 0
7.480000 27.940000 5.280000 160 68 66 0
7.700000 27.940000 5.280000 161 69 67 0
7.920000 27.940000 3.960000 161 69 67 0
8.140000 27.940000 3.960000 161 69 67 0
8.360000 27.940000 2.640000 161 69 67 0
8.580000 27.940000 2.420000 162 70 68 0
9.020000 27.940000 9.460000 161 69 67 0
9.240000 27.940000 28.820000 164 69 68 0
9.460000 27.940000 39.820000 164 69 68 0
9.680000 27.940000 30.140000 163 71 69 0
9.900000 27.940000 9.460000 162 70 68 0
10.340000 27.940000 1.100000 165 70 69 0
10.560000 27.940000 1.100000 163 71 69 0
10.780000 27.940000 1.100000 163 71 69 0
11.000000 27.940000 1.320000 165 70 69 0
12.980000 27.940000 1.100000 168 74 70 0
13.200000 27.940000 1.100000 169 75 71 0
13.420000 27.940000 2.200000 168 74 70 0
13.640000 27.940000 3.080000 169 75 71 0
13.860000 27.940000 4.180000 170 76 72 0
14.080000 27.940000 4.180000 170 76 72 0
14.300000 27.940000 4.180000 169 75 71 0
14.520000 27.940000 4.180000 171 77 73 0
14.740000 27.940000 4.180000 171 77 73 0
14.960000 27.940000 4.180000 171 77 73 0
15.180000 27.940000 4.180000 171 77 73 0
15.400000 27.940000 4.180000 172 78 74 0
15.620000 27.940000 4.180000 172 78 74 0
15.840000 27.940000 4.180000 173 77 74 0
16.060000 27.940000 4.180000 176 80 77 0
16.280000 27.940000 4.180000 176 80 77 0
16.500000 27.940000 3.080000 176 80 77 0
16.720000 27.940000 2.420000 176 80 77 0
16.940000 27.940000 1.320000 177 81 78 0
17.160000 27.940000 1.320000 177 81 78 0
17.380000 27.940000 1.320000 177 81 78 0
17.600000 27.940000 1.320000 178 82 78 0
17.820000 27.940000 1.320000 177 81 77 0
18.040000 27.940000 1.320000 178 82 79 0
18.260000 27.940000 1.320000 180 84 81 0
18.480000 27.940000 1.320000 179 83 80 0
18.700000 27.940000 1.320000 180 84 81 0
18.920000 27.940000 1.320000 181 85 82 0
19.140000 27.940000 2.640000 181 85 82 0
19.360000 27.940000 2.640000 182 86 82 0
19.580000 27.940000 2.640000 182 86 82 0
19.800000 27.940000 2.640000 183 87 83 0
20.020000 27.940000 2.640000 183 87 83 0
20.240000 27.940000 2.640000 183 89 85 0
20.460000 27.940000 2.640000 183 89 85 0
20.680000 27.940000 2.640000 184 90 85 0
20.900000 27.940000 1.320000 185 91 86 0
21.120000 27.940000 1.320000 187 93 88 0
21.340000 27.940000 1.320000 187 93 88 0
21.560000 27.940000 1.320000 188 94 89 0
21.780000 27.940000 1.320000 187 93 88 0
22.000000 27.940000 1.320000 187 96 90 0
22.220000 27.940000 1.320000 187 96 90 0
22.440000 27.940000 1.320000 189 98 92 0
22.660000 27.940000 1.320000 189 98 92 0
22.880000 27.940000 1.320000 188 98 92 0
23.100000 27.940000 1.320000 189 99 93 0
23.320000 27.940000 1.320000 190 100 95 0
23.540000 27.940000 1.320000 191 101 96 0
23.760000 27.940000 1.320000 191 101 96 0
23.980000 27.940000 1.320000 193 103 98 0
24.200000 27.940000 2.640000 192 102 96 0
24.420000 27.940000 2.640000 192 102 96 0
24.640000 27.940000 2.640000 192 104 97 0
24.860000 27.940000 2.640000 192 104 97 0
25.080000 27.940000 2.640000 193 105 99 0
25.300000 27.940000 2.640000 193 105 99 0
25.520000 27.940000 2.640000 193 105 99 0
25.740000 27.940000 4.180000 194 106 100 0
25.960000 27.940000 4.180000 193 105 99 0
26.180000 27.940000 3.960000 193 105 99 0
26.400000 27.940000 5.060000 194 106 100 0
26.620000 27.940000 6.160000 196 108 102 0
26.840000 27.940000 7.040000 196 108 102 0
27.060000 27.940000 8.360000 197 109 103 0
27.280000 27.940000 8.360000 198 109 106 0
27.500000 27.940000 9.680000 198 109 106 0
27.720000 27.940000 9.900000 198 113 106 0
27.940000 27.940000 9.900000 198 113 106 0
28.160000 27.940000 9.900000 199 115 108 0
28.380000 27.940000 10.120000 200 116 109 0
28.600000 27.940000 10.120000 203 118 111 0
28.820000 27.940000 10.120000 202 117 110 0
29.040000 27.940000 10.340000 201 116 109 0
29.260000 27.940000 10.560000 200 115 108 0
29.480000 27.940000 9.240000 200 115 108 0
29.700000 27.940000 9.240000 197 112 105 0
29.920000 27.940000 9.460000 199 111 105 0
30.140000 27.940000 9.460000 199 111 105 0
30.360000 27.940000 9.460000 200 112 106 0
30.580000 27.940000 9.460000 200 112 106 0
30.800000 27.940000 9.680000 199 111 105 0
31.020000 27.940000 9.460000 201 113 107 0
31.240000 27.940000 10.780000 200 115 108 0
31.460000 27.940000 10.780000 203 118 111 0
31.680000 27.940000 11.880000 202 121 113 0
31.900000 27.940000 12.760000 203 122 114 0
32.120000 27.940000 13.860000 201 116 109 0
32.340000 27.940000 13.860000 198 113 106 0
32.560000 27.940000 12.540000 199 111 105 0
32.780000 27.940000 12.540000 197 109 103 0
33.000000 27.940000 12.540000 195 110 103 0
33.220000 27.940000 13.860000 196 111 104 0
33.440000 27.940000 13.860000 196 111 104 0
33.660000 27.940000 12.760000 197 112 105 0
33.880000 27.940000 12.100000 198 110 104 0
34.100000 27.940000 12.320000 198 110 104 0
34.320000 27.940000 13.640000 198 110 104 0
34.540000 27.940000 13.420000 198 110 104 0
34.760000 27.940000 14.960000 196 111 104 0
34.980000 27.940000 14.960000 199 114 107 0
35.200000 27.940000 15.180000 197 113 108 0
35.420000 27.940000 16.280000 197 113 108 0
35.640000 27.940000 18.260000 199 114 107 0
35.860000 27.940000 19.360000 199 114 107 0
36.080000 27.940000 19.360000 200 114 110 0
36.300000 27.940000 19.360000 200 114 110 0
36.520000 27.940000 20.900000 201 117 110 0
36.740000 27.940000 20.900000 201 117 110 0
36.960000 27.940000 22.440000 200 120 114 0
37.180000 27.940000 22.440000 204 124 118 0
0.000000 28.160000 4.620000 159 70 67 0
0.220000 28.160000 4.620000 159 70 67 0
0.440000 28.160000 3.740000 160 71 68 0
0.660000 28.160000 3.740000 158 69 66 0
0.880000 28.160000 4.400000 158 69 66 0
1.100000 28.160000 5.500000 157 68 65 0
1.320000 28.160000 5.720000 158 68 65 0
1.540000 28.160000 5.720000 159 69 66 0
1.760000 28.160000 5.720000 159 69 66 0
1.980000 28.160000 5.500000 160 70 67 0
2.200000 28.160000 4.180000 160 70 67 0
2.420000 28.160000 5.500000 159 69 66 0
2.640000 28.160000 5.500000 159 69 66 0
2.860000 28.160000 5.720000 159 69 66 0
3.080000 28.160000 5.720000 159 69 66 0
3.300000 28.160000 7.040000 159 69 66 0
3.520000 28.160000 7.040000 158 67 67 0
3.740000 28.160000 7.040000 159 68 68 0
3.960000 28.160000 5.940000 158 68 65 0
4.180000 28.160000 6.380000 159 69 66 0
4.400000 28.160000 5.280000 159 69 66 0
4.620000 28.160000 5.500000 159 69 66 0
4.840000 28.160000 3.960000 161 69 67 0
5.060000 28.160000 3.960000 161 69 67 0
5.280000 28.160000 3.740000 160 68 66 0
5.500000 28.160000 3.740000 160 68 66 0
5.720000 28.160000 3.740000 161 69 67 0
5.940000 28.160000 5.060000 161 69 67 0
6.160000 28.160000 6.600000 160 68 66 0
6.380000 28.160000 7.920000 161 69 67 0
6.600000 28.160000 9.460000 161 69 67 0
6.820000 28.160000 9.240000 161 69 67 0
7.040000 28.160000 9.240000 160 68 68 0
7.260000 28.160000 6.600000 160 68 68 0
7.480000 28.160000 5.280000 161 69 67 0
7.700000 28.160000 3.960000 161 69 67 0
7.920000 28.160000 3.960000 162 70 68 0
8.140000 28.160000 2.640000 161 69 67 0
8.360000 28.160000 2.420000 160 68 66 0
8.580000 28.160000 1.100000 161 69 67 0
9.020000 28.160000 9.460000 162 70 68 0
9.240000 28.160000 28.820000 163 68 67 0
9.460000 28.160000 39.820000 163 68 67 0
9.680000 28.160000 30.140000 162 70 68 0
9.900000 28.160000 9.460000 163 71 69 0
10.340000 28.160000 1.100000 164 69 68 0
10.560000 28.160000 1.100000 162 70 68 0
10.780000 28.160000 1.320000 162 70 68 0
11.000000 28.160000 1.320000 164 69 68 0
12.760000 28.160000 0.880000 167 73 69 0
12.980000 28.160000 1.980000 167 73 69 0
13.200000 28.160000 3.080000 168 74 70 0
13.420000 28.160000 3.080000 168 74 70 0
13.640000 28.160000 4.180000 169 75 71 0
13.860000 28.160000 4.180000 169 75 71 0
14.080000 28.160000 4.180000 170 76 72 0
14.300000 28.160000 4.180000 170 76 72 0
14.520000 28.160000 4.180000 169 75 71 0
14.740000 28.160000 4.180000 169 75 71 0
14.960000 28.160000 4.180000 169 75 71 0
15.180000 28.160000 4.180000 171 77 73 0
15.400000 28.160000 4.180000 170 76 72 0
15.620000 28.160000 4.180000 172 78 74 0
15.840000 28.160000 4.400000 172 76 73 0
16.060000 28.160000 4.180000 176 80 77 0
16.280000 28.160000 4.180000 175 79 76 0
16.500000 28.160000 3.080000 174 78 75 0
16.720000 28.160000 2.200000 176 80 77 0
16.940000 28.160000 1.320000 176 80 77 0
17.160000 28.160000 1.320000 178 82 79 0
17.380000 28.160000 1.320000 175 79 76 0
17.600000 28.160000 1.320000 177 81 77 0
17.820000 28.160000 1.320000 178 82 78 0
18.040000 28.160000 1.320000 177 81 78 0
18.260000 28.160000 2.640000 178 82 79 0
18.480000 28.160000 2.640000 179 83 80 0
18.700000 28.160000 2.640000 180 84 81 0
18.920000 28.160000 2.640000 180 84 81 0
19.140000 28.160000 2.640000 181 85 82 0
19.360000 28.160000 2.640000 181 85 81 0
19.580000 28.160000 2.640000 182 86 82 0
19.800000 28.160000 2.640000 182 86 82 0
20.020000 28.160000 2.640000 182 86 82 0
20.240000 28.160000 2.640000 182 88 84 0
20.460000 28.160000 2.640000 183 89 85 0
20.680000 28.160000 2.640000 183 89 84 0
20.900000 28.160000 2.640000 185 91 86 0
21.120000 28.160000 1.320000 186 92 87 0
21.340000 28.160000 1.320000 186 92 87 0
21.560000 28.160000 1.320000 186 92 87 0
21.780000 28.160000 1.320000 187 93 88 0
22.000000 28.160000 1.320000 186 95 89 0
22.220000 28.160000 1.320000 186 95 89 0
22.440000 28.160000 1.320000 187 96 90 0
22.660000 28.160000 1.320000 188 97 91 0
22.880000 28.160000 1.320000 187 97 91 0
23.100000 28.160000 1.320000 188 98 92 0
23.320000 28.160000 1.320000 189 99 94 0
23.540000 28.160000 1.320000 190 100 95 0
23.760000 28.160000 1.320000 192 102 97 0
23.980000 28.160000 1.320000 191 101 96 0
24.200000 28.160000 2.640000 193 103 97 0
24.420000 28.160000 2.640000 191 101 95 0
24.640000 28.160000 2.640000 192 104 97 0
24.860000 28.160000 2.640000 191 103 96 0
25.080000 28.160000 2.640000 192 104 98 0
25.300000 28.160000 2.640000 193 105 99 0
25.520000 28.160000 2.640000 192 104 98 0
25.740000 28.160000 2.640000 192 104 98 0
25.960000 28.160000 4.180000 194 106 100 0
26.180000 28.160000 3.960000 192 104 98 0
26.400000 28.160000 5.280000 193 105 99 0
26.620000 28.160000 5.060000 195 107 101 0
26.840000 28.160000 6.160000 196 108 102 0
27.060000 28.160000 7.260000 196 108 102 0
27.280000 28.160000 8.360000 197 108 105 0
27.500000 28.160000 9.680000 198 109 106 0
27.720000 28.160000 9.900000 197 112 105 0
27.940000 28.160000 9.900000 198 113 106 0
28.160000 28.160000 9.900000 198 114 107 0
28.380000 28.160000 9.900000 200 116 109 0
28.600000 28.160000 10.120000 201 116 109 0
28.820000 28.160000 10.120000 202 117 110 0
29.040000 28.160000 10.340000 202 117 110 0
29.260000 28.160000 10.340000 200 115 108 0
29.480000 28.160000 9.240000 198 113 106 0
29.700000 28.160000 9.240000 197 112 105 0
29.920000 28.160000 9.460000 198 110 104 0
30.140000 28.160000 9.460000 197 109 103 0
30.360000 28.160000 9.460000 197 109 103 0
30.580000 28.160000 9.460000 199 111 105 0
30.800000 28.160000 9.680000 199 111 105 0
31.020000 28.160000 9.460000 201 113 107 0
31.240000 28.160000 10.560000 201 116 109 0
31.460000 28.160000 11.660000 204 119 112 0
31.680000 28.160000 11.440000 203 122 114 0
31.900000 28.160000 12.540000 204 123 115 0
32.120000 28.160000 12.540000 207 122 115 0
32.340000 28.160000 12.540000 205 120 113 0
32.560000 28.160000 12.540000 201 113 107 0
32.780000 28.160000 12.540000 198 110 104 0
33.000000 28.160000 13.860000 195 110 103 0
33.220000 28.160000 13.860000 196 111 104 0
33.440000 28.160000 13.860000 197 112 105 0
33.660000 28.160000 12.760000 196 111 104 0
33.880000 28.160000 11.880000 198 110 104 0
34.100000 28.160000 12.320000 197 109 103 0
34.320000 28.160000 12.100000 199 111 105 0
34.540000 28.160000 13.420000 199 111 105 0
34.760000 28.160000 14.740000 197 112 105 0
34.980000 28.160000 14.960000 197 112 105 0
35.200000 28.160000 15.180000 197 113 108 0
35.420000 28.160000 16.280000 198 114 109 0
35.640000 28.160000 18.260000 199 114 107 0
35.860000 28.160000 19.360000 199 114 107 0
36.080000 28.160000 19.360000 200 114 110 0
36.300000 28.160000 19.360000 200 114 110 0
36.520000 28.160000 20.900000 200 116 109 0
36.740000 28.160000 20.900000 200 116 109 0
36.960000 28.160000 20.900000 199 119 113 0
37.180000 28.160000 20.900000 203 123 117 0
0.000000 28.380000 4.620000 158 69 66 0
0.220000 28.380000 4.620000 159 70 67 0
0.440000 28.380000 3.740000 159 70 67 0
0.660000 28.380000 3.740000 159 70 67 0
0.880000 28.380000 4.620000 158 69 66 0
1.100000 28.380000 5.720000 159 70 67 0
1.320000 28.380000 5.500000 157 68 65 0
1.540000 28.380000 5.500000 158 69 66 0
1.760000 28.380000 5.500000 159 69 66 0
1.980000 28.380000 5.500000 159 69 66 0
2.200000 28.380000 5.500000 159 69 66 0
2.420000 28.380000 5.720000 159 69 66 0
2.640000 28.380000 5.720000 160 70 67 0
2.860000 28.380000 5.720000 158 68 65 0
3.080000 28.380000 5.720000 159 69 66 0
3.300000 28.380000 7.040000 158 68 65 0
3.520000 28.380000 7.040000 159 69 66 0
3.740000 28.380000 5.940000 159 69 66 0
3.960000 28.380000 6.380000 158 68 65 0
4.180000 28.380000 5.280000 158 68 65 0
4.400000 28.380000 5.280000 157 67 64 0
4.620000 28.380000 5.280000 158 68 65 0
4.840000 28.380000 5.280000 158 68 65 0
5.060000 28.380000 5.280000 159 69 66 0
5.280000 28.380000 3.960000 160 68 66 0
5.500000 28.380000 3.740000 160 68 66 0
5.720000 28.380000 3.740000 160 68 66 0
5.940000 28.380000 5.060000 161 69 67 0
6.160000 28.380000 6.600000 162 70 68 0
6.380000 28.380000 6.600000 161 69 67 0
6.600000 28.380000 7.920000 161 69 67 0
6.820000 28.380000 9.240000 161 69 67 0
7.040000 28.380000 7.920000 161 69 67 0
7.260000 28.380000 6.600000 161 69 67 0
7.480000 28.380000 5.280000 160 68 66 0
7.700000 28.380000 3.960000 161 69 67 0
7.920000 28.380000 2.420000 161 69 67 0
8.140000 28.380000 2.640000 161 69 67 0
8.360000 28.380000 1.100000 161 69 67 0
8.580000 28.380000 1.100000 162 70 68 0
9.020000 28.380000 6.820000 163 68 67 0
9.240000 28.380000 22.000000 162 70 68 0
9.460000 28.380000 33.000000 161 69 67 0
9.680000 28.380000 27.500000 162 70 68 0
9.900000 28.380000 9.460000 162 70 68 0
10.340000 28.380000 1.100000 164 72 70 0
10.560000 28.380000 1.320000 165 70 69 0
10.780000 28.380000 1.320000 164 69 68 0
11.000000 28.380000 1.320000 165 70 69 0
11.220000 28.380000 1.320000 165 70 69 0
12.540000 28.380000 1.100000 166 71 70 0
12.760000 28.380000 1.980000 166 71 70 0
12.980000 28.380000 2.860000 167 72 71 0
13.200000 28.380000 4.180000 168 74 70 0
13.420000 28.380000 4.180000 169 75 71 0
13.640000 28.380000 4.180000 168 73 72 0
13.860000 28.380000 4.180000 168 73 72 0
14.080000 28.380000 4.180000 169 74 73 0
14.300000 28.380000 4.180000 169 74 73 0
14.520000 28.380000 4.180000 169 74 73 0
14.740000 28.380000 4.180000 169 74 73 0
14.960000 28.380000 4.180000 170 76 72 0
15.180000 28.380000 4.180000 170 76 72 0
15.400000 28.380000 4.180000 171 77 73 0
15.620000 28.380000 4.180000 171 77 73 0
15.840000 28.380000 4.180000 172 78 74 0
16.060000 28.380000 4.180000 173 79 75 0
16.280000 28.380000 4.180000 174 78 75 0
16.500000 28.380000 4.400000 174 78 75 0
16.720000 28.380000 3.520000 174 80 76 0
16.940000 28.380000 2.640000 174 80 76 0
17.160000 28.380000 2.640000 175 79 76 0
17.380000 28.380000 2.640000 176 80 77 0
17.600000 28.380000 1.320000 177 81 78 0
17.820000 28.380000 1.320000 178 82 79 0
18.040000 28.380000 1.320000 177 81 78 0
18.260000 28.380000 2.640000 179 83 80 0
18.480000 28.380000 2.640000 178 82 79 0
18.700000 28.380000 2.640000 179 83 80 0
18.920000 28.380000 2.640000 179 83 80 0
19.140000 28.380000 2.640000 180 84 81 0
19.360000 28.380000 2.640000 181 85 82 0
19.580000 28.380000 2.640000 182 86 83 0
19.800000 28.380000 2.640000 181 85 82 0
20.020000 28.380000 2.640000 182 86 83 0
20.240000 28.380000 2.640000 183 87 83 0
20.460000 28.380000 2.640000 184 88 84 0
20.680000 28.380000 2.640000 184 88 84 0
20.900000 28.380000 2.640000 184 88 84 0
21.120000 28.380000 1.320000 185 89 85 0
21.340000 28.380000 1.320000 186 90 86 0
21.560000 28.380000 1.320000 187 93 89 0
21.780000 28.380000 1.320000 187 93 89 0
22.000000 28.380000 1.320000 187 93 88 0
22.220000 28.380000 1.320000 188 94 89 0
22.440000 28.380000 1.320000 185 94 88 0
22.660000 28.380000 1.320000 187 96 90 0
22.880000 28.380000 1.320000 190 96 91 0
23.100000 28.380000 1.320000 191 97 92 0
23.320000 28.380000 1.320000 188 98 93 0
23.540000 28.380000 1.320000 190 100 95 0
23.760000 28.380000 1.320000 190 100 95 0
23.980000 28.380000 1.320000 192 102 97 0
24.200000 28.380000 2.640000 191 101 96 0
24.420000 28.380000 2.640000 192 102 97 0
24.640000 28.380000 2.640000 192 102 96 0
24.860000 28.380000 2.640000 193 103 97 0
25.080000 28.380000 2.640000 191 101 96 0
25.300000 28.380000 2.640000 193 103 98 0
25.520000 28.380000 2.640000 193 105 99 0
25.740000 28.380000 2.640000 192 104 98 0
25.960000 28.380000 2.640000 193 105 99 0
26.180000 28.380000 2.640000 193 105 99 0
26.400000 28.380000 4.180000 193 105 99 0
26.620000 28.380000 3.960000 193 105 99 0
26.840000 28.380000 3.960000 195 107 101 0
27.060000 28.380000 6.380000 196 108 102 0
27.280000 28.380000 7.260000 196 108 102 0
27.500000 28.380000 8.360000 197 109 103 0
27.720000 28.380000 9.680000 198 110 104 0
27.940000 28.380000 9.900000 199 111 105 0
28.160000 28.380000 9.900000 198 113 106 0
28.380000 28.380000 9.900000 200 115 108 0
28.600000 28.380000 9.900000 201 116 109 0
28.820000 28.380000 10.120000 202 117 110 0
29.040000 28.380000 10.120000 202 117 110 0
29.260000 28.380000 10.340000 201 116 109 0
29.480000 28.380000 10.340000 200 112 106 0
29.700000 28.380000 9.240000 199 111 105 0
29.920000 28.380000 9.460000 198 110 104 0
30.140000 28.380000 9.460000 197 109 103 0
30.360000 28.380000 9.460000 196 108 102 0
30.580000 28.380000 9.460000 198 110 104 0
30.800000 28.380000 9.460000 198 110 104 0
31.020000 28.380000 9.460000 201 113 107 0
31.240000 28.380000 9.460000 203 119 112 0
31.460000 28.380000 10.340000 203 119 112 0
31.680000 28.380000 11.220000 205 124 115 0
31.900000 28.380000 12.540000 207 126 117 0
32.120000 28.380000 12.760000 209 128 120 0
32.340000 28.380000 12.760000 207 126 118 0
32.560000 28.380000 12.760000 203 117 113 0
32.780000 28.380000 12.540000 199 113 109 0
33.000000 28.380000 13.860000 199 110 107 0
33.220000 28.380000 13.860000 197 108 105 0
33.440000 28.380000 13.860000 195 110 103 0
33.660000 28.380000 13.860000 196 111 104 0
33.880000 28.380000 12.980000 198 110 104 0
34.100000 28.380000 12.100000 197 109 103 0
34.320000 28.380000 12.320000 195 109 105 0
34.540000 28.380000 13.420000 196 110 106 0
34.760000 28.380000 13.420000 197 111 107 0
34.980000 28.380000 13.420000 197 111 107 0
35.200000 28.380000 13.640000 198 114 107 0
35.420000 28.380000 16.280000 197 113 106 0
35.640000 28.380000 18.260000 198 112 108 0
35.860000 28.380000 18.040000 199 113 109 0
36.080000 28.380000 18.040000 199 113 109 0
36.300000 28.380000 19.360000 200 114 110 0
36.520000 28.380000 19.360000 200 114 110 0
36.740000 28.380000 20.900000 200 114 110 0
36.960000 28.380000 20.900000 199 118 112 0
37.180000 28.380000 20.900000 201 120 114 0
0.000000 28.600000 4.620000 158 69 66 0
0.220000 28.600000 4.620000 159 70 67 0
0.440000 28.600000 3.520000 159 70 67 0
0.660000 28.600000 3.740000 158 69 66 0
0.880000 28.600000 4.620000 158 69 66 0
1.100000 28.600000 5.720000 159 70 67 0
1.320000 28.600000 5.720000 158 69 66 0
1.540000 28.600000 5.500000 157 68 65 0
1.760000 28.600000 5.500000 159 69 66 0
1.980000 28.600000 5.500000 159 69 66 0
2.200000 28.600000 5.720000 158 68 65 0
2.420000 28.600000 5.720000 160 70 67 0
2.640000 28.600000 5.720000 158 68 65 0
2.860000 28.600000 5.720000 158 68 65 0
3.080000 28.600000 7.040000 159 69 66 0
3.300000 28.600000 7.040000 159 69 66 0
3.520000 28.600000 5.940000 160 70 67 0
3.740000 28.600000 6.380000 159 69 66 0
3.960000 28.600000 5.280000 159 69 66 0
4.180000 28.600000 6.820000 159 69 66 0
4.400000 28.600000 6.820000 158 68 65 0
4.620000 28.600000 6.600000 158 68 65 0
4.840000 28.600000 5.280000 159 69 66 0
5.060000 28.600000 5.280000 160 70 67 0
5.280000 28.600000 5.280000 160 68 66 0
5.500000 28.600000 3.740000 160 68 66 0
5.720000 28.600000 3.740000 159 67 65 0
5.940000 28.600000 5.060000 161 69 67 0
6.160000 28.600000 5.280000 162 70 68 0
6.380000 28.600000 6.600000 161 69 67 0
6.600000 28.600000 7.920000 162 70 68 0
6.820000 28.600000 9.240000 161 69 67 0
7.040000 28.600000 7.920000 161 69 67 0
7.260000 28.600000 5.280000 161 69 67 0
7.480000 28.600000 3.960000 161 69 67 0
7.700000 28.600000 2.420000 161 69 67 0
7.920000 28.600000 2.420000 161 69 67 0
8.140000 28.600000 1.100000 160 68 66 0
8.360000 28.600000 1.100000 161 69 67 0
8.580000 28.600000 1.100000 162 70 68 0
9.020000 28.600000 1.100000 162 67 66 0
9.240000 28.600000 6.820000 161 69 67 0
9.460000 28.600000 13.640000 161 69 67 0
9.680000 28.600000 16.500000 162 70 68 0
9.900000 28.600000 6.820000 163 71 69 0
10.340000 28.600000 1.100000 162 70 68 0
10.560000 28.600000 1.320000 165 70 69 0
10.780000 28.600000 1.320000 164 69 68 0
11.000000 28.600000 1.320000 165 70 69 0
11.220000 28.600000 1.320000 164 69 68 0
12.320000 28.600000 1.100000 166 71 70 0
12.540000 28.600000 2.200000 169 74 73 0
12.760000 28.600000 3.080000 166 71 70 0
12.980000 28.600000 2.860000 168 73 72 0
13.200000 28.600000 4.180000 167 73 69 0
13.420000 28.600000 4.180000 168 74 70 0
13.640000 28.600000 4.180000 168 73 72 0
13.860000 28.600000 4.180000 168 73 72 0
14.080000 28.600000 4.180000 169 74 73 0
14.300000 28.600000 4.180000 169 74 73 0
14.520000 28.600000 4.180000 169 74 73 0
14.740000 28.600000 4.180000 169 74 73 0
14.960000 28.600000 4.180000 169 75 71 0
15.180000 28.600000 4.180000 171 77 73 0
15.400000 28.600000 4.180000 171 77 73 0
15.620000 28.600000 4.180000 171 77 73 0
15.840000 28.600000 4.180000 171 77 73 0
16.060000 28.600000 4.180000 171 77 73 0
16.280000 28.600000 4.400000 173 77 74 0
16.500000 28.600000 3.300000 173 77 74 0
16.720000 28.600000 2.420000 172 78 74 0
16.940000 28.600000 1.320000 173 79 75 0
17.160000 28.600000 1.320000 174 78 75 0
17.380000 28.600000 2.640000 174 78 75 0
17.600000 28.600000 1.320000 175 79 76 0
17.820000 28.600000 1.320000 177 81 78 0
18.040000 28.600000 1.320000 177 81 78 0
18.260000 28.600000 2.640000 178 82 79 0
18.480000 28.600000 2.640000 177 81 78 0
18.700000 28.600000 2.640000 178 82 79 0
18.920000 28.600000 2.640000 179 83 80 0
19.140000 28.600000 2.640000 180 84 81 0
19.360000 28.600000 3.960000 180 84 81 0
19.580000 28.600000 2.640000 180 84 81 0
19.800000 28.600000 2.640000 182 86 83 0
20.020000 28.600000 2.640000 182 86 83 0
20.240000 28.600000 2.640000 182 86 82 0
20.460000 28.600000 2.640000 182 86 82 0
20.680000 28.600000 2.640000 183 87 83 0
20.900000 28.600000 2.640000 184 88 84 0
21.120000 28.600000 2.640000 184 88 84 0
21.340000 28.600000 1.320000 185 89 85 0
21.560000 28.600000 1.320000 186 92 88 0
21.780000 28.600000 1.320000 186 92 88 0
22.000000 28.600000 1.320000 187 93 88 0
22.220000 28.600000 1.320000 187 93 88 0
22.440000 28.600000 1.320000 185 94 88 0
22.660000 28.600000 1.320000 186 95 89 0
22.880000 28.600000 1.320000 189 95 90 0
23.100000 28.600000 1.320000 188 94 89 0
23.320000 28.600000 1.320000 187 97 92 0
23.540000 28.600000 1.320000 189 99 94 0
23.760000 28.600000 1.320000 189 99 94 0
23.980000 28.600000 1.320000 191 101 96 0
24.200000 28.600000 2.640000 190 100 95 0
24.420000 28.600000 2.640000 191 101 96 0
24.640000 28.600000 2.640000 192 102 96 0
24.860000 28.600000 2.640000 191 101 95 0
25.080000 28.600000 2.640000 192 102 97 0
25.300000 28.600000 2.640000 193 103 98 0
25.520000 28.600000 2.640000 193 105 99 0
25.740000 28.600000 2.640000 192 104 98 0
25.960000 28.600000 2.640000 192 104 98 0
26.180000 28.600000 2.640000 193 105 99 0
26.400000 28.600000 2.640000 193 105 99 0
26.620000 28.600000 4.180000 194 106 100 0
26.840000 28.600000 4.180000 194 106 100 0
27.060000 28.600000 5.280000 195 107 101 0
27.280000 28.600000 6.160000 197 109 103 0
27.500000 28.600000 8.360000 197 109 103 0
27.720000 28.600000 8.360000 198 110 104 0
27.940000 28.600000 9.680000 198 110 104 0
28.160000 28.600000 9.900000 196 111 104 0
28.380000 28.600000 9.900000 198 113 106 0
28.600000 28.600000 9.900000 199 114 107 0
28.820000 28.600000 9.900000 200 115 108 0
29.040000 28.600000 10.120000 201 116 109 0
29.260000 28.600000 10.120000 200 115 108 0
29.480000 28.600000 10.120000 200 112 106 0
29.700000 28.600000 10.340000 199 111 105 0
29.920000 28.600000 9.240000 197 109 103 0
30.140000 28.600000 9.460000 197 109 103 0
30.360000 28.600000 9.460000 196 108 102 0
30.580000 28.600000 9.460000 197 109 103 0
30.800000 28.600000 9.460000 197 109 103 0
31.020000 28.600000 9.680000 200 112 106 0
31.240000 28.600000 9.680000 201 117 110 0
31.460000 28.600000 10.780000 206 122 115 0
31.680000 28.600000 11.440000 205 124 115 0
31.900000 28.600000 12.540000 207 126 117 0
32.120000 28.600000 12.540000 209 128 120 0
