ply
format ascii 1.0
element vertex 1119
property float x
property float y
property float z
property uchar red
property uchar green
property uchar blue
property uchar alpha
end_header
32.780000 1.980000 17.380000 198 224 236 0
33.000000 1.980000 18.700000 200 226 238 0
33.220000 1.980000 18.920000 193 230 236 0
33.440000 1.980000 18.920000 197 234 240 0
33.660000 1.980000 18.920000 200 237 240 0
33.880000 1.980000 18.920000 202 239 242 0
34.100000 1.980000 18.920000 219 237 236 0
34.320000 1.980000 18.920000 222 240 239 0
34.540000 1.980000 20.240000 237 238 237 0
34.760000 1.980000 20.240000 239 240 239 0
34.980000 1.980000 21.780000 239 240 239 0
35.200000 1.980000 23.100000 240 241 240 0
35.420000 1.980000 24.640000 240 241 240 0
35.640000 1.980000 24.640000 240 241 240 0
35.860000 1.980000 24.640000 240 241 240 0
36.080000 1.980000 24.420000 240 241 240 0
36.300000 1.980000 21.780000 240 241 240 0
36.520000 1.980000 18.920000 240 241 240 0
36.740000 1.980000 24.420000 240 241 240 0
36.960000 1.980000 27.280000 240 241 240 0
37.180000 1.980000 24.420000 240 241 240 0
0.000000 2.200000 11.440000 222 243 244 0
0.220000 2.200000 11.440000 222 243 244 0
0.440000 2.200000 11.660000 222 243 244 0
0.660000 2.200000 11.660000 220 243 244 0
0.880000 2.200000 11.660000 218 241 242 0
1.100000 2.200000 11.660000 217 242 244 0
1.320000 2.200000 11.660000 215 240 242 0
1.540000 2.200000 11.880000 209 238 241 0
1.760000 2.200000 10.340000 207 236 239 0
1.980000 2.200000 10.560000 201 224 237 0
2.200000 2.200000 11.880000 194 217 230 0
2.420000 2.200000 12.100000 187 214 228 0
2.640000 2.200000 13.420000 186 213 227 0
2.860000 2.200000 13.420000 186 212 224 0
3.080000 2.200000 14.740000 190 216 228 0
3.300000 2.200000 16.060000 194 221 233 0
3.520000 2.200000 16.060000 198 225 237 0
3.740000 2.200000 16.060000 199 227 236 0
3.960000 2.200000 16.060000 201 229 238 0
4.180000 2.200000 16.060000 202 230 239 0
4.400000 2.200000 17.380000 202 230 239 0
4.620000 2.200000 17.600000 202 229 241 0
4.840000 2.200000 17.600000 201 228 240 0
5.060000 2.200000 16.280000 200 227 239 0
5.280000 2.200000 16.280000 201 228 240 0
5.500000 2.200000 16.280000 199 226 238 0
5.720000 2.200000 16.280000 198 225 237 0
5.940000 2.200000 16.060000 198 224 236 0
6.160000 2.200000 17.600000 198 224 236 0
6.380000 2.200000 17.600000 196 222 234 0
6.600000 2.200000 17.600000 196 222 234 0
6.820000 2.200000 17.380000 197 220 231 0
7.040000 2.200000 17.380000 196 219 230 0
7.260000 2.200000 17.380000 196 218 229 0
7.480000 2.200000 17.380000 196 218 229 0
7.700000 2.200000 17.600000 192 218 230 0
7.920000 2.200000 17.600000 193 219 231 0
8.140000 2.200000 17.600000 189 220 233 0
8.360000 2.200000 17.600000 189 220 233 0
8.580000 2.200000 17.600000 190 219 232 0
8.800000 2.200000 18.920000 192 221 234 0
9.020000 2.200000 18.920000 188 224 235 0
9.240000 2.200000 18.920000 190 226 237 0
9.460000 2.200000 19.140000 189 227 237 0
9.680000 2.200000 19.140000 190 228 238 0
9.900000 2.200000 19.140000 189 231 240 0
10.120000 2.200000 18.920000 188 230 239 0
10.340000 2.200000 18.920000 186 233 238 0
10.560000 2.200000 18.920000 187 234 239 0
10.780000 2.200000 18.920000 187 236 238 0
11.000000 2.200000 18.920000 187 236 238 0
11.220000 2.200000 18.920000 187 235 240 0
11.440000 2.200000 20.240000 188 236 241 0
11.660000 2.200000 20.240000 188 236 241 0
11.880000 2.200000 20.240000 189 237 242 0
12.100000 2.200000 20.240000 189 240 241 0
12.320000 2.200000 20.240000 189 240 241 0
12.540000 2.200000 20.240000 190 241 240 0
12.760000 2.200000 20.240000 189 240 239 0
12.980000 2.200000 20.240000 189 240 241 0
13.200000 2.200000 20.460000 190 241 242 0
13.420000 2.200000 18.920000 190 239 241 0
13.640000 2.200000 18.920000 191 240 242 0
13.860000 2.200000 18.920000 191 240 240 0
14.080000 2.200000 20.460000 190 239 239 0
14.300000 2.200000 20.460000 189 240 239 0
14.520000 2.200000 19.140000 188 239 238 0
14.740000 2.200000 19.140000 188 242 240 0
14.960000 2.200000 19.140000 187 241 239 0
15.180000 2.200000 19.140000 191 240 240 0
15.400000 2.200000 20.460000 191 240 240 0
15.620000 2.200000 20.460000 193 240 241 0
15.840000 2.200000 20.460000 194 241 242 0
16.060000 2.200000 20.460000 192 243 242 0
16.280000 2.200000 20.460000 191 242 241 0
16.500000 2.200000 20.240000 192 243 242 0
16.720000 2.200000 20.460000 192 243 242 0
16.940000 2.200000 20.460000 194 243 243 0
17.160000 2.200000 20.460000 193 242 242 0
17.380000 2.200000 20.460000 195 242 243 0
17.600000 2.200000 20.240000 195 242 243 0
17.820000 2.200000 20.460000 195 244 244 0
18.040000 2.200000 20.460000 195 244 244 0
18.260000 2.200000 20.460000 194 245 244 0
18.480000 2.200000 19.140000 194 245 244 0
18.700000 2.200000 19.140000 200 245 245 0
18.920000 2.200000 19.140000 201 246 246 0
19.140000 2.200000 20.460000 204 245 244 0
19.360000 2.200000 20.460000 204 245 244 0
19.580000 2.200000 20.460000 208 243 242 0
19.800000 2.200000 20.460000 208 243 242 0
20.020000 2.200000 20.460000 212 243 243 0
20.240000 2.200000 20.460000 212 243 243 0
20.460000 2.200000 21.780000 213 244 244 0
20.680000 2.200000 21.780000 214 245 245 0
20.900000 2.200000 21.780000 214 245 245 0
21.120000 2.200000 21.780000 213 244 244 0
21.340000 2.200000 21.780000 215 244 243 0
21.560000 2.200000 21.780000 216 245 244 0
21.780000 2.200000 21.780000 219 244 244 0
22.000000 2.200000 20.460000 220 245 245 0
22.220000 2.200000 20.460000 223 244 244 0
22.440000 2.200000 20.460000 224 245 245 0
22.660000 2.200000 20.460000 226 244 243 0
22.880000 2.200000 20.460000 226 244 243 0
23.100000 2.200000 20.240000 233 241 239 0
23.320000 2.200000 20.240000 234 242 240 0
23.540000 2.200000 18.920000 234 242 240 0
23.760000 2.200000 19.140000 234 242 240 0
23.980000 2.200000 17.600000 234 242 240 0
24.200000 2.200000 17.600000 234 242 240 0
24.420000 2.200000 16.280000 234 242 240 0
24.640000 2.200000 16.500000 234 242 240 0
24.860000 2.200000 14.960000 234 242 240 0
25.080000 2.200000 14.960000 234 242 240 0
25.300000 2.200000 16.280000 229 244 244 0
25.520000 2.200000 17.380000 228 243 243 0
25.740000 2.200000 18.480000 217 245 244 0
25.960000 2.200000 18.260000 216 244 243 0
26.180000 2.200000 18.480000 209 242 244 0
26.400000 2.200000 17.160000 207 240 242 0
26.620000 2.200000 18.480000 202 239 242 0
26.840000 2.200000 18.480000 200 237 240 0
27.060000 2.200000 17.380000 201 238 241 0
27.280000 2.200000 16.060000 201 238 241 0
27.500000 2.200000 14.740000 204 238 243 0
27.720000 2.200000 14.740000 202 236 241 0
27.940000 2.200000 14.740000 203 235 241 0
28.160000 2.200000 14.740000 202 234 240 0
28.380000 2.200000 16.060000 202 234 242 0
28.600000 2.200000 16.060000 201 233 241 0
28.820000 2.200000 16.060000 203 231 240 0
29.040000 2.200000 17.600000 202 230 239 0
29.260000 2.200000 17.600000 201 230 241 0
29.480000 2.200000 17.600000 200 229 240 0
29.700000 2.200000 17.600000 199 228 239 0
29.920000 2.200000 17.600000 199 228 239 0
30.140000 2.200000 16.060000 200 227 241 0
30.360000 2.200000 17.380000 199 226 240 0
30.580000 2.200000 17.380000 199 226 240 0
30.800000 2.200000 17.380000 198 225 239 0
31.020000 2.200000 17.380000 197 224 238 0
31.240000 2.200000 18.920000 197 224 238 0
31.460000 2.200000 18.700000 198 225 239 0
31.680000 2.200000 18.700000 197 224 238 0
31.900000 2.200000 18.700000 198 223 238 0
32.120000 2.200000 18.700000 197 222 237 0
32.340000 2.200000 17.380000 197 224 238 0
32.560000 2.200000 17.380000 197 224 238 0
32.780000 2.200000 17.380000 196 225 238 0
33.000000 2.200000 18.920000 197 226 239 0
33.220000 2.200000 18.920000 191 231 238 0
33.440000 2.200000 18.920000 195 235 242 0
33.660000 2.200000 18.920000 194 238 242 0
33.880000 2.200000 18.920000 197 241 245 0
34.100000 2.200000 18.920000 217 238 236 0
34.320000 2.200000 18.920000 220 241 239 0
34.540000 2.200000 20.240000 235 239 237 0
34.760000 2.200000 20.240000 237 241 239 0
34.980000 2.200000 21.780000 239 240 239 0
35.200000 2.200000 23.100000 240 241 240 0
35.420000 2.200000 24.640000 240 241 240 0
35.640000 2.200000 24.640000 240 241 240 0
35.860000 2.200000 24.640000 238 242 240 0
36.080000 2.200000 24.420000 238 242 240 0
36.300000 2.200000 20.240000 240 241 240 0
36.520000 2.200000 13.420000 240 241 240 0
36.740000 2.200000 17.600000 240 241 240 0
36.960000 2.200000 24.420000 240 241 240 0
37.180000 2.200000 24.420000 240 241 240 0
0.000000 2.420000 11.440000 220 241 242 0
0.220000 2.420000 11.660000 220 241 242 0
0.440000 2.420000 11.660000 219 240 241 0
0.660000 2.420000 11.660000 217 240 241 0
0.880000 2.420000 11.660000 217 240 241 0
1.100000 2.420000 11.660000 214 239 241 0
1.320000 2.420000 11.880000 213 238 240 0
1.540000 2.420000 11.880000 208 237 240 0
1.760000 2.420000 11.880000 208 237 240 0
1.980000 2.420000 10.560000 202 225 238 0
2.200000 2.420000 12.100000 196 219 232 0
2.420000 2.420000 12.100000 188 215 229 0
2.640000 2.420000 13.420000 185 212 226 0
2.860000 2.420000 13.420000 187 213 225 0
3.080000 2.420000 14.960000 189 215 227 0
3.300000 2.420000 16.280000 194 221 233 0
3.520000 2.420000 16.060000 196 223 235 0
3.740000 2.420000 16.060000 200 228 237 0
3.960000 2.420000 16.060000 200 228 237 0
4.180000 2.420000 16.060000 201 229 238 0
4.400000 2.420000 17.600000 200 228 237 0
4.620000 2.420000 17.600000 201 228 240 0
4.840000 2.420000 17.600000 199 226 238 0
5.060000 2.420000 16.280000 199 226 238 0
5.280000 2.420000 16.280000 198 225 237 0
5.500000 2.420000 16.280000 198 225 237 0
5.720000 2.420000 16.280000 197 224 236 0
5.940000 2.420000 16.280000 197 223 235 0
6.160000 2.420000 16.280000 196 222 234 0
6.380000 2.420000 17.600000 195 221 233 0
6.600000 2.420000 17.600000 194 220 232 0
6.820000 2.420000 17.380000 195 218 229 0
7.040000 2.420000 17.380000 194 217 228 0
7.260000 2.420000 17.380000 195 217 228 0
7.480000 2.420000 17.380000 194 216 227 0
7.700000 2.420000 17.600000 190 216 228 0
7.920000 2.420000 17.600000 191 217 229 0
8.140000 2.420000 17.600000 187 218 231 0
8.360000 2.420000 17.600000 189 220 233 0
8.580000 2.420000 17.600000 191 220 233 0
8.800000 2.420000 17.600000 193 222 235 0
9.020000 2.420000 17.600000 189 225 236 0
9.240000 2.420000 17.600000 190 226 237 0
9.460000 2.420000 17.820000 189 227 237 0
9.680000 2.420000 17.820000 190 228 238 0
9.900000 2.420000 18.920000 188 230 239 0
10.120000 2.420000 18.920000 189 231 240 0
10.340000 2.420000 18.920000 185 232 237 0
10.560000 2.420000 18.920000 185 232 237 0
10.780000 2.420000 18.920000 186 235 237 0
11.000000 2.420000 18.920000 187 236 238 0
11.220000 2.420000 18.920000 185 233 238 0
11.440000 2.420000 20.240000 186 234 239 0
11.660000 2.420000 20.240000 187 235 240 0
11.880000 2.420000 20.240000 188 236 241 0
12.100000 2.420000 20.240000 188 239 240 0
12.320000 2.420000 20.240000 189 240 241 0
12.540000 2.420000 20.240000 188 239 238 0
12.760000 2.420000 20.240000 188 239 238 0
12.980000 2.420000 20.240000 187 238 239 0
13.200000 2.420000 20.240000 188 239 240 0
13.420000 2.420000 18.920000 189 238 240 0
13.640000 2.420000 18.920000 189 238 240 0
13.860000 2.420000 18.920000 189 238 238 0
14.080000 2.420000 18.920000 190 239 239 0
14.300000 2.420000 20.460000 188 239 238 0
14.520000 2.420000 19.140000 189 240 239 0
14.740000 2.420000 19.140000 188 242 240 0
14.960000 2.420000 19.140000 188 242 240 0
15.180000 2.420000 19.140000 190 239 239 0
15.400000 2.420000 20.460000 191 240 240 0
15.620000 2.420000 20.460000 191 238 239 0
15.840000 2.420000 20.460000 191 238 239 0
16.060000 2.420000 20.460000 189 240 239 0
16.280000 2.420000 20.240000 190 241 240 0
16.500000 2.420000 20.240000 189 240 239 0
16.720000 2.420000 20.240000 189 240 239 0
16.940000 2.420000 20.460000 190 239 239 0
17.160000 2.420000 20.460000 191 240 240 0
17.380000 2.420000 20.240000 193 240 241 0
17.600000 2.420000 20.240000 193 240 241 0
17.820000 2.420000 20.460000 192 241 241 0
18.040000 2.420000 21.780000 191 240 240 0
18.260000 2.420000 20.460000 190 241 240 0
18.480000 2.420000 20.460000 189 240 239 0
18.700000 2.420000 19.140000 194 239 239 0
18.920000 2.420000 20.460000 195 240 240 0
19.140000 2.420000 20.460000 199 240 239 0
19.360000 2.420000 20.460000 200 241 240 0
19.580000 2.420000 20.460000 205 240 239 0
19.800000 2.420000 20.460000 205 240 239 0
20.020000 2.420000 20.460000 209 240 240 0
20.240000 2.420000 20.460000 209 240 240 0
20.460000 2.420000 21.780000 209 240 240 0
20.680000 2.420000 21.780000 210 241 241 0
20.900000 2.420000 21.780000 210 241 241 0
21.120000 2.420000 20.460000 210 241 241 0
21.340000 2.420000 20.460000 211 240 239 0
21.560000 2.420000 21.780000 212 241 240 0
21.780000 2.420000 21.780000 215 240 240 0
22.000000 2.420000 20.460000 215 240 240 0
22.220000 2.420000 20.460000 220 241 241 0
22.440000 2.420000 20.460000 220 241 241 0
22.660000 2.420000 20.460000 222 240 239 0
22.880000 2.420000 18.920000 223 241 240 0
23.100000 2.420000 18.920000 231 239 237 0
23.320000 2.420000 18.920000 232 240 238 0
23.540000 2.420000 18.920000 231 239 237 0
23.760000 2.420000 17.600000 232 240 238 0
23.980000 2.420000 17.600000 232 240 238 0
24.200000 2.420000 16.280000 232 240 238 0
24.420000 2.420000 16.280000 233 241 239 0
24.640000 2.420000 14.960000 232 240 238 0
24.860000 2.420000 15.180000 232 240 238 0
25.080000 2.420000 14.960000 232 240 238 0
25.300000 2.420000 16.280000 227 242 242 0
25.520000 2.420000 16.280000 225 240 240 0
25.740000 2.420000 17.380000 215 243 242 0
25.960000 2.420000 18.260000 214 242 241 0
26.180000 2.420000 18.260000 208 241 243 0
26.400000 2.420000 18.480000 206 239 241 0
26.620000 2.420000 18.480000 201 238 241 0
26.840000 2.420000 18.480000 200 237 240 0
27.060000 2.420000 17.160000 200 237 240 0
27.280000 2.420000 16.060000 200 237 240 0
27.500000 2.420000 14.740000 202 236 241 0
27.720000 2.420000 14.740000 201 235 240 0
27.940000 2.420000 14.740000 202 234 240 0
28.160000 2.420000 14.740000 201 233 239 0
28.380000 2.420000 16.060000 200 232 240 0
28.600000 2.420000 16.060000 200 232 240 0
28.820000 2.420000 16.060000 202 230 239 0
29.040000 2.420000 16.060000 202 230 239 0
29.260000 2.420000 17.600000 200 229 240 0
29.480000 2.420000 17.600000 200 229 240 0
29.700000 2.420000 17.600000 199 228 239 0
29.920000 2.420000 16.060000 198 227 238 0
30.140000 2.420000 16.060000 199 226 240 0
30.360000 2.420000 17.600000 198 225 239 0
30.580000 2.420000 17.380000 198 225 239 0
30.800000 2.420000 17.380000 197 224 238 0
31.020000 2.420000 17.380000 197 224 238 0
31.240000 2.420000 18.920000 196 223 237 0
31.460000 2.420000 18.920000 196 223 237 0
31.680000 2.420000 18.700000 196 223 237 0
31.900000 2.420000 18.700000 198 223 238 0
32.120000 2.420000 18.700000 196 221 236 0
32.340000 2.420000 17.380000 196 223 237 0
32.560000 2.420000 17.380000 196 223 237 0
32.780000 2.420000 17.380000 195 224 237 0
33.000000 2.420000 18.920000 196 225 238 0
33.220000 2.420000 18.920000 191 231 238 0
33.440000 2.420000 18.920000 193 233 240 0
33.660000 2.420000 18.920000 192 236 240 0
33.880000 2.420000 18.920000 195 239 243 0
34.100000 2.420000 18.920000 216 237 235 0
34.320000 2.420000 18.920000 219 240 238 0
34.540000 2.420000 18.920000 234 238 236 0
34.760000 2.420000 20.240000 237 241 239 0
34.980000 2.420000 21.780000 239 240 239 0
35.200000 2.420000 23.100000 240 241 240 0
35.420000 2.420000 24.640000 240 241 240 0
35.640000 2.420000 24.640000 240 241 240 0
35.860000 2.420000 24.640000 238 242 240 0
36.080000 2.420000 24.420000 238 242 240 0
36.300000 2.420000 18.920000 240 241 240 0
36.520000 2.420000 12.100000 240 241 240 0
36.740000 2.420000 12.100000 240 241 240 0
36.960000 2.420000 18.920000 240 241 240 0
37.180000 2.420000 20.460000 240 241 240 0
0.000000 2.640000 10.120000 217 240 241 0
0.220000 2.640000 10.120000 219 240 241 0
0.440000 2.640000 11.660000 218 239 240 0
0.660000 2.640000 11.660000 216 239 240 0
0.880000 2.640000 11.660000 216 239 240 0
1.100000 2.640000 11.660000 215 240 242 0
1.320000 2.640000 11.880000 214 239 241 0
1.540000 2.640000 11.880000 210 237 241 0
1.760000 2.640000 11.880000 209 236 240 0
1.980000 2.640000 12.100000 205 227 238 0
2.200000 2.640000 12.100000 198 220 231 0
2.420000 2.640000 12.100000 194 213 225 0
2.640000 2.640000 13.420000 192 211 223 0
2.860000 2.640000 13.420000 191 212 226 0
3.080000 2.640000 14.960000 193 214 228 0
3.300000 2.640000 14.960000 195 221 233 0
3.520000 2.640000 14.960000 197 223 235 0
3.740000 2.640000 14.740000 200 226 238 0
3.960000 2.640000 14.740000 200 226 238 0
4.180000 2.640000 16.060000 201 227 237 0
4.400000 2.640000 16.060000 200 226 236 0
4.620000 2.640000 17.600000 200 226 236 0
4.840000 2.640000 16.280000 200 226 236 0
5.060000 2.640000 16.280000 198 225 237 0
5.280000 2.640000 14.960000 197 224 236 0
5.500000 2.640000 14.960000 196 223 237 0
5.720000 2.640000 14.960000 195 222 236 0
5.940000 2.640000 16.280000 198 221 234 0
6.160000 2.640000 16.280000 197 220 233 0
6.380000 2.640000 16.280000 201 218 229 0
6.600000 2.640000 16.060000 199 216 227 0
6.820000 2.640000 17.600000 199 215 225 0
7.040000 2.640000 17.600000 198 214 224 0
7.260000 2.640000 17.600000 196 213 226 0
7.480000 2.640000 17.600000 196 213 226 0
7.700000 2.640000 17.600000 192 215 228 0
7.920000 2.640000 17.600000 193 216 229 0
8.140000 2.640000 17.600000 189 220 233 0
8.360000 2.640000 17.600000 190 221 234 0
8.580000 2.640000 17.600000 194 223 236 0
8.800000 2.640000 17.600000 194 223 236 0
9.020000 2.640000 17.600000 195 224 237 0
9.240000 2.640000 17.820000 196 225 238 0
9.460000 2.640000 17.820000 193 224 237 0
9.680000 2.640000 18.920000 194 225 238 0
9.900000 2.640000 18.480000 194 227 239 0
10.120000 2.640000 18.480000 195 228 240 0
10.340000 2.640000 18.700000 192 230 240 0
10.560000 2.640000 18.700000 191 229 239 0
10.780000 2.640000 18.700000 189 233 239 0
11.000000 2.640000 18.920000 189 233 239 0
11.220000 2.640000 18.920000 193 233 240 0
11.440000 2.640000 18.920000 192 232 239 0
11.660000 2.640000 18.700000 193 232 242 0
11.880000 2.640000 20.240000 194 233 243 0
12.100000 2.640000 20.240000 191 235 241 0
12.320000 2.640000 20.240000 191 235 241 0
12.540000 2.640000 20.240000 190 237 240 0
12.760000 2.640000 20.240000 190 237 240 0
12.980000 2.640000 20.240000 193 237 241 0
13.200000 2.640000 20.240000 193 237 241 0
13.420000 2.640000 18.920000 192 236 242 0
13.640000 2.640000 18.920000 193 237 243 0
13.860000 2.640000 18.920000 190 238 243 0
14.080000 2.640000 19.140000 190 238 243 0
14.300000 2.640000 20.460000 190 239 241 0
14.520000 2.640000 19.140000 190 239 241 0
14.740000 2.640000 19.140000 191 238 241 0
14.960000 2.640000 19.140000 190 237 240 0
15.180000 2.640000 20.460000 190 237 240 0
15.400000 2.640000 20.460000 191 238 241 0
15.620000 2.640000 20.460000 191 240 242 0
15.840000 2.640000 20.460000 191 240 242 0
16.060000 2.640000 20.460000 192 239 240 0
16.280000 2.640000 20.240000 192 239 240 0
16.500000 2.640000 20.240000 190 241 242 0
16.720000 2.640000 20.240000 189 240 241 0
16.940000 2.640000 20.240000 190 241 242 0
17.160000 2.640000 20.240000 190 241 242 0
17.380000 2.640000 20.240000 190 241 240 0
17.600000 2.640000 20.240000 190 241 240 0
17.820000 2.640000 20.460000 190 239 239 0
18.040000 2.640000 21.780000 190 239 239 0
18.260000 2.640000 20.460000 190 241 240 0
18.480000 2.640000 20.460000 189 240 239 0
18.700000 2.640000 20.460000 191 240 240 0
18.920000 2.640000 20.460000 190 239 239 0
19.140000 2.640000 20.460000 192 241 241 0
19.360000 2.640000 20.460000 192 241 241 0
19.580000 2.640000 20.460000 193 241 240 0
19.800000 2.640000 20.460000 194 242 241 0
20.020000 2.640000 20.460000 192 243 242 0
20.240000 2.640000 20.460000 192 243 242 0
20.460000 2.640000 21.780000 188 241 242 0
20.680000 2.640000 21.780000 189 242 243 0
20.900000 2.640000 22.000000 192 243 242 0
21.120000 2.640000 20.460000 194 245 244 0
21.340000 2.640000 20.460000 198 243 243 0
21.560000 2.640000 21.780000 199 244 244 0
21.780000 2.640000 21.780000 195 246 245 0
22.000000 2.640000 21.780000 195 246 245 0
22.220000 2.640000 20.460000 204 243 243 0
22.440000 2.640000 20.460000 205 244 244 0
22.660000 2.640000 20.460000 208 243 242 0
22.880000 2.640000 19.140000 208 243 242 0
23.100000 2.640000 19.140000 211 244 244 0
23.320000 2.640000 18.920000 211 244 244 0
23.540000 2.640000 17.600000 213 244 244 0
23.760000 2.640000 17.600000 213 244 244 0
23.980000 2.640000 16.280000 214 245 245 0
24.200000 2.640000 16.280000 214 245 245 0
24.420000 2.640000 14.960000 214 245 245 0
24.640000 2.640000 14.960000 214 245 245 0
24.860000 2.640000 14.960000 215 244 245 0
25.080000 2.640000 16.280000 215 244 245 0
25.300000 2.640000 14.960000 215 244 245 0
25.520000 2.640000 16.280000 214 243 244 0
25.740000 2.640000 17.160000 210 245 246 0
25.960000 2.640000 18.260000 208 243 244 0
26.180000 2.640000 18.260000 205 243 243 0
26.400000 2.640000 18.480000 203 241 241 0
26.620000 2.640000 18.480000 204 238 242 0
26.840000 2.640000 18.480000 202 236 240 0
27.060000 2.640000 17.160000 202 236 240 0
27.280000 2.640000 16.060000 202 236 240 0
27.500000 2.640000 14.520000 203 235 241 0
27.720000 2.640000 14.740000 202 234 240 0
27.940000 2.640000 14.740000 204 233 242 0
28.160000 2.640000 14.740000 202 231 240 0
28.380000 2.640000 16.060000 203 231 240 0
28.600000 2.640000 16.060000 203 231 240 0
28.820000 2.640000 16.060000 202 229 241 0
29.040000 2.640000 16.060000 201 228 240 0
29.260000 2.640000 17.600000 201 228 240 0
29.480000 2.640000 17.600000 200 227 239 0
29.700000 2.640000 17.600000 199 226 240 0
29.920000 2.640000 16.060000 199 226 240 0
30.140000 2.640000 16.060000 198 225 239 0
30.360000 2.640000 17.600000 197 224 238 0
30.580000 2.640000 17.600000 198 223 238 0
30.800000 2.640000 17.380000 197 222 237 0
31.020000 2.640000 17.380000 197 222 237 0
31.240000 2.640000 18.920000 197 222 237 0
31.460000 2.640000 18.920000 197 222 237 0
31.680000 2.640000 18.920000 197 222 237 0
31.900000 2.640000 18.700000 195 222 236 0
32.120000 2.640000 18.700000 195 222 236 0
32.340000 2.640000 17.380000 197 222 237 0
32.560000 2.640000 17.380000 197 222 237 0
32.780000 2.640000 17.380000 196 223 237 0
33.000000 2.640000 18.920000 196 223 237 0
33.220000 2.640000 18.920000 194 227 237 0
33.440000 2.640000 18.920000 197 230 240 0
33.660000 2.640000 18.920000 196 235 235 0
33.880000 2.640000 18.920000 200 239 239 0
34.100000 2.640000 18.920000 213 238 237 0
34.320000 2.640000 18.920000 217 242 241 0
34.540000 2.640000 18.920000 233 237 235 0
34.760000 2.640000 20.240000 236 240 238 0
34.980000 2.640000 21.780000 239 240 239 0
35.200000 2.640000 23.100000 240 241 240 0
35.420000 2.640000 23.320000 240 241 240 0
35.640000 2.640000 23.100000 240 241 240 0
35.860000 2.640000 24.640000 238 242 240 0
36.080000 2.640000 24.420000 238 242 240 0
36.300000 2.640000 18.920000 240 241 240 0
36.520000 2.640000 10.560000 240 241 240 0
36.740000 2.640000 7.920000 240 241 240 0
36.960000 2.640000 9.240000 240 241 240 0
37.180000 2.640000 10.780000 240 241 240 0
0.000000 2.860000 10.120000 215 238 239 0
0.220000 2.860000 10.120000 218 239 240 0
0.440000 2.860000 10.340000 218 239 240 0
0.660000 2.860000 10.340000 215 238 239 0
0.880000 2.860000 11.660000 215 238 239 0
1.100000 2.860000 11.880000 214 239 241 0
1.320000 2.860000 11.880000 213 238 240 0
1.540000 2.860000 11.880000 210 237 241 0
1.760000 2.860000 11.880000 208 235 239 0
1.980000 2.860000 12.100000 206 228 239 0
2.200000 2.860000 12.100000 198 220 231 0
2.420000 2.860000 12.100000 196 215 227 0
2.640000 2.860000 13.420000 193 212 224 0
2.860000 2.860000 13.640000 190 211 225 0
3.080000 2.860000 14.960000 192 213 227 0
3.300000 2.860000 14.960000 195 221 233 0
3.520000 2.860000 14.960000 197 223 235 0
3.740000 2.860000 14.960000 199 225 237 0
3.960000 2.860000 14.960000 199 225 237 0
4.180000 2.860000 14.740000 199 225 235 0
4.400000 2.860000 16.060000 200 226 236 0
4.620000 2.860000 17.600000 200 226 236 0
4.840000 2.860000 16.280000 199 225 235 0
5.060000 2.860000 16.280000 197 224 236 0
5.280000 2.860000 14.960000 197 224 236 0
5.500000 2.860000 14.960000 196 223 237 0
5.720000 2.860000 14.960000 195 222 236 0
5.940000 2.860000 14.740000 196 219 232 0
6.160000 2.860000 14.740000 195 218 231 0
6.380000 2.860000 16.280000 197 214 225 0
6.600000 2.860000 16.280000 197 214 225 0
6.820000 2.860000 16.060000 197 213 223 0
7.040000 2.860000 16.060000 198 214 224 0
7.260000 2.860000 16.060000 196 213 226 0
7.480000 2.860000 16.060000 196 213 226 0
7.700000 2.860000 16.280000 192 215 228 0
7.920000 2.860000 16.280000 194 217 230 0
8.140000 2.860000 16.280000 190 221 234 0
8.360000 2.860000 16.280000 189 220 233 0
8.580000 2.860000 16.280000 193 222 235 0
8.800000 2.860000 16.280000 194 223 236 0
9.020000 2.860000 16.280000 194 223 236 0
9.240000 2.860000 16.500000 194 223 236 0
9.460000 2.860000 17.600000 193 224 237 0
9.680000 2.860000 18.480000 193 224 237 0
9.900000 2.860000 19.800000 192 225 237 0
10.120000 2.860000 18.480000 195 228 240 0
10.340000 2.860000 18.700000 191 229 239 0
10.560000 2.860000 18.700000 191 229 239 0
10.780000 2.860000 18.700000 186 230 236 0
11.000000 2.860000 18.700000 189 233 239 0
11.220000 2.860000 18.700000 192 232 239 0
11.440000 2.860000 18.700000 192 232 239 0
11.660000 2.860000 18.700000 193 232 242 0
11.880000 2.860000 18.700000 192 231 241 0
12.100000 2.860000 20.240000 190 234 240 0
12.320000 2.860000 20.240000 190 234 240 0
12.540000 2.860000 20.240000 188 235 238 0
12.760000 2.860000 20.240000 189 236 239 0
12.980000 2.860000 20.240000 192 236 240 0
13.200000 2.860000 20.240000 191 235 239 0
13.420000 2.860000 18.920000 191 235 241 0
13.640000 2.860000 18.920000 192 236 242 0
13.860000 2.860000 18.920000 189 237 242 0
14.080000 2.860000 19.140000 189 237 242 0
14.300000 2.860000 20.460000 190 239 241 0
14.520000 2.860000 20.460000 189 238 240 0
14.740000 2.860000 19.140000 190 237 240 0
14.960000 2.860000 19.140000 190 237 240 0
15.180000 2.860000 20.460000 190 237 240 0
15.400000 2.860000 20.460000 190 237 240 0
15.620000 2.860000 20.460000 190 239 241 0
15.840000 2.860000 20.460000 190 239 241 0
16.060000 2.860000 20.460000 191 238 239 0
16.280000 2.860000 20.240000 190 237 238 0
16.500000 2.860000 20.240000 189 240 241 0
16.720000 2.860000 20.240000 188 239 240 0
16.940000 2.860000 20.240000 188 239 240 0
17.160000 2.860000 20.240000 189 240 241 0
17.380000 2.860000 20.240000 189 240 239 0
17.600000 2.860000 20.240000 188 239 238 0
17.820000 2.860000 20.460000 189 238 238 0
18.040000 2.860000 21.780000 190 239 239 0
18.260000 2.860000 20.460000 188 239 238 0
18.480000 2.860000 20.460000 188 239 238 0
18.700000 2.860000 20.460000 191 240 240 0
18.920000 2.860000 20.460000 190 239 239 0
19.140000 2.860000 20.460000 191 240 240 0
19.360000 2.860000 20.460000 191 240 240 0
19.580000 2.860000 20.460000 192 240 239 0
19.800000 2.860000 20.460000 192 240 239 0
20.020000 2.860000 20.460000 191 242 241 0
20.240000 2.860000 20.460000 189 240 239 0
20.460000 2.860000 21.780000 184 237 238 0
20.680000 2.860000 22.000000 185 238 239 0
20.900000 2.860000 22.000000 187 238 237 0
21.120000 2.860000 20.680000 189 240 239 0
21.340000 2.860000 20.460000 194 239 239 0
21.560000 2.860000 21.780000 195 240 240 0
21.780000 2.860000 21.780000 191 242 241 0
22.000000 2.860000 21.780000 190 241 240 0
22.220000 2.860000 21.780000 200 239 239 0
22.440000 2.860000 20.460000 200 239 239 0
22.660000 2.860000 20.460000 204 239 238 0
22.880000 2.860000 19.140000 204 239 238 0
23.100000 2.860000 17.600000 205 238 238 0
23.320000 2.860000 17.600000 207 240 240 0
23.540000 2.860000 17.600000 209 240 240 0
23.760000 2.860000 16.280000 209 240 240 0
23.980000 2.860000 14.960000 209 240 240 0
24.200000 2.860000 14.960000 210 241 241 0
24.420000 2.860000 14.960000 210 241 241 0
24.640000 2.860000 14.960000 211 242 242 0
24.860000 2.860000 17.160000 212 241 242 0
25.080000 2.860000 17.160000 212 241 242 0
25.300000 2.860000 17.380000 212 241 242 0
25.520000 2.860000 17.380000 212 241 242 0
25.740000 2.860000 18.260000 207 242 243 0
25.960000 2.860000 19.580000 205 240 241 0
26.180000 2.860000 18.260000 203 241 241 0
26.400000 2.860000 18.480000 201 239 239 0
26.620000 2.860000 18.480000 203 237 241 0
26.840000 2.860000 18.480000 201 235 239 0
27.060000 2.860000 17.160000 201 235 239 0
27.280000 2.860000 16.060000 201 235 239 0
27.500000 2.860000 16.060000 202 234 240 0
27.720000 2.860000 14.740000 202 234 240 0
27.940000 2.860000 14.740000 203 232 241 0
28.160000 2.860000 16.060000 202 231 240 0
28.380000 2.860000 16.060000 203 231 240 0
28.600000 2.860000 16.060000 202 230 239 0
28.820000 2.860000 16.060000 201 228 240 0
29.040000 2.860000 16.060000 200 227 239 0
29.260000 2.860000 16.060000 200 227 239 0
29.480000 2.860000 17.600000 199 226 238 0
29.700000 2.860000 17.600000 199 226 240 0
29.920000 2.860000 16.060000 198 225 239 0
30.140000 2.860000 16.060000 199 226 240 0
30.360000 2.860000 17.600000 197 224 238 0
30.580000 2.860000 17.600000 198 223 238 0
30.800000 2.860000 17.600000 196 221 236 0
31.020000 2.860000 17.600000 196 221 236 0
31.240000 2.860000 18.920000 196 221 236 0
31.460000 2.860000 18.920000 195 220 235 0
31.680000 2.860000 18.920000 196 221 236 0
31.900000 2.860000 18.700000 195 222 236 0
32.120000 2.860000 18.700000 195 222 236 0
32.340000 2.860000 17.380000 196 221 236 0
32.560000 2.860000 17.380000 197 222 237 0
32.780000 2.860000 17.380000 196 223 237 0
33.000000 2.860000 18.920000 196 223 237 0
33.220000 2.860000 18.920000 194 227 237 0
33.440000 2.860000 18.920000 197 230 240 0
33.660000 2.860000 18.920000 196 235 235 0
33.880000 2.860000 18.920000 200 239 239 0
34.100000 2.860000 18.920000 212 237 236 0
34.320000 2.860000 18.920000 215 240 239 0
34.540000 2.860000 18.920000 233 237 235 0
34.760000 2.860000 18.920000 236 240 238 0
34.980000 2.860000 20.460000 239 240 239 0
35.200000 2.860000 23.100000 239 240 239 0
35.420000 2.860000 23.320000 240 241 240 0
35.640000 2.860000 23.100000 240 241 240 0
35.860000 2.860000 24.640000 238 242 240 0
36.080000 2.860000 23.100000 238 242 240 0
36.300000 2.860000 18.920000 240 241 240 0
36.520000 2.860000 10.560000 240 241 240 0
36.740000 2.860000 5.060000 240 241 240 0
36.960000 2.860000 5.060000 240 241 240 0
37.180000 2.860000 6.600000 240 241 240 0
0.000000 3.080000 10.120000 217 238 239 0
0.220000 3.080000 10.340000 218 239 240 0
0.440000 3.080000 10.340000 217 238 239 0
0.660000 3.080000 10.340000 214 239 241 0
0.880000 3.080000 10.340000 213 238 240 0
1.100000 3.080000 11.880000 213 236 239 0
1.320000 3.080000 11.880000 213 236 239 0
1.540000 3.080000 11.880000 212 235 240 0
1.760000 3.080000 12.100000 211 234 239 0
1.980000 3.080000 12.100000 206 230 238 0
2.200000 3.080000 12.100000 199 223 231 0
2.420000 3.080000 12.100000 198 214 224 0
2.640000 3.080000 12.100000 194 210 220 0
2.860000 3.080000 13.640000 194 209 223 0
3.080000 3.080000 14.960000 197 212 226 0
3.300000 3.080000 14.960000 195 217 228 0
3.520000 3.080000 14.960000 200 222 233 0
3.740000 3.080000 13.640000 200 223 236 0
3.960000 3.080000 13.640000 200 223 236 0
4.180000 3.080000 14.740000 201 224 237 0
4.400000 3.080000 16.060000 201 224 237 0
4.620000 3.080000 16.280000 204 223 235 0
4.840000 3.080000 16.280000 203 222 234 0
5.060000 3.080000 16.280000 203 222 234 0
5.280000 3.080000 14.960000 202 221 233 0
5.500000 3.080000 14.960000 201 220 232 0
5.720000 3.080000 14.960000 200 219 231 0
5.940000 3.080000 14.960000 200 216 227 0
6.160000 3.080000 14.960000 199 215 226 0
6.380000 3.080000 14.960000 197 213 224 0
6.600000 3.080000 14.960000 197 213 224 0
6.820000 3.080000 16.280000 199 211 222 0
7.040000 3.080000 16.280000 200 212 223 0
7.260000 3.080000 16.280000 199 212 223 0
7.480000 3.080000 16.280000 199 212 223 0
7.700000 3.080000 16.280000 198 214 225 0
7.920000 3.080000 16.280000 199 215 226 0
8.140000 3.080000 16.280000 200 216 227 0
8.360000 3.080000 16.280000 200 216 227 0
8.580000 3.080000 16.280000 198 217 229 0
8.800000 3.080000 17.600000 199 218 230 0
9.020000 3.080000 16.280000 197 218 232 0
9.240000 3.080000 16.280000 199 220 234 0
9.460000 3.080000 17.380000 202 221 233 0
9.680000 3.080000 18.480000 201 220 232 0
9.900000 3.080000 18.260000 199 221 232 0
10.120000 3.080000 18.480000 200 222 233 0
10.340000 3.080000 18.700000 198 223 238 0
10.560000 3.080000 18.700000 198 223 238 0
10.780000 3.080000 18.700000 197 224 238 0
11.000000 3.080000 18.700000 197 224 238 0
11.220000 3.080000 18.700000 199 226 242 0
11.440000 3.080000 18.700000 197 224 240 0
11.660000 3.080000 18.700000 199 226 238 0
11.880000 3.080000 20.240000 199 226 238 0
12.100000 3.080000 20.240000 199 226 240 0
12.320000 3.080000 20.240000 200 227 241 0
12.540000 3.080000 20.240000 199 228 241 0
12.760000 3.080000 20.240000 200 229 242 0
12.980000 3.080000 20.240000 195 231 242 0
13.200000 3.080000 20.240000 195 231 242 0
13.420000 3.080000 20.460000 193 232 242 0
13.640000 3.080000 18.920000 192 231 241 0
13.860000 3.080000 18.920000 194 232 240 0
14.080000 3.080000 19.140000 195 233 241 0
14.300000 3.080000 19.140000 194 234 239 0
14.520000 3.080000 20.460000 194 234 239 0
14.740000 3.080000 20.460000 195 235 242 0
14.960000 3.080000 19.140000 196 236 243 0
15.180000 3.080000 20.460000 192 236 240 0
15.400000 3.080000 20.460000 191 235 239 0
15.620000 3.080000 20.460000 192 236 240 0
15.840000 3.080000 20.460000 191 235 239 0
16.060000 3.080000 20.460000 192 235 239 0
16.280000 3.080000 20.240000 193 236 240 0
16.500000 3.080000 20.240000 194 237 241 0
16.720000 3.080000 20.240000 193 236 240 0
16.940000 3.080000 20.240000 192 236 240 0
17.160000 3.080000 21.560000 191 235 239 0
17.380000 3.080000 20.240000 189 238 240 0
17.600000 3.080000 20.240000 188 237 239 0
17.820000 3.080000 20.240000 189 236 239 0
18.040000 3.080000 21.780000 190 237 240 0
18.260000 3.080000 20.460000 189 236 239 0
18.480000 3.080000 20.460000 189 236 239 0
18.700000 3.080000 20.460000 190 237 240 0
18.920000 3.080000 20.460000 190 237 240 0
19.140000 3.080000 20.460000 188 239 240 0
19.360000 3.080000 20.460000 188 239 240 0
19.580000 3.080000 20.460000 190 239 241 0
19.800000 3.080000 20.460000 190 239 241 0
20.020000 3.080000 20.460000 189 240 241 0
20.240000 3.080000 20.460000 189 240 241 0
20.460000 3.080000 20.460000 189 238 238 0
20.680000 3.080000 22.000000 189 238 238 0
20.900000 3.080000 22.000000 188 239 240 0
21.120000 3.080000 20.680000 188 239 240 0
21.340000 3.080000 20.460000 188 239 240 0
21.560000 3.080000 21.780000 189 240 241 0
21.780000 3.080000 21.780000 187 240 241 0
22.000000 3.080000 21.780000 187 240 241 0
22.220000 3.080000 21.780000 190 239 239 0
22.440000 3.080000 21.780000 191 240 240 0
22.660000 3.080000 20.460000 191 240 240 0
22.880000 3.080000 19.140000 191 240 240 0
23.100000 3.080000 17.820000 192 239 240 0
23.320000 3.080000 16.280000 193 240 241 0
23.540000 3.080000 16.280000 191 242 241 0
23.760000 3.080000 14.960000 192 243 242 0
23.980000 3.080000 14.960000 196 241 241 0
24.200000 3.080000 13.640000 197 242 242 0
24.420000 3.080000 14.960000 195 242 243 0
24.640000 3.080000 16.060000 196 243 244 0
24.860000 3.080000 18.260000 198 243 244 0
25.080000 3.080000 19.580000 198 243 244 0
25.300000 3.080000 19.800000 195 244 244 0
25.520000 3.080000 19.800000 194 243 243 0
25.740000 3.080000 21.120000 198 241 243 0
25.960000 3.080000 19.580000 196 239 241 0
26.180000 3.080000 19.800000 197 237 240 0
26.400000 3.080000 18.480000 196 236 239 0
26.620000 3.080000 18.700000 199 236 240 0
26.840000 3.080000 18.700000 198 235 239 0
27.060000 3.080000 17.380000 198 235 239 0
27.280000 3.080000 16.060000 199 236 240 0
27.500000 3.080000 16.060000 204 233 242 0
27.720000 3.080000 16.060000 203 232 241 0
27.940000 3.080000 16.060000 201 230 239 0
28.160000 3.080000 16.060000 201 230 239 0
28.380000 3.080000 16.060000 201 230 241 0
28.600000 3.080000 16.060000 200 229 240 0
28.820000 3.080000 16.060000 200 226 238 0
29.040000 3.080000 16.060000 200 226 238 0
29.260000 3.080000 16.060000 200 226 238 0
29.480000 3.080000 17.600000 199 225 237 0
29.700000 3.080000 16.060000 199 224 239 0
29.920000 3.080000 16.060000 199 224 239 0
30.140000 3.080000 16.060000 198 223 238 0
30.360000 3.080000 17.600000 197 222 237 0
30.580000 3.080000 17.600000 199 222 237 0
30.800000 3.080000 17.600000 198 221 236 0
31.020000 3.080000 17.600000 197 220 235 0
31.240000 3.080000 18.920000 198 221 236 0
31.460000 3.080000 18.920000 198 221 236 0
31.680000 3.080000 18.920000 197 220 235 0
31.900000 3.080000 18.700000 198 221 236 0
32.120000 3.080000 18.700000 197 220 235 0
32.340000 3.080000 17.380000 196 221 236 0
32.560000 3.080000 17.380000 196 221 236 0
32.780000 3.080000 17.380000 195 222 236 0
33.000000 3.080000 18.920000 195 222 236 0
33.220000 3.080000 18.920000 190 226 237 0
33.440000 3.080000 18.920000 194 230 241 0
33.660000 3.080000 18.920000 190 235 235 0
33.880000 3.080000 18.920000 192 237 237 0
34.100000 3.080000 17.600000 204 240 236 0
34.320000 3.080000 18.920000 206 242 238 0
34.540000 3.080000 18.920000 232 237 236 0
34.760000 3.080000 18.920000 234 239 238 0
34.980000 3.080000 20.460000 239 240 239 0
35.200000 3.080000 23.100000 239 240 239 0
35.420000 3.080000 23.320000 239 240 239 0
35.640000 3.080000 23.100000 240 241 240 0
35.860000 3.080000 24.640000 240 241 240 0
36.080000 3.080000 23.100000 240 241 240 0
36.300000 3.080000 17.600000 240 241 240 0
36.520000 3.080000 10.560000 240 241 240 0
36.740000 3.080000 5.060000 240 241 240 0
36.960000 3.080000 5.060000 240 241 240 0
37.180000 3.080000 6.600000 240 241 240 0
0.000000 3.300000 10.340000 217 238 239 0
0.220000 3.300000 10.340000 217 238 239 0
0.440000 3.300000 10.340000 217 238 239 0
0.660000 3.300000 10.340000 213 238 240 0
0.880000 3.300000 10.340000 212 237 239 0
1.100000 3.300000 10.560000 213 236 239 0
1.320000 3.300000 10.560000 213 236 239 0
1.540000 3.300000 11.880000 213 236 241 0
1.760000 3.300000 10.560000 210 233 238 0
1.980000 3.300000 10.780000 207 231 239 0
2.200000 3.300000 12.100000 201 225 233 0
2.420000 3.300000 12.100000 200 216 226 0
2.640000 3.300000 12.100000 195 211 221 0
2.860000 3.300000 13.640000 195 210 224 0
3.080000 3.300000 13.640000 196 211 225 0
3.300000 3.300000 13.640000 195 217 228 0
3.520000 3.300000 13.640000 200 222 233 0
3.740000 3.300000 13.640000 199 222 235 0
3.960000 3.300000 13.640000 200 223 236 0
4.180000 3.300000 13.420000 200 223 236 0
4.400000 3.300000 14.740000 200 223 236 0
4.620000 3.300000 16.060000 204 223 235 0
4.840000 3.300000 16.280000 203 222 234 0
5.060000 3.300000 14.960000 202 221 233 0
5.280000 3.300000 14.960000 200 219 231 0
5.500000 3.300000 14.960000 199 218 230 0
5.720000 3.300000 14.960000 199 218 230 0
5.940000 3.300000 14.960000 198 214 225 0
6.160000 3.300000 14.960000 197 213 224 0
6.380000 3.300000 14.960000 196 212 223 0
6.600000 3.300000 14.960000 196 212 223 0
6.820000 3.300000 14.960000 198 210 221 0
7.040000 3.300000 14.960000 199 211 222 0
7.260000 3.300000 14.960000 197 210 221 0
7.480000 3.300000 14.960000 198 211 222 0
7.700000 3.300000 14.960000 196 212 223 0
7.920000 3.300000 14.960000 197 213 224 0
8.140000 3.300000 16.280000 198 214 225 0
8.360000 3.300000 16.060000 199 215 226 0
8.580000 3.300000 17.160000 196 215 227 0
8.800000 3.300000 17.160000 197 216 228 0
9.020000 3.300000 17.160000 196 217 231 0
9.240000 3.300000 17.160000 197 218 232 0
9.460000 3.300000 18.480000 199 218 230 0
9.680000 3.300000 18.480000 200 219 231 0
9.900000 3.300000 18.480000 198 220 231 0
10.120000 3.300000 18.480000 198 220 231 0
10.340000 3.300000 18.700000 195 220 235 0
10.560000 3.300000 18.700000 196 221 236 0
10.780000 3.300000 18.700000 196 223 237 0
11.000000 3.300000 18.700000 195 222 236 0
11.220000 3.300000 18.700000 196 223 239 0
11.440000 3.300000 20.240000 196 223 239 0
11.660000 3.300000 20.240000 196 223 235 0
11.880000 3.300000 20.240000 198 225 237 0
12.100000 3.300000 20.240000 197 224 238 0
12.320000 3.300000 20.240000 197 224 238 0
12.540000 3.300000 20.240000 197 226 239 0
12.760000 3.300000 20.240000 198 227 240 0
12.980000 3.300000 20.240000 193 229 240 0
13.200000 3.300000 20.240000 194 230 241 0
13.420000 3.300000 20.460000 192 231 241 0
13.640000 3.300000 20.460000 190 229 239 0
13.860000 3.300000 20.460000 192 230 238 0
14.080000 3.300000 20.460000 193 231 239 0
14.300000 3.300000 20.460000 193 233 238 0
14.520000 3.300000 20.460000 193 233 238 0
14.740000 3.300000 20.460000 194 234 241 0
14.960000 3.300000 20.460000 193 233 240 0
15.180000 3.300000 20.460000 191 235 239 0
15.400000 3.300000 20.460000 191 235 239 0
15.620000 3.300000 20.460000 190 234 238 0
15.840000 3.300000 20.240000 191 235 239 0
16.060000 3.300000 20.240000 192 235 239 0
16.280000 3.300000 20.240000 192 235 239 0
16.500000 3.300000 20.240000 193 236 240 0
16.720000 3.300000 20.240000 192 235 239 0
16.940000 3.300000 21.560000 192 236 240 0
17.160000 3.300000 21.560000 192 236 240 0
17.380000 3.300000 21.560000 188 237 239 0
17.600000 3.300000 20.240000 189 238 240 0
17.820000 3.300000 21.780000 189 236 239 0
18.040000 3.300000 21.780000 189 236 239 0
18.260000 3.300000 21.780000 188 235 238 0
18.480000 3.300000 20.240000 188 235 238 0
18.700000 3.300000 20.460000 189 236 239 0
18.920000 3.300000 21.780000 189 236 239 0
19.140000 3.300000 21.780000 188 239 240 0
19.360000 3.300000 20.460000 186 237 238 0
19.580000 3.300000 20.460000 187 236 238 0
19.800000 3.300000 20.460000 189 238 240 0
20.020000 3.300000 20.460000 188 239 240 0
20.240000 3.300000 20.460000 188 239 240 0
20.460000 3.300000 20.460000 190 239 239 0
20.680000 3.300000 22.000000 190 239 239 0
20.900000 3.300000 22.000000 187 238 239 0
21.120000 3.300000 22.000000 188 239 240 0
21.340000 3.300000 22.000000 189 240 241 0
21.560000 3.300000 21.780000 188 239 240 0
21.780000 3.300000 23.100000 187 240 241 0
22.000000 3.300000 23.100000 187 240 241 0
22.220000 3.300000 23.100000 190 239 239 0
22.440000 3.300000 21.780000 190 239 239 0
22.660000 3.300000 20.460000 191 240 240 0
22.880000 3.300000 19.140000 191 240 240 0
23.100000 3.300000 17.820000 192 239 240 0
23.320000 3.300000 16.280000 192 239 240 0
23.540000 3.300000 14.960000 189 240 239 0
23.760000 3.300000 13.640000 188 239 238 0
23.980000 3.300000 13.640000 194 239 239 0
24.200000 3.300000 14.960000 195 240 240 0
24.420000 3.300000 16.280000 192 239 240 0
24.640000 3.300000 17.160000 192 239 240 0
24.860000 3.300000 19.580000 194 239 240 0
25.080000 3.300000 20.900000 194 239 240 0
25.300000 3.300000 22.220000 189 238 238 0
25.520000 3.300000 22.440000 190 239 239 0
25.740000 3.300000 22.440000 194 237 239 0
25.960000 3.300000 21.120000 194 237 239 0
26.180000 3.300000 18.480000 196 236 239 0
26.400000 3.300000 18.700000 197 237 240 0
26.620000 3.300000 17.160000 199 236 240 0
26.840000 3.300000 17.380000 198 235 239 0
27.060000 3.300000 15.840000 198 235 239 0
27.280000 3.300000 16.060000 198 235 239 0
27.500000 3.300000 16.060000 203 232 241 0
27.720000 3.300000 16.060000 202 231 240 0
27.940000 3.300000 16.060000 201 230 239 0
28.160000 3.300000 16.060000 201 230 239 0
28.380000 3.300000 16.060000 200 229 240 0
28.600000 3.300000 16.060000 199 228 239 0
28.820000 3.300000 16.060000 201 227 239 0
29.040000 3.300000 16.060000 200 226 238 0
29.260000 3.300000 17.600000 200 226 238 0
29.480000 3.300000 17.600000 199 225 237 0
29.700000 3.300000 16.060000 198 223 238 0
29.920000 3.300000 16.060000 197 222 237 0
30.140000 3.300000 17.600000 197 222 237 0
30.360000 3.300000 17.600000 196 221 236 0
30.580000 3.300000 17.600000 198 221 236 0
30.800000 3.300000 17.600000 198 221 236 0
31.020000 3.300000 17.600000 197 220 235 0
31.240000 3.300000 18.920000 197 220 235 0
31.460000 3.300000 18.920000 197 220 235 0
31.680000 3.300000 18.920000 197 220 235 0
31.900000 3.300000 18.700000 197 220 235 0
32.120000 3.300000 18.700000 197 220 235 0
32.340000 3.300000 17.380000 195 220 235 0
32.560000 3.300000 17.380000 194 219 234 0
32.780000 3.300000 17.380000 194 221 235 0
33.000000 3.300000 18.920000 195 222 236 0
33.220000 3.300000 18.920000 190 226 237 0
33.440000 3.300000 18.920000 192 228 239 0
33.660000 3.300000 18.920000 191 236 236 0
33.880000 3.300000 18.920000 194 239 239 0
34.100000 3.300000 17.600000 204 240 236 0
34.320000 3.300000 17.600000 206 242 238 0
34.540000 3.300000 18.920000 231 236 235 0
34.760000 3.300000 18.920000 234 239 238 0
34.980000 3.300000 20.460000 238 239 238 0
35.200000 3.300000 23.100000 239 240 239 0
35.420000 3.300000 23.320000 239 240 239 0
35.640000 3.300000 23.100000 239 240 239 0
35.860000 3.300000 23.100000 240 241 240 0
36.080000 3.300000 23.100000 240 241 240 0
36.300000 3.300000 17.600000 240 241 240 0
36.520000 3.300000 9.240000 240 241 240 0
36.740000 3.300000 5.060000 240 241 240 0
36.960000 3.300000 6.600000 240 241 240 0
37.180000 3.300000 7.920000 240 241 240 0
0.000000 3.520000 10.340000 217 236 238 0
0.220000 3.520000 10.340000 217 235 240 0
0.440000 3.520000 10.340000 217 235 240 0
0.660000 3.520000 10.340000 216 235 237 0
0.880000 3.520000 10.340000 216 235 237 0
1.100000 3.520000 10.560000 215 235 239 0
1.320000 3.520000 10.560000 214 234 238 0
1.540000 3.520000 10.560000 214 234 238 0
1.760000 3.520000 10.780000 212 232 236 0
1.980000 3.520000 10.780000 207 230 235 0
2.200000 3.520000 12.100000 203 226 231 0
2.420000 3.520000 12.100000 203 216 227 0
2.640000 3.520000 12.100000 198 211 222 0
2.860000 3.520000 13.640000 195 211 221 0
3.080000 3.520000 13.640000 196 212 222 0
3.300000 3.520000 13.640000 198 217 229 0
3.520000 3.520000 13.640000 200 219 231 0
3.740000 3.520000 13.640000 198 221 232 0
3.960000 3.520000 13.640000 199 222 233 0
4.180000 3.520000 13.640000 202 221 233 0
4.400000 3.520000 14.740000 202 221 233 0
4.620000 3.520000 16.060000 201 220 232 0
4.840000 3.520000 16.280000 200 219 231 0
5.060000 3.520000 14.960000 202 218 228 0
5.280000 3.520000 14.960000 200 216 226 0
5.500000 3.520000 13.640000 202 214 223 0
5.720000 3.520000 13.640000 201 213 222 0
5.940000 3.520000 14.960000 201 213 220 0
6.160000 3.520000 14.960000 199 211 218 0
6.380000 3.520000 14.960000 201 211 218 0
6.600000 3.520000 14.960000 200 210 217 0
6.820000 3.520000 14.960000 199 211 218 0
7.040000 3.520000 14.960000 199 211 218 0
7.260000 3.520000 14.960000 201 210 220 0
7.480000 3.520000 14.740000 201 210 220 0
7.700000 3.520000 16.280000 202 212 219 0
7.920000 3.520000 16.060000 200 210 217 0
8.140000 3.520000 17.160000 203 213 220 0
8.360000 3.520000 16.940000 202 212 219 0
8.580000 3.520000 18.260000 203 213 220 0
8.800000 3.520000 18.260000 202 212 219 0
9.020000 3.520000 18.260000 203 213 220 0
9.240000 3.520000 18.260000 203 213 220 0
9.460000 3.520000 18.260000 202 214 223 0
9.680000 3.520000 18.480000 202 214 223 0
9.900000 3.520000 18.480000 205 215 222 0
10.120000 3.520000 18.480000 205 215 222 0
10.340000 3.520000 18.700000 202 216 224 0
10.560000 3.520000 18.700000 201 215 223 0
10.780000 3.520000 18.700000 204 218 226 0
11.000000 3.520000 20.020000 202 216 224 0
11.220000 3.520000 20.240000 201 217 227 0
11.440000 3.520000 20.240000 202 218 228 0
11.660000 3.520000 20.240000 202 218 228 0
11.880000 3.520000 20.240000 203 219 229 0
12.100000 3.520000 20.240000 203 219 230 0
12.320000 3.520000 20.240000 203 219 230 0
12.540000 3.520000 20.240000 200 222 231 0
12.760000 3.520000 20.240000 201 223 232 0
12.980000 3.520000 20.240000 198 224 236 0
13.200000 3.520000 20.240000 197 223 235 0
13.420000 3.520000 20.460000 200 222 233 0
13.640000 3.520000 20.460000 201 223 234 0
13.860000 3.520000 20.460000 198 224 236 0
14.080000 3.520000 20.460000 199 225 237 0
14.300000 3.520000 20.460000 197 226 237 0
14.520000 3.520000 20.460000 198 227 238 0
14.740000 3.520000 20.460000 198 225 237 0
14.960000 3.520000 20.460000 198 225 237 0
15.180000 3.520000 20.460000 196 228 238 0
15.400000 3.520000 20.240000 196 228 238 0
15.620000 3.520000 21.560000 193 231 239 0
15.840000 3.520000 21.560000 192 230 238 0
16.060000 3.520000 21.560000 196 230 237 0
16.280000 3.520000 21.560000 197 231 238 0
16.500000 3.520000 21.560000 198 231 241 0
16.720000 3.520000 21.560000 196 229 239 0
16.940000 3.520000 21.560000 191 233 240 0
