ply
format ascii 1.0
element vertex 1127
property float x
property float y
property float z
property uchar red
property uchar green
property uchar blue
property uchar alpha
end_header
35.420000 6.380000 10.780000 151 201 229 0
35.640000 6.380000 10.780000 149 199 227 0
35.860000 6.380000 12.100000 152 195 224 0
36.080000 6.380000 11.880000 148 191 220 0
36.300000 6.380000 11.880000 153 184 210 0
36.520000 6.380000 11.880000 151 182 208 0
36.740000 6.380000 10.560000 156 174 193 0
36.960000 6.380000 10.560000 151 169 188 0
37.180000 6.380000 11.880000 157 162 177 0
0.000000 6.600000 2.420000 209 236 238 0
0.220000 6.600000 3.740000 210 237 239 0
0.440000 6.600000 3.740000 209 236 238 0
0.660000 6.600000 3.740000 209 236 238 0
0.880000 6.600000 3.960000 209 236 238 0
1.100000 6.600000 3.960000 209 236 238 0
1.320000 6.600000 3.960000 209 236 238 0
1.540000 6.600000 3.960000 209 236 238 0
1.760000 6.600000 3.960000 209 236 238 0
1.980000 6.600000 3.960000 210 237 239 0
2.200000 6.600000 5.060000 209 236 238 0
2.420000 6.600000 5.940000 209 236 238 0
2.640000 6.600000 7.040000 208 235 237 0
2.860000 6.600000 7.040000 208 235 237 0
3.080000 6.600000 7.040000 208 235 237 0
3.300000 6.600000 7.040000 208 235 237 0
3.520000 6.600000 7.040000 208 235 237 0
3.740000 6.600000 7.260000 208 235 237 0
3.960000 6.600000 7.260000 208 235 237 0
4.180000 6.600000 7.260000 208 235 237 0
4.400000 6.600000 7.480000 208 235 237 0
4.620000 6.600000 7.480000 210 235 237 0
4.840000 6.600000 7.480000 210 235 237 0
5.060000 6.600000 7.480000 209 236 238 0
5.280000 6.600000 7.700000 209 236 238 0
5.500000 6.600000 7.700000 207 234 236 0
5.720000 6.600000 7.700000 209 236 238 0
5.940000 6.600000 7.700000 209 236 238 0
6.160000 6.600000 7.920000 209 236 238 0
6.380000 6.600000 9.240000 209 236 238 0
6.600000 6.600000 9.460000 210 237 239 0
6.820000 6.600000 9.460000 210 237 239 0
7.040000 6.600000 9.460000 210 237 239 0
7.260000 6.600000 9.460000 210 237 239 0
7.480000 6.600000 9.460000 209 236 238 0
7.700000 6.600000 9.680000 210 237 239 0
7.920000 6.600000 10.780000 210 237 239 0
8.140000 6.600000 12.760000 210 237 239 0
8.360000 6.600000 13.860000 209 236 238 0
8.580000 6.600000 13.860000 210 237 239 0
8.800000 6.600000 14.080000 210 237 239 0
9.020000 6.600000 15.400000 210 237 239 0
9.240000 6.600000 15.400000 210 237 239 0
9.460000 6.600000 15.400000 210 237 239 0
9.680000 6.600000 15.620000 211 238 240 0
9.900000 6.600000 15.620000 211 238 242 0
10.120000 6.600000 15.620000 210 237 241 0
10.340000 6.600000 15.840000 210 237 239 0
10.560000 6.600000 15.840000 210 237 239 0
10.780000 6.600000 15.840000 210 237 241 0
11.000000 6.600000 17.380000 210 237 241 0
11.220000 6.600000 17.380000 210 237 241 0
11.440000 6.600000 17.380000 210 237 241 0
11.660000 6.600000 17.380000 211 238 242 0
11.880000 6.600000 17.600000 210 237 241 0
12.100000 6.600000 17.600000 210 237 241 0
12.320000 6.600000 17.600000 210 237 241 0
12.540000 6.600000 17.820000 210 237 241 0
12.760000 6.600000 17.820000 210 237 241 0
12.980000 6.600000 17.820000 209 238 241 0
13.200000 6.600000 17.820000 208 237 240 0
13.420000 6.600000 17.600000 209 238 241 0
13.640000 6.600000 19.800000 209 238 241 0
13.860000 6.600000 20.900000 210 237 241 0
14.080000 6.600000 20.900000 210 237 241 0
14.300000 6.600000 20.900000 210 237 241 0
14.520000 6.600000 20.900000 210 237 241 0
14.740000 6.600000 20.900000 208 237 240 0
14.960000 6.600000 19.580000 208 237 240 0
15.180000 6.600000 19.800000 209 238 241 0
15.400000 6.600000 19.800000 209 238 241 0
15.620000 6.600000 19.800000 209 238 241 0
15.840000 6.600000 20.020000 209 238 241 0
16.060000 6.600000 20.020000 211 238 242 0
16.280000 6.600000 20.020000 210 237 241 0
16.500000 6.600000 20.020000 209 238 241 0
16.720000 6.600000 21.560000 209 238 241 0
16.940000 6.600000 21.560000 209 238 241 0
17.160000 6.600000 21.560000 208 237 240 0
17.380000 6.600000 21.780000 209 236 240 0
17.600000 6.600000 23.100000 210 237 241 0
17.820000 6.600000 23.320000 210 237 241 0
18.040000 6.600000 23.320000 210 237 241 0
18.260000 6.600000 23.320000 208 237 240 0
18.480000 6.600000 23.320000 209 238 241 0
18.700000 6.600000 23.320000 210 237 241 0
18.920000 6.600000 24.420000 210 237 241 0
19.140000 6.600000 26.620000 209 236 240 0
19.360000 6.600000 27.720000 210 237 241 0
19.580000 6.600000 27.720000 210 237 241 0
19.800000 6.600000 27.940000 209 236 240 0
20.020000 6.600000 29.260000 209 236 240 0
20.240000 6.600000 29.260000 209 236 240 0
20.460000 6.600000 29.480000 208 235 239 0
20.680000 6.600000 29.480000 209 236 240 0
20.900000 6.600000 29.480000 210 237 241 0
21.120000 6.600000 29.480000 210 237 241 0
21.340000 6.600000 31.020000 209 236 240 0
21.560000 6.600000 31.020000 209 236 240 0
21.780000 6.600000 31.020000 209 236 242 0
22.000000 6.600000 31.020000 210 237 243 0
22.220000 6.600000 31.240000 210 237 241 0
22.440000 6.600000 31.240000 210 237 241 0
22.660000 6.600000 32.780000 210 237 241 0
22.880000 6.600000 32.780000 210 237 241 0
23.100000 6.600000 32.780000 208 237 240 0
23.320000 6.600000 33.000000 209 238 241 0
23.540000 6.600000 33.000000 209 238 241 0
23.760000 6.600000 33.000000 209 238 241 0
23.980000 6.600000 34.540000 209 238 241 0
24.200000 6.600000 35.640000 209 238 241 0
24.420000 6.600000 37.620000 209 238 241 0
24.640000 6.600000 38.720000 208 237 240 0
24.860000 6.600000 40.260000 207 237 240 0
25.080000 6.600000 41.580000 207 237 240 0
25.300000 6.600000 41.800000 205 238 242 0
25.520000 6.600000 41.800000 205 238 242 0
25.740000 6.600000 41.800000 208 237 240 0
25.960000 6.600000 40.480000 209 238 241 0
26.180000 6.600000 40.480000 208 237 240 0
26.400000 6.600000 40.700000 207 236 239 0
26.620000 6.600000 37.840000 203 238 239 0
26.840000 6.600000 28.160000 204 239 240 0
27.060000 6.600000 14.520000 203 237 241 0
27.280000 6.600000 7.700000 203 237 241 0
27.500000 6.600000 2.200000 204 237 241 0
27.940000 6.600000 0.880000 204 237 241 0
28.160000 6.600000 0.880000 203 236 240 0
28.380000 6.600000 1.100000 198 238 241 0
28.600000 6.600000 1.100000 198 238 241 0
28.820000 6.600000 1.100000 197 237 242 0
29.040000 6.600000 1.100000 197 237 242 0
29.260000 6.600000 1.100000 197 235 243 0
29.480000 6.600000 3.740000 195 233 241 0
29.700000 6.600000 14.740000 188 226 242 0
29.920000 6.600000 31.460000 183 221 237 0
30.140000 6.600000 31.680000 185 217 235 0
30.360000 6.600000 16.500000 183 215 233 0
30.580000 6.600000 9.460000 184 212 229 0
30.800000 6.600000 6.820000 183 211 228 0
31.020000 6.600000 3.960000 182 210 226 0
31.240000 6.600000 6.600000 181 209 225 0
31.460000 6.600000 9.240000 182 205 220 0
31.680000 6.600000 5.060000 183 206 221 0
31.900000 6.600000 2.420000 179 204 219 0
32.120000 6.600000 1.100000 178 203 218 0
32.340000 6.600000 1.100000 177 204 220 0
32.560000 6.600000 1.100000 175 202 218 0
32.780000 6.600000 1.100000 175 202 216 0
33.000000 6.600000 1.100000 175 202 216 0
33.220000 6.600000 2.420000 168 203 220 0
33.440000 6.600000 3.960000 166 201 218 0
33.660000 6.600000 5.280000 169 199 218 0
33.880000 6.600000 6.600000 168 198 217 0
34.100000 6.600000 7.920000 167 199 217 0
34.320000 6.600000 9.460000 166 198 216 0
34.540000 6.600000 10.780000 164 198 221 0
34.760000 6.600000 10.780000 163 197 220 0
34.980000 6.600000 10.780000 168 194 216 0
35.200000 6.600000 10.780000 164 190 212 0
35.420000 6.600000 10.780000 168 186 205 0
35.640000 6.600000 10.780000 164 182 201 0
35.860000 6.600000 12.100000 168 176 194 0
36.080000 6.600000 11.880000 164 172 190 0
36.300000 6.600000 13.200000 162 168 179 0
36.520000 6.600000 11.880000 157 163 174 0
36.740000 6.600000 11.880000 163 155 165 0
36.960000 6.600000 11.880000 163 155 165 0
37.180000 6.600000 11.880000 164 154 160 0
0.000000 6.820000 2.420000 209 236 238 0
0.220000 6.820000 3.740000 209 236 238 0
0.440000 6.820000 3.740000 209 236 238 0
0.660000 6.820000 3.740000 209 236 238 0
0.880000 6.820000 3.960000 208 235 237 0
1.100000 6.820000 3.960000 209 236 238 0
1.320000 6.820000 3.960000 209 236 238 0
1.540000 6.820000 3.960000 209 236 238 0
1.760000 6.820000 3.960000 209 236 238 0
1.980000 6.820000 3.960000 209 236 238 0
2.200000 6.820000 5.060000 209 236 238 0
2.420000 6.820000 5.940000 209 236 238 0
2.640000 6.820000 7.040000 209 236 238 0
2.860000 6.820000 7.040000 208 235 237 0
3.080000 6.820000 7.040000 208 235 237 0
3.300000 6.820000 7.040000 208 235 237 0
3.520000 6.820000 7.040000 207 234 236 0
3.740000 6.820000 7.260000 207 234 236 0
3.960000 6.820000 7.260000 208 235 237 0
4.180000 6.820000 7.260000 208 235 237 0
4.400000 6.820000 7.480000 207 234 236 0
4.620000 6.820000 7.480000 210 235 237 0
4.840000 6.820000 7.480000 209 234 236 0
5.060000 6.820000 7.480000 208 235 237 0
5.280000 6.820000 7.700000 208 235 237 0
5.500000 6.820000 7.700000 208 235 237 0
5.720000 6.820000 7.700000 209 236 238 0
5.940000 6.820000 7.700000 209 236 238 0
6.160000 6.820000 7.920000 208 235 237 0
6.380000 6.820000 9.240000 209 236 238 0
6.600000 6.820000 9.460000 209 236 238 0
6.820000 6.820000 9.460000 210 237 239 0
7.040000 6.820000 9.460000 209 236 238 0
7.260000 6.820000 9.460000 210 237 239 0
7.480000 6.820000 9.460000 210 237 239 0
7.700000 6.820000 9.680000 210 237 239 0
7.920000 6.820000 10.780000 209 236 238 0
8.140000 6.820000 12.760000 210 237 239 0
8.360000 6.820000 13.860000 210 237 239 0
8.580000 6.820000 13.860000 210 237 239 0
8.800000 6.820000 14.080000 210 237 239 0
9.020000 6.820000 15.400000 210 237 239 0
9.240000 6.820000 15.400000 210 237 239 0
9.460000 6.820000 15.400000 210 237 239 0
9.680000 6.820000 15.620000 211 238 240 0
9.900000 6.820000 15.620000 210 237 241 0
10.120000 6.820000 15.620000 209 236 240 0
10.340000 6.820000 15.840000 210 237 239 0
10.560000 6.820000 15.840000 210 237 239 0
10.780000 6.820000 15.840000 210 237 241 0
11.000000 6.820000 17.380000 210 237 241 0
11.220000 6.820000 17.380000 210 237 241 0
11.440000 6.820000 17.380000 211 238 242 0
11.660000 6.820000 17.380000 210 237 241 0
11.880000 6.820000 17.600000 210 237 241 0
12.100000 6.820000 17.600000 209 236 240 0
12.320000 6.820000 17.600000 210 237 241 0
12.540000 6.820000 17.820000 210 237 241 0
12.760000 6.820000 17.820000 210 237 241 0
12.980000 6.820000 17.820000 208 237 240 0
13.200000 6.820000 17.820000 208 237 240 0
13.420000 6.820000 17.600000 208 237 240 0
13.640000 6.820000 19.800000 209 238 241 0
13.860000 6.820000 20.900000 210 237 241 0
14.080000 6.820000 20.900000 210 237 241 0
14.300000 6.820000 20.900000 211 238 242 0
14.520000 6.820000 20.900000 210 237 241 0
14.740000 6.820000 20.900000 208 237 240 0
14.960000 6.820000 19.580000 208 237 240 0
15.180000 6.820000 19.800000 208 237 240 0
15.400000 6.820000 19.800000 208 237 240 0
15.620000 6.820000 19.800000 209 238 241 0
15.840000 6.820000 20.020000 209 238 241 0
16.060000 6.820000 20.020000 210 237 241 0
16.280000 6.820000 20.020000 210 237 241 0
16.500000 6.820000 21.340000 209 238 241 0
16.720000 6.820000 21.560000 208 237 240 0
16.940000 6.820000 21.560000 209 238 241 0
17.160000 6.820000 21.560000 208 237 240 0
17.380000 6.820000 23.100000 209 236 240 0
17.600000 6.820000 23.100000 209 236 240 0
17.820000 6.820000 23.320000 210 237 241 0
18.040000 6.820000 23.320000 210 237 241 0
18.260000 6.820000 23.320000 209 238 241 0
18.480000 6.820000 23.320000 208 237 240 0
18.700000 6.820000 23.320000 210 237 241 0
18.920000 6.820000 24.420000 209 236 240 0
19.140000 6.820000 26.620000 210 237 241 0
19.360000 6.820000 27.720000 210 237 241 0
19.580000 6.820000 27.720000 210 237 241 0
19.800000 6.820000 27.940000 209 236 240 0
20.020000 6.820000 29.260000 209 236 240 0
20.240000 6.820000 29.260000 209 236 240 0
20.460000 6.820000 29.480000 208 235 239 0
20.680000 6.820000 29.480000 208 235 239 0
20.900000 6.820000 29.480000 209 236 240 0
21.120000 6.820000 31.020000 210 237 241 0
21.340000 6.820000 31.020000 209 236 240 0
21.560000 6.820000 31.020000 209 236 240 0
21.780000 6.820000 31.020000 208 235 241 0
22.000000 6.820000 31.020000 209 236 242 0
22.220000 6.820000 31.240000 209 236 240 0
22.440000 6.820000 32.560000 210 237 241 0
22.660000 6.820000 32.780000 210 237 241 0
22.880000 6.820000 32.780000 210 237 241 0
23.100000 6.820000 32.780000 208 237 240 0
23.320000 6.820000 33.000000 209 238 241 0
23.540000 6.820000 33.000000 209 238 241 0
23.760000 6.820000 33.000000 209 238 241 0
23.980000 6.820000 34.540000 209 238 241 0
24.200000 6.820000 35.640000 209 238 241 0
24.420000 6.820000 37.620000 208 237 240 0
24.640000 6.820000 38.720000 208 237 240 0
24.860000 6.820000 40.260000 207 237 240 0
25.080000 6.820000 41.580000 207 237 240 0
25.300000 6.820000 41.800000 204 237 241 0
25.520000 6.820000 41.800000 204 237 241 0
25.740000 6.820000 41.800000 207 236 239 0
25.960000 6.820000 41.800000 208 237 240 0
26.180000 6.820000 40.480000 208 237 240 0
26.400000 6.820000 40.700000 208 237 240 0
26.620000 6.820000 33.660000 203 238 239 0
26.840000 6.820000 15.840000 203 238 239 0
27.060000 6.820000 1.980000 202 236 240 0
27.500000 6.820000 0.880000 203 236 240 0
27.720000 6.820000 0.880000 203 236 240 0
27.940000 6.820000 0.880000 203 236 240 0
28.160000 6.820000 0.880000 202 235 239 0
28.380000 6.820000 1.100000 196 236 239 0
29.260000 6.820000 2.420000 194 232 240 0
29.480000 6.820000 11.880000 193 231 239 0
29.700000 6.820000 25.740000 189 227 243 0
29.920000 6.820000 35.420000 184 222 238 0
30.140000 6.820000 36.960000 185 217 235 0
30.360000 6.820000 31.460000 182 214 232 0
30.580000 6.820000 30.140000 183 211 228 0
30.800000 6.820000 21.780000 182 210 227 0
31.020000 6.820000 6.600000 179 207 223 0
31.460000 6.820000 2.420000 182 205 220 0
31.680000 6.820000 3.740000 182 205 220 0
31.900000 6.820000 3.740000 179 204 219 0
32.120000 6.820000 1.100000 177 202 217 0
32.340000 6.820000 1.100000 176 203 219 0
32.560000 6.820000 3.740000 173 200 216 0
32.780000 6.820000 7.920000 172 199 213 0
33.000000 6.820000 10.780000 172 199 213 0
33.220000 6.820000 7.920000 165 200 217 0
33.440000 6.820000 3.960000 162 197 214 0
33.660000 6.820000 2.420000 166 196 215 0
33.880000 6.820000 3.740000 164 194 213 0
34.100000 6.820000 6.600000 163 195 213 0
34.320000 6.820000 9.240000 161 193 211 0
34.540000 6.820000 10.780000 156 190 213 0
34.760000 6.820000 10.560000 153 187 210 0
34.980000 6.820000 10.560000 157 183 205 0
35.200000 6.820000 10.780000 153 179 201 0
35.420000 6.820000 10.780000 155 173 192 0
35.640000 6.820000 12.100000 152 170 189 0
35.860000 6.820000 11.880000 156 164 182 0
36.080000 6.820000 11.880000 152 160 178 0
36.300000 6.820000 13.200000 152 158 169 0
36.520000 6.820000 11.880000 151 157 168 0
36.740000 6.820000 11.880000 159 151 161 0
36.960000 6.820000 11.880000 158 150 160 0
37.180000 6.820000 13.200000 159 149 155 0
0.000000 7.040000 2.420000 209 236 240 0
0.220000 7.040000 3.740000 209 236 240 0
0.440000 7.040000 3.740000 209 236 240 0
0.660000 7.040000 3.740000 209 236 238 0
0.880000 7.040000 3.960000 210 237 239 0
1.100000 7.040000 3.960000 212 237 239 0
1.320000 7.040000 3.960000 211 236 238 0
1.540000 7.040000 3.960000 210 234 239 0
1.760000 7.040000 3.960000 210 234 239 0
1.980000 7.040000 3.960000 208 235 239 0
2.200000 7.040000 5.060000 209 236 240 0
2.420000 7.040000 5.940000 209 236 240 0
2.640000 7.040000 7.040000 209 236 240 0
2.860000 7.040000 7.040000 211 236 238 0
3.080000 7.040000 7.040000 210 235 237 0
3.300000 7.040000 7.040000 209 234 236 0
3.520000 7.040000 7.040000 210 235 237 0
3.740000 7.040000 7.260000 207 234 238 0
3.960000 7.040000 7.260000 207 234 238 0
4.180000 7.040000 7.260000 207 234 238 0
4.400000 7.040000 7.480000 207 234 238 0
4.620000 7.040000 7.480000 209 233 238 0
4.840000 7.040000 7.480000 209 233 238 0
5.060000 7.040000 7.480000 208 232 237 0
5.280000 7.040000 7.700000 209 233 238 0
5.500000 7.040000 7.700000 208 235 239 0
5.720000 7.040000 7.700000 208 235 239 0
5.940000 7.040000 7.700000 209 236 240 0
6.160000 7.040000 7.920000 209 236 240 0
6.380000 7.040000 9.240000 208 235 237 0
6.600000 7.040000 9.460000 209 236 238 0
6.820000 7.040000 9.460000 211 236 238 0
7.040000 7.040000 9.460000 211 236 238 0
7.260000 7.040000 9.460000 210 237 239 0
7.480000 7.040000 9.460000 210 237 239 0
7.700000 7.040000 9.680000 210 237 239 0
7.920000 7.040000 10.780000 210 237 239 0
8.140000 7.040000 12.760000 210 237 241 0
8.360000 7.040000 13.860000 210 237 241 0
8.580000 7.040000 13.860000 210 237 239 0
8.800000 7.040000 14.080000 211 238 240 0
9.020000 7.040000 15.400000 210 237 239 0
9.240000 7.040000 15.400000 210 237 239 0
9.460000 7.040000 15.400000 210 237 239 0
9.680000 7.040000 15.620000 210 237 239 0
9.900000 7.040000 15.620000 210 237 239 0
10.120000 7.040000 15.620000 210 237 239 0
10.340000 7.040000 15.840000 209 236 238 0
10.560000 7.040000 15.840000 210 237 239 0
10.780000 7.040000 17.160000 210 237 239 0
11.000000 7.040000 17.380000 211 238 240 0
11.220000 7.040000 17.380000 210 239 240 0
11.440000 7.040000 17.380000 210 239 240 0
11.660000 7.040000 17.380000 209 238 241 0
11.880000 7.040000 17.600000 209 238 241 0
12.100000 7.040000 17.600000 209 236 238 0
12.320000 7.040000 17.600000 209 236 238 0
12.540000 7.040000 17.820000 210 237 239 0
12.760000 7.040000 17.820000 209 236 238 0
12.980000 7.040000 17.820000 209 238 241 0
13.200000 7.040000 17.820000 209 238 241 0
13.420000 7.040000 17.600000 210 239 242 0
13.640000 7.040000 19.800000 209 238 241 0
13.860000 7.040000 20.900000 210 237 239 0
14.080000 7.040000 20.900000 210 237 239 0
14.300000 7.040000 20.900000 210 237 241 0
14.520000 7.040000 20.900000 210 237 241 0
14.740000 7.040000 20.900000 209 238 241 0
14.960000 7.040000 21.120000 208 237 240 0
15.180000 7.040000 19.800000 208 237 240 0
15.400000 7.040000 19.800000 208 237 240 0
15.620000 7.040000 19.800000 209 238 241 0
15.840000 7.040000 20.020000 209 238 241 0
16.060000 7.040000 20.020000 211 238 240 0
16.280000 7.040000 20.020000 211 238 240 0
16.500000 7.040000 21.340000 210 239 242 0
16.720000 7.040000 21.560000 209 238 241 0
16.940000 7.040000 21.560000 209 238 241 0
17.160000 7.040000 21.560000 208 237 240 0
17.380000 7.040000 23.100000 209 236 240 0
17.600000 7.040000 23.100000 209 236 240 0
17.820000 7.040000 23.320000 210 237 239 0
18.040000 7.040000 23.320000 211 238 240 0
18.260000 7.040000 23.320000 209 238 241 0
18.480000 7.040000 23.320000 208 237 240 0
18.700000 7.040000 23.320000 209 238 241 0
18.920000 7.040000 24.420000 209 238 241 0
19.140000 7.040000 26.620000 210 237 241 0
19.360000 7.040000 27.720000 210 237 241 0
19.580000 7.040000 27.720000 209 236 238 0
19.800000 7.040000 27.720000 210 237 239 0
20.020000 7.040000 29.260000 209 236 240 0
20.240000 7.040000 29.260000 209 236 240 0
20.460000 7.040000 29.260000 208 235 239 0
20.680000 7.040000 29.480000 209 236 240 0
20.900000 7.040000 29.480000 209 236 240 0
21.120000 7.040000 31.020000 209 236 240 0
21.340000 7.040000 31.020000 210 237 239 0
21.560000 7.040000 31.020000 209 236 238 0
21.780000 7.040000 31.020000 209 236 240 0
22.000000 7.040000 31.240000 209 236 240 0
22.220000 7.040000 32.560000 209 236 240 0
22.440000 7.040000 32.560000 210 237 241 0
22.660000 7.040000 32.780000 210 237 241 0
22.880000 7.040000 32.780000 210 237 241 0
23.100000 7.040000 32.780000 209 236 240 0
23.320000 7.040000 33.000000 210 237 241 0
23.540000 7.040000 33.000000 208 237 240 0
23.760000 7.040000 33.000000 208 237 240 0
23.980000 7.040000 34.540000 208 237 240 0
24.200000 7.040000 35.640000 208 237 240 0
24.420000 7.040000 37.620000 209 236 242 0
24.640000 7.040000 38.720000 209 236 242 0
24.860000 7.040000 40.260000 209 236 240 0
25.080000 7.040000 40.260000 209 236 240 0
25.300000 7.040000 41.800000 208 236 242 0
25.520000 7.040000 41.800000 207 235 241 0
25.740000 7.040000 41.800000 207 235 241 0
25.960000 7.040000 41.800000 207 235 241 0
26.180000 7.040000 42.020000 207 235 242 0
26.400000 7.040000 39.160000 207 235 242 0
26.620000 7.040000 25.520000 206 234 240 0
26.840000 7.040000 7.480000 205 233 239 0
27.280000 7.040000 0.660000 204 234 240 0
27.500000 7.040000 0.880000 206 234 241 0
27.720000 7.040000 0.880000 205 233 240 0
27.940000 7.040000 0.880000 205 233 242 0
28.160000 7.040000 0.880000 205 233 242 0
29.040000 7.040000 2.420000 200 230 236 0
29.260000 7.040000 12.980000 199 228 237 0
29.480000 7.040000 27.940000 199 228 237 0
29.700000 7.040000 36.520000 200 227 239 0
29.920000 7.040000 39.160000 195 222 234 0
30.140000 7.040000 39.380000 191 217 229 0
30.360000 7.040000 39.600000 190 216 228 0
30.580000 7.040000 39.820000 190 211 225 0
30.800000 7.040000 31.460000 188 209 223 0
31.020000 7.040000 16.280000 186 207 221 0
31.240000 7.040000 7.920000 184 205 219 0
31.460000 7.040000 3.740000 187 204 215 0
31.680000 7.040000 2.420000 186 203 214 0
31.900000 7.040000 1.100000 185 201 212 0
32.120000 7.040000 1.100000 184 200 211 0
32.340000 7.040000 2.420000 183 199 209 0
32.560000 7.040000 13.200000 182 198 208 0
32.780000 7.040000 24.420000 178 197 206 0
33.000000 7.040000 29.920000 176 195 204 0
33.220000 7.040000 24.420000 177 192 206 0
33.440000 7.040000 12.100000 174 189 203 0
33.660000 7.040000 3.740000 171 186 202 0
33.880000 7.040000 2.420000 168 183 199 0
34.100000 7.040000 5.060000 169 180 195 0
34.320000 7.040000 9.240000 167 178 193 0
34.540000 7.040000 10.560000 167 174 188 0
34.760000 7.040000 10.560000 162 169 183 0
34.980000 7.040000 11.880000 166 165 174 0
35.200000 7.040000 12.100000 161 160 169 0
35.420000 7.040000 12.100000 158 158 163 0
35.640000 7.040000 12.100000 159 159 164 0
35.860000 7.040000 11.880000 158 152 157 0
36.080000 7.040000 11.880000 157 151 156 0
36.300000 7.040000 13.200000 157 150 155 0
36.520000 7.040000 13.200000 156 149 154 0
36.740000 7.040000 13.200000 157 147 151 0
36.960000 7.040000 13.200000 156 146 150 0
37.180000 7.040000 13.200000 157 148 150 0
0.000000 7.260000 2.420000 208 235 239 0
0.220000 7.260000 3.740000 208 235 239 0
0.440000 7.260000 3.740000 208 235 239 0
0.660000 7.260000 3.740000 208 235 237 0
0.880000 7.260000 3.960000 208 235 237 0
1.100000 7.260000 3.960000 211 236 238 0
1.320000 7.260000 3.960000 211 236 238 0
1.540000 7.260000 3.960000 210 234 239 0
1.760000 7.260000 3.960000 209 233 238 0
1.980000 7.260000 3.960000 207 234 238 0
2.200000 7.260000 5.060000 208 235 239 0
2.420000 7.260000 5.940000 207 234 238 0
2.640000 7.260000 7.040000 209 236 240 0
2.860000 7.260000 7.040000 211 236 238 0
3.080000 7.260000 7.040000 210 235 237 0
3.300000 7.260000 7.040000 210 235 237 0
3.520000 7.260000 7.040000 210 235 237 0
3.740000 7.260000 7.260000 207 234 238 0
3.960000 7.260000 7.260000 207 234 238 0
4.180000 7.260000 7.260000 207 234 238 0
4.400000 7.260000 7.480000 207 234 238 0
4.620000 7.260000 7.480000 209 233 238 0
4.840000 7.260000 7.480000 209 233 238 0
5.060000 7.260000 7.480000 209 233 238 0
5.280000 7.260000 7.700000 209 233 238 0
5.500000 7.260000 7.700000 208 235 239 0
5.720000 7.260000 7.700000 208 235 239 0
5.940000 7.260000 7.700000 208 235 239 0
6.160000 7.260000 7.920000 208 235 239 0
6.380000 7.260000 9.240000 208 235 237 0
6.600000 7.260000 9.460000 209 236 238 0
6.820000 7.260000 9.460000 211 236 238 0
7.040000 7.260000 9.460000 212 237 239 0
7.260000 7.260000 9.460000 210 237 239 0
7.480000 7.260000 9.460000 210 237 239 0
7.700000 7.260000 9.680000 210 237 239 0
7.920000 7.260000 10.780000 210 237 239 0
8.140000 7.260000 12.760000 209 236 240 0
8.360000 7.260000 13.860000 209 236 240 0
8.580000 7.260000 13.860000 210 237 239 0
8.800000 7.260000 14.080000 211 238 240 0
9.020000 7.260000 15.400000 210 237 239 0
9.240000 7.260000 15.400000 210 237 239 0
9.460000 7.260000 15.400000 210 237 239 0
9.680000 7.260000 15.620000 211 238 240 0
9.900000 7.260000 15.620000 210 237 239 0
10.120000 7.260000 15.620000 210 237 239 0
10.340000 7.260000 15.840000 210 237 239 0
10.560000 7.260000 15.840000 211 238 240 0
10.780000 7.260000 17.160000 210 237 239 0
11.000000 7.260000 17.380000 210 237 239 0
11.220000 7.260000 17.380000 209 238 239 0
11.440000 7.260000 17.380000 209 238 239 0
11.660000 7.260000 17.380000 209 238 241 0
11.880000 7.260000 17.600000 208 237 240 0
12.100000 7.260000 17.600000 209 236 238 0
12.320000 7.260000 17.600000 210 237 239 0
12.540000 7.260000 17.820000 210 237 239 0
12.760000 7.260000 17.820000 209 236 238 0
12.980000 7.260000 17.820000 208 237 240 0
13.200000 7.260000 17.820000 208 237 240 0
13.420000 7.260000 17.600000 208 237 240 0
13.640000 7.260000 19.800000 209 238 241 0
13.860000 7.260000 20.900000 210 237 239 0
14.080000 7.260000 20.900000 210 237 239 0
14.300000 7.260000 20.900000 209 236 240 0
14.520000 7.260000 20.900000 209 236 240 0
14.740000 7.260000 20.900000 208 237 240 0
14.960000 7.260000 21.120000 208 237 240 0
15.180000 7.260000 21.120000 208 237 240 0
15.400000 7.260000 19.800000 208 237 240 0
15.620000 7.260000 19.800000 209 238 241 0
15.840000 7.260000 20.020000 209 238 241 0
16.060000 7.260000 20.020000 210 237 239 0
16.280000 7.260000 20.020000 210 237 239 0
16.500000 7.260000 21.340000 209 238 241 0
16.720000 7.260000 21.560000 208 237 240 0
16.940000 7.260000 21.560000 209 238 241 0
17.160000 7.260000 22.880000 209 238 241 0
17.380000 7.260000 23.100000 210 237 241 0
17.600000 7.260000 23.100000 209 236 240 0
17.820000 7.260000 23.320000 210 237 239 0
18.040000 7.260000 23.320000 210 237 239 0
18.260000 7.260000 23.320000 209 238 241 0
18.480000 7.260000 23.320000 208 237 240 0
18.700000 7.260000 23.320000 209 238 241 0
18.920000 7.260000 24.420000 209 238 241 0
19.140000 7.260000 26.620000 210 237 241 0
19.360000 7.260000 27.720000 210 237 241 0
19.580000 7.260000 27.720000 210 237 239 0
19.800000 7.260000 29.260000 210 237 239 0
20.020000 7.260000 29.260000 210 237 241 0
20.240000 7.260000 29.260000 208 235 239 0
20.460000 7.260000 29.260000 209 236 240 0
20.680000 7.260000 29.480000 209 236 240 0
20.900000 7.260000 30.800000 209 236 240 0
21.120000 7.260000 31.020000 209 236 240 0
21.340000 7.260000 31.020000 209 236 238 0
21.560000 7.260000 31.020000 210 237 239 0
21.780000 7.260000 31.020000 209 236 240 0
22.000000 7.260000 31.240000 209 236 240 0
22.220000 7.260000 32.560000 209 236 240 0
22.440000 7.260000 32.560000 209 236 240 0
22.660000 7.260000 32.780000 209 236 240 0
22.880000 7.260000 32.780000 210 237 241 0
23.100000 7.260000 32.780000 209 236 240 0
23.320000 7.260000 33.000000 209 236 240 0
23.540000 7.260000 33.000000 208 237 240 0
23.760000 7.260000 33.000000 207 236 239 0
23.980000 7.260000 34.540000 208 237 240 0
24.200000 7.260000 35.640000 207 236 239 0
24.420000 7.260000 37.620000 208 235 241 0
24.640000 7.260000 38.720000 208 235 241 0
24.860000 7.260000 38.940000 208 235 239 0
25.080000 7.260000 40.260000 208 235 239 0
25.300000 7.260000 40.260000 207 235 241 0
25.520000 7.260000 40.260000 206 234 240 0
25.740000 7.260000 41.800000 206 234 240 0
25.960000 7.260000 41.800000 206 234 240 0
26.180000 7.260000 39.160000 205 233 240 0
26.400000 7.260000 28.160000 205 233 240 0
26.620000 7.260000 12.980000 204 232 238 0
26.840000 7.260000 1.980000 204 232 238 0
27.060000 7.260000 0.660000 203 233 239 0
27.280000 7.260000 0.660000 203 233 239 0
27.500000 7.260000 0.880000 204 232 239 0
27.720000 7.260000 0.880000 202 230 237 0
27.940000 7.260000 0.880000 204 232 241 0
29.040000 7.260000 6.600000 199 229 235 0
29.260000 7.260000 25.520000 199 228 237 0
29.480000 7.260000 38.940000 198 227 236 0
29.700000 7.260000 40.480000 199 226 238 0
29.920000 7.260000 39.160000 198 225 237 0
30.140000 7.260000 40.700000 194 220 232 0
30.360000 7.260000 39.380000 191 217 229 0
30.580000 7.260000 38.280000 192 213 227 0
30.800000 7.260000 35.420000 190 211 225 0
31.020000 7.260000 31.460000 189 210 224 0
31.240000 7.260000 24.420000 187 208 222 0
31.460000 7.260000 14.740000 190 207 218 0
31.680000 7.260000 6.600000 189 206 217 0
31.900000 7.260000 2.640000 189 205 216 0
32.340000 7.260000 7.480000 182 198 208 0
32.560000 7.260000 25.300000 182 198 208 0
32.780000 7.260000 36.520000 178 197 206 0
33.000000 7.260000 39.380000 176 195 204 0
33.220000 7.260000 36.520000 175 190 204 0
33.440000 7.260000 27.060000 170 185 199 0
33.660000 7.260000 13.200000 165 180 196 0
33.880000 7.260000 5.060000 163 178 194 0
34.100000 7.260000 6.380000 161 172 187 0
34.320000 7.260000 9.240000 156 167 182 0
34.540000 7.260000 10.560000 156 163 177 0
34.760000 7.260000 10.560000 154 161 175 0
34.980000 7.260000 10.560000 157 156 165 0
35.200000 7.260000 10.560000 156 155 164 0
35.420000 7.260000 10.560000 153 153 158 0
35.640000 7.260000 12.100000 151 151 156 0
35.860000 7.260000 11.880000 154 148 153 0
36.080000 7.260000 11.880000 155 149 154 0
36.300000 7.260000 13.200000 152 145 150 0
36.520000 7.260000 13.200000 152 145 150 0
36.740000 7.260000 14.520000 155 145 149 0
36.960000 7.260000 14.520000 154 144 148 0
37.180000 7.260000 14.520000 153 144 146 0
0.000000 7.480000 2.200000 208 235 239 0
0.220000 7.480000 3.740000 208 235 239 0
0.440000 7.480000 3.740000 208 235 239 0
0.660000 7.480000 3.740000 210 234 239 0
0.880000 7.480000 3.960000 210 234 239 0
1.100000 7.480000 3.960000 207 234 238 0
1.320000 7.480000 3.960000 207 234 238 0
1.540000 7.480000 3.960000 208 235 239 0
1.760000 7.480000 3.960000 208 235 239 0
1.980000 7.480000 3.960000 210 234 239 0
2.200000 7.480000 5.060000 209 233 238 0
2.420000 7.480000 5.940000 209 233 238 0
2.640000 7.480000 7.040000 209 233 238 0
2.860000 7.480000 7.040000 208 235 239 0
3.080000 7.480000 7.040000 208 235 239 0
3.300000 7.480000 7.040000 206 233 237 0
3.520000 7.480000 7.040000 207 234 238 0
3.740000 7.480000 7.260000 209 233 238 0
3.960000 7.480000 7.260000 209 233 238 0
4.180000 7.480000 7.260000 209 233 238 0
4.400000 7.480000 7.480000 209 233 238 0
4.620000 7.480000 7.480000 207 234 238 0
4.840000 7.480000 7.480000 207 234 238 0
5.060000 7.480000 7.480000 210 234 239 0
5.280000 7.480000 7.700000 209 233 238 0
5.500000 7.480000 7.700000 207 234 238 0
5.720000 7.480000 7.700000 207 234 238 0
5.940000 7.480000 7.700000 210 234 239 0
6.160000 7.480000 7.920000 209 233 238 0
6.380000 7.480000 9.240000 209 236 238 0
6.600000 7.480000 9.460000 209 236 238 0
6.820000 7.480000 9.460000 210 235 237 0
7.040000 7.480000 9.460000 211 236 238 0
7.260000 7.480000 9.460000 209 236 240 0
7.480000 7.480000 9.460000 209 236 240 0
7.700000 7.480000 9.680000 210 237 239 0
7.920000 7.480000 10.560000 210 237 239 0
8.140000 7.480000 12.760000 210 237 239 0
8.360000 7.480000 13.860000 210 237 239 0
8.580000 7.480000 13.860000 212 237 239 0
8.800000 7.480000 14.080000 213 238 240 0
9.020000 7.480000 15.400000 210 237 239 0
9.240000 7.480000 15.400000 211 238 240 0
9.460000 7.480000 15.400000 211 238 240 0
9.680000 7.480000 15.620000 211 238 240 0
9.900000 7.480000 15.620000 210 237 239 0
10.120000 7.480000 15.620000 210 237 239 0
10.340000 7.480000 15.840000 210 237 239 0
10.560000 7.480000 17.160000 210 237 239 0
10.780000 7.480000 17.160000 209 238 239 0
11.000000 7.480000 17.380000 209 238 239 0
11.220000 7.480000 17.380000 210 237 239 0
11.440000 7.480000 17.380000 210 237 239 0
11.660000 7.480000 17.380000 209 236 240 0
11.880000 7.480000 17.600000 209 236 240 0
12.100000 7.480000 17.600000 210 237 239 0
12.320000 7.480000 17.600000 210 237 239 0
12.540000 7.480000 17.820000 209 238 239 0
12.760000 7.480000 17.820000 208 237 238 0
12.980000 7.480000 17.820000 210 237 239 0
13.200000 7.480000 17.820000 209 236 238 0
13.420000 7.480000 17.600000 208 237 240 0
13.640000 7.480000 19.800000 208 237 240 0
13.860000 7.480000 20.900000 208 237 240 0
14.080000 7.480000 20.900000 209 238 241 0
14.300000 7.480000 20.900000 209 238 239 0
14.520000 7.480000 20.900000 208 237 238 0
14.740000 7.480000 20.900000 209 236 238 0
14.960000 7.480000 21.120000 209 236 238 0
15.180000 7.480000 21.120000 208 237 240 0
15.400000 7.480000 19.800000 208 237 240 0
15.620000 7.480000 19.800000 209 238 241 0
15.840000 7.480000 20.020000 209 238 241 0
16.060000 7.480000 20.020000 210 239 240 0
16.280000 7.480000 20.020000 209 238 239 0
16.500000 7.480000 21.340000 210 237 241 0
16.720000 7.480000 21.560000 210 237 241 0
16.940000 7.480000 21.560000 210 237 241 0
17.160000 7.480000 22.880000 210 237 241 0
17.380000 7.480000 23.100000 209 238 241 0
17.600000 7.480000 23.100000 208 237 240 0
17.820000 7.480000 23.320000 209 238 239 0
18.040000 7.480000 23.320000 209 238 239 0
18.260000 7.480000 23.320000 210 237 241 0
18.480000 7.480000 23.320000 210 237 241 0
18.700000 7.480000 23.320000 210 237 239 0
18.920000 7.480000 24.420000 210 237 239 0
19.140000 7.480000 26.620000 210 237 241 0
19.360000 7.480000 27.720000 209 236 240 0
19.580000 7.480000 27.720000 210 237 239 0
19.800000 7.480000 29.260000 210 237 239 0
20.020000 7.480000 29.260000 210 237 241 0
20.240000 7.480000 29.260000 208 235 239 0
20.460000 7.480000 29.260000 209 236 240 0
20.680000 7.480000 30.800000 209 236 240 0
20.900000 7.480000 30.800000 210 237 241 0
21.120000 7.480000 31.020000 209 236 240 0
21.340000 7.480000 31.020000 209 236 240 0
21.560000 7.480000 31.020000 209 236 240 0
21.780000 7.480000 31.020000 210 237 241 0
22.000000 7.480000 32.560000 208 235 239 0
22.220000 7.480000 32.560000 209 236 240 0
22.440000 7.480000 32.560000 208 235 239 0
22.660000 7.480000 32.780000 209 236 240 0
22.880000 7.480000 32.780000 209 236 240 0
23.100000 7.480000 32.780000 209 236 240 0
23.320000 7.480000 33.000000 208 235 239 0
23.540000 7.480000 33.000000 209 236 242 0
23.760000 7.480000 33.000000 208 235 241 0
23.980000 7.480000 33.000000 208 235 239 0
24.200000 7.480000 34.100000 208 235 239 0
24.420000 7.480000 36.300000 208 235 239 0
24.640000 7.480000 37.400000 207 234 238 0
24.860000 7.480000 38.720000 208 235 241 0
25.080000 7.480000 38.940000 206 233 239 0
25.300000 7.480000 40.260000 207 234 240 0
25.520000 7.480000 40.260000 206 233 239 0
25.740000 7.480000 40.480000 205 231 239 0
25.960000 7.480000 39.160000 205 231 239 0
26.180000 7.480000 29.480000 204 230 238 0
26.400000 7.480000 12.980000 204 230 238 0
26.620000 7.480000 3.300000 204 230 238 0
26.840000 7.480000 0.660000 205 231 239 0
27.060000 7.480000 0.660000 203 229 239 0
27.280000 7.480000 0.660000 203 229 239 0
27.500000 7.480000 0.880000 203 229 239 0
27.720000 7.480000 0.880000 202 228 238 0
27.940000 7.480000 0.880000 202 228 238 0
29.040000 7.480000 9.460000 199 225 237 0
29.260000 7.480000 29.920000 203 226 239 0
29.480000 7.480000 41.800000 201 224 237 0
29.700000 7.480000 40.260000 197 223 235 0
29.920000 7.480000 40.480000 197 223 235 0
30.140000 7.480000 40.700000 193 220 232 0
30.360000 7.480000 39.380000 191 218 230 0
30.580000 7.480000 38.060000 192 217 232 0
30.800000 7.480000 38.280000 192 217 232 0
31.020000 7.480000 39.600000 193 214 228 0
31.240000 7.480000 36.960000 192 213 227 0
31.460000 7.480000 31.460000 194 212 227 0
31.680000 7.480000 21.780000 192 210 225 0
31.900000 7.480000 6.600000 186 209 220 0
32.340000 7.480000 8.580000 186 204 211 0
32.560000 7.480000 26.400000 183 201 208 0
32.780000 7.480000 37.620000 183 199 207 0
33.000000 7.480000 39.160000 179 195 203 0
33.220000 7.480000 39.160000 174 188 196 0
33.440000 7.480000 37.840000 170 184 192 0
33.660000 7.480000 26.840000 169 175 186 0
33.880000 7.480000 10.340000 161 167 178 0
34.100000 7.480000 6.380000 162 162 167 0
34.320000 7.480000 9.020000 158 158 163 0
34.540000 7.480000 10.560000 155 154 155 0
34.760000 7.480000 10.560000 154 153 154 0
34.980000 7.480000 10.560000 155 149 148 0
35.200000 7.480000 10.560000 155 149 148 0
35.420000 7.480000 10.560000 152 146 143 0
35.640000 7.480000 12.100000 153 147 144 0
35.860000 7.480000 11.880000 154 148 147 0
36.080000 7.480000 13.200000 152 146 145 0
36.300000 7.480000 13.200000 152 143 143 0
36.520000 7.480000 14.520000 152 143 143 0
36.740000 7.480000 14.520000 153 142 143 0
36.960000 7.480000 16.060000 152 141 142 0
37.180000 7.480000 14.520000 149 141 136 0
0.000000 7.700000 2.200000 207 234 238 0
0.220000 7.700000 3.740000 207 234 238 0
0.440000 7.700000 3.740000 207 234 238 0
0.660000 7.700000 3.740000 209 233 238 0
0.880000 7.700000 3.960000 209 233 238 0
1.100000 7.700000 3.960000 207 234 238 0
1.320000 7.700000 3.960000 207 234 238 0
1.540000 7.700000 3.960000 207 234 238 0
1.760000 7.700000 3.960000 207 234 238 0
1.980000 7.700000 3.960000 210 234 239 0
2.200000 7.700000 5.060000 209 233 238 0
2.420000 7.700000 5.940000 210 234 239 0
2.640000 7.700000 7.040000 209 233 238 0
2.860000 7.700000 7.040000 207 234 238 0
3.080000 7.700000 7.040000 207 234 238 0
3.300000 7.700000 7.040000 207 234 238 0
3.520000 7.700000 7.040000 207 234 238 0
3.740000 7.700000 7.260000 209 233 238 0
3.960000 7.700000 7.260000 208 232 237 0
4.180000 7.700000 7.260000 208 232 237 0
4.400000 7.700000 7.480000 208 232 237 0
4.620000 7.700000 7.480000 207 234 238 0
4.840000 7.700000 7.480000 207 234 238 0
5.060000 7.700000 7.480000 210 234 239 0
5.280000 7.700000 7.700000 209 233 238 0
5.500000 7.700000 7.700000 208 235 239 0
5.720000 7.700000 7.700000 208 235 239 0
5.940000 7.700000 7.700000 210 234 239 0
6.160000 7.700000 7.920000 210 234 239 0
6.380000 7.700000 9.240000 209 236 238 0
6.600000 7.700000 9.460000 209 236 238 0
6.820000 7.700000 9.460000 211 236 238 0
7.040000 7.700000 9.460000 211 236 238 0
7.260000 7.700000 9.460000 209 236 240 0
7.480000 7.700000 9.460000 209 236 240 0
7.700000 7.700000 9.680000 210 237 239 0
7.920000 7.700000 10.560000 210 237 239 0
8.140000 7.700000 12.760000 210 237 239 0
8.360000 7.700000 13.860000 210 237 239 0
8.580000 7.700000 13.860000 212 237 239 0
8.800000 7.700000 14.080000 212 237 239 0
9.020000 7.700000 15.400000 210 237 239 0
9.240000 7.700000 15.400000 211 238 240 0
9.460000 7.700000 15.400000 211 238 240 0
9.680000 7.700000 15.620000 210 237 239 0
9.900000 7.700000 15.620000 210 237 239 0
10.120000 7.700000 15.620000 210 237 239 0
10.340000 7.700000 15.840000 210 237 239 0
10.560000 7.700000 17.160000 210 237 239 0
10.780000 7.700000 17.160000 209 238 239 0
11.000000 7.700000 17.380000 209 238 239 0
11.220000 7.700000 17.380000 210 237 239 0
11.440000 7.700000 17.380000 210 237 239 0
11.660000 7.700000 17.380000 210 237 241 0
11.880000 7.700000 17.600000 209 236 240 0
12.100000 7.700000 17.600000 210 237 239 0
12.320000 7.700000 17.600000 210 237 239 0
12.540000 7.700000 17.820000 209 238 239 0
12.760000 7.700000 17.820000 209 238 239 0
12.980000 7.700000 17.820000 210 237 239 0
13.200000 7.700000 17.820000 210 237 239 0
13.420000 7.700000 17.600000 209 238 241 0
13.640000 7.700000 19.800000 209 238 241 0
13.860000 7.700000 20.900000 209 238 241 0
14.080000 7.700000 20.900000 208 237 240 0
14.300000 7.700000 20.900000 209 238 239 0
14.520000 7.700000 20.900000 209 238 239 0
14.740000 7.700000 20.900000 210 237 239 0
14.960000 7.700000 21.120000 210 237 239 0
15.180000 7.700000 21.120000 209 238 241 0
15.400000 7.700000 19.800000 208 237 240 0
15.620000 7.700000 19.800000 209 238 241 0
15.840000 7.700000 20.020000 208 237 240 0
16.060000 7.700000 20.020000 209 238 239 0
16.280000 7.700000 20.020000 209 238 239 0
16.500000 7.700000 21.340000 210 237 241 0
16.720000 7.700000 21.560000 210 237 241 0
16.940000 7.700000 21.560000 210 237 241 0
17.160000 7.700000 22.880000 210 237 241 0
17.380000 7.700000 23.100000 209 238 241 0
17.600000 7.700000 23.100000 209 238 241 0
17.820000 7.700000 23.320000 209 238 239 0
18.040000 7.700000 23.320000 209 238 239 0
18.260000 7.700000 23.320000 209 236 240 0
18.480000 7.700000 23.320000 210 237 241 0
18.700000 7.700000 23.320000 211 238 240 0
18.920000 7.700000 24.420000 211 238 240 0
19.140000 7.700000 26.620000 210 237 241 0
19.360000 7.700000 27.720000 210 237 241 0
19.580000 7.700000 27.720000 210 237 239 0
19.800000 7.700000 29.260000 210 237 239 0
20.020000 7.700000 29.260000 210 237 241 0
20.240000 7.700000 29.260000 209 236 240 0
20.460000 7.700000 29.260000 209 236 240 0
20.680000 7.700000 30.800000 209 236 240 0
20.900000 7.700000 30.800000 209 236 240 0
21.120000 7.700000 31.020000 209 236 240 0
21.340000 7.700000 31.020000 209 236 240 0
21.560000 7.700000 31.020000 209 236 240 0
21.780000 7.700000 31.020000 209 236 240 0
22.000000 7.700000 32.560000 208 235 239 0
22.220000 7.700000 32.560000 208 235 239 0
22.440000 7.700000 32.560000 208 235 239 0
22.660000 7.700000 32.780000 208 235 239 0
22.880000 7.700000 32.780000 209 236 240 0
23.100000 7.700000 32.780000 208 235 239 0
23.320000 7.700000 33.000000 208 235 239 0
23.540000 7.700000 33.000000 208 235 241 0
23.760000 7.700000 33.000000 207 234 240 0
23.980000 7.700000 33.000000 207 234 238 0
24.200000 7.700000 34.100000 207 234 238 0
24.420000 7.700000 36.300000 208 235 239 0
24.640000 7.700000 37.400000 207 234 238 0
24.860000 7.700000 37.400000 207 234 240 0
25.080000 7.700000 38.940000 206 233 239 0
25.300000 7.700000 38.940000 206 233 239 0
25.520000 7.700000 40.260000 206 233 239 0
25.740000 7.700000 40.480000 205 231 239 0
25.960000 7.700000 33.660000 204 230 238 0
26.180000 7.700000 15.620000 203 229 237 0
26.400000 7.700000 3.300000 203 229 237 0
26.620000 7.700000 0.660000 203 229 237 0
26.840000 7.700000 1.980000 203 229 237 0
27.060000 7.700000 1.980000 203 229 239 0
27.280000 7.700000 2.200000 201 227 237 0
27.500000 7.700000 2.200000 201 227 237 0
27.720000 7.700000 0.880000 201 227 237 0
27.940000 7.700000 0.880000 200 226 236 0
28.160000 7.700000 0.880000 199 225 235 0
28.380000 7.700000 1.100000 199 225 235 0
29.040000 7.700000 6.820000 196 222 234 0
29.260000 7.700000 21.780000 199 222 235 0
29.480000 7.700000 33.660000 198 221 234 0
29.700000 7.700000 38.940000 194 220 232 0
29.920000 7.700000 41.800000 194 220 232 0
30.140000 7.700000 40.700000 191 218 230 0
30.360000 7.700000 40.700000 190 217 229 0
30.580000 7.700000 39.600000 190 215 230 0
30.800000 7.700000 38.280000 194 219 234 0
31.020000 7.700000 39.600000 195 216 230 0
31.240000 7.700000 39.600000 194 215 229 0
31.460000 7.700000 39.820000 196 214 229 0
31.680000 7.700000 28.820000 194 212 227 0
31.900000 7.700000 9.240000 187 210 221 0
32.120000 7.700000 1.980000 187 210 221 0
32.340000 7.700000 11.220000 190 208 215 0
32.560000 7.700000 23.760000 186 204 211 0
32.780000 7.700000 36.300000 184 200 208 0
33.000000 7.700000 40.480000 182 198 206 0
33.220000 7.700000 40.480000 176 190 198 0
33.440000 7.700000 40.480000 168 182 190 0
33.660000 7.700000 31.020000 161 167 178 0
33.880000 7.700000 12.980000 156 162 173 0
34.100000 7.700000 4.840000 156 156 161 0
34.320000 7.700000 7.700000 153 153 158 0
34.540000 7.700000 9.020000 151 150 151 0
34.760000 7.700000 10.340000 149 148 149 0
34.980000 7.700000 10.560000 152 146 145 0
35.200000 7.700000 10.560000 151 145 144 0
35.420000 7.700000 10.560000 152 146 143 0
35.640000 7.700000 11.880000 149 143 140 0
35.860000 7.700000 11.880000 149 143 142 0
36.080000 7.700000 13.200000 147 141 140 0
36.300000 7.700000 14.520000 151 142 142 0
36.520000 7.700000 14.520000 150 141 141 0
36.740000 7.700000 16.060000 151 140 141 0
36.960000 7.700000 16.060000 150 139 140 0
37.180000 7.700000 16.060000 150 142 137 0
0.000000 7.920000 2.200000 206 235 238 0
0.220000 7.920000 3.740000 206 235 238 0
0.440000 7.920000 3.740000 206 235 238 0
0.660000 7.920000 3.740000 207 234 238 0
0.880000 7.920000 3.960000 206 233 237 0
1.100000 7.920000 3.960000 206 233 237 0
1.320000 7.920000 3.960000 205 232 236 0
1.540000 7.920000 3.960000 206 233 237 0
1.760000 7.920000 3.960000 207 234 238 0
1.980000 7.920000 3.960000 206 235 236 0
2.200000 7.920000 5.060000 207 236 237 0
2.420000 7.920000 5.940000 208 235 239 0
2.640000 7.920000 7.040000 208 235 239 0
2.860000 7.920000 7.040000 207 234 236 0
3.080000 7.920000 7.040000 206 233 235 0
3.300000 7.920000 7.040000 206 235 238 0
3.520000 7.920000 7.040000 206 235 238 0
3.740000 7.920000 7.260000 206 235 236 0
3.960000 7.920000 7.260000 206 235 236 0
4.180000 7.920000 7.260000 207 234 238 0
4.400000 7.920000 7.480000 207 234 238 0
4.620000 7.920000 7.480000 207 234 236 0
4.840000 7.920000 7.480000 207 234 236 0
5.060000 7.920000 7.480000 208 235 239 0
5.280000 7.920000 7.700000 209 236 240 0
5.500000 7.920000 7.700000 208 235 237 0
5.720000 7.920000 7.700000 208 235 237 0
5.940000 7.920000 7.700000 208 237 238 0
6.160000 7.920000 7.920000 208 237 238 0
6.380000 7.920000 7.920000 208 237 238 0
6.600000 7.920000 9.460000 208 237 238 0
6.820000 7.920000 9.460000 208 235 237 0
7.040000 7.920000 9.460000 209 236 238 0
7.260000 7.920000 9.460000 209 236 238 0
7.480000 7.920000 9.460000 209 236 238 0
7.700000 7.920000 9.680000 209 238 239 0
7.920000 7.920000 10.560000 208 237 238 0
8.140000 7.920000 12.760000 208 237 238 0
8.360000 7.920000 13.860000 209 238 239 0
8.580000 7.920000 13.860000 210 237 239 0
8.800000 7.920000 14.080000 210 237 239 0
9.020000 7.920000 15.400000 210 237 239 0
9.240000 7.920000 15.400000 211 238 240 0
9.460000 7.920000 15.400000 209 238 239 0
9.680000 7.920000 15.620000 208 237 238 0
9.900000 7.920000 15.620000 209 238 239 0
10.120000 7.920000 15.620000 209 238 239 0
10.340000 7.920000 15.840000 209 238 239 0
10.560000 7.920000 17.160000 209 238 239 0
10.780000 7.920000 17.160000 209 238 239 0
11.000000 7.920000 17.380000 209 238 239 0
11.220000 7.920000 17.380000 209 236 238 0
11.440000 7.920000 17.380000 210 237 239 0
11.660000 7.920000 17.380000 209 238 239 0
11.880000 7.920000 17.600000 209 238 239 0
12.100000 7.920000 17.600000 209 238 239 0
12.320000 7.920000 17.600000 209 238 239 0
12.540000 7.920000 17.820000 209 238 239 0
12.760000 7.920000 17.820000 209 238 239 0
12.980000 7.920000 17.820000 209 238 239 0
13.200000 7.920000 17.820000 209 238 239 0
13.420000 7.920000 17.600000 209 238 241 0
13.640000 7.920000 19.800000 209 238 241 0
13.860000 7.920000 20.900000 209 238 239 0
14.080000 7.920000 20.900000 209 238 239 0
14.300000 7.920000 20.900000 209 238 239 0
14.520000 7.920000 20.900000 209 238 239 0
14.740000 7.920000 20.900000 209 238 239 0
14.960000 7.920000 21.120000 209 238 239 0
15.180000 7.920000 21.120000 209 238 241 0
15.400000 7.920000 19.800000 208 237 240 0
15.620000 7.920000 19.800000 208 237 240 0
15.840000 7.920000 20.020000 207 236 239 0
16.060000 7.920000 20.020000 208 237 240 0
16.280000 7.920000 21.340000 209 238 241 0
16.500000 7.920000 21.340000 209 238 239 0
16.720000 7.920000 21.560000 209 238 239 0
16.940000 7.920000 21.560000 209 238 239 0
17.160000 7.920000 22.880000 209 238 239 0
17.380000 7.920000 23.100000 209 238 241 0
17.600000 7.920000 23.100000 209 238 241 0
17.820000 7.920000 23.320000 209 238 239 0
18.040000 7.920000 23.320000 209 238 239 0
18.260000 7.920000 23.320000 209 236 240 0
18.480000 7.920000 23.320000 209 236 240 0
18.700000 7.920000 23.320000 210 237 241 0
18.920000 7.920000 24.420000 211 238 242 0
19.140000 7.920000 26.620000 209 238 241 0
19.360000 7.920000 27.720000 209 238 241 0
19.580000 7.920000 29.260000 208 237 238 0
19.800000 7.920000 29.260000 209 238 239 0
20.020000 7.920000 29.260000 209 236 240 0
20.240000 7.920000 29.260000 209 236 240 0
20.460000 7.920000 29.260000 210 237 241 0
20.680000 7.920000 30.800000 210 237 241 0
20.900000 7.920000 30.800000 209 236 240 0
21.120000 7.920000 31.020000 209 236 240 0
21.340000 7.920000 31.020000 209 236 240 0
21.560000 7.920000 31.020000 209 236 240 0
21.780000 7.920000 31.020000 209 236 240 0
22.000000 7.920000 32.560000 209 236 240 0
22.220000 7.920000 32.560000 208 235 239 0
22.440000 7.920000 32.560000 207 234 238 0
22.660000 7.920000 32.780000 208 235 239 0
22.880000 7.920000 32.780000 208 235 239 0
23.100000 7.920000 32.780000 208 235 239 0
23.320000 7.920000 33.000000 209 236 240 0
23.540000 7.920000 33.000000 208 235 239 0
23.760000 7.920000 33.000000 208 235 239 0
23.980000 7.920000 33.000000 207 234 240 0
24.200000 7.920000 34.100000 207 234 240 0
24.420000 7.920000 36.300000 207 234 238 0
24.640000 7.920000 37.400000 207 234 238 0
24.860000 7.920000 37.400000 207 234 240 0
25.080000 7.920000 38.940000 206 233 239 0
25.300000 7.920000 38.940000 206 233 239 0
25.520000 7.920000 40.260000 205 232 238 0
25.740000 7.920000 40.480000 205 231 239 0
25.960000 7.920000 30.800000 204 230 238 0
26.180000 7.920000 11.440000 206 230 237 0
