ply
format ascii 1.0
element vertex 1124
property float x
property float y
property float z
property uchar red
property uchar green
property uchar blue
property uchar alpha
end_header
34.540000 19.580000 19.580000 184 176 160 0
34.760000 19.580000 19.470000 190 182 166 0
34.980000 19.580000 19.360000 191 184 171 0
35.200000 19.580000 19.360000 194 187 174 0
35.420000 19.580000 19.470000 198 191 180 0
35.640000 19.580000 19.470000 200 193 182 0
35.860000 19.580000 20.130000 201 192 182 0
36.080000 19.580000 19.470000 206 197 187 0
36.300000 19.580000 13.310000 205 196 186 0
36.520000 19.580000 4.290000 207 198 188 0
36.740000 19.580000 0.220000 207 198 188 0
36.960000 19.580000 0.220000 207 198 188 0
37.180000 19.580000 0.220000 205 198 187 0
0.000000 19.800000 8.580000 135 108 108 0
0.220000 19.800000 9.350000 141 105 104 0
0.440000 19.800000 10.780000 140 104 103 0
0.660000 19.800000 10.890000 141 102 104 0
0.880000 19.800000 10.890000 139 100 102 0
1.100000 19.800000 10.890000 138 101 103 0
1.320000 19.800000 11.000000 137 100 102 0
1.540000 19.800000 11.660000 141 100 101 0
1.760000 19.800000 13.090000 140 99 100 0
1.980000 19.800000 13.090000 140 103 105 0
2.200000 19.800000 12.320000 140 103 105 0
2.420000 19.800000 11.660000 140 105 107 0
2.640000 19.800000 11.660000 142 107 109 0
2.860000 19.800000 12.320000 143 108 110 0
3.080000 19.800000 13.090000 143 108 110 0
3.300000 19.800000 13.090000 141 110 113 0
3.520000 19.800000 13.640000 142 111 114 0
3.740000 19.800000 14.080000 144 111 115 0
3.960000 19.800000 14.630000 145 112 116 0
4.180000 19.800000 15.290000 146 113 117 0
4.400000 19.800000 15.180000 147 114 118 0
4.620000 19.800000 15.400000 144 116 125 0
4.840000 19.800000 14.960000 146 118 127 0
5.060000 19.800000 15.070000 143 121 129 0
5.280000 19.800000 15.070000 145 123 131 0
5.500000 19.800000 13.750000 148 124 133 0
5.720000 19.800000 12.320000 151 127 136 0
5.940000 19.800000 12.210000 157 129 138 0
6.160000 19.800000 14.300000 160 132 141 0
6.380000 19.800000 16.280000 161 133 140 0
6.600000 19.800000 17.050000 172 144 151 0
6.820000 19.800000 12.870000 195 196 195 0
7.040000 19.800000 6.050000 236 237 236 0
7.260000 19.800000 0.550000 239 240 239 0
7.700000 19.800000 0.550000 240 241 240 0
7.920000 19.800000 6.820000 240 241 240 0
8.140000 19.800000 15.840000 240 241 240 0
8.360000 19.800000 19.250000 240 241 240 0
8.580000 19.800000 18.590000 240 241 240 0
8.800000 19.800000 18.590000 240 241 240 0
9.020000 19.800000 18.700000 240 241 240 0
9.240000 19.800000 18.590000 240 241 240 0
9.460000 19.800000 19.140000 247 235 242 0
9.680000 19.800000 20.240000 203 191 198 0
9.900000 19.800000 16.610000 200 137 140 0
10.120000 19.800000 8.360000 168 105 108 0
10.340000 19.800000 4.290000 161 101 98 0
10.560000 19.800000 4.950000 158 98 95 0
10.780000 19.800000 5.610000 155 95 89 0
11.000000 19.800000 6.380000 152 92 86 0
11.220000 19.800000 7.040000 152 88 83 0
11.440000 19.800000 7.810000 152 88 83 0
11.660000 19.800000 6.380000 152 87 80 0
11.880000 19.800000 5.060000 151 86 79 0
12.100000 19.800000 5.060000 152 83 75 0
12.320000 19.800000 5.060000 152 83 75 0
12.540000 19.800000 5.060000 150 82 76 0
12.760000 19.800000 5.060000 150 82 76 0
12.980000 19.800000 5.060000 150 81 73 0
13.200000 19.800000 5.060000 149 80 72 0
13.420000 19.800000 5.060000 150 79 72 0
13.640000 19.800000 5.060000 150 79 72 0
13.860000 19.800000 5.060000 151 77 71 0
14.080000 19.800000 4.950000 150 76 70 0
14.300000 19.800000 4.950000 149 78 69 0
14.520000 19.800000 4.950000 147 76 67 0
14.740000 19.800000 4.950000 148 74 68 0
14.960000 19.800000 4.950000 147 73 67 0
15.180000 19.800000 5.720000 147 73 65 0
15.400000 19.800000 6.380000 147 73 65 0
15.620000 19.800000 6.490000 147 71 66 0
15.840000 19.800000 6.490000 148 72 67 0
16.060000 19.800000 6.490000 146 71 63 0
16.280000 19.800000 6.490000 146 71 63 0
16.500000 19.800000 6.380000 145 69 64 0
16.720000 19.800000 5.720000 145 69 64 0
16.940000 19.800000 5.720000 146 71 63 0
17.160000 19.800000 5.720000 144 69 61 0
17.380000 19.800000 5.830000 144 73 66 0
17.600000 19.800000 5.830000 147 76 69 0
17.820000 19.800000 5.830000 157 88 76 0
18.040000 19.800000 5.940000 158 89 77 0
18.260000 19.800000 4.620000 158 89 68 0
18.480000 19.800000 4.620000 154 85 64 0
18.700000 19.800000 5.170000 148 70 65 0
18.920000 19.800000 5.720000 143 65 60 0
19.140000 19.800000 8.470000 142 64 59 0
19.360000 19.800000 13.310000 142 64 59 0
19.580000 19.800000 15.400000 141 63 58 0
19.800000 19.800000 13.420000 142 64 59 0
20.020000 19.800000 11.440000 141 63 58 0
20.240000 19.800000 10.120000 143 65 60 0
20.460000 19.800000 10.120000 141 67 61 0
20.680000 19.800000 12.210000 143 69 63 0
20.900000 19.800000 13.640000 142 74 68 0
21.120000 19.800000 13.750000 146 78 72 0
21.340000 19.800000 13.530000 147 83 76 0
21.560000 19.800000 14.080000 148 84 77 0
21.780000 19.800000 14.740000 143 94 92 0
22.000000 19.800000 10.890000 150 101 99 0
22.220000 19.800000 5.500000 149 110 110 0
22.440000 19.800000 3.960000 158 119 119 0
22.660000 19.800000 5.280000 160 121 119 0
22.880000 19.800000 7.370000 159 120 118 0
23.100000 19.800000 9.350000 164 116 111 0
23.320000 19.800000 11.440000 164 116 111 0
23.540000 19.800000 10.780000 171 114 102 0
23.760000 19.800000 7.370000 172 115 103 0
23.980000 19.800000 6.820000 170 106 92 0
24.200000 19.800000 7.480000 167 103 89 0
24.420000 19.800000 8.910000 165 101 87 0
24.640000 19.800000 9.570000 165 101 87 0
24.860000 19.800000 9.570000 160 103 91 0
25.080000 19.800000 7.480000 163 106 94 0
25.300000 19.800000 6.160000 157 114 102 0
25.520000 19.800000 6.160000 162 119 107 0
25.740000 19.800000 7.480000 149 130 118 0
25.960000 19.800000 8.800000 151 132 120 0
26.180000 19.800000 9.460000 150 131 119 0
26.400000 19.800000 10.890000 150 131 119 0
26.620000 19.800000 11.660000 151 133 116 0
26.840000 19.800000 12.320000 150 132 115 0
27.060000 19.800000 12.980000 150 133 118 0
27.280000 19.800000 13.530000 149 132 117 0
27.500000 19.800000 14.630000 150 133 118 0
27.720000 19.800000 15.180000 150 133 118 0
27.940000 19.800000 15.180000 149 135 119 0
28.160000 19.800000 13.970000 149 135 119 0
28.380000 19.800000 13.530000 150 136 122 0
28.600000 19.800000 12.980000 150 136 122 0
28.820000 19.800000 13.530000 150 136 120 0
29.040000 19.800000 14.300000 149 135 119 0
29.260000 19.800000 14.300000 151 134 119 0
29.480000 19.800000 14.960000 150 133 118 0
29.700000 19.800000 15.620000 149 132 117 0
29.920000 19.800000 15.730000 150 133 118 0
30.140000 19.800000 16.390000 151 133 118 0
30.360000 19.800000 16.390000 151 133 118 0
30.580000 19.800000 15.620000 150 134 116 0
30.800000 19.800000 14.960000 150 134 116 0
31.020000 19.800000 14.960000 151 133 116 0
31.240000 19.800000 14.960000 152 134 117 0
31.460000 19.800000 15.730000 151 135 117 0
31.680000 19.800000 16.390000 154 138 120 0
31.900000 19.800000 17.050000 155 137 120 0
32.120000 19.800000 17.820000 157 139 122 0
32.340000 19.800000 18.480000 158 140 121 0
32.560000 19.800000 19.250000 160 142 123 0
32.780000 19.800000 19.250000 162 145 124 0
33.000000 19.800000 19.250000 166 149 128 0
33.220000 19.800000 19.250000 167 151 131 0
33.440000 19.800000 18.590000 172 156 136 0
33.660000 19.800000 18.590000 177 161 143 0
33.880000 19.800000 18.590000 181 165 147 0
34.100000 19.800000 19.250000 182 169 155 0
34.320000 19.800000 19.580000 185 172 158 0
34.540000 19.800000 19.470000 186 179 164 0
34.760000 19.800000 19.360000 190 183 168 0
34.980000 19.800000 19.360000 191 187 173 0
35.200000 19.800000 19.470000 194 190 176 0
35.420000 19.800000 19.470000 199 192 181 0
35.640000 19.800000 19.470000 201 194 183 0
35.860000 19.800000 20.130000 203 194 182 0
36.080000 19.800000 16.720000 205 196 184 0
36.300000 19.800000 7.810000 206 199 188 0
36.520000 19.800000 1.540000 206 199 188 0
36.740000 19.800000 0.220000 207 200 189 0
36.960000 19.800000 0.220000 207 200 189 0
37.180000 19.800000 0.220000 206 199 188 0
0.000000 20.020000 9.350000 135 108 108 0
0.220000 20.020000 10.010000 139 103 102 0
0.440000 20.020000 10.780000 138 102 101 0
0.660000 20.020000 11.550000 139 100 102 0
0.880000 20.020000 11.550000 139 100 102 0
1.100000 20.020000 10.890000 136 99 101 0
1.320000 20.020000 11.000000 137 100 102 0
1.540000 20.020000 11.660000 140 99 100 0
1.760000 20.020000 12.430000 141 100 101 0
1.980000 20.020000 12.430000 138 101 103 0
2.200000 20.020000 12.320000 140 103 105 0
2.420000 20.020000 11.660000 141 106 108 0
2.640000 20.020000 11.660000 141 106 108 0
2.860000 20.020000 12.320000 142 107 109 0
3.080000 20.020000 12.320000 143 108 110 0
3.300000 20.020000 13.090000 142 111 114 0
3.520000 20.020000 13.640000 142 111 114 0
3.740000 20.020000 14.740000 144 111 115 0
3.960000 20.020000 15.180000 146 113 117 0
4.180000 20.020000 15.290000 146 113 117 0
4.400000 20.020000 15.180000 147 114 118 0
4.620000 20.020000 15.400000 144 116 125 0
4.840000 20.020000 14.960000 146 118 127 0
5.060000 20.020000 15.070000 144 122 130 0
5.280000 20.020000 13.750000 147 125 133 0
5.500000 20.020000 12.980000 150 126 135 0
5.720000 20.020000 12.980000 153 129 138 0
5.940000 20.020000 13.640000 157 129 138 0
6.160000 20.020000 16.280000 159 131 140 0
6.380000 20.020000 16.940000 168 140 147 0
6.600000 20.020000 12.870000 212 184 191 0
6.820000 20.020000 5.940000 237 238 237 0
7.040000 20.020000 0.550000 240 241 240 0
7.920000 20.020000 4.070000 240 241 240 0
8.140000 20.020000 14.410000 240 241 240 0
8.360000 20.020000 19.250000 240 241 240 0
8.580000 20.020000 18.590000 240 241 240 0
8.800000 20.020000 18.590000 240 241 240 0
9.020000 20.020000 18.700000 240 241 240 0
9.240000 20.020000 18.700000 240 241 240 0
9.460000 20.020000 19.140000 248 236 243 0
9.680000 20.020000 20.240000 226 214 221 0
9.900000 20.020000 15.950000 242 179 182 0
10.120000 20.020000 7.040000 174 111 114 0
10.340000 20.020000 3.630000 159 99 96 0
10.560000 20.020000 4.950000 156 96 93 0
10.780000 20.020000 5.610000 154 94 88 0
11.000000 20.020000 6.380000 151 91 85 0
11.220000 20.020000 7.040000 152 88 83 0
11.440000 20.020000 7.150000 151 87 82 0
11.660000 20.020000 6.380000 151 86 79 0
11.880000 20.020000 5.060000 151 86 79 0
12.100000 20.020000 5.060000 152 83 75 0
12.320000 20.020000 5.060000 151 82 74 0
12.540000 20.020000 5.060000 151 83 77 0
12.760000 20.020000 5.060000 150 82 76 0
12.980000 20.020000 5.060000 151 82 74 0
13.200000 20.020000 5.060000 149 80 72 0
13.420000 20.020000 5.060000 149 78 71 0
13.640000 20.020000 5.060000 149 78 71 0
13.860000 20.020000 5.060000 150 76 70 0
14.080000 20.020000 4.950000 148 74 68 0
14.300000 20.020000 4.950000 147 76 67 0
14.520000 20.020000 4.950000 147 76 67 0
14.740000 20.020000 5.610000 148 74 68 0
14.960000 20.020000 5.720000 148 74 68 0
15.180000 20.020000 6.380000 147 73 65 0
15.400000 20.020000 6.490000 147 73 65 0
15.620000 20.020000 7.150000 148 72 67 0
15.840000 20.020000 7.260000 147 71 66 0
16.060000 20.020000 6.490000 147 72 64 0
16.280000 20.020000 6.490000 146 71 63 0
16.500000 20.020000 6.380000 146 70 65 0
16.720000 20.020000 5.720000 146 70 65 0
16.940000 20.020000 5.830000 146 71 63 0
17.160000 20.020000 6.490000 146 71 63 0
17.380000 20.020000 6.490000 144 73 66 0
17.600000 20.020000 6.490000 153 82 75 0
17.820000 20.020000 7.260000 163 94 82 0
18.040000 20.020000 6.600000 160 91 79 0
18.260000 20.020000 4.620000 160 91 70 0
18.480000 20.020000 3.850000 158 89 68 0
18.700000 20.020000 5.060000 152 74 69 0
18.920000 20.020000 5.060000 144 66 61 0
19.140000 20.020000 8.470000 142 64 59 0
19.360000 20.020000 14.740000 142 64 59 0
19.580000 20.020000 16.170000 142 64 59 0
19.800000 20.020000 12.760000 142 64 59 0
20.020000 20.020000 10.780000 143 65 60 0
20.240000 20.020000 10.120000 145 67 62 0
20.460000 20.020000 10.120000 146 72 66 0
20.680000 20.020000 12.210000 152 78 72 0
20.900000 20.020000 12.980000 152 84 78 0
21.120000 20.020000 13.530000 151 83 77 0
21.340000 20.020000 14.080000 153 89 82 0
21.560000 20.020000 13.860000 156 92 85 0
21.780000 20.020000 11.880000 153 104 102 0
22.000000 20.020000 8.030000 161 112 110 0
22.220000 20.020000 5.390000 160 121 121 0
22.440000 20.020000 5.280000 160 121 121 0
22.660000 20.020000 6.490000 161 122 120 0
22.880000 20.020000 8.690000 162 123 121 0
23.100000 20.020000 10.120000 167 119 114 0
23.320000 20.020000 11.440000 163 115 110 0
23.540000 20.020000 10.780000 168 111 99 0
23.760000 20.020000 8.140000 165 108 96 0
23.980000 20.020000 7.480000 165 101 87 0
24.200000 20.020000 8.250000 164 100 86 0
24.420000 20.020000 8.910000 164 100 86 0
24.640000 20.020000 8.910000 164 100 86 0
24.860000 20.020000 8.140000 159 102 90 0
25.080000 20.020000 6.050000 163 106 94 0
25.300000 20.020000 5.390000 158 115 103 0
25.520000 20.020000 6.820000 161 118 106 0
25.740000 20.020000 8.800000 149 130 118 0
25.960000 20.020000 10.230000 150 131 119 0
26.180000 20.020000 10.890000 150 131 119 0
26.400000 20.020000 11.550000 149 130 118 0
26.620000 20.020000 12.320000 149 131 114 0
26.840000 20.020000 13.090000 149 131 114 0
27.060000 20.020000 13.750000 147 130 115 0
27.280000 20.020000 14.300000 148 131 116 0
27.500000 20.020000 16.060000 148 131 116 0
27.720000 20.020000 16.610000 149 132 117 0
27.940000 20.020000 15.180000 147 133 117 0
28.160000 20.020000 14.630000 147 133 117 0
28.380000 20.020000 13.420000 148 134 120 0
28.600000 20.020000 13.530000 148 134 120 0
28.820000 20.020000 14.190000 147 133 117 0
29.040000 20.020000 14.300000 146 132 116 0
29.260000 20.020000 14.300000 148 131 116 0
29.480000 20.020000 14.960000 148 131 116 0
29.700000 20.020000 15.620000 147 130 115 0
29.920000 20.020000 16.390000 147 130 115 0
30.140000 20.020000 16.390000 149 131 116 0
30.360000 20.020000 16.390000 149 131 116 0
30.580000 20.020000 15.620000 149 133 115 0
30.800000 20.020000 15.620000 149 133 115 0
31.020000 20.020000 14.960000 149 131 114 0
31.240000 20.020000 15.620000 150 132 115 0
31.460000 20.020000 15.730000 151 135 117 0
31.680000 20.020000 16.390000 153 137 119 0
31.900000 20.020000 17.050000 155 137 120 0
32.120000 20.020000 17.820000 156 138 121 0
32.340000 20.020000 18.480000 160 142 123 0
32.560000 20.020000 19.250000 161 143 124 0
32.780000 20.020000 19.250000 164 147 126 0
33.000000 20.020000 19.250000 167 150 129 0
33.220000 20.020000 19.250000 171 155 135 0
33.440000 20.020000 18.590000 175 159 139 0
33.660000 20.020000 18.590000 178 162 144 0
33.880000 20.020000 18.590000 182 166 148 0
34.100000 20.020000 19.140000 185 172 158 0
34.320000 20.020000 19.470000 189 176 162 0
34.540000 20.020000 19.360000 189 182 167 0
34.760000 20.020000 19.360000 192 185 170 0
34.980000 20.020000 19.470000 193 189 175 0
35.200000 20.020000 19.470000 197 193 179 0
35.420000 20.020000 19.470000 199 192 181 0
35.640000 20.020000 19.470000 203 196 185 0
35.860000 20.020000 20.130000 205 196 184 0
36.080000 20.020000 15.400000 206 197 185 0
36.300000 20.020000 5.060000 206 199 188 0
36.520000 20.020000 0.220000 206 199 188 0
36.740000 20.020000 0.220000 207 200 189 0
36.960000 20.020000 0.220000 206 199 188 0
37.180000 20.020000 0.330000 206 199 188 0
0.000000 20.240000 10.010000 139 103 102 0
0.220000 20.240000 10.010000 138 99 97 0
0.440000 20.240000 11.550000 138 99 97 0
0.660000 20.240000 11.550000 140 97 99 0
0.880000 20.240000 11.550000 139 96 98 0
1.100000 20.240000 10.890000 140 98 97 0
1.320000 20.240000 11.000000 141 99 98 0
1.540000 20.240000 11.660000 140 101 101 0
1.760000 20.240000 12.320000 140 101 101 0
1.980000 20.240000 12.320000 141 102 102 0
2.200000 20.240000 12.320000 142 103 103 0
2.420000 20.240000 11.660000 141 104 106 0
2.640000 20.240000 11.660000 142 105 107 0
2.860000 20.240000 12.320000 142 107 109 0
3.080000 20.240000 12.430000 143 108 110 0
3.300000 20.240000 12.430000 143 110 114 0
3.520000 20.240000 12.980000 143 110 114 0
3.740000 20.240000 13.970000 147 111 118 0
3.960000 20.240000 15.290000 147 111 118 0
4.180000 20.240000 15.290000 146 114 122 0
4.400000 20.240000 15.290000 148 116 124 0
4.620000 20.240000 15.400000 145 119 125 0
4.840000 20.240000 14.850000 146 120 126 0
5.060000 20.240000 14.850000 146 124 132 0
5.280000 20.240000 13.530000 148 126 134 0
5.500000 20.240000 12.980000 150 126 135 0
5.720000 20.240000 14.300000 153 129 138 0
5.940000 20.240000 16.280000 165 129 126 0
6.160000 20.240000 16.940000 173 137 134 0
6.380000 20.240000 13.530000 174 175 174 0
6.600000 20.240000 5.940000 233 234 233 0
6.820000 20.240000 1.210000 240 241 240 0
7.920000 20.240000 4.070000 240 241 240 0
8.140000 20.240000 14.410000 240 241 240 0
8.360000 20.240000 18.590000 240 241 240 0
8.580000 20.240000 18.590000 240 241 240 0
8.800000 20.240000 18.590000 240 241 240 0
9.020000 20.240000 18.590000 240 241 240 0
9.240000 20.240000 18.590000 240 241 240 0
9.460000 20.240000 19.140000 240 241 240 0
9.680000 20.240000 20.240000 239 240 239 0
9.900000 20.240000 15.950000 255 200 201 0
10.120000 20.240000 7.040000 170 113 114 0
10.340000 20.240000 4.290000 160 98 94 0
10.560000 20.240000 4.950000 155 93 89 0
10.780000 20.240000 5.720000 152 91 85 0
11.000000 20.240000 6.380000 151 90 84 0
11.220000 20.240000 7.040000 151 86 79 0
11.440000 20.240000 7.150000 151 86 79 0
11.660000 20.240000 5.720000 152 84 78 0
11.880000 20.240000 5.060000 151 83 77 0
12.100000 20.240000 4.400000 151 83 77 0
12.320000 20.240000 4.400000 152 84 78 0
12.540000 20.240000 4.400000 151 83 77 0
12.760000 20.240000 5.060000 151 83 77 0
12.980000 20.240000 5.060000 149 80 70 0
13.200000 20.240000 5.060000 149 80 70 0
13.420000 20.240000 5.060000 151 77 69 0
13.640000 20.240000 5.060000 151 77 69 0
13.860000 20.240000 5.060000 149 75 69 0
14.080000 20.240000 4.950000 148 74 68 0
14.300000 20.240000 4.950000 149 74 66 0
14.520000 20.240000 5.610000 148 73 65 0
14.740000 20.240000 5.720000 148 74 66 0
14.960000 20.240000 5.720000 147 73 65 0
15.180000 20.240000 6.490000 148 73 65 0
15.400000 20.240000 7.150000 148 73 65 0
15.620000 20.240000 7.150000 149 73 68 0
15.840000 20.240000 7.260000 147 71 66 0
16.060000 20.240000 6.490000 147 71 66 0
16.280000 20.240000 6.490000 147 71 66 0
16.500000 20.240000 6.490000 146 71 63 0
16.720000 20.240000 6.490000 145 70 62 0
16.940000 20.240000 6.490000 146 72 64 0
17.160000 20.240000 6.490000 147 73 65 0
17.380000 20.240000 6.490000 146 76 64 0
17.600000 20.240000 7.260000 155 85 73 0
17.820000 20.240000 7.260000 161 93 79 0
18.040000 20.240000 5.940000 164 96 82 0
18.260000 20.240000 3.850000 164 89 79 0
18.480000 20.240000 3.740000 162 87 77 0
18.700000 20.240000 5.060000 152 74 69 0
18.920000 20.240000 5.060000 143 65 60 0
19.140000 20.240000 8.470000 142 64 59 0
19.360000 20.240000 13.420000 143 65 60 0
19.580000 20.240000 13.420000 141 65 60 0
19.800000 20.240000 10.010000 144 68 63 0
20.020000 20.240000 8.690000 137 73 68 0
20.240000 20.240000 8.690000 143 79 74 0
20.460000 20.240000 9.460000 143 88 80 0
20.680000 20.240000 10.780000 146 91 83 0
20.900000 20.240000 12.210000 147 92 84 0
21.120000 20.240000 12.650000 149 94 86 0
21.340000 20.240000 13.200000 152 102 98 0
21.560000 20.240000 12.430000 158 108 104 0
21.780000 20.240000 8.470000 155 116 118 0
22.000000 20.240000 5.830000 161 122 124 0
22.220000 20.240000 5.830000 158 127 128 0
22.440000 20.240000 6.490000 160 129 130 0
22.660000 20.240000 7.920000 168 123 121 0
22.880000 20.240000 9.350000 167 122 120 0
23.100000 20.240000 11.440000 171 113 104 0
23.320000 20.240000 12.210000 165 107 98 0
23.540000 20.240000 10.780000 167 100 89 0
23.760000 20.240000 9.460000 164 97 86 0
23.980000 20.240000 8.800000 165 98 84 0
24.200000 20.240000 8.910000 164 97 83 0
24.420000 20.240000 8.910000 159 100 89 0
24.640000 20.240000 8.140000 158 99 88 0
24.860000 20.240000 6.820000 156 102 89 0
25.080000 20.240000 5.390000 162 108 95 0
25.300000 20.240000 5.390000 154 114 102 0
25.520000 20.240000 7.480000 159 119 107 0
25.740000 20.240000 10.230000 152 128 115 0
25.960000 20.240000 11.550000 153 129 116 0
26.180000 20.240000 11.550000 151 128 115 0
26.400000 20.240000 12.320000 150 127 114 0
26.620000 20.240000 13.090000 151 129 111 0
26.840000 20.240000 13.750000 149 127 109 0
27.060000 20.240000 13.750000 149 127 109 0
27.280000 20.240000 15.070000 148 126 108 0
27.500000 20.240000 16.170000 150 126 111 0
27.720000 20.240000 16.610000 151 127 112 0
27.940000 20.240000 15.950000 149 129 115 0
28.160000 20.240000 14.520000 150 130 116 0
28.380000 20.240000 13.970000 149 131 114 0
28.600000 20.240000 13.530000 149 131 114 0
28.820000 20.240000 14.190000 149 131 114 0
29.040000 20.240000 14.300000 149 131 114 0
29.260000 20.240000 14.300000 150 128 112 0
29.480000 20.240000 14.960000 150 128 112 0
29.700000 20.240000 15.620000 149 129 113 0
29.920000 20.240000 16.390000 149 129 113 0
30.140000 20.240000 16.390000 149 130 111 0
30.360000 20.240000 16.390000 150 131 112 0
30.580000 20.240000 16.390000 149 131 112 0
30.800000 20.240000 15.620000 150 132 113 0
31.020000 20.240000 15.620000 150 130 114 0
31.240000 20.240000 15.730000 151 131 115 0
31.460000 20.240000 15.730000 152 133 114 0
31.680000 20.240000 16.390000 153 134 115 0
31.900000 20.240000 17.050000 155 138 117 0
32.120000 20.240000 17.820000 157 140 119 0
32.340000 20.240000 18.480000 159 141 122 0
32.560000 20.240000 19.250000 162 144 125 0
32.780000 20.240000 19.910000 165 147 130 0
33.000000 20.240000 19.250000 168 150 133 0
33.220000 20.240000 19.250000 170 156 138 0
33.440000 20.240000 18.590000 174 160 142 0
33.660000 20.240000 18.590000 177 168 150 0
33.880000 20.240000 19.250000 180 171 153 0
34.100000 20.240000 19.580000 184 176 160 0
34.320000 20.240000 20.130000 187 179 163 0
34.540000 20.240000 20.130000 191 182 170 0
34.760000 20.240000 19.470000 193 184 172 0
34.980000 20.240000 20.130000 195 188 177 0
35.200000 20.240000 20.130000 199 192 181 0
35.420000 20.240000 20.130000 202 193 181 0
35.640000 20.240000 20.130000 204 195 183 0
35.860000 20.240000 20.130000 205 198 185 0
36.080000 20.240000 15.400000 205 198 185 0
36.300000 20.240000 5.060000 206 199 188 0
36.520000 20.240000 0.220000 207 200 189 0
36.740000 20.240000 0.220000 207 198 188 0
36.960000 20.240000 0.330000 207 198 188 0
37.180000 20.240000 0.990000 206 197 187 0
0.000000 20.460000 10.010000 136 100 99 0
0.220000 20.460000 10.780000 138 99 97 0
0.440000 20.460000 11.550000 137 98 96 0
0.660000 20.460000 11.550000 139 96 98 0
0.880000 20.460000 10.890000 138 95 97 0
1.100000 20.460000 10.890000 139 97 96 0
1.320000 20.460000 11.000000 140 98 97 0
1.540000 20.460000 11.000000 139 100 100 0
1.760000 20.460000 12.320000 140 101 101 0
1.980000 20.460000 12.870000 140 101 101 0
2.200000 20.460000 12.210000 141 102 102 0
2.420000 20.460000 11.660000 140 103 105 0
2.640000 20.460000 11.660000 142 105 107 0
2.860000 20.460000 11.660000 142 107 109 0
3.080000 20.460000 12.430000 143 108 110 0
3.300000 20.460000 12.430000 142 109 113 0
3.520000 20.460000 12.980000 143 110 114 0
3.740000 20.460000 13.970000 148 112 119 0
3.960000 20.460000 14.520000 148 112 119 0
4.180000 20.460000 15.290000 146 114 122 0
4.400000 20.460000 15.290000 148 116 124 0
4.620000 20.460000 14.630000 146 120 126 0
4.840000 20.460000 14.740000 147 121 127 0
5.060000 20.460000 13.970000 146 124 132 0
5.280000 20.460000 13.310000 147 125 133 0
5.500000 20.460000 14.850000 150 126 135 0
5.720000 20.460000 16.940000 152 128 137 0
5.940000 20.460000 16.940000 164 128 125 0
6.160000 20.460000 13.530000 195 159 156 0
6.380000 20.460000 6.600000 216 217 216 0
6.600000 20.460000 2.530000 240 241 240 0
6.820000 20.460000 3.960000 240 241 240 0
7.040000 20.460000 4.620000 240 241 240 0
7.260000 20.460000 3.300000 240 241 240 0
7.480000 20.460000 0.550000 240 241 240 0
7.700000 20.460000 0.550000 240 241 240 0
7.920000 20.460000 6.820000 240 241 240 0
8.140000 20.460000 15.180000 240 241 240 0
8.360000 20.460000 18.590000 240 241 240 0
8.580000 20.460000 17.930000 240 241 240 0
8.800000 20.460000 18.590000 240 241 240 0
9.020000 20.460000 18.590000 240 241 240 0
9.240000 20.460000 18.590000 240 241 240 0
9.460000 20.460000 19.140000 240 241 240 0
9.680000 20.460000 20.240000 238 239 238 0
9.900000 20.460000 16.610000 216 159 160 0
10.120000 20.460000 8.360000 162 105 106 0
10.340000 20.460000 4.950000 156 94 90 0
10.560000 20.460000 4.950000 154 92 88 0
10.780000 20.460000 5.720000 151 90 84 0
11.000000 20.460000 7.040000 150 89 83 0
11.220000 20.460000 7.040000 151 86 79 0
11.440000 20.460000 7.150000 150 85 78 0
11.660000 20.460000 5.060000 151 83 77 0
11.880000 20.460000 4.400000 151 83 77 0
12.100000 20.460000 4.400000 151 83 77 0
12.320000 20.460000 4.400000 151 83 77 0
12.540000 20.460000 4.400000 152 84 78 0
12.760000 20.460000 4.400000 151 83 77 0
12.980000 20.460000 5.060000 150 81 71 0
13.200000 20.460000 5.060000 149 80 70 0
13.420000 20.460000 5.060000 151 77 69 0
13.640000 20.460000 5.060000 148 74 66 0
13.860000 20.460000 5.060000 148 74 68 0
14.080000 20.460000 4.950000 149 75 69 0
14.300000 20.460000 4.950000 147 72 64 0
14.520000 20.460000 5.610000 148 73 65 0
14.740000 20.460000 5.720000 146 72 64 0
14.960000 20.460000 5.720000 146 72 64 0
15.180000 20.460000 6.490000 147 72 64 0
15.400000 20.460000 7.150000 147 72 64 0
15.620000 20.460000 7.150000 147 71 66 0
15.840000 20.460000 7.260000 146 70 65 0
16.060000 20.460000 6.490000 147 71 66 0
16.280000 20.460000 6.490000 147 71 66 0
16.500000 20.460000 6.490000 146 71 63 0
16.720000 20.460000 5.720000 147 72 64 0
16.940000 20.460000 5.830000 148 74 66 0
17.160000 20.460000 6.490000 148 74 66 0
17.380000 20.460000 7.260000 149 79 67 0
17.600000 20.460000 7.260000 152 82 70 0
17.820000 20.460000 6.600000 154 86 72 0
18.040000 20.460000 4.510000 163 95 81 0
18.260000 20.460000 3.190000 166 91 81 0
18.480000 20.460000 3.850000 156 81 71 0
18.700000 20.460000 4.400000 145 67 62 0
18.920000 20.460000 4.400000 144 66 61 0
19.140000 20.460000 6.490000 143 65 60 0
19.360000 20.460000 9.240000 144 66 61 0
19.580000 20.460000 7.920000 145 69 64 0
19.800000 20.460000 6.600000 148 72 67 0
20.020000 20.460000 7.260000 149 85 80 0
20.240000 20.460000 6.600000 156 92 87 0
20.460000 20.460000 6.600000 153 98 90 0
20.680000 20.460000 7.150000 157 102 94 0
20.900000 20.460000 9.130000 158 103 95 0
21.120000 20.460000 11.220000 159 104 96 0
21.340000 20.460000 11.770000 158 108 104 0
21.560000 20.460000 9.680000 162 112 108 0
21.780000 20.460000 7.040000 158 119 121 0
22.000000 20.460000 6.380000 163 124 126 0
22.220000 20.460000 6.380000 160 129 130 0
22.440000 20.460000 7.920000 161 130 131 0
22.660000 20.460000 9.350000 167 122 120 0
22.880000 20.460000 11.440000 160 115 113 0
23.100000 20.460000 12.210000 165 107 98 0
23.320000 20.460000 12.210000 156 98 89 0
23.540000 20.460000 10.890000 162 95 84 0
23.760000 20.460000 9.460000 162 95 84 0
23.980000 20.460000 9.570000 163 96 82 0
24.200000 20.460000 9.570000 163 96 82 0
24.420000 20.460000 8.910000 157 98 87 0
24.640000 20.460000 6.820000 157 98 87 0
24.860000 20.460000 5.390000 157 103 90 0
25.080000 20.460000 5.390000 160 106 93 0
25.300000 20.460000 6.050000 154 114 102 0
25.520000 20.460000 8.140000 156 116 104 0
25.740000 20.460000 11.660000 149 125 112 0
25.960000 20.460000 12.320000 150 126 113 0
26.180000 20.460000 12.320000 149 126 113 0
26.400000 20.460000 12.980000 150 127 114 0
26.620000 20.460000 13.750000 148 126 108 0
26.840000 20.460000 13.750000 148 126 108 0
27.060000 20.460000 13.750000 147 125 107 0
27.280000 20.460000 14.410000 147 125 107 0
27.500000 20.460000 15.620000 148 124 109 0
27.720000 20.460000 16.170000 148 124 109 0
27.940000 20.460000 15.400000 145 125 111 0
28.160000 20.460000 13.970000 146 126 112 0
28.380000 20.460000 13.420000 147 129 112 0
28.600000 20.460000 13.640000 147 129 112 0
28.820000 20.460000 13.750000 146 128 111 0
29.040000 20.460000 14.410000 148 130 113 0
29.260000 20.460000 14.300000 149 127 111 0
29.480000 20.460000 14.960000 149 127 111 0
29.700000 20.460000 15.620000 148 128 112 0
29.920000 20.460000 16.390000 148 128 112 0
30.140000 20.460000 16.390000 149 130 111 0
30.360000 20.460000 16.390000 149 130 111 0
30.580000 20.460000 16.390000 150 132 113 0
30.800000 20.460000 15.620000 149 131 112 0
31.020000 20.460000 15.620000 150 130 114 0
31.240000 20.460000 15.730000 150 130 114 0
31.460000 20.460000 16.390000 152 133 114 0
31.680000 20.460000 16.390000 153 134 115 0
31.900000 20.460000 17.050000 154 137 116 0
32.120000 20.460000 17.820000 156 139 118 0
32.340000 20.460000 18.480000 160 142 123 0
32.560000 20.460000 19.250000 162 144 125 0
32.780000 20.460000 19.910000 168 150 133 0
33.000000 20.460000 19.250000 169 151 134 0
33.220000 20.460000 19.250000 171 157 139 0
33.440000 20.460000 18.590000 175 161 143 0
33.660000 20.460000 18.590000 178 169 151 0
33.880000 20.460000 19.140000 182 173 155 0
34.100000 20.460000 20.240000 186 178 162 0
34.320000 20.460000 20.130000 190 182 166 0
34.540000 20.460000 20.130000 191 182 170 0
34.760000 20.460000 20.130000 196 187 175 0
34.980000 20.460000 20.130000 199 192 181 0
35.200000 20.460000 20.130000 200 193 182 0
35.420000 20.460000 20.130000 202 193 181 0
35.640000 20.460000 20.130000 204 195 183 0
35.860000 20.460000 20.240000 204 197 184 0
36.080000 20.460000 15.400000 205 198 185 0
36.300000 20.460000 5.720000 206 199 188 0
36.520000 20.460000 0.220000 206 199 188 0
36.740000 20.460000 0.330000 207 198 188 0
36.960000 20.460000 0.990000 207 198 188 0
37.180000 20.460000 0.990000 206 197 187 0
0.000000 20.680000 10.010000 140 95 93 0
0.220000 20.680000 10.780000 141 95 90 0
0.440000 20.680000 11.550000 140 94 89 0
0.660000 20.680000 11.550000 144 95 94 0
0.880000 20.680000 10.890000 143 94 93 0
1.100000 20.680000 10.890000 139 97 96 0
1.320000 20.680000 11.000000 139 97 96 0
1.540000 20.680000 11.000000 140 99 100 0
1.760000 20.680000 12.210000 141 100 101 0
1.980000 20.680000 12.760000 141 102 104 0
2.200000 20.680000 12.100000 141 102 104 0
2.420000 20.680000 10.890000 141 104 107 0
2.640000 20.680000 11.000000 141 104 107 0
2.860000 20.680000 11.660000 142 105 108 0
3.080000 20.680000 12.320000 143 106 109 0
3.300000 20.680000 12.210000 144 108 113 0
3.520000 20.680000 12.870000 145 109 114 0
3.740000 20.680000 13.970000 144 111 117 0
3.960000 20.680000 14.520000 145 112 118 0
4.180000 20.680000 15.290000 145 115 122 0
4.400000 20.680000 15.290000 146 116 123 0
4.620000 20.680000 14.630000 150 117 123 0
4.840000 20.680000 14.630000 152 119 125 0
5.060000 20.680000 13.200000 152 120 126 0
5.280000 20.680000 11.880000 154 122 128 0
5.500000 20.680000 13.310000 155 122 128 0
5.720000 20.680000 14.850000 157 124 130 0
5.940000 20.680000 12.100000 161 140 144 0
6.160000 20.680000 6.600000 206 185 189 0
6.380000 20.680000 1.760000 232 233 232 0
6.600000 20.680000 3.850000 240 241 240 0
6.820000 20.680000 11.550000 240 241 240 0
7.040000 20.680000 15.070000 240 241 240 0
7.260000 20.680000 10.890000 240 241 240 0
7.480000 20.680000 4.070000 240 241 240 0
7.700000 20.680000 5.390000 240 241 240 0
7.920000 20.680000 13.090000 240 241 240 0
8.140000 20.680000 17.270000 240 241 240 0
8.360000 20.680000 17.930000 240 241 240 0
8.580000 20.680000 17.930000 240 241 240 0
8.800000 20.680000 18.590000 240 241 240 0
9.020000 20.680000 18.480000 240 241 240 0
9.240000 20.680000 19.140000 240 241 240 0
9.460000 20.680000 19.580000 255 229 238 0
9.680000 20.680000 19.470000 226 190 199 0
9.900000 20.680000 14.630000 170 110 105 0
10.120000 20.680000 8.360000 157 97 92 0
10.340000 20.680000 5.610000 157 93 88 0
10.560000 20.680000 5.720000 154 90 85 0
10.780000 20.680000 6.380000 155 87 79 0
11.000000 20.680000 7.700000 154 86 78 0
11.220000 20.680000 7.040000 154 83 74 0
11.440000 20.680000 5.720000 152 81 72 0
11.660000 20.680000 4.400000 150 81 71 0
11.880000 20.680000 3.740000 150 81 71 0
12.100000 20.680000 3.740000 152 82 77 0
12.320000 20.680000 4.400000 152 82 77 0
12.540000 20.680000 4.400000 153 82 75 0
12.760000 20.680000 4.400000 153 82 75 0
12.980000 20.680000 5.170000 153 79 71 0
13.200000 20.680000 5.060000 151 77 69 0
13.420000 20.680000 5.060000 150 76 68 0
13.640000 20.680000 5.060000 148 74 66 0
13.860000 20.680000 4.950000 147 73 65 0
14.080000 20.680000 4.950000 147 73 65 0
14.300000 20.680000 4.950000 146 71 63 0
14.520000 20.680000 5.720000 146 71 63 0
14.740000 20.680000 5.720000 145 70 62 0
14.960000 20.680000 5.720000 144 69 61 0
15.180000 20.680000 6.490000 145 70 62 0
15.400000 20.680000 6.490000 145 70 62 0
15.620000 20.680000 7.150000 146 72 66 0
15.840000 20.680000 6.490000 146 72 66 0
16.060000 20.680000 6.600000 146 71 63 0
16.280000 20.680000 5.830000 147 72 64 0
16.500000 20.680000 5.720000 146 71 63 0
16.720000 20.680000 5.720000 148 73 65 0
16.940000 20.680000 5.830000 148 74 66 0
17.160000 20.680000 5.940000 150 76 68 0
17.380000 20.680000 6.600000 151 77 69 0
17.600000 20.680000 5.830000 154 80 72 0
17.820000 20.680000 4.510000 152 82 69 0
18.040000 20.680000 3.850000 156 86 73 0
18.260000 20.680000 3.190000 159 81 74 0
18.480000 20.680000 3.960000 144 66 59 0
18.700000 20.680000 3.850000 144 64 58 0
18.920000 20.680000 3.080000 143 63 57 0
19.140000 20.680000 3.080000 139 65 59 0
19.360000 20.680000 3.190000 144 70 64 0
19.580000 20.680000 3.850000 142 84 78 0
19.800000 20.680000 5.170000 149 91 85 0
20.020000 20.680000 5.830000 149 103 98 0
20.240000 20.680000 5.170000 155 109 104 0
20.460000 20.680000 4.400000 162 111 105 0
20.680000 20.680000 5.720000 162 111 105 0
20.900000 20.680000 7.700000 162 108 103 0
21.120000 20.680000 9.130000 161 107 102 0
21.340000 20.680000 9.020000 158 109 107 0
21.560000 20.680000 7.700000 161 112 110 0
21.780000 20.680000 6.930000 164 118 115 0
22.000000 20.680000 6.930000 168 122 119 0
22.220000 20.680000 7.700000 175 125 121 0
22.440000 20.680000 9.240000 171 121 117 0
22.660000 20.680000 11.440000 172 111 101 0
22.880000 20.680000 12.870000 163 102 92 0
23.100000 20.680000 12.210000 160 95 84 0
23.320000 20.680000 9.460000 158 93 82 0
23.540000 20.680000 8.140000 160 93 80 0
23.760000 20.680000 8.800000 160 93 80 0
23.980000 20.680000 9.570000 157 94 82 0
24.200000 20.680000 10.230000 158 95 83 0
24.420000 20.680000 8.800000 158 95 83 0
24.640000 20.680000 6.710000 160 97 85 0
24.860000 20.680000 6.050000 158 101 87 0
25.080000 20.680000 6.050000 162 105 91 0
25.300000 20.680000 6.820000 152 112 100 0
25.520000 20.680000 8.140000 154 114 102 0
25.740000 20.680000 10.890000 149 120 107 0
25.960000 20.680000 11.660000 151 122 109 0
26.180000 20.680000 12.320000 150 123 109 0
26.400000 20.680000 12.980000 149 122 108 0
26.620000 20.680000 13.750000 149 122 108 0
26.840000 20.680000 13.750000 149 122 108 0
27.060000 20.680000 13.750000 148 120 104 0
27.280000 20.680000 14.520000 149 121 105 0
27.500000 20.680000 14.410000 146 122 107 0
27.720000 20.680000 15.070000 146 122 107 0
27.940000 20.680000 14.300000 149 122 108 0
28.160000 20.680000 13.640000 149 122 108 0
28.380000 20.680000 12.980000 148 126 110 0
28.600000 20.680000 13.090000 148 126 110 0
28.820000 20.680000 13.750000 149 127 109 0
29.040000 20.680000 14.410000 149 127 109 0
29.260000 20.680000 14.300000 149 125 108 0
29.480000 20.680000 14.960000 149 125 108 0
29.700000 20.680000 15.620000 148 124 109 0
29.920000 20.680000 15.620000 150 126 111 0
30.140000 20.680000 16.390000 149 127 111 0
30.360000 20.680000 16.390000 150 128 112 0
30.580000 20.680000 15.620000 150 128 109 0
30.800000 20.680000 15.730000 151 129 110 0
31.020000 20.680000 15.730000 151 129 111 0
31.240000 20.680000 15.730000 152 130 112 0
31.460000 20.680000 16.390000 154 131 112 0
31.680000 20.680000 17.050000 155 132 113 0
31.900000 20.680000 17.050000 156 137 118 0
32.120000 20.680000 17.820000 159 140 121 0
32.340000 20.680000 18.480000 162 140 121 0
32.560000 20.680000 19.250000 166 144 125 0
32.780000 20.680000 19.910000 166 149 128 0
33.000000 20.680000 19.250000 170 153 132 0
33.220000 20.680000 18.590000 174 158 140 0
33.440000 20.680000 18.590000 179 163 145 0
33.660000 20.680000 18.590000 180 167 153 0
33.880000 20.680000 19.140000 185 172 158 0
34.100000 20.680000 20.240000 186 178 163 0
34.320000 20.680000 20.130000 190 182 167 0
34.540000 20.680000 20.130000 195 184 173 0
34.760000 20.680000 20.130000 197 186 175 0
34.980000 20.680000 20.900000 198 189 177 0
35.200000 20.680000 20.900000 200 191 179 0
35.420000 20.680000 20.130000 202 193 183 0
35.640000 20.680000 20.240000 203 194 184 0
35.860000 20.680000 19.580000 205 196 184 0
36.080000 20.680000 13.310000 205 196 184 0
36.300000 20.680000 4.400000 207 198 188 0
36.520000 20.680000 0.330000 206 197 187 0
36.740000 20.680000 0.990000 205 196 186 0
36.960000 20.680000 0.990000 205 196 186 0
37.180000 20.680000 1.100000 205 194 185 0
0.000000 20.900000 10.010000 139 94 92 0
0.220000 20.900000 10.780000 139 93 88 0
0.440000 20.900000 11.550000 140 94 89 0
0.660000 20.900000 10.890000 143 94 93 0
0.880000 20.900000 10.890000 143 94 93 0
1.100000 20.900000 10.890000 138 96 95 0
1.320000 20.900000 11.000000 139 97 96 0
1.540000 20.900000 11.000000 139 98 99 0
1.760000 20.900000 11.550000 141 100 101 0
1.980000 20.900000 12.650000 140 101 103 0
2.200000 20.900000 12.650000 141 102 104 0
2.420000 20.900000 10.890000 140 103 106 0
2.640000 20.900000 11.000000 142 105 108 0
2.860000 20.900000 11.550000 143 106 109 0
3.080000 20.900000 11.990000 143 106 109 0
3.300000 20.900000 12.650000 144 108 113 0
3.520000 20.900000 13.310000 145 109 114 0
3.740000 20.900000 13.970000 144 111 117 0
3.960000 20.900000 14.630000 145 112 118 0
4.180000 20.900000 15.290000 146 116 123 0
4.400000 20.900000 15.290000 146 116 123 0
4.620000 20.900000 15.290000 149 116 122 0
4.840000 20.900000 13.860000 150 117 123 0
5.060000 20.900000 11.110000 151 119 125 0
5.280000 20.900000 8.360000 150 118 124 0
5.500000 20.900000 6.380000 151 118 124 0
5.720000 20.900000 5.170000 154 121 127 0
5.940000 20.900000 3.740000 167 146 150 0
6.160000 20.900000 1.760000 203 182 186 0
6.380000 20.900000 1.760000 232 233 232 0
6.600000 20.900000 6.600000 240 241 240 0
6.820000 20.900000 12.210000 240 241 240 0
7.040000 20.900000 14.960000 240 241 240 0
7.260000 20.900000 10.890000 240 241 240 0
7.480000 20.900000 6.820000 240 241 240 0
7.700000 20.900000 11.660000 240 241 240 0
7.920000 20.900000 17.930000 240 241 240 0
8.140000 20.900000 18.590000 240 241 240 0
8.360000 20.900000 17.930000 240 241 240 0
8.580000 20.900000 18.590000 240 241 240 0
8.800000 20.900000 19.140000 240 241 240 0
9.020000 20.900000 19.580000 240 241 240 0
9.240000 20.900000 20.240000 239 240 239 0
9.460000 20.900000 20.130000 235 199 208 0
9.680000 20.900000 17.380000 160 124 133 0
9.900000 20.900000 11.110000 160 100 95 0
10.120000 20.900000 6.380000 155 95 90 0
10.340000 20.900000 5.720000 155 91 86 0
10.560000 20.900000 6.380000 153 89 84 0
10.780000 20.900000 7.700000 153 85 77 0
11.000000 20.900000 7.700000 151 83 75 0
11.220000 20.900000 6.380000 153 82 73 0
11.440000 20.900000 4.400000 150 79 70 0
11.660000 20.900000 3.630000 150 81 71 0
11.880000 20.900000 3.740000 149 80 70 0
12.100000 20.900000 3.740000 150 80 75 0
12.320000 20.900000 4.400000 151 81 76 0
12.540000 20.900000 4.400000 152 81 74 0
12.760000 20.900000 4.400000 151 80 73 0
12.980000 20.900000 5.170000 153 79 71 0
13.200000 20.900000 5.170000 150 76 68 0
13.420000 20.900000 5.060000 148 74 66 0
13.640000 20.900000 5.060000 147 73 65 0
13.860000 20.900000 4.950000 145 71 63 0
14.080000 20.900000 4.950000 147 73 65 0
14.300000 20.900000 4.950000 146 71 63 0
14.520000 20.900000 4.950000 145 70 62 0
14.740000 20.900000 5.720000 144 69 61 0
14.960000 20.900000 5.830000 145 70 62 0
15.180000 20.900000 5.830000 144 69 61 0
15.400000 20.900000 6.490000 146 71 63 0
15.620000 20.900000 6.490000 146 72 66 0
15.840000 20.900000 6.490000 146 72 66 0
16.060000 20.900000 5.830000 146 71 63 0
16.280000 20.900000 5.830000 147 72 64 0
16.500000 20.900000 5.830000 147 72 64 0
16.720000 20.900000 5.060000 150 75 67 0
16.940000 20.900000 5.170000 150 76 68 0
17.160000 20.900000 5.280000 149 75 67 0
17.380000 20.900000 5.940000 151 77 69 0
17.600000 20.900000 5.170000 153 79 71 0
17.820000 20.900000 3.850000 153 83 70 0
18.040000 20.900000 3.190000 151 81 68 0
18.260000 20.900000 3.190000 145 67 60 0
18.480000 20.900000 3.850000 142 64 57 0
18.700000 20.900000 3.850000 143 63 57 0
18.920000 20.900000 2.530000 142 62 56 0
19.140000 20.900000 1.100000 142 68 62 0
19.360000 20.900000 1.210000 150 76 70 0
19.580000 20.900000 3.190000 146 88 82 0
19.800000 20.900000 5.060000 159 101 95 0
20.020000 20.900000 5.060000 159 113 108 0
20.240000 20.900000 4.400000 167 121 116 0
20.460000 20.900000 3.630000 170 119 113 0
20.680000 20.900000 4.950000 167 116 110 0
20.900000 20.900000 7.040000 163 109 104 0
21.120000 20.900000 8.470000 160 106 101 0
21.340000 20.900000 7.810000 157 108 106 0
21.560000 20.900000 7.040000 161 112 110 0
21.780000 20.900000 7.040000 163 117 114 0
22.000000 20.900000 7.040000 164 118 115 0
22.220000 20.900000 8.470000 167 117 113 0
22.440000 20.900000 10.560000 160 110 106 0
22.660000 20.900000 12.760000 161 100 90 0
22.880000 20.900000 14.960000 156 95 85 0
23.100000 20.900000 12.210000 157 92 81 0
23.320000 20.900000 6.050000 157 92 81 0
23.540000 20.900000 3.960000 159 92 79 0
23.760000 20.900000 6.710000 159 92 79 0
23.980000 20.900000 8.800000 156 93 81 0
24.200000 20.900000 9.460000 156 93 81 0
24.420000 20.900000 8.800000 157 94 82 0
24.640000 20.900000 7.480000 159 96 84 0
24.860000 20.900000 7.480000 156 99 85 0
25.080000 20.900000 6.820000 160 103 89 0
25.300000 20.900000 7.480000 151 111 99 0
25.520000 20.900000 8.140000 152 112 100 0
25.740000 20.900000 10.230000 146 117 104 0
25.960000 20.900000 10.890000 148 119 106 0
26.180000 20.900000 12.320000 148 121 107 0
26.400000 20.900000 13.090000 147 120 106 0
26.620000 20.900000 13.750000 148 121 107 0
26.840000 20.900000 14.410000 147 120 106 0
27.060000 20.900000 13.750000 147 119 103 0
27.280000 20.900000 13.750000 147 119 103 0
27.500000 20.900000 14.520000 143 119 104 0
27.720000 20.900000 14.520000 143 119 104 0
27.940000 20.900000 14.520000 144 117 103 0
28.160000 20.900000 13.090000 146 119 105 0
28.380000 20.900000 13.090000 145 123 107 0
28.600000 20.900000 13.090000 146 124 108 0
28.820000 20.900000 13.750000 147 125 107 0
29.040000 20.900000 14.410000 147 125 107 0
29.260000 20.900000 14.300000 148 124 107 0
29.480000 20.900000 14.960000 148 124 107 0
29.700000 20.900000 15.620000 148 124 109 0
29.920000 20.900000 15.620000 149 125 110 0
30.140000 20.900000 15.620000 148 126 110 0
30.360000 20.900000 15.620000 149 127 111 0
30.580000 20.900000 15.620000 151 129 110 0
30.800000 20.900000 15.730000 150 128 109 0
31.020000 20.900000 15.730000 150 128 110 0
31.240000 20.900000 16.390000 151 129 111 0
31.460000 20.900000 16.390000 153 130 111 0
31.680000 20.900000 17.050000 156 133 114 0
31.900000 20.900000 17.820000 154 135 116 0
32.120000 20.900000 17.820000 157 138 119 0
32.340000 20.900000 18.480000 162 140 121 0
32.560000 20.900000 19.250000 165 143 124 0
32.780000 20.900000 19.250000 166 149 128 0
33.000000 20.900000 19.250000 170 153 132 0
33.220000 20.900000 18.590000 174 158 140 0
33.440000 20.900000 18.590000 179 163 145 0
33.660000 20.900000 19.250000 180 167 153 0
33.880000 20.900000 19.580000 185 172 158 0
34.100000 20.900000 20.130000 187 179 164 0
34.320000 20.900000 20.130000 190 182 167 0
34.540000 20.900000 20.130000 195 184 173 0
34.760000 20.900000 19.470000 198 187 176 0
34.980000 20.900000 18.150000 199 190 178 0
35.200000 20.900000 19.470000 201 192 180 0
35.420000 20.900000 20.240000 203 194 184 0
35.640000 20.900000 20.240000 204 195 185 0
35.860000 20.900000 16.830000 204 195 183 0
36.080000 20.900000 7.810000 205 196 184 0
36.300000 20.900000 1.650000 206 197 187 0
36.520000 20.900000 0.330000 205 196 186 0
36.740000 20.900000 0.990000 204 195 185 0
36.960000 20.900000 1.100000 204 195 185 0
37.180000 20.900000 1.100000 205 194 185 0
0.000000 21.120000 10.120000 140 94 89 0
0.220000 21.120000 10.780000 141 95 92 0
0.440000 21.120000 11.550000 140 94 91 0
0.660000 21.120000 10.890000 139 95 91 0
0.880000 21.120000 10.230000 140 96 92 0
1.100000 21.120000 10.890000 141 95 93 0
1.320000 21.120000 10.230000 142 96 94 0
1.540000 21.120000 10.340000 141 99 98 0
1.760000 21.120000 11.550000 141 99 98 0
1.980000 21.120000 12.650000 141 100 99 0
2.200000 21.120000 11.880000 142 101 100 0
2.420000 21.120000 10.780000 141 102 104 0
2.640000 21.120000 10.780000 143 104 106 0
2.860000 21.120000 11.990000 144 104 108 0
3.080000 21.120000 12.540000 145 105 109 0
3.300000 21.120000 12.430000 145 108 113 0
3.520000 21.120000 13.200000 145 108 113 0
3.740000 21.120000 13.970000 143 110 114 0
3.960000 21.120000 14.740000 145 112 116 0
4.180000 21.120000 15.400000 145 114 117 0
4.400000 21.120000 15.950000 147 116 119 0
4.620000 21.120000 15.950000 150 114 119 0
4.840000 21.120000 13.200000 151 115 120 0
5.060000 21.120000 9.020000 152 115 120 0
5.280000 21.120000 4.950000 152 115 120 0
5.500000 21.120000 2.200000 155 114 117 0
5.720000 21.120000 0.990000 160 119 122 0
5.940000 21.120000 0.330000 174 142 152 0
6.160000 21.120000 0.990000 191 159 169 0
6.380000 21.120000 4.510000 221 197 218 0
6.600000 21.120000 8.690000 250 226 247 0
6.820000 21.120000 7.370000 254 234 240 0
7.040000 21.120000 4.620000 254 234 240 0
7.260000 21.120000 4.620000 255 221 236 0
7.480000 21.120000 8.140000 254 219 234 0
7.700000 21.120000 15.840000 244 231 236 0
7.920000 21.120000 18.590000 249 236 241 0
8.140000 21.120000 18.590000 245 237 245 0
8.360000 21.120000 18.590000 245 237 245 0
8.580000 21.120000 19.140000 255 230 245 0
8.800000 21.120000 19.580000 255 229 244 0
9.020000 21.120000 19.470000 244 197 198 0
9.240000 21.120000 16.610000 205 158 159 0
9.460000 21.120000 15.950000 177 117 112 0
9.680000 21.120000 13.200000 159 99 94 0
9.900000 21.120000 7.700000 159 95 90 0
10.120000 21.120000 6.380000 156 92 87 0
10.340000 21.120000 7.040000 156 88 80 0
10.560000 21.120000 7.700000 153 85 77 0
10.780000 21.120000 8.470000 153 84 74 0
11.000000 21.120000 8.470000 152 83 73 0
11.220000 21.120000 6.380000 149 80 72 0
11.440000 21.120000 3.630000 149 80 72 0
11.660000 21.120000 2.970000 150 81 73 0
11.880000 21.120000 3.740000 150 81 73 0
12.100000 21.120000 3.740000 151 80 73 0
12.320000 21.120000 4.400000 150 79 72 0
12.540000 21.120000 4.400000 153 79 71 0
12.760000 21.120000 5.170000 152 78 70 0
12.980000 21.120000 5.170000 151 76 68 0
13.200000 21.120000 5.170000 148 73 65 0
13.420000 21.120000 5.830000 146 72 64 0
13.640000 21.120000 5.720000 146 72 64 0
13.860000 21.120000 5.720000 146 71 63 0
14.080000 21.120000 4.950000 145 70 62 0
14.300000 21.120000 4.950000 145 70 62 0
14.520000 21.120000 4.950000 146 71 63 0
14.740000 21.120000 5.060000 145 70 62 0
14.960000 21.120000 5.170000 144 69 61 0
15.180000 21.120000 5.170000 144 70 62 0
15.400000 21.120000 5.720000 145 71 63 0
15.620000 21.120000 5.720000 147 72 64 0
15.840000 21.120000 5.830000 147 72 64 0
16.060000 21.120000 5.280000 147 72 64 0
16.280000 21.120000 5.280000 148 73 65 0
16.500000 21.120000 5.170000 149 74 66 0
16.720000 21.120000 5.170000 150 75 67 0
16.940000 21.120000 5.060000 150 76 68 0
17.160000 21.120000 5.170000 151 77 69 0
17.380000 21.120000 5.170000 151 73 66 0
17.600000 21.120000 4.510000 151 73 66 0
17.820000 21.120000 3.190000 149 69 63 0
18.040000 21.120000 3.190000 144 64 58 0
18.260000 21.120000 3.850000 143 63 57 0
18.480000 21.120000 3.850000 142 62 56 0
18.700000 21.120000 3.190000 141 63 56 0
18.920000 21.120000 1.870000 143 65 58 0
19.140000 21.120000 1.210000 141 70 63 0
19.360000 21.120000 1.870000 150 79 72 0
19.580000 21.120000 3.740000 143 93 87 0
19.800000 21.120000 4.950000 158 108 102 0
20.020000 21.120000 4.950000 160 118 114 0
20.240000 21.120000 4.290000 164 122 118 0
20.460000 21.120000 3.630000 171 121 115 0
20.680000 21.120000 5.060000 166 116 110 0
20.900000 21.120000 7.040000 166 108 102 0
21.120000 21.120000 7.810000 163 105 99 0
21.340000 21.120000 7.150000 161 108 99 0
21.560000 21.120000 6.490000 162 109 100 0
