ply
format ascii 1.0
element vertex 1143
property float x
property float y
property float z
property uchar red
property uchar green
property uchar blue
property uchar alpha
end_header
20.020000 32.560000 16.500000 191 79 80 0
20.240000 32.560000 16.500000 190 78 79 0
20.460000 32.560000 17.270000 190 78 79 0
20.680000 32.560000 17.930000 190 77 80 0
20.900000 32.560000 18.480000 189 76 79 0
21.120000 32.560000 20.350000 190 78 79 0
21.340000 32.560000 17.380000 189 77 78 0
21.560000 32.560000 11.770000 190 77 80 0
21.780000 32.560000 14.520000 190 77 80 0
22.000000 32.560000 20.130000 190 77 80 0
22.220000 32.560000 17.380000 190 77 80 0
22.440000 32.560000 7.700000 192 77 80 0
22.660000 32.560000 1.540000 192 77 80 0
22.880000 32.560000 0.110000 190 78 79 0
23.100000 32.560000 0.110000 190 78 79 0
23.320000 32.560000 0.220000 191 78 81 0
23.540000 32.560000 0.880000 191 78 81 0
23.760000 32.560000 0.990000 190 77 80 0
23.980000 32.560000 0.990000 190 77 80 0
24.200000 32.560000 0.330000 193 78 81 0
24.420000 32.560000 0.440000 193 78 81 0
24.640000 32.560000 0.440000 192 79 82 0
24.860000 32.560000 0.550000 190 77 80 0
25.080000 32.560000 0.550000 190 77 80 0
25.520000 32.560000 0.440000 192 79 82 0
25.740000 32.560000 0.880000 192 79 82 0
25.960000 32.560000 0.770000 194 79 82 0
26.180000 32.560000 0.770000 194 79 82 0
26.620000 32.560000 1.430000 193 80 83 0
26.840000 32.560000 4.180000 193 80 83 0
27.060000 32.560000 5.610000 192 79 82 0
27.280000 32.560000 4.290000 193 80 83 0
27.500000 32.560000 1.100000 192 79 82 0
29.260000 32.560000 0.110000 192 79 82 0
29.480000 32.560000 0.770000 191 78 81 0
29.700000 32.560000 0.770000 191 78 81 0
29.920000 32.560000 0.770000 192 79 84 0
30.140000 32.560000 0.770000 191 78 83 0
30.360000 32.560000 0.770000 192 79 84 0
30.580000 32.560000 0.880000 190 77 82 0
30.800000 32.560000 0.990000 189 76 79 0
31.020000 32.560000 0.440000 190 77 80 0
31.240000 32.560000 0.440000 189 76 81 0
31.460000 32.560000 1.210000 189 76 81 0
31.680000 32.560000 1.210000 190 79 83 0
31.900000 32.560000 1.210000 191 80 84 0
32.120000 32.560000 1.870000 192 79 82 0
32.340000 32.560000 1.870000 193 80 83 0
32.560000 32.560000 1.980000 194 81 84 0
32.780000 32.560000 1.980000 195 82 85 0
33.000000 32.560000 1.980000 193 82 84 0
33.220000 32.560000 2.640000 194 83 85 0
33.440000 32.560000 1.980000 195 84 86 0
33.660000 32.560000 1.980000 195 84 86 0
33.880000 32.560000 2.750000 195 84 86 0
34.100000 32.560000 2.750000 195 84 86 0
34.320000 32.560000 2.750000 195 84 86 0
34.540000 32.560000 3.300000 196 85 87 0
34.760000 32.560000 4.290000 196 85 87 0
34.980000 32.560000 4.840000 196 85 87 0
35.200000 32.560000 4.840000 196 85 87 0
35.420000 32.560000 4.840000 196 85 87 0
35.640000 32.560000 4.180000 195 84 86 0
35.860000 32.560000 4.950000 195 84 86 0
36.080000 32.560000 4.180000 194 83 85 0
36.300000 32.560000 4.180000 195 84 86 0
36.520000 32.560000 4.290000 196 85 89 0
36.740000 32.560000 4.290000 195 84 88 0
36.960000 32.560000 4.290000 194 85 86 0
37.180000 32.560000 4.290000 196 87 88 0
0.000000 32.780000 12.760000 198 196 168 0
0.220000 32.780000 13.310000 199 197 169 0
0.440000 32.780000 13.860000 200 198 170 0
0.660000 32.780000 13.860000 201 199 171 0
0.880000 32.780000 14.630000 202 200 172 0
1.100000 32.780000 15.290000 202 200 172 0
1.320000 32.780000 15.400000 203 201 173 0
1.540000 32.780000 16.170000 203 201 173 0
1.760000 32.780000 16.170000 204 202 174 0
1.980000 32.780000 16.940000 206 204 176 0
2.200000 32.780000 16.940000 207 205 179 0
2.420000 32.780000 17.050000 207 205 179 0
2.640000 32.780000 17.050000 207 205 179 0
2.860000 32.780000 17.820000 207 205 179 0
3.080000 32.780000 17.820000 208 203 176 0
3.300000 32.780000 17.820000 207 202 175 0
3.520000 32.780000 17.820000 204 198 169 0
3.740000 32.780000 17.160000 203 197 168 0
3.960000 32.780000 17.270000 202 196 167 0
4.180000 32.780000 17.160000 202 196 167 0
4.400000 32.780000 17.710000 203 196 165 0
4.620000 32.780000 19.470000 203 196 165 0
4.840000 32.780000 20.130000 201 195 166 0
5.060000 32.780000 20.130000 202 196 167 0
5.280000 32.780000 19.470000 202 196 167 0
5.500000 32.780000 19.470000 203 197 168 0
5.720000 32.780000 18.810000 203 195 167 0
5.940000 32.780000 18.810000 203 195 167 0
6.160000 32.780000 18.810000 204 196 168 0
6.380000 32.780000 18.810000 204 196 168 0
6.600000 32.780000 18.810000 203 197 170 0
6.820000 32.780000 18.920000 205 199 172 0
7.040000 32.780000 18.920000 204 198 169 0
7.260000 32.780000 18.920000 204 198 169 0
7.480000 32.780000 18.920000 205 199 172 0
7.700000 32.780000 18.920000 206 200 173 0
7.920000 32.780000 19.690000 207 200 176 0
8.140000 32.780000 19.690000 207 200 176 0
8.360000 32.780000 19.030000 207 202 177 0
8.580000 32.780000 19.030000 208 203 178 0
8.800000 32.780000 19.140000 208 203 178 0
9.020000 32.780000 19.800000 207 202 177 0
9.240000 32.780000 19.140000 206 203 181 0
9.460000 32.780000 19.910000 206 203 181 0
9.680000 32.780000 19.910000 207 200 176 0
9.900000 32.780000 15.070000 204 197 173 0
10.120000 32.780000 4.070000 211 182 159 0
10.780000 32.780000 0.660000 200 133 122 0
11.000000 32.780000 1.980000 207 105 101 0
11.220000 32.780000 4.070000 197 95 91 0
11.440000 32.780000 5.280000 197 91 90 0
11.660000 32.780000 5.830000 195 89 88 0
11.880000 32.780000 6.050000 193 87 86 0
12.100000 32.780000 6.160000 193 87 86 0
12.320000 32.780000 6.160000 192 86 85 0
12.540000 32.780000 6.050000 192 86 85 0
12.760000 32.780000 5.940000 194 85 85 0
12.980000 32.780000 5.940000 193 84 84 0
13.200000 32.780000 6.050000 193 84 84 0
13.420000 32.780000 7.260000 192 83 83 0
13.640000 32.780000 9.130000 191 82 82 0
13.860000 32.780000 9.680000 191 82 82 0
14.080000 32.780000 10.450000 192 81 82 0
14.300000 32.780000 11.110000 190 79 80 0
14.520000 32.780000 11.880000 190 79 80 0
14.740000 32.780000 12.650000 189 78 79 0
14.960000 32.780000 12.760000 191 79 80 0
15.180000 32.780000 12.210000 190 78 79 0
15.400000 32.780000 11.660000 188 77 78 0
15.620000 32.780000 11.660000 189 78 79 0
15.840000 32.780000 12.320000 189 78 79 0
16.060000 32.780000 12.430000 189 78 79 0
16.280000 32.780000 13.090000 190 78 79 0
16.500000 32.780000 13.640000 190 78 79 0
16.720000 32.780000 14.740000 191 79 80 0
16.940000 32.780000 15.950000 190 78 79 0
17.160000 32.780000 15.950000 191 79 80 0
17.380000 32.780000 15.950000 191 79 80 0
17.600000 32.780000 16.610000 190 78 79 0
17.820000 32.780000 16.720000 189 77 78 0
18.040000 32.780000 16.720000 192 80 81 0
18.260000 32.780000 16.720000 192 80 81 0
18.480000 32.780000 16.720000 192 80 81 0
18.700000 32.780000 16.830000 192 80 81 0
18.920000 32.780000 16.830000 192 80 81 0
19.140000 32.780000 16.280000 192 80 81 0
19.360000 32.780000 16.280000 191 79 80 0
19.580000 32.780000 16.390000 190 78 79 0
19.800000 32.780000 16.390000 191 79 80 0
20.020000 32.780000 16.500000 190 78 79 0
20.240000 32.780000 17.270000 190 78 79 0
20.460000 32.780000 17.270000 190 78 79 0
20.680000 32.780000 17.930000 190 77 80 0
20.900000 32.780000 19.140000 189 76 79 0
21.120000 32.780000 20.900000 189 77 78 0
21.340000 32.780000 20.020000 190 78 79 0
21.560000 32.780000 18.700000 191 78 81 0
21.780000 32.780000 20.130000 190 77 80 0
22.000000 32.780000 20.130000 189 76 79 0
22.220000 32.780000 13.200000 190 77 80 0
22.440000 32.780000 4.290000 193 78 81 0
22.660000 32.780000 0.110000 191 76 79 0
22.880000 32.780000 0.110000 189 77 78 0
23.100000 32.780000 0.220000 191 79 80 0
23.320000 32.780000 0.880000 190 77 80 0
23.540000 32.780000 0.990000 190 77 80 0
23.760000 32.780000 0.990000 192 79 82 0
23.980000 32.780000 0.330000 192 79 82 0
24.200000 32.780000 0.440000 193 78 81 0
24.420000 32.780000 0.440000 193 78 81 0
24.640000 32.780000 0.550000 192 79 82 0
24.860000 32.780000 0.550000 190 77 80 0
25.300000 32.780000 0.550000 191 78 81 0
25.520000 32.780000 0.990000 191 78 81 0
25.740000 32.780000 0.770000 191 78 81 0
25.960000 32.780000 0.770000 194 79 82 0
26.620000 32.780000 0.770000 192 79 82 0
26.840000 32.780000 0.770000 192 79 82 0
27.060000 32.780000 0.770000 193 80 83 0
27.280000 32.780000 0.990000 192 79 82 0
27.500000 32.780000 0.550000 192 79 82 0
29.040000 32.780000 0.220000 190 77 80 0
29.260000 32.780000 0.770000 191 78 81 0
29.480000 32.780000 0.770000 191 78 81 0
29.700000 32.780000 0.770000 190 77 80 0
29.920000 32.780000 0.770000 189 76 81 0
30.140000 32.780000 0.770000 190 77 82 0
30.360000 32.780000 0.880000 190 77 82 0
30.580000 32.780000 0.880000 190 77 82 0
30.800000 32.780000 0.330000 190 77 80 0
31.020000 32.780000 0.440000 189 76 79 0
31.240000 32.780000 0.440000 189 76 81 0
31.460000 32.780000 1.210000 189 76 81 0
31.680000 32.780000 1.210000 190 79 83 0
31.900000 32.780000 1.210000 190 79 83 0
32.120000 32.780000 1.870000 192 79 82 0
32.340000 32.780000 1.980000 192 79 82 0
32.560000 32.780000 2.640000 194 81 84 0
32.780000 32.780000 2.640000 193 80 83 0
33.000000 32.780000 2.640000 193 82 84 0
33.220000 32.780000 2.640000 194 83 85 0
33.440000 32.780000 2.750000 194 83 85 0
33.660000 32.780000 2.750000 195 84 86 0
33.880000 32.780000 2.750000 195 84 86 0
34.100000 32.780000 2.750000 195 84 86 0
34.320000 32.780000 2.750000 195 84 86 0
34.540000 32.780000 3.190000 196 85 87 0
34.760000 32.780000 4.290000 196 85 87 0
34.980000 32.780000 4.840000 196 85 87 0
35.200000 32.780000 4.840000 196 85 87 0
35.420000 32.780000 4.180000 196 85 87 0
35.640000 32.780000 4.180000 196 85 87 0
35.860000 32.780000 4.950000 195 84 86 0
36.080000 32.780000 4.180000 196 85 87 0
36.300000 32.780000 4.180000 194 83 85 0
36.520000 32.780000 4.290000 196 85 89 0
36.740000 32.780000 4.290000 195 84 88 0
36.960000 32.780000 4.290000 194 85 86 0
37.180000 32.780000 4.290000 195 86 87 0
0.000000 33.000000 12.760000 198 196 166 0
0.220000 33.000000 13.310000 199 197 167 0
0.440000 33.000000 13.860000 201 199 171 0
0.660000 33.000000 13.860000 201 199 171 0
0.880000 33.000000 14.630000 202 200 172 0
1.100000 33.000000 15.290000 202 200 172 0
1.320000 33.000000 15.400000 203 201 173 0
1.540000 33.000000 15.510000 204 202 174 0
1.760000 33.000000 16.170000 204 202 172 0
1.980000 33.000000 16.940000 206 204 174 0
2.200000 33.000000 16.940000 207 205 177 0
2.420000 33.000000 17.050000 208 206 178 0
2.640000 33.000000 17.820000 208 206 178 0
2.860000 33.000000 17.820000 207 205 177 0
3.080000 33.000000 17.820000 210 205 178 0
3.300000 33.000000 17.820000 209 204 177 0
3.520000 33.000000 17.160000 204 200 170 0
3.740000 33.000000 17.160000 203 199 169 0
3.960000 33.000000 17.270000 203 199 169 0
4.180000 33.000000 17.160000 201 197 167 0
4.400000 33.000000 18.260000 203 197 170 0
4.620000 33.000000 19.470000 202 196 169 0
4.840000 33.000000 20.130000 202 197 170 0
5.060000 33.000000 20.130000 202 197 170 0
5.280000 33.000000 19.470000 203 198 171 0
5.500000 33.000000 19.470000 203 198 171 0
5.720000 33.000000 18.810000 203 197 170 0
5.940000 33.000000 18.810000 203 197 170 0
6.160000 33.000000 18.810000 203 197 170 0
6.380000 33.000000 18.810000 204 198 171 0
6.600000 33.000000 18.920000 204 198 171 0
6.820000 33.000000 18.920000 204 198 171 0
7.040000 33.000000 18.920000 205 199 172 0
7.260000 33.000000 18.920000 204 198 171 0
7.480000 33.000000 18.920000 206 200 173 0
7.700000 33.000000 18.920000 206 200 173 0
7.920000 33.000000 19.030000 207 200 176 0
8.140000 33.000000 19.030000 208 201 177 0
8.360000 33.000000 19.030000 208 201 177 0
8.580000 33.000000 19.140000 208 201 177 0
8.800000 33.000000 19.140000 208 201 177 0
9.020000 33.000000 19.140000 208 201 177 0
9.240000 33.000000 19.140000 208 201 177 0
9.460000 33.000000 19.250000 208 201 177 0
9.680000 33.000000 19.910000 213 195 170 0
9.900000 33.000000 15.070000 209 191 166 0
10.120000 33.000000 4.730000 220 168 150 0
10.780000 33.000000 1.320000 203 120 111 0
11.000000 33.000000 2.750000 205 99 98 0
11.220000 33.000000 4.730000 197 91 90 0
11.440000 33.000000 5.830000 194 88 87 0
11.660000 33.000000 6.490000 193 87 86 0
11.880000 33.000000 6.710000 194 88 87 0
12.100000 33.000000 6.820000 192 86 85 0
12.320000 33.000000 6.160000 191 85 82 0
12.540000 33.000000 6.050000 191 85 82 0
12.760000 33.000000 6.050000 192 83 83 0
12.980000 33.000000 6.050000 192 83 83 0
13.200000 33.000000 7.260000 193 82 83 0
13.420000 33.000000 8.470000 193 82 83 0
13.640000 33.000000 9.790000 190 81 81 0
13.860000 33.000000 10.450000 190 81 81 0
14.080000 33.000000 11.110000 189 80 80 0
14.300000 33.000000 11.880000 189 80 80 0
14.520000 33.000000 12.650000 190 79 80 0
14.740000 33.000000 12.760000 189 78 79 0
14.960000 33.000000 12.870000 189 78 79 0
15.180000 33.000000 12.320000 188 77 78 0
15.400000 33.000000 12.320000 189 78 79 0
15.620000 33.000000 12.320000 189 78 79 0
15.840000 33.000000 12.320000 190 79 80 0
16.060000 33.000000 12.430000 189 78 79 0
16.280000 33.000000 13.090000 189 78 79 0
16.500000 33.000000 14.300000 190 79 80 0
16.720000 33.000000 15.400000 191 78 81 0
16.940000 33.000000 15.950000 190 77 80 0
17.160000 33.000000 15.950000 189 78 79 0
17.380000 33.000000 15.950000 189 78 79 0
17.600000 33.000000 16.610000 188 76 77 0
17.820000 33.000000 16.720000 191 79 80 0
18.040000 33.000000 16.720000 191 79 80 0
18.260000 33.000000 16.720000 191 79 80 0
18.480000 33.000000 16.720000 190 77 80 0
18.700000 33.000000 16.830000 192 79 82 0
18.920000 33.000000 16.170000 192 79 82 0
19.140000 33.000000 16.280000 191 78 81 0
19.360000 33.000000 16.390000 191 79 80 0
19.580000 33.000000 16.390000 189 77 78 0
19.800000 33.000000 16.500000 190 77 80 0
20.020000 33.000000 17.160000 189 76 79 0
20.240000 33.000000 17.270000 189 76 79 0
20.460000 33.000000 17.930000 190 77 80 0
20.680000 33.000000 18.480000 189 76 79 0
20.900000 33.000000 19.580000 189 76 79 0
21.120000 33.000000 20.790000 189 76 79 0
21.340000 33.000000 21.450000 189 76 79 0
21.560000 33.000000 21.450000 190 77 80 0
21.780000 33.000000 20.130000 189 76 79 0
22.000000 33.000000 14.630000 189 76 79 0
22.220000 33.000000 7.040000 190 77 80 0
22.440000 33.000000 1.540000 190 77 80 0
22.660000 33.000000 0.220000 190 77 80 0
22.880000 33.000000 0.220000 190 77 80 0
23.100000 33.000000 0.220000 190 77 80 0
23.320000 33.000000 0.880000 190 77 80 0
23.540000 33.000000 0.990000 191 78 81 0
23.760000 33.000000 0.330000 191 78 81 0
23.980000 33.000000 0.440000 191 78 81 0
24.200000 33.000000 0.440000 191 78 81 0
24.420000 33.000000 0.550000 191 78 81 0
24.640000 33.000000 0.550000 192 79 82 0
24.860000 33.000000 0.660000 190 77 80 0
25.080000 33.000000 0.660000 191 78 81 0
25.300000 33.000000 0.440000 191 78 81 0
25.520000 33.000000 0.880000 192 79 82 0
25.740000 33.000000 0.770000 192 79 82 0
25.960000 33.000000 0.770000 192 79 82 0
26.400000 33.000000 0.770000 192 79 82 0
26.620000 33.000000 0.770000 191 78 81 0
26.840000 33.000000 1.430000 191 78 81 0
27.060000 33.000000 1.540000 191 78 81 0
27.280000 33.000000 1.100000 192 79 82 0
27.500000 33.000000 0.550000 191 78 81 0
28.820000 33.000000 0.220000 191 78 81 0
29.040000 33.000000 0.770000 190 77 80 0
29.260000 33.000000 0.770000 191 78 81 0
29.480000 33.000000 0.770000 190 77 82 0
29.700000 33.000000 0.770000 190 77 82 0
29.920000 33.000000 0.770000 190 77 82 0
30.140000 33.000000 0.880000 189 76 81 0
30.360000 33.000000 0.880000 189 76 81 0
30.580000 33.000000 0.990000 189 76 81 0
30.800000 33.000000 0.330000 190 77 80 0
31.020000 33.000000 0.440000 190 77 80 0
31.240000 33.000000 1.100000 189 78 82 0
31.460000 33.000000 1.210000 188 77 81 0
31.680000 33.000000 1.870000 190 77 82 0
31.900000 33.000000 1.870000 191 78 83 0
32.120000 33.000000 1.870000 191 80 84 0
32.340000 33.000000 2.640000 191 80 84 0
32.560000 33.000000 2.640000 193 82 84 0
32.780000 33.000000 2.640000 193 82 84 0
33.000000 33.000000 2.640000 193 82 86 0
33.220000 33.000000 2.750000 194 83 87 0
33.440000 33.000000 2.750000 193 82 84 0
33.660000 33.000000 2.750000 195 84 86 0
33.880000 33.000000 2.750000 195 84 86 0
34.100000 33.000000 2.750000 195 84 86 0
34.320000 33.000000 3.190000 195 84 86 0
34.540000 33.000000 3.630000 195 84 86 0
34.760000 33.000000 4.180000 196 85 87 0
34.980000 33.000000 4.840000 196 85 87 0
35.200000 33.000000 4.840000 196 85 87 0
35.420000 33.000000 4.840000 195 84 86 0
35.640000 33.000000 4.950000 196 85 87 0
35.860000 33.000000 4.950000 195 84 86 0
36.080000 33.000000 4.180000 195 84 86 0
36.300000 33.000000 4.180000 195 84 86 0
36.520000 33.000000 4.290000 194 84 88 0
36.740000 33.000000 4.290000 194 84 88 0
36.960000 33.000000 4.290000 194 85 86 0
37.180000 33.000000 4.290000 195 86 87 0
0.000000 33.220000 12.760000 197 195 165 0
0.220000 33.220000 13.310000 199 197 167 0
0.440000 33.220000 13.860000 200 198 170 0
0.660000 33.220000 13.860000 201 199 171 0
0.880000 33.220000 14.630000 202 200 172 0
1.100000 33.220000 14.630000 203 201 173 0
1.320000 33.220000 14.740000 203 201 173 0
1.540000 33.220000 15.510000 204 202 174 0
1.760000 33.220000 16.170000 204 202 172 0
1.980000 33.220000 16.940000 205 203 173 0
2.200000 33.220000 16.940000 206 204 176 0
2.420000 33.220000 17.050000 207 205 177 0
2.640000 33.220000 17.820000 208 206 178 0
2.860000 33.220000 17.820000 208 206 178 0
3.080000 33.220000 17.820000 209 204 177 0
3.300000 33.220000 17.820000 208 203 176 0
3.520000 33.220000 17.160000 205 201 171 0
3.740000 33.220000 17.160000 204 200 170 0
3.960000 33.220000 17.270000 203 199 169 0
4.180000 33.220000 17.050000 203 199 169 0
4.400000 33.220000 18.150000 204 198 171 0
4.620000 33.220000 18.700000 204 198 171 0
4.840000 33.220000 19.360000 204 199 172 0
5.060000 33.220000 19.470000 203 198 171 0
5.280000 33.220000 19.470000 202 197 170 0
5.500000 33.220000 18.810000 202 197 170 0
5.720000 33.220000 18.810000 204 198 171 0
5.940000 33.220000 18.810000 203 197 170 0
6.160000 33.220000 18.810000 203 197 170 0
6.380000 33.220000 18.810000 203 197 170 0
6.600000 33.220000 18.920000 204 198 171 0
6.820000 33.220000 19.580000 204 198 171 0
7.040000 33.220000 19.580000 204 198 171 0
7.260000 33.220000 19.580000 205 199 172 0
7.480000 33.220000 19.690000 205 199 172 0
7.700000 33.220000 19.030000 206 200 173 0
7.920000 33.220000 19.030000 207 200 176 0
8.140000 33.220000 19.030000 208 201 177 0
8.360000 33.220000 19.030000 208 201 177 0
8.580000 33.220000 19.140000 208 201 177 0
8.800000 33.220000 19.140000 208 201 177 0
9.020000 33.220000 19.140000 208 201 177 0
9.240000 33.220000 19.140000 207 200 176 0
9.460000 33.220000 19.250000 205 198 174 0
9.680000 33.220000 18.590000 211 193 168 0
9.900000 33.220000 12.320000 200 182 157 0
10.120000 33.220000 3.410000 213 161 143 0
10.780000 33.220000 1.980000 196 113 104 0
11.000000 33.220000 4.070000 200 94 93 0
11.220000 33.220000 5.390000 194 88 87 0
11.440000 33.220000 5.830000 193 87 86 0
11.660000 33.220000 6.600000 192 86 85 0
11.880000 33.220000 6.710000 192 86 85 0
12.100000 33.220000 6.820000 192 86 85 0
12.320000 33.220000 6.160000 192 86 83 0
12.540000 33.220000 6.160000 191 85 82 0
12.760000 33.220000 6.160000 192 83 83 0
12.980000 33.220000 6.710000 191 82 82 0
13.200000 33.220000 8.580000 192 81 82 0
13.420000 33.220000 9.790000 191 80 81 0
13.640000 33.220000 11.110000 190 81 81 0
13.860000 33.220000 11.110000 190 81 81 0
14.080000 33.220000 11.880000 189 80 80 0
14.300000 33.220000 12.650000 189 80 80 0
14.520000 33.220000 12.760000 190 79 80 0
14.740000 33.220000 12.870000 190 79 80 0
14.960000 33.220000 12.210000 189 78 79 0
15.180000 33.220000 12.320000 188 77 78 0
15.400000 33.220000 12.320000 189 78 79 0
15.620000 33.220000 12.320000 189 78 79 0
15.840000 33.220000 12.320000 190 79 80 0
16.060000 33.220000 13.090000 190 79 80 0
16.280000 33.220000 13.640000 189 78 79 0
16.500000 33.220000 14.740000 189 78 79 0
16.720000 33.220000 15.290000 190 77 80 0
16.940000 33.220000 15.950000 190 77 80 0
17.160000 33.220000 15.950000 188 77 78 0
17.380000 33.220000 15.950000 188 77 78 0
17.600000 33.220000 15.950000 190 78 79 0
17.820000 33.220000 16.720000 189 77 78 0
18.040000 33.220000 16.720000 192 80 81 0
18.260000 33.220000 16.720000 189 77 78 0
18.480000 33.220000 16.830000 190 77 80 0
18.700000 33.220000 16.830000 190 77 80 0
18.920000 33.220000 16.280000 191 78 81 0
19.140000 33.220000 16.280000 190 77 80 0
19.360000 33.220000 16.390000 189 77 78 0
19.580000 33.220000 16.390000 189 77 78 0
19.800000 33.220000 16.500000 188 75 78 0
20.020000 33.220000 17.160000 190 77 80 0
20.240000 33.220000 17.270000 188 75 78 0
20.460000 33.220000 17.820000 187 74 77 0
20.680000 33.220000 18.920000 189 76 79 0
20.900000 33.220000 20.130000 191 78 81 0
21.120000 33.220000 20.790000 190 77 80 0
21.340000 33.220000 21.450000 190 77 80 0
21.560000 33.220000 20.130000 188 75 78 0
21.780000 33.220000 14.630000 189 76 79 0
22.000000 33.220000 7.040000 190 77 80 0
22.220000 33.220000 1.540000 190 77 80 0
22.440000 33.220000 0.110000 190 77 80 0
22.660000 33.220000 0.220000 190 77 80 0
22.880000 33.220000 0.220000 192 79 82 0
23.100000 33.220000 0.220000 190 77 80 0
23.320000 33.220000 0.220000 189 76 79 0
23.540000 33.220000 0.990000 191 78 81 0
23.760000 33.220000 0.330000 190 77 80 0
23.980000 33.220000 0.440000 190 77 80 0
24.200000 33.220000 0.440000 191 78 81 0
24.420000 33.220000 0.550000 189 76 79 0
24.640000 33.220000 0.660000 191 78 81 0
25.080000 33.220000 0.550000 190 77 80 0
25.300000 33.220000 0.990000 191 78 81 0
25.520000 33.220000 1.430000 191 78 81 0
25.740000 33.220000 0.770000 191 78 81 0
25.960000 33.220000 0.770000 191 78 81 0
26.180000 33.220000 0.770000 192 79 82 0
26.400000 33.220000 0.770000 193 80 83 0
26.620000 33.220000 1.430000 192 79 82 0
26.840000 33.220000 2.200000 191 78 81 0
27.060000 33.220000 1.650000 191 78 81 0
27.280000 33.220000 0.550000 191 78 81 0
28.600000 33.220000 0.220000 190 77 80 0
28.820000 33.220000 0.770000 190 77 80 0
29.040000 33.220000 0.770000 191 78 81 0
29.260000 33.220000 0.770000 189 76 79 0
29.480000 33.220000 0.770000 190 77 82 0
29.700000 33.220000 0.770000 189 76 81 0
29.920000 33.220000 0.770000 189 76 81 0
30.140000 33.220000 0.880000 189 76 81 0
30.360000 33.220000 0.880000 189 76 81 0
30.580000 33.220000 0.330000 189 76 81 0
30.800000 33.220000 0.440000 190 77 80 0
31.020000 33.220000 1.100000 190 77 80 0
31.240000 33.220000 1.210000 189 78 82 0
31.460000 33.220000 1.210000 188 77 81 0
31.680000 33.220000 1.870000 189 76 81 0
31.900000 33.220000 1.870000 191 78 83 0
32.120000 33.220000 1.980000 190 79 83 0
32.340000 33.220000 2.640000 191 80 84 0
32.560000 33.220000 2.640000 193 82 84 0
32.780000 33.220000 2.640000 192 81 83 0
33.000000 33.220000 2.640000 194 83 87 0
33.220000 33.220000 2.750000 193 82 86 0
33.440000 33.220000 2.750000 194 83 85 0
33.660000 33.220000 2.750000 195 84 86 0
33.880000 33.220000 2.750000 194 83 85 0
34.100000 33.220000 3.300000 194 83 85 0
34.320000 33.220000 3.740000 195 84 86 0
34.540000 33.220000 4.180000 195 84 86 0
34.760000 33.220000 4.180000 196 85 87 0
34.980000 33.220000 4.180000 196 85 87 0
35.200000 33.220000 4.840000 196 85 87 0
35.420000 33.220000 4.840000 196 85 87 0
35.640000 33.220000 4.950000 196 85 87 0
35.860000 33.220000 4.950000 196 85 87 0
36.080000 33.220000 4.180000 196 85 87 0
36.300000 33.220000 4.180000 196 85 87 0
36.520000 33.220000 4.950000 194 84 88 0
36.740000 33.220000 4.290000 194 84 88 0
36.960000 33.220000 4.290000 194 85 86 0
37.180000 33.220000 4.290000 195 86 87 0
0.000000 33.440000 13.200000 196 196 165 0
0.220000 33.440000 13.200000 198 198 167 0
0.440000 33.440000 13.860000 199 199 170 0
0.660000 33.440000 13.970000 201 201 172 0
0.880000 33.440000 14.630000 202 200 172 0
1.100000 33.440000 14.630000 203 201 173 0
1.320000 33.440000 14.740000 204 202 174 0
1.540000 33.440000 15.510000 204 202 174 0
1.760000 33.440000 15.510000 205 203 175 0
1.980000 33.440000 16.280000 206 204 176 0
2.200000 33.440000 16.940000 206 204 176 0
2.420000 33.440000 17.050000 207 205 177 0
2.640000 33.440000 17.820000 208 206 178 0
2.860000 33.440000 17.820000 207 205 177 0
3.080000 33.440000 17.820000 205 203 175 0
3.300000 33.440000 17.160000 205 203 175 0
3.520000 33.440000 17.160000 203 201 173 0
3.740000 33.440000 17.160000 203 201 173 0
3.960000 33.440000 17.270000 202 200 172 0
4.180000 33.440000 17.050000 203 201 173 0
4.400000 33.440000 18.150000 204 199 172 0
4.620000 33.440000 18.700000 204 199 172 0
4.840000 33.440000 18.700000 204 199 172 0
5.060000 33.440000 19.470000 204 199 172 0
5.280000 33.440000 19.470000 204 199 172 0
5.500000 33.440000 18.810000 204 199 172 0
5.720000 33.440000 18.810000 203 199 169 0
5.940000 33.440000 18.810000 203 199 169 0
6.160000 33.440000 18.810000 203 199 169 0
6.380000 33.440000 18.810000 203 199 169 0
6.600000 33.440000 18.920000 203 198 173 0
6.820000 33.440000 19.580000 203 198 173 0
7.040000 33.440000 19.580000 204 199 174 0
7.260000 33.440000 19.580000 204 199 174 0
7.480000 33.440000 19.690000 203 201 175 0
7.700000 33.440000 19.690000 204 202 176 0
7.920000 33.440000 19.030000 207 202 177 0
8.140000 33.440000 19.030000 207 202 177 0
8.360000 33.440000 19.030000 207 202 178 0
8.580000 33.440000 19.140000 207 202 178 0
8.800000 33.440000 19.140000 207 202 177 0
9.020000 33.440000 19.140000 206 201 176 0
9.240000 33.440000 19.140000 206 200 173 0
9.460000 33.440000 19.250000 203 197 170 0
9.680000 33.440000 17.160000 215 183 157 0
9.900000 33.440000 9.570000 204 172 146 0
10.120000 33.440000 1.980000 215 148 134 0
10.560000 33.440000 0.660000 212 110 108 0
10.780000 33.440000 2.750000 200 98 96 0
11.000000 33.440000 4.620000 193 88 87 0
11.220000 33.440000 5.830000 192 87 86 0
11.440000 33.440000 5.830000 190 85 84 0
11.660000 33.440000 6.710000 191 86 85 0
11.880000 33.440000 6.820000 192 86 85 0
12.100000 33.440000 6.820000 191 85 84 0
12.320000 33.440000 6.160000 192 86 85 0
12.540000 33.440000 6.160000 190 84 83 0
12.760000 33.440000 6.820000 191 82 82 0
12.980000 33.440000 8.030000 191 82 82 0
13.200000 33.440000 9.790000 188 82 81 0
13.420000 33.440000 11.110000 189 83 82 0
13.640000 33.440000 11.880000 190 81 81 0
13.860000 33.440000 11.880000 191 82 82 0
14.080000 33.440000 12.650000 188 79 79 0
14.300000 33.440000 12.650000 189 80 80 0
14.520000 33.440000 12.760000 189 80 80 0
14.740000 33.440000 12.870000 188 79 79 0
14.960000 33.440000 12.210000 189 80 80 0
15.180000 33.440000 12.320000 189 80 80 0
15.400000 33.440000 12.320000 188 77 78 0
15.620000 33.440000 12.320000 188 77 78 0
15.840000 33.440000 12.430000 189 78 79 0
16.060000 33.440000 13.090000 189 78 79 0
16.280000 33.440000 13.530000 189 78 79 0
16.500000 33.440000 14.630000 189 78 79 0
16.720000 33.440000 15.180000 188 79 79 0
16.940000 33.440000 15.950000 188 79 79 0
17.160000 33.440000 15.950000 189 78 79 0
17.380000 33.440000 15.950000 190 79 80 0
17.600000 33.440000 15.950000 190 78 79 0
17.820000 33.440000 16.060000 191 79 80 0
18.040000 33.440000 16.060000 190 79 80 0
18.260000 33.440000 16.060000 189 78 79 0
18.480000 33.440000 16.830000 189 78 80 0
18.700000 33.440000 16.940000 189 78 80 0
18.920000 33.440000 16.280000 189 78 79 0
19.140000 33.440000 16.390000 189 78 79 0
19.360000 33.440000 16.390000 190 77 80 0
19.580000 33.440000 16.390000 189 76 79 0
19.800000 33.440000 16.500000 189 76 79 0
20.020000 33.440000 17.270000 188 75 78 0
20.240000 33.440000 17.160000 189 78 80 0
20.460000 33.440000 18.370000 189 78 80 0
20.680000 33.440000 19.470000 189 76 79 0
20.900000 33.440000 20.020000 190 77 80 0
21.120000 33.440000 20.790000 190 77 80 0
21.340000 33.440000 21.450000 190 77 80 0
21.560000 33.440000 17.380000 190 77 80 0
21.780000 33.440000 7.700000 190 77 80 0
22.000000 33.440000 1.540000 190 77 80 0
22.220000 33.440000 0.110000 190 77 80 0
22.440000 33.440000 0.220000 190 77 80 0
22.660000 33.440000 0.220000 190 77 80 0
22.880000 33.440000 0.220000 189 76 79 0
23.100000 33.440000 0.220000 189 76 79 0
23.320000 33.440000 0.330000 189 76 79 0
23.540000 33.440000 0.330000 190 77 80 0
23.760000 33.440000 0.440000 190 77 80 0
23.980000 33.440000 0.440000 190 77 80 0
24.200000 33.440000 0.550000 189 78 80 0
24.420000 33.440000 0.550000 188 77 79 0
24.640000 33.440000 0.660000 191 78 81 0
25.080000 33.440000 0.440000 191 78 81 0
25.300000 33.440000 0.880000 191 78 81 0
25.520000 33.440000 1.430000 191 78 81 0
25.740000 33.440000 0.770000 191 78 81 0
25.960000 33.440000 0.770000 193 80 83 0
26.180000 33.440000 0.770000 192 79 82 0
26.400000 33.440000 1.540000 193 80 83 0
26.620000 33.440000 1.540000 193 80 83 0
26.840000 33.440000 1.650000 192 79 82 0
27.060000 33.440000 1.100000 192 79 82 0
27.280000 33.440000 0.550000 192 79 84 0
28.380000 33.440000 0.440000 189 78 80 0
28.600000 33.440000 0.880000 187 76 78 0
28.820000 33.440000 0.770000 188 77 79 0
29.040000 33.440000 0.770000 190 77 80 0
29.260000 33.440000 0.770000 190 77 80 0
29.480000 33.440000 0.770000 188 77 81 0
29.700000 33.440000 0.770000 186 75 79 0
29.920000 33.440000 0.880000 187 76 80 0
30.140000 33.440000 0.880000 189 78 82 0
30.360000 33.440000 0.990000 188 77 79 0
30.580000 33.440000 0.330000 188 77 79 0
30.800000 33.440000 1.100000 190 77 82 0
31.020000 33.440000 1.100000 189 76 81 0
31.240000 33.440000 1.210000 188 77 79 0
31.460000 33.440000 1.870000 190 79 81 0
31.680000 33.440000 1.870000 188 77 81 0
31.900000 33.440000 1.870000 188 77 81 0
32.120000 33.440000 2.640000 190 79 81 0
32.340000 33.440000 2.640000 191 80 82 0
32.560000 33.440000 2.640000 193 82 84 0
32.780000 33.440000 2.640000 194 83 85 0
33.000000 33.440000 2.750000 194 83 85 0
33.220000 33.440000 2.750000 194 83 85 0
33.440000 33.440000 2.750000 194 83 85 0
33.660000 33.440000 2.750000 194 83 85 0
33.880000 33.440000 2.750000 195 84 86 0
34.100000 33.440000 3.190000 194 83 85 0
34.320000 33.440000 4.290000 195 84 86 0
34.540000 33.440000 4.180000 196 85 87 0
34.760000 33.440000 4.180000 196 85 87 0
34.980000 33.440000 4.180000 196 85 87 0
35.200000 33.440000 4.180000 196 85 87 0
35.420000 33.440000 4.180000 197 86 88 0
35.640000 33.440000 4.950000 195 84 86 0
35.860000 33.440000 4.950000 197 86 88 0
36.080000 33.440000 4.950000 197 86 88 0
36.300000 33.440000 4.180000 196 85 87 0
36.520000 33.440000 4.950000 194 85 86 0
36.740000 33.440000 4.950000 194 85 86 0
36.960000 33.440000 4.290000 195 86 87 0
37.180000 33.440000 4.290000 195 86 87 0
0.000000 33.660000 13.200000 197 197 166 0
0.220000 33.660000 13.200000 198 198 167 0
0.440000 33.660000 13.970000 200 200 171 0
0.660000 33.660000 13.970000 200 200 171 0
0.880000 33.660000 13.970000 203 201 173 0
1.100000 33.660000 14.740000 204 202 174 0
1.320000 33.660000 14.740000 205 203 175 0
1.540000 33.660000 14.850000 206 204 176 0
1.760000 33.660000 15.510000 206 204 176 0
1.980000 33.660000 16.170000 208 206 178 0
2.200000 33.660000 16.280000 207 205 177 0
2.420000 33.660000 17.050000 207 205 177 0
2.640000 33.660000 17.710000 208 206 178 0
2.860000 33.660000 17.820000 208 206 178 0
3.080000 33.660000 17.820000 206 204 176 0
3.300000 33.660000 17.160000 205 203 175 0
3.520000 33.660000 17.160000 205 203 175 0
3.740000 33.660000 17.160000 204 202 174 0
3.960000 33.660000 17.270000 205 203 175 0
4.180000 33.660000 17.050000 204 202 174 0
4.400000 33.660000 18.150000 206 201 174 0
4.620000 33.660000 18.700000 206 201 174 0
4.840000 33.660000 18.700000 207 202 175 0
5.060000 33.660000 18.700000 205 200 173 0
5.280000 33.660000 18.700000 206 201 174 0
5.500000 33.660000 18.810000 206 201 174 0
5.720000 33.660000 18.810000 206 202 172 0
5.940000 33.660000 18.810000 205 201 171 0
6.160000 33.660000 18.810000 205 201 171 0
6.380000 33.660000 18.920000 204 200 170 0
6.600000 33.660000 19.580000 205 200 175 0
6.820000 33.660000 19.580000 205 200 175 0
7.040000 33.660000 20.350000 205 200 175 0
7.260000 33.660000 20.350000 206 201 176 0
7.480000 33.660000 20.350000 204 202 176 0
7.700000 33.660000 19.690000 206 204 178 0
7.920000 33.660000 19.030000 208 203 178 0
8.140000 33.660000 19.030000 207 202 177 0
8.360000 33.660000 19.030000 208 203 179 0
8.580000 33.660000 19.140000 208 203 179 0
8.800000 33.660000 19.140000 207 202 177 0
9.020000 33.660000 19.140000 206 201 176 0
9.240000 33.660000 19.140000 205 199 172 0
9.460000 33.660000 19.250000 199 193 166 0
9.680000 33.660000 18.480000 208 176 150 0
9.900000 33.660000 12.320000 197 165 139 0
10.120000 33.660000 2.640000 210 143 129 0
10.560000 33.660000 1.320000 205 103 101 0
10.780000 33.660000 3.410000 194 92 90 0
11.000000 33.660000 5.280000 194 89 88 0
11.220000 33.660000 5.830000 192 87 86 0
11.440000 33.660000 5.940000 191 86 85 0
11.660000 33.660000 6.160000 191 86 85 0
11.880000 33.660000 6.820000 191 85 84 0
12.100000 33.660000 6.820000 191 85 84 0
12.320000 33.660000 6.820000 190 84 83 0
12.540000 33.660000 6.820000 190 84 83 0
12.760000 33.660000 8.140000 192 83 83 0
12.980000 33.660000 9.900000 191 82 82 0
13.200000 33.660000 11.110000 189 83 82 0
13.420000 33.660000 11.770000 189 83 82 0
13.640000 33.660000 11.880000 191 82 82 0
13.860000 33.660000 12.540000 190 81 81 0
14.080000 33.660000 12.650000 190 81 81 0
14.300000 33.660000 13.420000 189 80 80 0
14.520000 33.660000 12.760000 188 79 79 0
14.740000 33.660000 12.870000 189 80 80 0
14.960000 33.660000 12.210000 188 79 79 0
15.180000 33.660000 12.320000 189 80 80 0
15.400000 33.660000 12.320000 190 79 80 0
15.620000 33.660000 12.320000 190 79 80 0
15.840000 33.660000 13.090000 189 78 79 0
16.060000 33.660000 13.640000 189 78 79 0
16.280000 33.660000 14.740000 189 78 79 0
16.500000 33.660000 15.290000 190 79 80 0
16.720000 33.660000 15.950000 189 80 80 0
16.940000 33.660000 15.950000 189 80 80 0
17.160000 33.660000 15.950000 189 78 79 0
17.380000 33.660000 15.950000 189 78 79 0
17.600000 33.660000 16.060000 190 78 79 0
17.820000 33.660000 16.060000 191 79 80 0
18.040000 33.660000 16.060000 190 79 80 0
18.260000 33.660000 16.170000 190 79 80 0
18.480000 33.660000 16.170000 189 78 80 0
18.700000 33.660000 16.280000 190 79 81 0
18.920000 33.660000 16.280000 189 78 79 0
19.140000 33.660000 16.390000 190 79 80 0
19.360000 33.660000 16.390000 189 76 79 0
19.580000 33.660000 16.500000 189 76 79 0
19.800000 33.660000 16.500000 190 77 80 0
20.020000 33.660000 17.270000 190 77 80 0
20.240000 33.660000 17.820000 189 78 80 0
20.460000 33.660000 18.920000 188 77 79 0
20.680000 33.660000 20.130000 190 77 80 0
20.900000 33.660000 20.130000 190 77 80 0
21.120000 33.660000 20.790000 191 78 81 0
21.340000 33.660000 21.450000 191 78 81 0
21.560000 33.660000 15.950000 191 78 81 0
21.780000 33.660000 5.610000 190 77 80 0
22.000000 33.660000 0.110000 190 77 80 0
22.220000 33.660000 0.110000 191 78 81 0
22.440000 33.660000 0.220000 190 77 80 0
22.660000 33.660000 0.220000 191 78 81 0
22.880000 33.660000 0.220000 192 79 82 0
23.100000 33.660000 0.330000 190 77 80 0
23.320000 33.660000 0.330000 191 78 81 0
23.540000 33.660000 0.330000 190 77 80 0
23.760000 33.660000 0.440000 191 78 81 0
23.980000 33.660000 0.440000 191 78 81 0
24.200000 33.660000 0.550000 189 78 80 0
24.420000 33.660000 0.660000 189 78 80 0
24.860000 33.660000 0.440000 191 78 81 0
25.080000 33.660000 0.880000 191 78 81 0
25.300000 33.660000 0.770000 191 78 81 0
25.520000 33.660000 0.770000 192 79 82 0
25.740000 33.660000 0.770000 193 80 83 0
25.960000 33.660000 0.770000 192 79 82 0
26.180000 33.660000 1.430000 194 81 84 0
26.400000 33.660000 1.540000 193 80 83 0
26.620000 33.660000 1.650000 192 79 82 0
26.840000 33.660000 1.760000 193 80 83 0
27.060000 33.660000 0.550000 193 80 83 0
27.280000 33.660000 0.660000 193 80 85 0
28.380000 33.660000 0.220000 189 78 80 0
28.600000 33.660000 0.770000 188 77 79 0
28.820000 33.660000 0.770000 189 78 80 0
29.040000 33.660000 0.770000 190 77 80 0
29.260000 33.660000 0.770000 190 77 80 0
29.480000 33.660000 0.770000 189 78 82 0
29.700000 33.660000 0.770000 188 77 81 0
29.920000 33.660000 0.880000 188 77 81 0
30.140000 33.660000 0.880000 188 77 81 0
30.360000 33.660000 0.990000 190 79 81 0
30.580000 33.660000 1.100000 190 79 81 0
30.800000 33.660000 1.100000 191 78 83 0
31.020000 33.660000 1.100000 189 76 81 0
31.240000 33.660000 1.210000 189 78 80 0
31.460000 33.660000 1.870000 190 79 81 0
31.680000 33.660000 1.870000 188 77 81 0
31.900000 33.660000 2.640000 189 78 82 0
32.120000 33.660000 2.640000 192 81 83 0
32.340000 33.660000 2.640000 192 81 83 0
32.560000 33.660000 2.640000 194 83 85 0
32.780000 33.660000 2.750000 194 83 85 0
33.000000 33.660000 2.750000 193 82 84 0
33.220000 33.660000 2.750000 194 83 85 0
33.440000 33.660000 2.750000 194 83 85 0
33.660000 33.660000 2.750000 195 84 86 0
33.880000 33.660000 3.190000 195 84 86 0
34.100000 33.660000 3.630000 194 83 85 0
34.320000 33.660000 4.180000 195 84 86 0
34.540000 33.660000 4.180000 195 84 86 0
34.760000 33.660000 4.180000 197 86 88 0
34.980000 33.660000 4.180000 196 85 87 0
35.200000 33.660000 4.180000 197 86 88 0
35.420000 33.660000 4.180000 196 85 87 0
35.640000 33.660000 4.180000 196 85 87 0
35.860000 33.660000 4.950000 196 85 87 0
36.080000 33.660000 4.950000 197 86 88 0
36.300000 33.660000 4.950000 195 84 86 0
36.520000 33.660000 4.950000 195 86 87 0
36.740000 33.660000 4.950000 195 86 87 0
36.960000 33.660000 5.060000 195 86 87 0
37.180000 33.660000 5.060000 196 87 88 0
0.000000 33.880000 13.200000 198 196 168 0
0.220000 33.880000 13.200000 200 198 170 0
0.440000 33.880000 13.970000 200 200 171 0
0.660000 33.880000 13.970000 202 202 173 0
0.880000 33.880000 13.970000 204 202 176 0
1.100000 33.880000 13.970000 205 203 177 0
1.320000 33.880000 14.080000 206 204 178 0
1.540000 33.880000 14.850000 206 204 178 0
1.760000 33.880000 14.850000 206 204 176 0
1.980000 33.880000 15.510000 207 205 177 0
2.200000 33.880000 16.280000 207 205 177 0
2.420000 33.880000 17.050000 207 205 177 0
2.640000 33.880000 17.050000 207 205 179 0
2.860000 33.880000 17.710000 207 205 179 0
3.080000 33.880000 17.820000 209 204 177 0
3.300000 33.880000 17.160000 208 203 176 0
3.520000 33.880000 17.160000 207 202 175 0
3.740000 33.880000 17.160000 208 203 176 0
3.960000 33.880000 17.270000 206 204 176 0
4.180000 33.880000 17.820000 205 203 175 0
4.400000 33.880000 18.150000 208 203 178 0
4.620000 33.880000 18.700000 207 202 177 0
4.840000 33.880000 18.700000 207 202 177 0
5.060000 33.880000 19.470000 207 202 177 0
5.280000 33.880000 19.470000 208 203 176 0
5.500000 33.880000 18.810000 207 202 175 0
5.720000 33.880000 18.810000 206 201 174 0
5.940000 33.880000 18.810000 206 201 174 0
6.160000 33.880000 18.810000 205 200 173 0
6.380000 33.880000 18.920000 206 201 174 0
6.600000 33.880000 19.580000 206 201 174 0
6.820000 33.880000 19.580000 206 201 174 0
7.040000 33.880000 20.350000 207 202 175 0
7.260000 33.880000 20.350000 206 201 174 0
7.480000 33.880000 20.350000 207 202 177 0
7.700000 33.880000 19.690000 208 203 178 0
7.920000 33.880000 19.030000 208 203 178 0
8.140000 33.880000 19.030000 207 202 177 0
8.360000 33.880000 19.030000 208 203 178 0
8.580000 33.880000 19.140000 208 203 178 0
8.800000 33.880000 19.140000 207 201 172 0
9.020000 33.880000 19.140000 205 199 170 0
9.240000 33.880000 19.140000 216 189 165 0
9.460000 33.880000 19.250000 207 180 156 0
9.680000 33.880000 19.910000 216 163 144 0
9.900000 33.880000 15.730000 203 150 131 0
10.120000 33.880000 6.820000 217 126 120 0
10.340000 33.880000 1.320000 204 113 107 0
10.560000 33.880000 1.980000 200 95 94 0
10.780000 33.880000 4.070000 194 89 88 0
11.000000 33.880000 5.390000 192 87 86 0
11.220000 33.880000 5.940000 192 87 86 0
11.440000 33.880000 6.050000 193 87 86 0
11.660000 33.880000 6.160000 191 85 84 0
11.880000 33.880000 6.820000 190 84 83 0
12.100000 33.880000 6.820000 190 84 83 0
12.320000 33.880000 6.820000 190 84 83 0
12.540000 33.880000 7.480000 189 83 82 0
12.760000 33.880000 9.350000 191 82 82 0
12.980000 33.880000 11.220000 190 81 81 0
13.200000 33.880000 11.770000 190 81 81 0
13.420000 33.880000 11.880000 191 82 82 0
13.640000 33.880000 12.540000 191 82 82 0
13.860000 33.880000 12.650000 190 81 81 0
14.080000 33.880000 13.310000 189 80 80 0
14.300000 33.880000 13.420000 188 79 79 0
14.520000 33.880000 12.870000 191 80 81 0
14.740000 33.880000 12.870000 190 79 80 0
14.960000 33.880000 12.320000 189 78 79 0
15.180000 33.880000 12.320000 190 79 80 0
15.400000 33.880000 12.320000 190 79 80 0
15.620000 33.880000 13.090000 190 79 80 0
15.840000 33.880000 13.090000 189 78 79 0
16.060000 33.880000 13.640000 190 79 80 0
16.280000 33.880000 14.740000 189 78 79 0
16.500000 33.880000 15.180000 190 79 80 0
16.720000 33.880000 15.950000 190 79 80 0
16.940000 33.880000 15.950000 191 80 81 0
17.160000 33.880000 15.950000 189 78 79 0
17.380000 33.880000 15.950000 190 79 80 0
17.600000 33.880000 16.060000 189 78 79 0
17.820000 33.880000 16.060000 189 78 79 0
18.040000 33.880000 16.170000 191 79 80 0
18.260000 33.880000 16.170000 190 78 79 0
18.480000 33.880000 16.280000 189 76 79 0
18.700000 33.880000 16.280000 191 78 81 0
18.920000 33.880000 16.390000 189 78 79 0
19.140000 33.880000 16.390000 188 77 78 0
19.360000 33.880000 16.390000 190 77 80 0
19.580000 33.880000 16.500000 189 76 79 0
19.800000 33.880000 16.500000 190 77 80 0
20.020000 33.880000 17.160000 190 77 80 0
20.240000 33.880000 18.370000 189 76 79 0
20.460000 33.880000 19.470000 189 76 79 0
20.680000 33.880000 20.020000 192 79 82 0
20.900000 33.880000 20.790000 191 78 81 0
21.120000 33.880000 20.790000 191 78 81 0
21.340000 33.880000 20.130000 191 78 81 0
21.560000 33.880000 13.200000 189 76 79 0
21.780000 33.880000 4.290000 189 76 79 0
22.000000 33.880000 0.110000 190 77 80 0
22.220000 33.880000 0.220000 191 78 81 0
22.440000 33.880000 0.220000 190 79 81 0
22.660000 33.880000 0.220000 189 78 80 0
22.880000 33.880000 0.220000 192 79 82 0
23.100000 33.880000 0.330000 191 78 81 0
23.320000 33.880000 0.330000 190 77 80 0
23.540000 33.880000 0.330000 191 78 81 0
23.760000 33.880000 0.440000 191 78 81 0
23.980000 33.880000 0.440000 191 78 81 0
24.200000 33.880000 0.550000 188 77 79 0
24.420000 33.880000 0.550000 190 79 81 0
24.640000 33.880000 0.440000 191 78 81 0
24.860000 33.880000 0.880000 190 77 80 0
25.080000 33.880000 0.770000 192 79 82 0
25.300000 33.880000 0.660000 192 79 82 0
25.520000 33.880000 0.770000 191 78 81 0
25.740000 33.880000 0.770000 192 79 82 0
25.960000 33.880000 1.430000 191 80 82 0
26.180000 33.880000 1.540000 190 79 81 0
26.400000 33.880000 1.650000 192 79 84 0
26.620000 33.880000 1.760000 191 78 83 0
26.840000 33.880000 1.210000 191 78 83 0
27.060000 33.880000 0.550000 190 77 82 0
27.280000 33.880000 0.550000 190 79 81 0
28.160000 33.880000 0.440000 189 78 82 0
28.380000 33.880000 0.880000 189 78 82 0
28.600000 33.880000 0.770000 188 77 81 0
28.820000 33.880000 0.770000 188 77 81 0
29.040000 33.880000 0.770000 189 78 80 0
29.260000 33.880000 0.770000 189 78 80 0
29.480000 33.880000 0.770000 189 78 80 0
29.700000 33.880000 0.770000 188 77 79 0
29.920000 33.880000 0.880000 189 76 83 0
30.140000 33.880000 0.990000 188 75 82 0
30.360000 33.880000 1.100000 188 77 81 0
30.580000 33.880000 1.100000 189 78 82 0
30.800000 33.880000 1.100000 190 79 83 0
31.020000 33.880000 1.210000 189 78 82 0
31.240000 33.880000 1.870000 188 77 81 0
31.460000 33.880000 1.870000 189 78 82 0
31.680000 33.880000 1.870000 187 76 80 0
31.900000 33.880000 2.640000 190 79 83 0
32.120000 33.880000 2.640000 191 80 84 0
32.340000 33.880000 2.640000 192 81 85 0
32.560000 33.880000 2.640000 193 82 86 0
32.780000 33.880000 3.410000 193 82 86 0
33.000000 33.880000 2.750000 193 82 84 0
33.220000 33.880000 2.750000 194 83 85 0
33.440000 33.880000 2.750000 194 83 85 0
33.660000 33.880000 3.300000 194 83 85 0
33.880000 33.880000 3.740000 195 84 86 0
34.100000 33.880000 4.180000 195 84 86 0
34.320000 33.880000 4.180000 195 84 86 0
34.540000 33.880000 4.180000 195 84 86 0
34.760000 33.880000 4.180000 196 85 89 0
34.980000 33.880000 4.180000 196 85 89 0
35.200000 33.880000 4.180000 196 85 87 0
35.420000 33.880000 4.180000 196 85 87 0
35.640000 33.880000 4.180000 196 85 87 0
35.860000 33.880000 4.950000 195 84 86 0
36.080000 33.880000 4.950000 195 84 88 0
36.300000 33.880000 4.950000 195 84 88 0
36.520000 33.880000 4.950000 196 85 87 0
36.740000 33.880000 4.950000 195 84 86 0
36.960000 33.880000 5.060000 195 86 87 0
37.180000 33.880000 5.060000 196 87 88 0
0.000000 34.100000 13.200000 198 196 168 0
0.220000 34.100000 13.200000 199 197 169 0
0.440000 34.100000 13.970000 199 199 170 0
0.660000 34.100000 13.970000 202 202 173 0
0.880000 34.100000 13.970000 204 202 176 0
1.100000 34.100000 14.080000 204 202 176 0
1.320000 34.100000 14.080000 206 204 178 0
1.540000 34.100000 14.850000 206 204 178 0
1.760000 34.100000 14.850000 206 204 176 0
1.980000 34.100000 15.510000 207 205 177 0
2.200000 34.100000 15.510000 206 204 176 0
2.420000 34.100000 16.280000 207 205 177 0
2.640000 34.100000 17.050000 207 205 179 0
2.860000 34.100000 17.050000 207 205 179 0
3.080000 34.100000 17.050000 209 204 177 0
3.300000 34.100000 17.160000 208 203 176 0
3.520000 34.100000 17.160000 208 203 176 0
3.740000 34.100000 17.160000 207 202 175 0
3.960000 34.100000 17.270000 205 203 175 0
4.180000 34.100000 17.820000 206 204 176 0
4.400000 34.100000 18.260000 208 203 178 0
4.620000 34.100000 18.700000 207 202 177 0
4.840000 34.100000 19.360000 208 203 178 0
5.060000 34.100000 19.470000 208 203 178 0
5.280000 34.100000 19.470000 207 202 175 0
5.500000 34.100000 19.470000 207 202 175 0
5.720000 34.100000 18.810000 206 201 174 0
5.940000 34.100000 18.810000 206 201 174 0
6.160000 34.100000 18.810000 206 201 174 0
6.380000 34.100000 19.580000 206 201 174 0
6.600000 34.100000 19.580000 207 202 175 0
6.820000 34.100000 19.580000 206 201 174 0
7.040000 34.100000 19.690000 206 201 174 0
7.260000 34.100000 19.690000 206 201 174 0
7.480000 34.100000 19.690000 207 202 177 0
7.700000 34.100000 19.690000 208 203 178 0
7.920000 34.100000 19.030000 207 202 177 0
8.140000 34.100000 19.030000 208 203 178 0
8.360000 34.100000 19.030000 206 201 176 0
8.580000 34.100000 19.140000 206 201 176 0
8.800000 34.100000 19.140000 205 199 170 0
9.020000 34.100000 19.140000 201 195 166 0
9.240000 34.100000 19.140000 209 182 158 0
9.460000 34.100000 19.250000 199 172 148 0
9.680000 34.100000 18.480000 208 155 136 0
9.900000 34.100000 15.730000 194 141 122 0
10.120000 34.100000 11.000000 208 117 111 0
10.340000 34.100000 4.730000 193 102 96 0
10.560000 34.100000 3.410000 195 90 89 0
10.780000 34.100000 4.840000 191 86 85 0
11.000000 34.100000 4.730000 191 86 85 0
11.220000 34.100000 5.390000 190 85 84 0
11.440000 34.100000 6.160000 190 84 83 0
11.660000 34.100000 6.820000 190 84 83 0
11.880000 34.100000 6.820000 190 84 83 0
12.100000 34.100000 6.820000 189 83 82 0
12.320000 34.100000 7.590000 189 83 82 0
12.540000 34.100000 8.800000 188 82 81 0
12.760000 34.100000 10.670000 191 82 82 0
12.980000 34.100000 11.770000 190 81 81 0
13.200000 34.100000 12.540000 190 81 81 0
13.420000 34.100000 12.540000 190 81 81 0
13.640000 34.100000 12.540000 190 81 81 0
13.860000 34.100000 12.650000 189 80 80 0
14.080000 34.100000 13.420000 188 79 79 0
14.300000 34.100000 12.760000 187 78 78 0
14.520000 34.100000 12.870000 190 79 80 0
14.740000 34.100000 12.210000 190 79 80 0
14.960000 34.100000 12.320000 189 78 79 0
15.180000 34.100000 12.320000 188 77 78 0
15.400000 34.100000 13.090000 189 78 79 0
15.620000 34.100000 13.090000 189 78 79 0
15.840000 34.100000 13.750000 189 78 79 0
16.060000 34.100000 14.300000 188 77 78 0
16.280000 34.100000 15.400000 188 77 78 0
16.500000 34.100000 15.950000 188 77 78 0
16.720000 34.100000 15.950000 188 77 78 0
16.940000 34.100000 15.950000 189 78 79 0
17.160000 34.100000 15.950000 189 78 79 0
17.380000 34.100000 16.060000 190 79 80 0
17.600000 34.100000 16.060000 189 78 79 0
17.820000 34.100000 16.060000 188 77 78 0
18.040000 34.100000 16.170000 190 78 79 0
18.260000 34.100000 16.280000 189 77 78 0
18.480000 34.100000 16.280000 190 77 80 0
18.700000 34.100000 16.390000 189 76 79 0
18.920000 34.100000 16.390000 189 78 79 0
19.140000 34.100000 16.390000 188 77 78 0
19.360000 34.100000 16.500000 190 77 80 0
19.580000 34.100000 16.500000 188 75 78 0
19.800000 34.100000 17.160000 189 76 79 0
20.020000 34.100000 17.710000 189 76 79 0
20.240000 34.100000 18.920000 189 76 79 0
20.460000 34.100000 19.360000 189 76 79 0
20.680000 34.100000 20.130000 188 75 78 0
