ply
format ascii 1.0
element vertex 1174
property float x
property float y
property float z
property uchar red
property uchar green
property uchar blue
property uchar alpha
end_header
36.740000 6.160000 5.060000 150 82 68 0
36.960000 6.160000 5.830000 149 81 67 0
37.180000 6.160000 5.830000 148 78 65 0
0.000000 6.380000 1.100000 208 214 209 0
0.220000 6.380000 1.210000 207 213 210 0
0.440000 6.380000 1.870000 207 213 210 0
0.660000 6.380000 1.870000 206 212 209 0
0.880000 6.380000 1.210000 207 213 210 0
1.100000 6.380000 1.210000 207 213 208 0
1.320000 6.380000 1.320000 208 214 209 0
1.540000 6.380000 1.320000 207 213 208 0
1.760000 6.380000 1.320000 206 212 207 0
1.980000 6.380000 1.980000 209 215 210 0
2.200000 6.380000 2.090000 208 214 209 0
2.420000 6.380000 2.530000 207 216 210 0
2.640000 6.380000 2.970000 208 217 211 0
2.860000 6.380000 3.520000 210 216 211 0
3.080000 6.380000 2.860000 209 215 210 0
3.300000 6.380000 3.520000 205 211 206 0
3.520000 6.380000 2.860000 205 211 206 0
3.740000 6.380000 2.860000 206 212 207 0
3.960000 6.380000 3.630000 207 213 208 0
4.180000 6.380000 3.630000 205 214 208 0
4.400000 6.380000 3.630000 205 214 208 0
4.620000 6.380000 3.740000 206 212 207 0
4.840000 6.380000 3.740000 206 212 207 0
5.060000 6.380000 3.740000 207 213 208 0
5.280000 6.380000 3.740000 208 214 209 0
5.500000 6.380000 3.850000 206 215 209 0
5.720000 6.380000 3.850000 205 214 208 0
5.940000 6.380000 3.850000 204 213 207 0
6.160000 6.380000 3.850000 204 213 207 0
6.380000 6.380000 3.960000 205 211 206 0
6.600000 6.380000 4.620000 205 211 206 0
6.820000 6.380000 4.620000 205 211 206 0
7.040000 6.380000 4.730000 205 211 206 0
7.260000 6.380000 4.730000 202 211 205 0
7.480000 6.380000 4.730000 203 212 206 0
7.700000 6.380000 4.730000 205 211 206 0
7.920000 6.380000 4.840000 205 211 206 0
8.140000 6.380000 5.390000 205 211 206 0
8.360000 6.380000 6.380000 203 209 204 0
8.580000 6.380000 6.930000 203 209 204 0
8.800000 6.380000 6.930000 202 208 203 0
9.020000 6.380000 6.930000 200 209 203 0
9.240000 6.380000 7.040000 199 208 202 0
9.460000 6.380000 7.040000 199 208 202 0
9.680000 6.380000 7.040000 199 208 202 0
9.900000 6.380000 7.040000 198 207 201 0
10.120000 6.380000 7.810000 198 207 201 0
10.340000 6.380000 7.810000 200 206 201 0
10.560000 6.380000 7.810000 199 205 200 0
10.780000 6.380000 7.810000 194 203 197 0
11.000000 6.380000 7.920000 192 201 195 0
11.220000 6.380000 8.580000 191 199 196 0
11.440000 6.380000 8.580000 190 198 195 0
11.660000 6.380000 8.690000 188 194 187 0
11.880000 6.380000 8.690000 177 183 176 0
12.100000 6.380000 8.690000 177 167 161 0
12.320000 6.380000 8.800000 166 156 150 0
12.540000 6.380000 8.800000 158 144 136 0
12.760000 6.380000 8.800000 150 136 128 0
12.980000 6.380000 8.800000 151 133 124 0
13.200000 6.380000 8.910000 145 127 118 0
13.420000 6.380000 8.910000 141 124 112 0
13.640000 6.380000 8.910000 139 122 110 0
13.860000 6.380000 8.910000 137 118 106 0
14.080000 6.380000 8.910000 136 117 105 0
14.300000 6.380000 8.910000 136 116 104 0
14.520000 6.380000 9.570000 135 115 103 0
14.740000 6.380000 10.340000 135 115 101 0
14.960000 6.380000 11.000000 134 114 100 0
15.180000 6.380000 11.660000 132 112 98 0
15.400000 6.380000 13.090000 132 112 98 0
15.620000 6.380000 14.410000 130 110 96 0
15.840000 6.380000 15.730000 131 111 97 0
16.060000 6.380000 16.390000 133 110 97 0
16.280000 6.380000 16.390000 131 108 95 0
16.500000 6.380000 16.280000 130 107 94 0
16.720000 6.380000 13.530000 130 107 94 0
16.940000 6.380000 8.140000 128 105 92 0
17.160000 6.380000 4.840000 127 104 91 0
17.380000 6.380000 4.730000 126 103 90 0
17.600000 6.380000 5.280000 125 102 89 0
17.820000 6.380000 4.620000 127 103 88 0
18.040000 6.380000 4.730000 124 100 85 0
18.260000 6.380000 4.840000 125 101 86 0
18.480000 6.380000 4.730000 123 99 84 0
18.700000 6.380000 4.400000 125 98 84 0
18.920000 6.380000 4.290000 124 97 83 0
19.140000 6.380000 3.850000 123 96 82 0
19.360000 6.380000 3.300000 123 96 82 0
19.580000 6.380000 3.410000 124 95 82 0
19.800000 6.380000 2.750000 122 93 80 0
20.020000 6.380000 2.750000 122 93 80 0
20.240000 6.380000 2.750000 122 93 80 0
20.460000 6.380000 2.750000 122 92 79 0
20.680000 6.380000 2.750000 121 91 78 0
20.900000 6.380000 2.750000 123 90 76 0
21.120000 6.380000 1.980000 122 89 75 0
21.340000 6.380000 1.980000 122 89 75 0
21.560000 6.380000 1.320000 121 88 74 0
21.780000 6.380000 1.320000 121 88 74 0
22.000000 6.380000 1.320000 121 88 74 0
22.220000 6.380000 0.660000 120 87 73 0
22.440000 6.380000 0.550000 120 87 73 0
22.660000 6.380000 0.550000 121 87 73 0
22.880000 6.380000 1.320000 121 87 73 0
23.100000 6.380000 1.980000 121 87 73 0
23.320000 6.380000 1.980000 121 87 73 0
23.540000 6.380000 1.980000 122 85 72 0
23.760000 6.380000 2.640000 122 85 72 0
23.980000 6.380000 3.300000 122 85 71 0
24.200000 6.380000 4.620000 121 84 70 0
24.420000 6.380000 5.390000 121 84 70 0
24.640000 6.380000 6.050000 121 84 70 0
24.860000 6.380000 6.050000 121 84 70 0
25.080000 6.380000 6.710000 121 84 70 0
25.300000 6.380000 7.370000 122 84 70 0
25.520000 6.380000 7.370000 120 82 68 0
25.740000 6.380000 7.370000 124 82 65 0
25.960000 6.380000 6.710000 124 82 65 0
26.180000 6.380000 6.050000 128 81 66 0
26.400000 6.380000 6.050000 128 81 66 0
26.620000 6.380000 6.050000 131 81 67 0
26.840000 6.380000 6.050000 131 81 67 0
27.060000 6.380000 6.050000 134 82 66 0
27.280000 6.380000 6.050000 134 82 66 0
27.500000 6.380000 5.390000 132 82 66 0
27.720000 6.380000 5.390000 132 82 66 0
27.940000 6.380000 5.390000 134 81 68 0
28.160000 6.380000 5.390000 136 83 70 0
28.380000 6.380000 5.390000 136 82 69 0
28.600000 6.380000 5.390000 137 83 70 0
28.820000 6.380000 5.390000 138 84 71 0
29.040000 6.380000 5.390000 137 83 70 0
29.260000 6.380000 5.390000 139 85 70 0
29.480000 6.380000 4.730000 139 85 70 0
29.700000 6.380000 5.500000 139 85 70 0
29.920000 6.380000 5.500000 140 86 71 0
30.140000 6.380000 5.500000 142 85 73 0
30.360000 6.380000 5.500000 143 86 74 0
30.580000 6.380000 6.160000 144 87 75 0
30.800000 6.380000 5.500000 144 87 75 0
31.020000 6.380000 5.500000 145 88 76 0
31.240000 6.380000 5.500000 146 89 77 0
31.460000 6.380000 6.050000 147 90 78 0
31.680000 6.380000 7.040000 147 90 78 0
31.900000 6.380000 6.930000 149 92 80 0
32.120000 6.380000 6.930000 149 92 80 0
32.340000 6.380000 6.930000 149 95 82 0
32.560000 6.380000 7.700000 149 95 82 0
32.780000 6.380000 8.360000 150 96 83 0
33.000000 6.380000 8.360000 152 98 85 0
33.220000 6.380000 9.020000 154 100 87 0
33.440000 6.380000 9.020000 155 101 88 0
33.660000 6.380000 9.020000 156 102 89 0
33.880000 6.380000 9.020000 158 104 91 0
34.100000 6.380000 9.020000 156 102 89 0
34.320000 6.380000 8.360000 153 99 86 0
34.540000 6.380000 8.360000 154 94 81 0
34.760000 6.380000 8.470000 153 93 80 0
34.980000 6.380000 7.700000 150 90 77 0
35.200000 6.380000 4.950000 148 88 75 0
35.420000 6.380000 3.520000 151 87 73 0
35.640000 6.380000 3.630000 150 86 72 0
35.860000 6.380000 4.950000 153 85 69 0
36.080000 6.380000 5.060000 151 83 67 0
36.300000 6.380000 5.060000 150 82 68 0
36.520000 6.380000 5.060000 150 82 68 0
36.740000 6.380000 5.060000 150 80 65 0
36.960000 6.380000 5.830000 149 79 64 0
37.180000 6.380000 5.830000 149 79 64 0
0.000000 6.600000 1.100000 207 213 208 0
0.220000 6.600000 1.210000 206 212 209 0
0.440000 6.600000 1.870000 206 212 209 0
0.660000 6.600000 1.210000 209 215 212 0
0.880000 6.600000 1.210000 208 214 211 0
1.100000 6.600000 1.210000 208 214 209 0
1.320000 6.600000 1.320000 208 214 209 0
1.540000 6.600000 1.320000 208 214 209 0
1.760000 6.600000 1.320000 207 213 208 0
1.980000 6.600000 1.980000 208 214 209 0
2.200000 6.600000 1.980000 209 215 210 0
2.420000 6.600000 2.530000 207 216 210 0
2.640000 6.600000 2.970000 208 217 211 0
2.860000 6.600000 3.520000 211 217 212 0
3.080000 6.600000 3.520000 209 215 210 0
3.300000 6.600000 3.520000 207 213 208 0
3.520000 6.600000 2.860000 206 212 207 0
3.740000 6.600000 2.860000 206 212 207 0
3.960000 6.600000 3.630000 207 213 208 0
4.180000 6.600000 3.630000 205 214 208 0
4.400000 6.600000 3.630000 205 214 208 0
4.620000 6.600000 3.740000 206 212 207 0
4.840000 6.600000 3.740000 206 212 207 0
5.060000 6.600000 3.740000 206 212 207 0
5.280000 6.600000 3.740000 207 213 208 0
5.500000 6.600000 3.850000 206 215 209 0
5.720000 6.600000 3.850000 205 214 208 0
5.940000 6.600000 3.850000 205 214 208 0
6.160000 6.600000 3.850000 205 214 208 0
6.380000 6.600000 3.960000 206 212 207 0
6.600000 6.600000 4.620000 206 212 207 0
6.820000 6.600000 4.620000 206 212 207 0
7.040000 6.600000 4.730000 204 210 205 0
7.260000 6.600000 4.730000 202 211 205 0
7.480000 6.600000 4.730000 202 211 205 0
7.700000 6.600000 4.730000 204 210 205 0
7.920000 6.600000 4.840000 206 212 207 0
8.140000 6.600000 5.390000 205 211 206 0
8.360000 6.600000 6.380000 204 210 205 0
8.580000 6.600000 6.930000 204 210 205 0
8.800000 6.600000 6.930000 203 209 204 0
9.020000 6.600000 6.930000 200 209 203 0
9.240000 6.600000 7.040000 199 208 202 0
9.460000 6.600000 7.040000 199 208 202 0
9.680000 6.600000 7.040000 199 208 202 0
9.900000 6.600000 7.810000 198 207 201 0
10.120000 6.600000 7.810000 199 208 202 0
10.340000 6.600000 7.810000 202 208 203 0
10.560000 6.600000 7.810000 199 205 200 0
10.780000 6.600000 7.810000 194 203 197 0
11.000000 6.600000 8.580000 192 201 195 0
11.220000 6.600000 8.580000 190 198 195 0
11.440000 6.600000 8.580000 188 196 193 0
11.660000 6.600000 8.690000 184 190 183 0
11.880000 6.600000 8.690000 172 178 171 0
12.100000 6.600000 8.690000 172 162 156 0
12.320000 6.600000 8.800000 160 150 144 0
12.540000 6.600000 8.800000 153 139 131 0
12.760000 6.600000 8.800000 148 134 126 0
12.980000 6.600000 8.800000 147 129 120 0
13.200000 6.600000 8.910000 142 124 115 0
13.420000 6.600000 8.910000 139 122 110 0
13.640000 6.600000 8.910000 137 120 108 0
13.860000 6.600000 8.910000 136 117 105 0
14.080000 6.600000 8.910000 135 116 104 0
14.300000 6.600000 8.910000 135 115 103 0
14.520000 6.600000 9.570000 134 114 102 0
14.740000 6.600000 10.340000 134 114 100 0
14.960000 6.600000 11.000000 133 113 99 0
15.180000 6.600000 12.430000 132 112 98 0
15.400000 6.600000 13.750000 130 110 96 0
15.620000 6.600000 15.730000 130 110 96 0
15.840000 6.600000 16.830000 130 110 96 0
16.060000 6.600000 17.490000 131 108 95 0
16.280000 6.600000 16.720000 129 106 93 0
16.500000 6.600000 16.720000 130 107 94 0
16.720000 6.600000 14.080000 130 107 94 0
16.940000 6.600000 8.800000 129 106 93 0
17.160000 6.600000 4.840000 127 104 91 0
17.380000 6.600000 4.730000 127 104 91 0
17.600000 6.600000 4.620000 126 103 90 0
17.820000 6.600000 4.730000 126 102 87 0
18.040000 6.600000 4.840000 126 102 87 0
18.260000 6.600000 4.840000 125 101 86 0
18.480000 6.600000 4.070000 124 100 85 0
18.700000 6.600000 3.960000 124 97 83 0
18.920000 6.600000 3.850000 124 97 83 0
19.140000 6.600000 3.960000 124 97 83 0
19.360000 6.600000 3.410000 124 97 83 0
19.580000 6.600000 3.410000 123 94 81 0
19.800000 6.600000 3.410000 122 93 80 0
20.020000 6.600000 2.750000 122 93 80 0
20.240000 6.600000 2.750000 122 93 80 0
20.460000 6.600000 2.750000 122 92 79 0
20.680000 6.600000 2.750000 121 91 78 0
20.900000 6.600000 2.750000 123 90 76 0
21.120000 6.600000 2.640000 123 90 76 0
21.340000 6.600000 1.980000 122 89 75 0
21.560000 6.600000 1.980000 122 89 75 0
21.780000 6.600000 1.320000 121 88 74 0
22.000000 6.600000 1.320000 121 88 74 0
22.220000 6.600000 0.660000 121 88 74 0
22.440000 6.600000 0.550000 121 88 74 0
22.660000 6.600000 0.550000 122 88 74 0
22.880000 6.600000 1.320000 121 87 73 0
23.100000 6.600000 1.980000 121 87 73 0
23.320000 6.600000 1.980000 121 87 73 0
23.540000 6.600000 1.980000 122 85 72 0
23.760000 6.600000 2.640000 122 85 72 0
23.980000 6.600000 3.960000 121 84 70 0
24.200000 6.600000 4.620000 122 85 71 0
24.420000 6.600000 5.390000 122 85 71 0
24.640000 6.600000 6.050000 121 84 70 0
24.860000 6.600000 6.710000 121 84 70 0
25.080000 6.600000 7.370000 121 84 70 0
25.300000 6.600000 7.370000 122 84 70 0
25.520000 6.600000 7.370000 122 84 70 0
25.740000 6.600000 7.370000 124 82 65 0
25.960000 6.600000 6.710000 125 83 66 0
26.180000 6.600000 6.050000 128 81 66 0
26.400000 6.600000 6.050000 129 82 67 0
26.620000 6.600000 6.050000 131 81 67 0
26.840000 6.600000 6.050000 131 81 67 0
27.060000 6.600000 6.050000 132 80 64 0
27.280000 6.600000 6.050000 133 81 65 0
27.500000 6.600000 5.390000 132 82 66 0
27.720000 6.600000 5.390000 132 82 66 0
27.940000 6.600000 5.390000 134 81 68 0
28.160000 6.600000 5.390000 135 82 69 0
28.380000 6.600000 5.390000 137 83 70 0
28.600000 6.600000 5.390000 137 83 70 0
28.820000 6.600000 5.390000 137 83 70 0
29.040000 6.600000 5.390000 138 84 71 0
29.260000 6.600000 5.390000 138 84 69 0
29.480000 6.600000 5.500000 139 85 70 0
29.700000 6.600000 5.500000 139 85 70 0
29.920000 6.600000 5.500000 140 86 71 0
30.140000 6.600000 5.500000 143 86 74 0
30.360000 6.600000 6.160000 143 86 74 0
30.580000 6.600000 6.160000 144 87 75 0
30.800000 6.600000 5.500000 145 88 76 0
31.020000 6.600000 5.500000 145 88 76 0
31.240000 6.600000 5.500000 146 89 77 0
31.460000 6.600000 6.050000 147 90 78 0
31.680000 6.600000 7.040000 148 91 79 0
31.900000 6.600000 6.930000 148 91 79 0
32.120000 6.600000 6.930000 149 92 80 0
32.340000 6.600000 6.930000 148 94 81 0
32.560000 6.600000 7.700000 150 96 83 0
32.780000 6.600000 7.810000 151 97 84 0
33.000000 6.600000 8.470000 153 99 86 0
33.220000 6.600000 9.020000 154 100 87 0
33.440000 6.600000 9.020000 156 102 89 0
33.660000 6.600000 9.020000 158 104 91 0
33.880000 6.600000 9.020000 158 104 91 0
34.100000 6.600000 9.020000 155 101 88 0
34.320000 6.600000 8.360000 153 99 86 0
34.540000 6.600000 8.360000 153 93 80 0
34.760000 6.600000 8.360000 151 91 78 0
34.980000 6.600000 7.040000 149 89 76 0
35.200000 6.600000 4.290000 148 88 75 0
35.420000 6.600000 3.520000 150 86 72 0
35.640000 6.600000 4.290000 150 86 72 0
35.860000 6.600000 4.950000 152 84 68 0
36.080000 6.600000 5.060000 151 83 67 0
36.300000 6.600000 5.060000 151 83 69 0
36.520000 6.600000 5.060000 150 82 68 0
36.740000 6.600000 5.060000 150 80 65 0
36.960000 6.600000 5.830000 149 79 64 0
37.180000 6.600000 5.830000 148 78 63 0
0.000000 6.820000 1.100000 207 213 210 0
0.220000 6.820000 1.100000 207 213 210 0
0.440000 6.820000 1.870000 207 213 210 0
0.660000 6.820000 1.210000 208 214 211 0
0.880000 6.820000 1.210000 209 215 212 0
1.100000 6.820000 1.210000 210 216 213 0
1.320000 6.820000 1.320000 208 214 211 0
1.540000 6.820000 1.320000 209 215 210 0
1.760000 6.820000 1.320000 208 214 209 0
1.980000 6.820000 1.980000 208 214 209 0
2.200000 6.820000 1.980000 208 214 209 0
2.420000 6.820000 2.530000 209 215 210 0
2.640000 6.820000 2.970000 210 216 211 0
2.860000 6.820000 3.520000 210 216 211 0
3.080000 6.820000 3.520000 208 214 209 0
3.300000 6.820000 3.520000 207 213 208 0
3.520000 6.820000 2.860000 206 212 207 0
3.740000 6.820000 2.860000 206 212 207 0
3.960000 6.820000 3.630000 207 213 208 0
4.180000 6.820000 3.630000 206 215 209 0
4.400000 6.820000 3.630000 205 214 208 0
4.620000 6.820000 3.740000 207 213 208 0
4.840000 6.820000 3.740000 207 213 208 0
5.060000 6.820000 3.740000 206 212 207 0
5.280000 6.820000 3.740000 206 212 207 0
5.500000 6.820000 3.850000 207 216 210 0
5.720000 6.820000 3.850000 209 218 212 0
5.940000 6.820000 3.850000 209 215 210 0
6.160000 6.820000 3.850000 208 214 209 0
6.380000 6.820000 3.960000 208 214 209 0
6.600000 6.820000 4.620000 207 213 208 0
6.820000 6.820000 4.620000 207 213 208 0
7.040000 6.820000 4.730000 206 212 207 0
7.260000 6.820000 4.730000 204 210 205 0
7.480000 6.820000 4.730000 204 210 205 0
7.700000 6.820000 4.730000 204 210 205 0
7.920000 6.820000 4.840000 205 211 206 0
8.140000 6.820000 5.390000 202 211 205 0
8.360000 6.820000 6.380000 204 213 207 0
8.580000 6.820000 6.930000 203 212 206 0
8.800000 6.820000 6.930000 202 211 205 0
9.020000 6.820000 6.930000 202 208 203 0
9.240000 6.820000 7.040000 202 208 203 0
9.460000 6.820000 7.040000 201 207 202 0
9.680000 6.820000 7.040000 200 206 201 0
9.900000 6.820000 7.810000 198 207 201 0
10.120000 6.820000 7.810000 197 206 200 0
10.340000 6.820000 7.810000 198 207 201 0
10.560000 6.820000 7.810000 197 206 200 0
10.780000 6.820000 7.810000 195 204 198 0
11.000000 6.820000 8.580000 192 201 195 0
11.220000 6.820000 8.580000 190 194 188 0
11.440000 6.820000 8.580000 188 192 186 0
11.660000 6.820000 8.690000 186 182 176 0
11.880000 6.820000 8.690000 172 168 162 0
12.100000 6.820000 8.690000 166 155 148 0
12.320000 6.820000 8.800000 157 146 139 0
12.540000 6.820000 8.800000 151 136 126 0
12.760000 6.820000 8.800000 148 133 123 0
12.980000 6.820000 8.800000 144 127 114 0
13.200000 6.820000 8.910000 141 124 111 0
13.420000 6.820000 8.910000 139 120 108 0
13.640000 6.820000 8.910000 138 119 107 0
13.860000 6.820000 8.910000 136 117 105 0
14.080000 6.820000 8.910000 134 115 103 0
14.300000 6.820000 9.570000 134 114 102 0
14.520000 6.820000 9.680000 133 113 101 0
14.740000 6.820000 11.000000 133 113 99 0
14.960000 6.820000 11.770000 132 112 98 0
15.180000 6.820000 12.430000 132 112 98 0
15.400000 6.820000 14.300000 131 111 97 0
15.620000 6.820000 16.170000 131 111 97 0
15.840000 6.820000 17.380000 130 110 96 0
16.060000 6.820000 18.040000 129 109 95 0
16.280000 6.820000 17.270000 129 109 95 0
16.500000 6.820000 15.950000 129 106 93 0
16.720000 6.820000 12.540000 129 106 93 0
16.940000 6.820000 8.690000 128 105 92 0
17.160000 6.820000 5.390000 127 104 91 0
17.380000 6.820000 5.390000 127 104 91 0
17.600000 6.820000 4.730000 126 103 90 0
17.820000 6.820000 4.840000 127 103 90 0
18.040000 6.820000 4.840000 126 102 89 0
18.260000 6.820000 4.840000 125 101 88 0
18.480000 6.820000 4.730000 123 99 86 0
18.700000 6.820000 4.070000 125 98 84 0
18.920000 6.820000 3.410000 125 98 84 0
19.140000 6.820000 3.410000 124 97 83 0
19.360000 6.820000 3.410000 122 95 81 0
19.580000 6.820000 3.410000 124 95 82 0
19.800000 6.820000 3.410000 123 94 81 0
20.020000 6.820000 3.410000 121 92 79 0
20.240000 6.820000 2.750000 122 93 80 0
20.460000 6.820000 2.750000 122 92 79 0
20.680000 6.820000 2.750000 122 92 79 0
20.900000 6.820000 2.640000 122 92 79 0
21.120000 6.820000 2.640000 121 91 78 0
21.340000 6.820000 2.750000 122 89 77 0
21.560000 6.820000 1.980000 122 89 77 0
21.780000 6.820000 1.320000 122 89 75 0
22.000000 6.820000 1.320000 121 88 74 0
22.220000 6.820000 0.660000 122 88 74 0
22.440000 6.820000 0.660000 122 88 74 0
22.660000 6.820000 0.660000 124 87 74 0
22.880000 6.820000 1.320000 123 86 73 0
23.100000 6.820000 1.320000 121 87 73 0
23.320000 6.820000 1.980000 120 86 72 0
23.540000 6.820000 1.980000 122 84 70 0
23.760000 6.820000 3.300000 123 85 71 0
23.980000 6.820000 3.960000 123 85 71 0
24.200000 6.820000 5.390000 124 86 72 0
24.420000 6.820000 5.280000 124 84 71 0
24.640000 6.820000 6.050000 123 83 70 0
24.860000 6.820000 6.710000 121 84 70 0
25.080000 6.820000 7.370000 121 84 70 0
25.300000 6.820000 7.370000 122 84 70 0
25.520000 6.820000 7.370000 122 84 70 0
25.740000 6.820000 6.710000 125 82 68 0
25.960000 6.820000 6.050000 125 82 68 0
26.180000 6.820000 6.050000 130 82 67 0
26.400000 6.820000 6.050000 130 82 67 0
26.620000 6.820000 6.050000 131 81 67 0
26.840000 6.820000 6.050000 131 81 67 0
27.060000 6.820000 6.050000 132 82 68 0
27.280000 6.820000 6.050000 130 80 66 0
27.500000 6.820000 5.390000 134 81 68 0
27.720000 6.820000 5.390000 134 81 68 0
27.940000 6.820000 5.390000 133 80 67 0
28.160000 6.820000 5.390000 135 82 69 0
28.380000 6.820000 5.390000 136 82 67 0
28.600000 6.820000 6.160000 137 83 68 0
28.820000 6.820000 6.160000 137 83 70 0
29.040000 6.820000 5.390000 138 84 71 0
29.260000 6.820000 5.390000 139 85 72 0
29.480000 6.820000 5.500000 139 85 72 0
29.700000 6.820000 5.500000 139 85 72 0
29.920000 6.820000 5.500000 140 86 73 0
30.140000 6.820000 5.500000 141 87 74 0
30.360000 6.820000 6.160000 143 89 76 0
30.580000 6.820000 6.160000 144 87 75 0
30.800000 6.820000 6.160000 145 88 76 0
31.020000 6.820000 5.500000 146 89 77 0
31.240000 6.820000 5.500000 146 89 77 0
31.460000 6.820000 6.050000 148 91 79 0
31.680000 6.820000 7.040000 148 91 79 0
31.900000 6.820000 6.930000 148 91 79 0
32.120000 6.820000 6.930000 150 93 81 0
32.340000 6.820000 6.930000 150 96 83 0
32.560000 6.820000 7.810000 150 96 83 0
32.780000 6.820000 7.370000 152 98 85 0
33.000000 6.820000 8.030000 154 100 87 0
33.220000 6.820000 9.130000 154 102 86 0
33.440000 6.820000 9.020000 156 104 88 0
33.660000 6.820000 9.020000 158 104 89 0
33.880000 6.820000 9.020000 156 102 87 0
34.100000 6.820000 9.020000 157 100 86 0
34.320000 6.820000 9.020000 153 96 82 0
34.540000 6.820000 9.020000 155 92 80 0
34.760000 6.820000 8.360000 152 89 77 0
34.980000 6.820000 6.270000 151 87 73 0
35.200000 6.820000 4.180000 150 86 72 0
35.420000 6.820000 3.520000 150 86 72 0
35.640000 6.820000 4.290000 150 86 72 0
35.860000 6.820000 4.950000 152 84 70 0
36.080000 6.820000 4.950000 152 84 70 0
36.300000 6.820000 5.060000 151 81 68 0
36.520000 6.820000 5.060000 151 81 68 0
36.740000 6.820000 5.060000 150 80 65 0
36.960000 6.820000 5.830000 148 78 63 0
37.180000 6.820000 5.830000 148 78 65 0
0.000000 7.040000 1.100000 207 213 210 0
0.220000 7.040000 1.100000 206 212 209 0
0.440000 7.040000 1.870000 206 212 209 0
0.660000 7.040000 1.210000 207 213 210 0
0.880000 7.040000 1.210000 208 214 211 0
1.100000 7.040000 1.210000 210 216 213 0
1.320000 7.040000 1.320000 210 216 213 0
1.540000 7.040000 1.320000 208 214 209 0
1.760000 7.040000 1.320000 208 214 209 0
1.980000 7.040000 1.980000 208 214 209 0
2.200000 7.040000 1.980000 208 214 209 0
2.420000 7.040000 2.530000 209 215 210 0
2.640000 7.040000 2.970000 211 217 212 0
2.860000 7.040000 3.520000 211 217 212 0
3.080000 7.040000 3.520000 208 214 209 0
3.300000 7.040000 3.520000 208 214 209 0
3.520000 7.040000 2.860000 207 213 208 0
3.740000 7.040000 2.860000 206 212 207 0
3.960000 7.040000 3.630000 207 213 208 0
4.180000 7.040000 3.630000 206 215 209 0
4.400000 7.040000 3.630000 206 215 209 0
4.620000 7.040000 3.740000 208 214 209 0
4.840000 7.040000 3.740000 207 213 208 0
5.060000 7.040000 3.740000 207 213 208 0
5.280000 7.040000 3.740000 206 212 207 0
5.500000 7.040000 3.850000 207 216 210 0
5.720000 7.040000 3.850000 212 221 215 0
5.940000 7.040000 3.850000 214 220 215 0
6.160000 7.040000 3.850000 207 213 208 0
6.380000 7.040000 3.960000 207 213 208 0
6.600000 7.040000 4.620000 207 213 208 0
6.820000 7.040000 4.620000 206 212 207 0
7.040000 7.040000 4.730000 206 212 207 0
7.260000 7.040000 4.730000 205 211 206 0
7.480000 7.040000 4.730000 204 210 205 0
7.700000 7.040000 4.730000 204 210 205 0
7.920000 7.040000 4.840000 203 209 204 0
8.140000 7.040000 5.280000 202 211 205 0
8.360000 7.040000 6.380000 203 212 206 0
8.580000 7.040000 6.930000 204 213 207 0
8.800000 7.040000 6.930000 204 213 207 0
9.020000 7.040000 6.930000 205 211 206 0
9.240000 7.040000 7.040000 202 208 203 0
9.460000 7.040000 7.040000 201 207 202 0
9.680000 7.040000 7.040000 199 205 200 0
9.900000 7.040000 7.810000 197 206 200 0
10.120000 7.040000 7.810000 196 205 199 0
10.340000 7.040000 7.810000 195 204 198 0
10.560000 7.040000 7.810000 195 204 198 0
10.780000 7.040000 7.810000 192 201 195 0
11.000000 7.040000 8.580000 191 200 194 0
11.220000 7.040000 8.580000 190 194 188 0
11.440000 7.040000 8.580000 187 191 185 0
11.660000 7.040000 8.690000 183 179 173 0
11.880000 7.040000 8.690000 167 163 157 0
12.100000 7.040000 8.690000 161 150 143 0
12.320000 7.040000 8.800000 152 141 134 0
12.540000 7.040000 8.800000 148 133 123 0
12.760000 7.040000 8.800000 145 130 120 0
12.980000 7.040000 8.800000 142 125 112 0
13.200000 7.040000 8.910000 139 122 109 0
13.420000 7.040000 8.910000 138 119 107 0
13.640000 7.040000 8.910000 137 118 106 0
13.860000 7.040000 8.910000 135 116 104 0
14.080000 7.040000 8.910000 134 115 103 0
14.300000 7.040000 9.570000 134 114 102 0
14.520000 7.040000 10.340000 133 113 101 0
14.740000 7.040000 11.000000 132 112 98 0
14.960000 7.040000 12.430000 131 111 97 0
15.180000 7.040000 13.640000 130 110 96 0
15.400000 7.040000 15.400000 131 111 97 0
15.620000 7.040000 17.380000 130 110 96 0
15.840000 7.040000 17.930000 130 110 96 0
16.060000 7.040000 18.040000 129 109 95 0
16.280000 7.040000 16.610000 128 108 94 0
16.500000 7.040000 13.860000 129 106 93 0
16.720000 7.040000 10.450000 129 106 93 0
16.940000 7.040000 8.470000 128 105 92 0
17.160000 7.040000 6.380000 127 104 91 0
17.380000 7.040000 5.830000 127 104 91 0
17.600000 7.040000 5.390000 126 103 90 0
17.820000 7.040000 4.840000 127 103 90 0
18.040000 7.040000 4.840000 126 102 89 0
18.260000 7.040000 5.280000 124 100 87 0
18.480000 7.040000 5.280000 124 100 87 0
18.700000 7.040000 3.960000 125 98 84 0
18.920000 7.040000 3.410000 124 97 83 0
19.140000 7.040000 3.410000 123 96 82 0
19.360000 7.040000 3.410000 123 96 82 0
19.580000 7.040000 3.410000 122 93 80 0
19.800000 7.040000 3.410000 122 93 80 0
20.020000 7.040000 3.410000 123 94 81 0
20.240000 7.040000 3.410000 122 93 80 0
20.460000 7.040000 2.750000 122 92 79 0
20.680000 7.040000 2.750000 122 92 79 0
20.900000 7.040000 2.640000 122 92 79 0
21.120000 7.040000 2.640000 121 91 78 0
21.340000 7.040000 2.640000 122 89 77 0
21.560000 7.040000 1.980000 121 88 76 0
21.780000 7.040000 1.320000 122 89 75 0
22.000000 7.040000 1.320000 121 88 74 0
22.220000 7.040000 0.660000 122 88 74 0
22.440000 7.040000 0.660000 121 87 73 0
22.660000 7.040000 0.660000 123 86 73 0
22.880000 7.040000 1.320000 123 86 73 0
23.100000 7.040000 1.980000 120 86 72 0
23.320000 7.040000 1.980000 120 86 72 0
23.540000 7.040000 2.640000 123 85 71 0
23.760000 7.040000 3.960000 122 84 70 0
23.980000 7.040000 4.620000 123 85 71 0
24.200000 7.040000 5.280000 123 85 71 0
24.420000 7.040000 6.050000 123 83 70 0
24.640000 7.040000 6.050000 124 84 71 0
24.860000 7.040000 6.710000 121 84 70 0
25.080000 7.040000 7.370000 120 83 69 0
25.300000 7.040000 7.370000 123 85 71 0
25.520000 7.040000 6.710000 122 84 70 0
25.740000 7.040000 6.050000 126 83 69 0
25.960000 7.040000 6.050000 126 83 69 0
26.180000 7.040000 6.050000 129 81 66 0
26.400000 7.040000 6.050000 130 82 67 0
26.620000 7.040000 6.050000 131 81 67 0
26.840000 7.040000 6.050000 132 82 68 0
27.060000 7.040000 6.050000 131 81 67 0
27.280000 7.040000 5.390000 132 82 68 0
27.500000 7.040000 5.390000 134 81 68 0
27.720000 7.040000 5.390000 135 82 69 0
27.940000 7.040000 5.390000 135 82 69 0
28.160000 7.040000 5.390000 135 82 69 0
28.380000 7.040000 5.390000 136 82 67 0
28.600000 7.040000 6.160000 137 83 68 0
28.820000 7.040000 6.160000 137 83 70 0
29.040000 7.040000 5.390000 139 85 72 0
29.260000 7.040000 5.500000 139 85 72 0
29.480000 7.040000 5.500000 139 85 72 0
29.700000 7.040000 5.500000 140 86 73 0
29.920000 7.040000 5.500000 140 86 73 0
30.140000 7.040000 5.500000 142 88 75 0
30.360000 7.040000 6.160000 142 88 75 0
30.580000 7.040000 6.160000 145 88 76 0
30.800000 7.040000 6.160000 144 87 75 0
31.020000 7.040000 5.500000 145 88 76 0
31.240000 7.040000 5.500000 146 89 77 0
31.460000 7.040000 6.050000 148 91 79 0
31.680000 7.040000 6.380000 148 91 79 0
31.900000 7.040000 7.040000 149 92 80 0
32.120000 7.040000 7.040000 150 93 81 0
32.340000 7.040000 7.150000 150 96 83 0
32.560000 7.040000 7.370000 152 98 85 0
32.780000 7.040000 7.590000 153 99 86 0
33.000000 7.040000 8.140000 154 100 87 0
33.220000 7.040000 8.470000 154 102 86 0
33.440000 7.040000 9.020000 156 104 88 0
33.660000 7.040000 9.020000 157 103 88 0
33.880000 7.040000 8.360000 155 101 86 0
34.100000 7.040000 8.360000 155 98 84 0
34.320000 7.040000 9.020000 152 95 81 0
34.540000 7.040000 9.020000 153 90 78 0
34.760000 7.040000 7.700000 151 88 76 0
34.980000 7.040000 5.610000 150 86 72 0
35.200000 7.040000 3.520000 151 87 73 0
35.420000 7.040000 3.520000 150 86 72 0
35.640000 7.040000 4.290000 149 85 71 0
35.860000 7.040000 4.950000 152 84 70 0
36.080000 7.040000 5.720000 150 82 68 0
36.300000 7.040000 5.720000 151 81 68 0
36.520000 7.040000 5.060000 150 80 67 0
36.740000 7.040000 5.060000 149 79 64 0
36.960000 7.040000 5.830000 149 79 64 0
37.180000 7.040000 5.830000 148 78 65 0
0.000000 7.260000 1.100000 211 219 216 0
0.220000 7.260000 1.100000 208 214 211 0
0.440000 7.260000 1.870000 206 212 209 0
0.660000 7.260000 1.210000 206 212 209 0
0.880000 7.260000 1.210000 208 214 211 0
1.100000 7.260000 1.210000 211 217 214 0
1.320000 7.260000 1.320000 210 216 213 0
1.540000 7.260000 1.320000 209 215 212 0
1.760000 7.260000 1.320000 208 214 211 0
1.980000 7.260000 1.980000 207 213 210 0
2.200000 7.260000 1.980000 207 213 210 0
2.420000 7.260000 2.530000 208 214 209 0
2.640000 7.260000 2.970000 210 216 211 0
2.860000 7.260000 3.520000 210 216 211 0
3.080000 7.260000 3.520000 209 215 210 0
3.300000 7.260000 3.520000 208 214 209 0
3.520000 7.260000 2.860000 208 214 209 0
3.740000 7.260000 2.860000 207 213 208 0
3.960000 7.260000 3.630000 207 213 208 0
4.180000 7.260000 3.630000 208 214 209 0
4.400000 7.260000 3.630000 208 214 209 0
4.620000 7.260000 3.740000 208 214 209 0
4.840000 7.260000 3.740000 208 214 209 0
5.060000 7.260000 3.740000 208 214 209 0
5.280000 7.260000 3.740000 207 213 208 0
5.500000 7.260000 3.850000 208 214 209 0
5.720000 7.260000 3.850000 210 216 211 0
5.940000 7.260000 3.850000 208 214 209 0
6.160000 7.260000 3.850000 207 213 208 0
6.380000 7.260000 4.620000 207 213 208 0
6.600000 7.260000 4.620000 206 212 207 0
6.820000 7.260000 4.620000 206 212 207 0
7.040000 7.260000 4.730000 204 210 205 0
7.260000 7.260000 4.730000 205 211 206 0
7.480000 7.260000 4.730000 203 209 204 0
7.700000 7.260000 4.730000 201 210 204 0
7.920000 7.260000 4.840000 202 211 205 0
8.140000 7.260000 5.280000 204 210 205 0
8.360000 7.260000 6.380000 203 209 204 0
8.580000 7.260000 6.930000 205 211 206 0
8.800000 7.260000 6.930000 207 213 208 0
9.020000 7.260000 6.930000 206 212 207 0
9.240000 7.260000 7.040000 202 208 203 0
9.460000 7.260000 7.040000 200 209 203 0
9.680000 7.260000 7.040000 198 207 201 0
9.900000 7.260000 7.810000 197 203 198 0
10.120000 7.260000 7.810000 198 204 199 0
10.340000 7.260000 7.810000 193 202 196 0
10.560000 7.260000 7.810000 192 201 195 0
10.780000 7.260000 8.580000 194 200 195 0
11.000000 7.260000 8.580000 193 199 194 0
11.220000 7.260000 8.580000 190 194 188 0
11.440000 7.260000 8.580000 181 185 179 0
11.660000 7.260000 9.350000 182 174 167 0
11.880000 7.260000 8.690000 166 158 151 0
12.100000 7.260000 8.690000 158 145 134 0
12.320000 7.260000 8.800000 150 137 126 0
12.540000 7.260000 8.800000 150 133 120 0
12.760000 7.260000 8.800000 145 128 115 0
12.980000 7.260000 8.800000 141 124 111 0
13.200000 7.260000 8.910000 138 121 108 0
13.420000 7.260000 8.910000 137 118 106 0
13.640000 7.260000 8.910000 135 116 104 0
13.860000 7.260000 8.910000 134 115 103 0
14.080000 7.260000 8.910000 133 114 102 0
14.300000 7.260000 9.680000 132 112 98 0
14.520000 7.260000 10.340000 132 112 98 0
14.740000 7.260000 11.660000 132 112 98 0
14.960000 7.260000 12.870000 131 111 97 0
15.180000 7.260000 14.740000 131 111 97 0
15.400000 7.260000 16.610000 130 110 96 0
15.620000 7.260000 17.270000 131 108 95 0
15.840000 7.260000 18.040000 131 108 95 0
16.060000 7.260000 18.040000 130 107 94 0
16.280000 7.260000 15.180000 130 107 94 0
16.500000 7.260000 11.770000 130 107 94 0
16.720000 7.260000 9.020000 129 106 93 0
16.940000 7.260000 8.360000 128 105 92 0
17.160000 7.260000 6.930000 129 106 93 0
17.380000 7.260000 6.380000 128 104 89 0
17.600000 7.260000 5.280000 127 103 88 0
17.820000 7.260000 4.840000 126 102 89 0
18.040000 7.260000 5.390000 125 101 88 0
18.260000 7.260000 5.830000 126 99 87 0
18.480000 7.260000 5.830000 126 99 87 0
18.700000 7.260000 4.620000 126 99 85 0
18.920000 7.260000 3.410000 124 97 83 0
19.140000 7.260000 3.410000 125 96 83 0
19.360000 7.260000 3.410000 124 95 82 0
19.580000 7.260000 3.410000 124 95 82 0
19.800000 7.260000 3.410000 123 94 81 0
20.020000 7.260000 3.410000 123 94 81 0
20.240000 7.260000 3.410000 122 93 80 0
20.460000 7.260000 3.410000 122 92 79 0
20.680000 7.260000 3.410000 122 92 79 0
20.900000 7.260000 2.640000 123 93 78 0
21.120000 7.260000 2.640000 121 91 76 0
21.340000 7.260000 2.640000 123 90 76 0
21.560000 7.260000 1.980000 123 90 76 0
21.780000 7.260000 1.320000 123 89 75 0
22.000000 7.260000 0.660000 121 87 73 0
22.220000 7.260000 0.660000 125 88 74 0
22.440000 7.260000 0.660000 125 88 74 0
22.660000 7.260000 0.660000 122 88 73 0
22.880000 7.260000 1.320000 121 87 72 0
23.100000 7.260000 1.980000 124 87 73 0
23.320000 7.260000 2.640000 123 86 72 0
23.540000 7.260000 3.300000 123 85 71 0
23.760000 7.260000 4.620000 123 85 71 0
23.980000 7.260000 5.280000 122 85 71 0
24.200000 7.260000 6.050000 122 85 71 0
24.420000 7.260000 6.050000 123 83 70 0
24.640000 7.260000 6.710000 124 84 71 0
24.860000 7.260000 6.710000 122 84 70 0
25.080000 7.260000 6.710000 122 84 70 0
25.300000 7.260000 6.710000 125 82 68 0
25.520000 7.260000 6.050000 126 83 69 0
25.740000 7.260000 6.050000 129 82 67 0
25.960000 7.260000 6.050000 130 83 68 0
26.180000 7.260000 6.050000 130 82 67 0
26.400000 7.260000 5.390000 130 82 67 0
26.620000 7.260000 5.390000 131 81 67 0
26.840000 7.260000 6.050000 132 82 68 0
27.060000 7.260000 6.050000 134 81 68 0
27.280000 7.260000 5.390000 133 80 67 0
27.500000 7.260000 5.390000 135 83 67 0
27.720000 7.260000 5.390000 134 82 66 0
27.940000 7.260000 5.390000 136 82 69 0
28.160000 7.260000 5.390000 136 82 69 0
28.380000 7.260000 5.390000 136 83 70 0
28.600000 7.260000 6.160000 136 83 70 0
28.820000 7.260000 6.160000 136 83 70 0
29.040000 7.260000 6.160000 138 85 72 0
29.260000 7.260000 5.390000 139 85 72 0
29.480000 7.260000 5.500000 140 86 73 0
29.700000 7.260000 5.500000 143 86 74 0
29.920000 7.260000 5.500000 143 86 74 0
30.140000 7.260000 5.500000 144 87 75 0
30.360000 7.260000 6.160000 143 86 74 0
30.580000 7.260000 6.160000 145 88 76 0
30.800000 7.260000 6.160000 146 89 77 0
31.020000 7.260000 6.160000 146 89 77 0
31.240000 7.260000 6.160000 146 89 77 0
31.460000 7.260000 6.050000 148 89 78 0
31.680000 7.260000 6.490000 150 91 80 0
31.900000 7.260000 6.490000 149 92 80 0
32.120000 7.260000 6.490000 151 94 82 0
32.340000 7.260000 6.600000 152 95 83 0
32.560000 7.260000 6.820000 153 96 84 0
32.780000 7.260000 7.590000 151 98 85 0
33.000000 7.260000 8.140000 153 100 87 0
33.220000 7.260000 8.470000 155 102 89 0
33.440000 7.260000 9.020000 155 102 89 0
33.660000 7.260000 8.360000 158 101 87 0
33.880000 7.260000 8.360000 156 99 85 0
34.100000 7.260000 8.360000 154 95 82 0
34.320000 7.260000 9.020000 152 93 80 0
34.540000 7.260000 8.360000 154 90 76 0
34.760000 7.260000 6.930000 151 87 73 0
34.980000 7.260000 4.840000 151 87 73 0
35.200000 7.260000 3.520000 150 86 72 0
35.420000 7.260000 3.520000 153 85 71 0
35.640000 7.260000 4.290000 152 84 70 0
35.860000 7.260000 4.950000 152 84 70 0
36.080000 7.260000 5.610000 150 82 68 0
36.300000 7.260000 5.720000 150 82 66 0
36.520000 7.260000 5.060000 149 81 65 0
36.740000 7.260000 5.720000 149 79 64 0
36.960000 7.260000 5.720000 148 78 63 0
37.180000 7.260000 5.830000 149 76 62 0
0.000000 7.480000 1.100000 215 223 220 0
0.220000 7.480000 1.100000 213 219 216 0
0.440000 7.480000 1.870000 206 212 209 0
0.660000 7.480000 1.870000 206 212 209 0
0.880000 7.480000 1.210000 207 213 210 0
1.100000 7.480000 1.980000 208 214 211 0
1.320000 7.480000 1.320000 209 215 212 0
1.540000 7.480000 1.320000 209 215 212 0
1.760000 7.480000 1.320000 208 214 211 0
1.980000 7.480000 1.980000 207 213 210 0
2.200000 7.480000 1.980000 207 213 210 0
2.420000 7.480000 2.530000 207 213 208 0
2.640000 7.480000 2.970000 209 215 210 0
2.860000 7.480000 3.520000 209 215 210 0
3.080000 7.480000 3.520000 207 213 208 0
3.300000 7.480000 3.520000 207 213 208 0
3.520000 7.480000 2.860000 208 214 209 0
3.740000 7.480000 2.860000 207 213 208 0
3.960000 7.480000 3.630000 208 214 209 0
4.180000 7.480000 3.630000 208 214 209 0
4.400000 7.480000 3.630000 207 213 208 0
4.620000 7.480000 3.740000 208 214 209 0
4.840000 7.480000 3.740000 206 212 207 0
5.060000 7.480000 3.740000 207 213 208 0
5.280000 7.480000 3.740000 207 213 208 0
5.500000 7.480000 3.850000 206 212 207 0
5.720000 7.480000 3.850000 206 212 207 0
5.940000 7.480000 3.850000 206 212 207 0
6.160000 7.480000 3.850000 207 213 208 0
6.380000 7.480000 4.620000 207 213 208 0
6.600000 7.480000 4.620000 206 212 207 0
6.820000 7.480000 4.620000 205 211 206 0
7.040000 7.480000 4.730000 205 211 206 0
7.260000 7.480000 4.730000 205 211 206 0
7.480000 7.480000 4.730000 205 211 206 0
7.700000 7.480000 4.730000 203 212 206 0
7.920000 7.480000 4.840000 201 210 204 0
8.140000 7.480000 5.280000 204 210 205 0
8.360000 7.480000 6.380000 203 209 204 0
8.580000 7.480000 6.930000 203 209 204 0
8.800000 7.480000 6.930000 204 210 205 0
9.020000 7.480000 6.930000 203 209 204 0
9.240000 7.480000 7.040000 202 208 203 0
9.460000 7.480000 7.040000 198 207 201 0
9.680000 7.480000 7.700000 197 206 200 0
9.900000 7.480000 7.810000 198 204 199 0
10.120000 7.480000 7.810000 197 203 198 0
10.340000 7.480000 7.810000 193 202 196 0
10.560000 7.480000 7.810000 190 199 193 0
10.780000 7.480000 8.580000 192 198 193 0
11.000000 7.480000 8.580000 192 198 193 0
11.220000 7.480000 8.580000 194 198 192 0
11.440000 7.480000 9.350000 176 180 174 0
11.660000 7.480000 9.350000 172 164 157 0
11.880000 7.480000 8.690000 160 152 145 0
12.100000 7.480000 8.690000 153 140 129 0
12.320000 7.480000 8.690000 146 133 122 0
12.540000 7.480000 8.800000 147 130 117 0
12.760000 7.480000 8.800000 141 124 111 0
12.980000 7.480000 8.800000 139 122 109 0
13.200000 7.480000 8.910000 137 120 107 0
13.420000 7.480000 8.910000 135 116 104 0
13.640000 7.480000 8.910000 134 115 103 0
13.860000 7.480000 8.910000 134 115 103 0
14.080000 7.480000 8.910000 132 113 101 0
14.300000 7.480000 9.680000 133 113 99 0
14.520000 7.480000 10.340000 132 112 98 0
14.740000 7.480000 11.660000 131 111 97 0
14.960000 7.480000 14.080000 131 111 97 0
15.180000 7.480000 15.290000 130 110 96 0
15.400000 7.480000 16.610000 129 109 95 0
15.620000 7.480000 18.040000 132 109 96 0
15.840000 7.480000 18.040000 131 108 95 0
16.060000 7.480000 17.270000 129 106 93 0
16.280000 7.480000 13.860000 130 107 94 0
16.500000 7.480000 10.450000 130 107 94 0
16.720000 7.480000 9.020000 128 105 92 0
16.940000 7.480000 7.590000 127 104 91 0
17.160000 7.480000 6.930000 128 105 92 0
17.380000 7.480000 6.930000 128 104 89 0
17.600000 7.480000 5.830000 127 103 88 0
17.820000 7.480000 5.390000 127 103 90 0
18.040000 7.480000 4.840000 127 103 90 0
18.260000 7.480000 5.280000 126 99 87 0
18.480000 7.480000 5.830000 125 98 86 0
18.700000 7.480000 4.620000 126 99 85 0
18.920000 7.480000 3.410000 125 98 84 0
19.140000 7.480000 3.410000 125 96 83 0
19.360000 7.480000 3.410000 124 95 82 0
19.580000 7.480000 3.410000 124 95 82 0
19.800000 7.480000 3.410000 123 94 81 0
20.020000 7.480000 3.410000 123 94 81 0
20.240000 7.480000 3.410000 122 93 80 0
20.460000 7.480000 3.410000 122 92 79 0
20.680000 7.480000 3.410000 122 92 79 0
20.900000 7.480000 2.640000 122 92 77 0
21.120000 7.480000 2.640000 121 91 76 0
21.340000 7.480000 2.640000 123 90 76 0
21.560000 7.480000 1.980000 122 89 75 0
21.780000 7.480000 1.320000 122 88 74 0
22.000000 7.480000 1.320000 121 87 73 0
22.220000 7.480000 0.660000 124 87 73 0
22.440000 7.480000 0.660000 124 87 73 0
22.660000 7.480000 1.320000 122 88 73 0
22.880000 7.480000 1.320000 122 88 73 0
23.100000 7.480000 2.640000 123 86 72 0
23.320000 7.480000 3.300000 122 85 71 0
23.540000 7.480000 3.960000 123 85 71 0
23.760000 7.480000 5.280000 123 85 71 0
23.980000 7.480000 6.050000 122 85 71 0
24.200000 7.480000 6.050000 121 84 70 0
24.420000 7.480000 6.710000 124 84 71 0
24.640000 7.480000 6.710000 124 84 71 0
24.860000 7.480000 6.710000 121 83 69 0
25.080000 7.480000 6.710000 122 84 70 0
25.300000 7.480000 6.050000 125 82 68 0
25.520000 7.480000 6.050000 125 82 68 0
25.740000 7.480000 6.050000 129 82 67 0
25.960000 7.480000 6.050000 129 82 67 0
26.180000 7.480000 5.390000 131 83 68 0
26.400000 7.480000 5.390000 129 81 66 0
26.620000 7.480000 5.390000 131 81 67 0
26.840000 7.480000 5.390000 132 82 68 0
27.060000 7.480000 5.390000 134 81 68 0
27.280000 7.480000 5.390000 135 82 69 0
27.500000 7.480000 5.390000 135 83 67 0
27.720000 7.480000 5.390000 136 84 68 0
27.940000 7.480000 5.390000 137 83 70 0
28.160000 7.480000 5.390000 138 84 71 0
28.380000 7.480000 5.390000 136 83 70 0
28.600000 7.480000 5.500000 136 83 70 0
28.820000 7.480000 6.160000 138 85 72 0
29.040000 7.480000 6.160000 137 84 71 0
29.260000 7.480000 5.390000 140 86 73 0
29.480000 7.480000 5.500000 140 86 73 0
29.700000 7.480000 5.500000 143 86 74 0
29.920000 7.480000 5.500000 143 86 74 0
30.140000 7.480000 6.160000 143 86 74 0
30.360000 7.480000 6.160000 144 87 75 0
30.580000 7.480000 6.160000 146 89 77 0
30.800000 7.480000 6.160000 146 89 77 0
31.020000 7.480000 6.160000 146 89 77 0
31.240000 7.480000 6.160000 146 89 77 0
31.460000 7.480000 6.050000 148 89 78 0
31.680000 7.480000 6.490000 150 91 80 0
31.900000 7.480000 6.490000 150 93 81 0
32.120000 7.480000 6.490000 151 94 82 0
32.340000 7.480000 6.710000 152 95 83 0
32.560000 7.480000 7.590000 153 96 84 0
32.780000 7.480000 7.590000 152 99 86 0
33.000000 7.480000 8.140000 154 101 88 0
33.220000 7.480000 8.470000 154 101 88 0
33.440000 7.480000 9.020000 154 101 88 0
33.660000 7.480000 8.360000 157 100 86 0
33.880000 7.480000 8.360000 155 98 84 0
34.100000 7.480000 8.360000 153 94 81 0
34.320000 7.480000 9.020000 150 91 78 0
34.540000 7.480000 8.360000 152 88 74 0
34.760000 7.480000 5.610000 151 87 73 0
34.980000 7.480000 4.180000 151 87 73 0
35.200000 7.480000 3.520000 150 86 72 0
35.420000 7.480000 4.180000 152 84 70 0
35.640000 7.480000 4.950000 151 83 69 0
35.860000 7.480000 5.610000 151 83 69 0
36.080000 7.480000 5.610000 150 82 68 0
36.300000 7.480000 5.720000 149 81 65 0
36.520000 7.480000 5.720000 149 81 65 0
36.740000 7.480000 5.720000 149 79 64 0
36.960000 7.480000 5.720000 148 78 63 0
37.180000 7.480000 5.830000 150 77 63 0
0.000000 7.700000 1.100000 215 223 220 0
0.220000 7.700000 1.100000 214 222 219 0
0.440000 7.700000 1.870000 206 214 211 0
0.660000 7.700000 1.870000 205 213 210 0
0.880000 7.700000 1.210000 204 212 209 0
1.100000 7.700000 1.980000 205 213 210 0
1.320000 7.700000 1.320000 205 213 210 0
1.540000 7.700000 1.320000 206 214 211 0
1.760000 7.700000 1.320000 205 213 210 0
1.980000 7.700000 1.980000 206 214 211 0
2.200000 7.700000 1.980000 205 213 210 0
2.420000 7.700000 2.530000 208 214 209 0
2.640000 7.700000 2.970000 207 213 208 0
2.860000 7.700000 3.520000 204 212 209 0
3.080000 7.700000 3.520000 205 213 210 0
3.300000 7.700000 3.520000 206 215 209 0
3.520000 7.700000 2.860000 205 214 208 0
3.740000 7.700000 2.860000 206 214 211 0
3.960000 7.700000 3.630000 206 214 211 0
4.180000 7.700000 3.630000 206 215 209 0
4.400000 7.700000 3.630000 205 214 208 0
4.620000 7.700000 3.740000 205 214 208 0
4.840000 7.700000 3.740000 205 214 208 0
5.060000 7.700000 3.740000 204 213 207 0
5.280000 7.700000 3.740000 205 214 208 0
5.500000 7.700000 3.850000 206 212 207 0
5.720000 7.700000 3.850000 205 211 206 0
5.940000 7.700000 3.850000 203 212 206 0
6.160000 7.700000 3.850000 204 213 207 0
6.380000 7.700000 4.620000 205 214 208 0
6.600000 7.700000 4.620000 204 213 207 0
6.820000 7.700000 4.620000 204 213 207 0
7.040000 7.700000 4.730000 203 212 206 0
7.260000 7.700000 4.730000 204 210 205 0
7.480000 7.700000 4.730000 204 210 205 0
7.700000 7.700000 4.730000 203 212 206 0
7.920000 7.700000 4.840000 201 210 204 0
8.140000 7.700000 5.280000 201 210 204 0
8.360000 7.700000 6.380000 201 210 204 0
8.580000 7.700000 6.930000 203 209 204 0
8.800000 7.700000 6.930000 202 208 203 0
9.020000 7.700000 6.930000 200 209 203 0
9.240000 7.700000 7.040000 199 208 202 0
9.460000 7.700000 7.040000 198 207 201 0
9.680000 7.700000 7.700000 197 206 200 0
9.900000 7.700000 7.810000 197 206 200 0
10.120000 7.700000 7.810000 195 204 198 0
10.340000 7.700000 7.810000 193 202 196 0
10.560000 7.700000 8.580000 190 199 193 0
10.780000 7.700000 8.580000 191 197 192 0
11.000000 7.700000 8.580000 193 199 194 0
11.220000 7.700000 9.350000 193 201 198 0
11.440000 7.700000 9.350000 184 192 189 0
11.660000 7.700000 9.350000 163 155 147 0
11.880000 7.700000 8.690000 153 145 137 0
12.100000 7.700000 8.690000 149 136 125 0
12.320000 7.700000 8.690000 144 131 120 0
12.540000 7.700000 8.800000 143 126 113 0
12.760000 7.700000 8.800000 140 123 110 0
12.980000 7.700000 8.800000 139 122 110 0
13.200000 7.700000 8.910000 136 119 107 0
13.420000 7.700000 8.910000 135 116 104 0
13.640000 7.700000 8.910000 134 115 103 0
13.860000 7.700000 8.910000 133 113 99 0
14.080000 7.700000 8.910000 131 111 97 0
14.300000 7.700000 9.680000 132 112 98 0
14.520000 7.700000 11.000000 131 111 97 0
14.740000 7.700000 12.210000 131 111 99 0
14.960000 7.700000 14.630000 130 110 98 0
15.180000 7.700000 15.950000 130 110 96 0
15.400000 7.700000 16.610000 129 109 95 0
15.620000 7.700000 18.040000 131 108 95 0
15.840000 7.700000 18.040000 131 108 95 0
16.060000 7.700000 16.610000 130 107 94 0
16.280000 7.700000 11.770000 129 106 93 0
16.500000 7.700000 9.020000 129 106 93 0
16.720000 7.700000 8.360000 128 105 92 0
16.940000 7.700000 7.590000 128 105 92 0
17.160000 7.700000 6.930000 128 105 92 0
17.380000 7.700000 6.930000 127 104 91 0
17.600000 7.700000 6.380000 126 103 90 0
17.820000 7.700000 5.280000 127 103 88 0
18.040000 7.700000 4.730000 126 102 87 0
18.260000 7.700000 5.390000 126 99 85 0
18.480000 7.700000 5.170000 127 100 86 0
18.700000 7.700000 4.620000 125 98 86 0
18.920000 7.700000 3.410000 125 98 86 0
19.140000 7.700000 3.410000 125 98 84 0
19.360000 7.700000 3.410000 124 97 83 0
19.580000 7.700000 3.410000 124 95 82 0
19.800000 7.700000 3.410000 123 94 81 0
20.020000 7.700000 3.410000 123 94 81 0
20.240000 7.700000 3.410000 122 93 80 0
20.460000 7.700000 3.410000 123 93 80 0
20.680000 7.700000 3.410000 122 92 79 0
20.900000 7.700000 2.750000 124 91 77 0
21.120000 7.700000 2.640000 123 90 76 0
21.340000 7.700000 2.640000 123 90 76 0
21.560000 7.700000 1.980000 123 90 76 0
21.780000 7.700000 1.320000 122 88 74 0
22.000000 7.700000 1.320000 122 88 74 0
22.220000 7.700000 0.660000 124 87 73 0
22.440000 7.700000 0.660000 124 87 73 0
22.660000 7.700000 1.320000 122 88 74 0
22.880000 7.700000 1.980000 122 88 74 0
23.100000 7.700000 3.300000 122 85 71 0
23.320000 7.700000 3.960000 123 86 72 0
23.540000 7.700000 4.620000 123 86 72 0
23.760000 7.700000 5.280000 123 86 72 0
23.980000 7.700000 6.050000 123 85 71 0
24.200000 7.700000 6.710000 124 86 72 0
24.420000 7.700000 6.710000 124 84 71 0
24.640000 7.700000 6.710000 124 84 71 0
24.860000 7.700000 6.050000 124 84 71 0
25.080000 7.700000 6.050000 123 83 70 0
25.300000 7.700000 6.050000 127 83 69 0
25.520000 7.700000 5.390000 126 82 68 0
25.740000 7.700000 5.390000 130 82 67 0
25.960000 7.700000 5.390000 131 83 68 0
26.180000 7.700000 5.390000 132 82 68 0
26.400000 7.700000 5.390000 132 82 68 0
26.620000 7.700000 5.390000 135 82 69 0
26.840000 7.700000 5.390000 134 81 68 0
27.060000 7.700000 5.390000 134 81 68 0
27.280000 7.700000 5.390000 135 82 69 0
27.500000 7.700000 5.390000 136 82 67 0
27.720000 7.700000 5.390000 137 83 68 0
27.940000 7.700000 5.390000 136 83 70 0
28.160000 7.700000 6.160000 136 83 70 0
28.380000 7.700000 5.500000 138 84 71 0
28.600000 7.700000 5.500000 138 84 71 0
28.820000 7.700000 5.500000 139 85 72 0
29.040000 7.700000 6.160000 140 86 73 0
29.260000 7.700000 6.160000 140 86 73 0
29.480000 7.700000 5.500000 141 87 74 0
29.700000 7.700000 5.500000 141 87 74 0
29.920000 7.700000 5.500000 141 87 74 0
30.140000 7.700000 6.160000 144 87 75 0
30.360000 7.700000 6.160000 144 87 75 0
30.580000 7.700000 6.160000 146 89 77 0
30.800000 7.700000 6.160000 146 89 77 0
31.020000 7.700000 6.160000 147 90 78 0
31.240000 7.700000 6.160000 147 90 78 0
31.460000 7.700000 6.050000 148 91 79 0
31.680000 7.700000 6.380000 149 92 80 0
31.900000 7.700000 7.040000 150 93 81 0
32.120000 7.700000 7.150000 152 95 83 0
32.340000 7.700000 7.370000 151 97 84 0
32.560000 7.700000 7.590000 152 98 85 0
32.780000 7.700000 7.590000 152 99 86 0
33.000000 7.700000 8.140000 154 101 88 0
