ply
format ascii 1.0
element vertex 1140
property float x
property float y
property float z
property uchar red
property uchar green
property uchar blue
property uchar alpha
end_header
32.560000 14.520000 16.280000 206 204 178 0
32.780000 14.520000 16.280000 207 205 179 0
33.000000 14.520000 17.050000 206 204 178 0
33.220000 14.520000 17.050000 208 203 178 0
33.440000 14.520000 17.050000 208 203 178 0
33.660000 14.520000 17.050000 208 203 179 0
33.880000 14.520000 17.160000 207 202 178 0
34.100000 14.520000 17.160000 207 202 177 0
34.320000 14.520000 17.160000 207 202 177 0
34.540000 14.520000 17.160000 207 202 177 0
34.760000 14.520000 17.270000 207 202 177 0
34.980000 14.520000 17.820000 208 200 172 0
35.200000 14.520000 18.920000 205 197 169 0
35.420000 14.520000 19.470000 209 185 156 0
35.640000 14.520000 20.130000 204 180 151 0
35.860000 14.520000 20.130000 209 160 141 0
36.080000 14.520000 15.950000 201 152 133 0
36.300000 14.520000 5.610000 207 132 121 0
36.520000 14.520000 0.770000 197 122 111 0
36.740000 14.520000 1.540000 205 105 102 0
36.960000 14.520000 2.310000 193 93 90 0
37.180000 14.520000 2.970000 191 89 85 0
0.000000 14.740000 4.400000 153 75 60 0
0.220000 14.740000 4.290000 147 64 51 0
0.440000 14.740000 4.290000 144 61 48 0
0.660000 14.740000 4.950000 144 60 47 0
0.880000 14.740000 4.950000 142 58 45 0
1.100000 14.740000 5.610000 142 58 45 0
1.320000 14.740000 5.610000 141 57 44 0
1.540000 14.740000 4.950000 141 58 47 0
1.760000 14.740000 4.950000 140 57 46 0
1.980000 14.740000 4.950000 141 58 45 0
2.200000 14.740000 5.720000 140 57 44 0
2.420000 14.740000 5.060000 140 57 44 0
2.640000 14.740000 5.060000 139 56 43 0
2.860000 14.740000 5.060000 140 56 43 0
3.080000 14.740000 5.720000 139 55 42 0
3.300000 14.740000 5.720000 139 56 45 0
3.520000 14.740000 5.280000 138 55 44 0
3.740000 14.740000 5.500000 139 55 42 0
3.960000 14.740000 6.050000 139 55 42 0
4.180000 14.740000 7.920000 139 55 42 0
4.400000 14.740000 10.670000 138 54 41 0
4.620000 14.740000 12.870000 138 53 43 0
4.840000 14.740000 14.300000 138 53 43 0
5.060000 14.740000 14.960000 137 54 43 0
5.280000 14.740000 14.300000 137 54 43 0
5.500000 14.740000 10.890000 137 54 43 0
5.720000 14.740000 6.050000 135 52 41 0
5.940000 14.740000 3.300000 135 58 47 0
6.160000 14.740000 2.640000 137 60 49 0
6.380000 14.740000 2.640000 134 66 60 0
6.600000 14.740000 5.500000 137 69 63 0
6.820000 14.740000 11.660000 135 75 69 0
7.040000 14.740000 15.070000 137 77 71 0
7.260000 14.740000 14.960000 138 79 70 0
7.480000 14.740000 14.300000 138 79 70 0
7.700000 14.740000 14.300000 138 77 69 0
7.920000 14.740000 15.070000 137 76 68 0
8.140000 14.740000 15.070000 140 75 68 0
8.360000 14.740000 15.070000 139 74 67 0
8.580000 14.740000 15.840000 138 73 66 0
8.800000 14.740000 16.500000 137 72 65 0
9.020000 14.740000 17.930000 138 70 62 0
9.240000 14.740000 19.250000 138 70 62 0
9.460000 14.740000 19.250000 138 71 60 0
9.680000 14.740000 14.410000 138 71 60 0
9.900000 14.740000 4.730000 137 69 61 0
10.120000 14.740000 0.550000 135 67 59 0
10.340000 14.740000 1.210000 137 68 60 0
10.560000 14.740000 1.870000 137 68 60 0
10.780000 14.740000 2.530000 137 68 58 0
11.000000 14.740000 3.190000 138 69 59 0
11.220000 14.740000 4.620000 135 72 60 0
11.440000 14.740000 5.390000 137 74 62 0
11.660000 14.740000 5.390000 137 77 64 0
11.880000 14.740000 6.050000 139 79 66 0
12.100000 14.740000 6.160000 139 82 70 0
12.320000 14.740000 6.160000 141 84 72 0
12.540000 14.740000 6.160000 141 86 76 0
12.760000 14.740000 7.370000 144 89 79 0
12.980000 14.740000 8.470000 142 94 85 0
13.200000 14.740000 8.360000 141 93 84 0
13.420000 14.740000 8.360000 143 92 83 0
13.640000 14.740000 7.700000 143 92 83 0
13.860000 14.740000 8.360000 149 92 78 0
14.080000 14.740000 9.130000 148 91 77 0
14.300000 14.740000 9.900000 149 89 74 0
14.520000 14.740000 9.900000 147 87 72 0
14.740000 14.740000 9.240000 150 86 69 0
14.960000 14.740000 7.920000 150 86 69 0
15.180000 14.740000 7.260000 145 81 64 0
15.400000 14.740000 7.920000 141 77 60 0
15.620000 14.740000 9.350000 140 74 57 0
15.840000 14.740000 11.550000 138 72 55 0
16.060000 14.740000 12.980000 138 72 53 0
16.280000 14.740000 13.640000 139 73 54 0
16.500000 14.740000 11.550000 139 71 53 0
16.720000 14.740000 6.050000 138 70 52 0
16.940000 14.740000 2.640000 138 72 53 0
17.160000 14.740000 3.300000 138 72 53 0
17.380000 14.740000 5.280000 139 73 54 0
17.600000 14.740000 6.710000 140 74 55 0
17.820000 14.740000 8.140000 139 73 54 0
18.040000 14.740000 10.890000 140 74 55 0
18.260000 14.740000 11.660000 137 76 53 0
18.480000 14.740000 6.820000 143 82 59 0
18.700000 14.740000 2.750000 134 92 75 0
18.920000 14.740000 1.980000 141 99 82 0
19.140000 14.740000 1.980000 130 110 81 0
19.360000 14.740000 2.090000 138 118 89 0
19.580000 14.740000 2.750000 138 124 93 0
19.800000 14.740000 2.750000 144 130 99 0
20.020000 14.740000 2.750000 145 133 104 0
20.240000 14.740000 3.300000 147 135 106 0
20.460000 14.740000 4.290000 148 137 105 0
20.680000 14.740000 4.840000 148 137 105 0
20.900000 14.740000 4.840000 150 136 105 0
21.120000 14.740000 4.840000 150 136 105 0
21.340000 14.740000 4.840000 149 135 104 0
21.560000 14.740000 4.950000 149 135 104 0
21.780000 14.740000 5.060000 147 132 104 0
22.000000 14.740000 4.510000 147 132 104 0
22.220000 14.740000 5.280000 146 132 101 0
22.440000 14.740000 5.280000 145 131 100 0
22.660000 14.740000 5.280000 145 129 99 0
22.880000 14.740000 5.280000 144 128 98 0
23.100000 14.740000 5.280000 144 128 98 0
23.320000 14.740000 5.280000 144 128 98 0
23.540000 14.740000 5.940000 145 129 99 0
23.760000 14.740000 6.050000 146 130 100 0
23.980000 14.740000 6.050000 146 132 100 0
24.200000 14.740000 5.280000 148 134 102 0
24.420000 14.740000 5.390000 150 134 103 0
24.640000 14.740000 5.390000 153 137 106 0
24.860000 14.740000 5.390000 153 142 107 0
25.080000 14.740000 6.050000 155 144 109 0
25.300000 14.740000 6.050000 159 148 115 0
25.520000 14.740000 6.160000 162 151 118 0
25.740000 14.740000 6.160000 166 157 123 0
25.960000 14.740000 6.820000 170 161 127 0
26.180000 14.740000 6.820000 170 166 132 0
26.400000 14.740000 6.820000 177 173 139 0
26.620000 14.740000 6.930000 179 177 147 0
26.840000 14.740000 7.370000 185 183 153 0
27.060000 14.740000 8.470000 189 191 164 0
27.280000 14.740000 9.020000 193 195 168 0
27.500000 14.740000 9.790000 196 198 172 0
27.720000 14.740000 9.790000 198 200 174 0
27.940000 14.740000 10.450000 203 202 177 0
28.160000 14.740000 11.220000 204 203 178 0
28.380000 14.740000 11.220000 203 205 179 0
28.600000 14.740000 11.880000 203 205 179 0
28.820000 14.740000 12.650000 205 204 179 0
29.040000 14.740000 12.760000 206 205 180 0
29.260000 14.740000 13.530000 206 205 179 0
29.480000 14.740000 13.640000 206 205 179 0
29.700000 14.740000 13.750000 207 205 179 0
29.920000 14.740000 13.750000 206 204 178 0
30.140000 14.740000 14.300000 205 204 179 0
30.360000 14.740000 15.400000 206 205 180 0
30.580000 14.740000 15.950000 206 203 179 0
30.800000 14.740000 15.950000 206 203 179 0
31.020000 14.740000 16.060000 206 204 178 0
31.240000 14.740000 16.060000 206 204 178 0
31.460000 14.740000 16.060000 207 202 177 0
31.680000 14.740000 16.170000 208 203 178 0
31.900000 14.740000 16.170000 206 204 178 0
32.120000 14.740000 16.170000 207 205 179 0
32.340000 14.740000 16.280000 208 203 178 0
32.560000 14.740000 16.280000 208 203 178 0
32.780000 14.740000 16.280000 208 203 178 0
33.000000 14.740000 16.280000 208 203 178 0
33.220000 14.740000 16.390000 206 201 176 0
33.440000 14.740000 17.050000 207 202 177 0
33.660000 14.740000 17.050000 206 201 174 0
33.880000 14.740000 17.160000 206 201 174 0
34.100000 14.740000 17.160000 206 201 176 0
34.320000 14.740000 17.160000 206 201 176 0
34.540000 14.740000 17.160000 207 201 174 0
34.760000 14.740000 17.160000 207 201 174 0
34.980000 14.740000 17.160000 207 201 174 0
35.200000 14.740000 18.370000 207 201 174 0
35.420000 14.740000 19.470000 206 198 170 0
35.640000 14.740000 20.020000 198 190 162 0
35.860000 14.740000 20.790000 203 176 152 0
36.080000 14.740000 15.950000 195 168 144 0
36.300000 14.740000 5.610000 199 150 130 0
36.520000 14.740000 0.770000 189 140 120 0
36.740000 14.740000 1.540000 198 121 106 0
36.960000 14.740000 2.200000 187 110 95 0
37.180000 14.740000 2.310000 192 92 87 0
0.000000 14.960000 4.510000 148 70 55 0
0.220000 14.960000 5.060000 145 62 49 0
0.440000 14.960000 5.610000 143 60 47 0
0.660000 14.960000 4.950000 143 59 46 0
0.880000 14.960000 4.950000 142 58 45 0
1.100000 14.960000 5.610000 142 58 45 0
1.320000 14.960000 5.610000 141 57 44 0
1.540000 14.960000 4.950000 139 56 45 0
1.760000 14.960000 4.950000 140 57 46 0
1.980000 14.960000 4.950000 139 56 43 0
2.200000 14.960000 5.060000 140 57 44 0
2.420000 14.960000 5.060000 139 56 43 0
2.640000 14.960000 5.170000 140 57 44 0
2.860000 14.960000 5.720000 140 56 43 0
3.080000 14.960000 5.720000 140 56 43 0
3.300000 14.960000 5.720000 138 55 44 0
3.520000 14.960000 5.390000 139 56 45 0
3.740000 14.960000 5.500000 140 56 43 0
3.960000 14.960000 6.050000 138 54 41 0
4.180000 14.960000 8.580000 138 54 41 0
4.400000 14.960000 11.440000 137 53 40 0
4.620000 14.960000 13.530000 137 52 42 0
4.840000 14.960000 14.300000 138 53 43 0
5.060000 14.960000 14.960000 138 55 44 0
5.280000 14.960000 12.210000 137 54 43 0
5.500000 14.960000 6.710000 137 54 43 0
5.720000 14.960000 3.300000 137 54 43 0
5.940000 14.960000 3.410000 135 58 47 0
6.160000 14.960000 3.410000 138 61 50 0
6.380000 14.960000 2.640000 136 68 62 0
6.600000 14.960000 2.640000 139 71 65 0
6.820000 14.960000 6.820000 136 76 70 0
7.040000 14.960000 12.320000 139 79 73 0
7.260000 14.960000 14.960000 138 79 70 0
7.480000 14.960000 14.300000 137 78 69 0
7.700000 14.960000 14.410000 137 76 68 0
7.920000 14.960000 15.070000 136 75 67 0
8.140000 14.960000 15.070000 139 74 67 0
8.360000 14.960000 15.840000 138 73 66 0
8.580000 14.960000 16.500000 138 73 66 0
8.800000 14.960000 17.160000 138 73 66 0
9.020000 14.960000 17.930000 138 70 62 0
9.240000 14.960000 18.590000 137 69 61 0
9.460000 14.960000 19.250000 137 70 59 0
9.680000 14.960000 14.410000 137 70 59 0
9.900000 14.960000 4.730000 136 68 60 0
10.120000 14.960000 0.550000 136 68 60 0
10.340000 14.960000 1.210000 137 68 60 0
10.560000 14.960000 1.870000 138 69 61 0
10.780000 14.960000 2.530000 138 69 59 0
11.000000 14.960000 3.190000 138 69 59 0
11.220000 14.960000 3.960000 136 73 61 0
11.440000 14.960000 5.390000 138 75 63 0
11.660000 14.960000 5.390000 138 78 65 0
11.880000 14.960000 5.390000 141 81 68 0
12.100000 14.960000 6.160000 140 83 71 0
12.320000 14.960000 6.160000 143 86 74 0
12.540000 14.960000 6.710000 143 88 78 0
12.760000 14.960000 8.580000 145 90 80 0
12.980000 14.960000 9.020000 140 92 83 0
13.200000 14.960000 8.360000 141 93 84 0
13.420000 14.960000 7.700000 142 91 82 0
13.640000 14.960000 7.040000 141 90 81 0
13.860000 14.960000 8.470000 145 88 74 0
14.080000 14.960000 9.130000 143 86 72 0
14.300000 14.960000 9.900000 144 84 69 0
14.520000 14.960000 9.240000 142 82 67 0
14.740000 14.960000 8.580000 143 79 62 0
14.960000 14.960000 7.920000 142 78 61 0
15.180000 14.960000 7.260000 140 76 59 0
15.400000 14.960000 8.030000 137 73 56 0
15.620000 14.960000 9.460000 139 73 56 0
15.840000 14.960000 11.550000 138 72 55 0
16.060000 14.960000 13.640000 138 72 53 0
16.280000 14.960000 12.980000 138 72 53 0
16.500000 14.960000 7.480000 139 71 53 0
16.720000 14.960000 2.640000 138 70 52 0
16.940000 14.960000 2.640000 138 72 53 0
17.160000 14.960000 4.620000 139 73 54 0
17.380000 14.960000 6.050000 139 73 54 0
17.600000 14.960000 6.710000 139 73 54 0
17.820000 14.960000 7.370000 139 73 54 0
18.040000 14.960000 9.570000 139 73 54 0
18.260000 14.960000 9.570000 140 79 56 0
18.480000 14.960000 5.500000 145 84 61 0
18.700000 14.960000 2.750000 140 98 81 0
18.920000 14.960000 1.980000 145 103 86 0
19.140000 14.960000 1.320000 136 116 87 0
19.360000 14.960000 1.320000 142 122 93 0
19.580000 14.960000 2.090000 143 129 98 0
19.800000 14.960000 2.750000 146 132 101 0
20.020000 14.960000 2.750000 146 134 105 0
20.240000 14.960000 3.850000 147 135 106 0
20.460000 14.960000 4.290000 148 137 105 0
20.680000 14.960000 4.840000 148 137 105 0
20.900000 14.960000 4.840000 149 135 104 0
21.120000 14.960000 4.840000 148 134 103 0
21.340000 14.960000 4.950000 147 133 102 0
21.560000 14.960000 5.060000 146 132 101 0
21.780000 14.960000 5.170000 147 132 104 0
22.000000 14.960000 5.280000 145 130 102 0
22.220000 14.960000 5.280000 144 130 99 0
22.440000 14.960000 5.280000 143 129 98 0
22.660000 14.960000 5.280000 144 128 98 0
22.880000 14.960000 5.280000 143 127 97 0
23.100000 14.960000 5.280000 143 127 97 0
23.320000 14.960000 5.280000 143 127 97 0
23.540000 14.960000 5.940000 144 128 98 0
23.760000 14.960000 6.050000 144 128 98 0
23.980000 14.960000 5.280000 144 130 98 0
24.200000 14.960000 5.280000 147 133 101 0
24.420000 14.960000 5.390000 150 134 103 0
24.640000 14.960000 5.390000 152 136 105 0
24.860000 14.960000 5.390000 152 141 106 0
25.080000 14.960000 6.050000 154 143 108 0
25.300000 14.960000 6.050000 157 146 113 0
25.520000 14.960000 6.160000 161 150 117 0
25.740000 14.960000 6.160000 167 158 124 0
25.960000 14.960000 6.820000 170 161 127 0
26.180000 14.960000 6.820000 171 167 133 0
26.400000 14.960000 6.820000 177 173 139 0
26.620000 14.960000 7.590000 181 179 149 0
26.840000 14.960000 8.030000 186 184 154 0
27.060000 14.960000 8.470000 190 192 165 0
27.280000 14.960000 9.020000 194 196 169 0
27.500000 14.960000 9.020000 197 199 173 0
27.720000 14.960000 9.790000 202 204 178 0
27.940000 14.960000 10.450000 205 204 179 0
28.160000 14.960000 11.220000 205 204 179 0
28.380000 14.960000 11.220000 204 206 180 0
28.600000 14.960000 11.880000 204 206 180 0
28.820000 14.960000 12.650000 205 204 179 0
29.040000 14.960000 12.760000 206 205 180 0
29.260000 14.960000 13.530000 207 206 180 0
29.480000 14.960000 13.640000 205 204 178 0
29.700000 14.960000 13.750000 207 205 179 0
29.920000 14.960000 13.750000 207 205 179 0
30.140000 14.960000 14.300000 205 204 179 0
30.360000 14.960000 15.400000 206 205 180 0
30.580000 14.960000 15.950000 207 204 180 0
30.800000 14.960000 15.950000 207 204 180 0
31.020000 14.960000 16.060000 206 204 178 0
31.240000 14.960000 16.060000 205 203 177 0
31.460000 14.960000 16.060000 206 201 176 0
31.680000 14.960000 16.170000 206 201 176 0
31.900000 14.960000 16.170000 206 204 178 0
32.120000 14.960000 16.170000 205 203 177 0
32.340000 14.960000 16.280000 207 202 177 0
32.560000 14.960000 16.280000 206 201 176 0
32.780000 14.960000 16.280000 206 201 176 0
33.000000 14.960000 16.280000 206 201 176 0
33.220000 14.960000 16.390000 205 200 175 0
33.440000 14.960000 16.390000 206 201 176 0
33.660000 14.960000 17.050000 205 200 173 0
33.880000 14.960000 17.160000 204 199 172 0
34.100000 14.960000 17.160000 205 200 175 0
34.320000 14.960000 17.160000 205 200 175 0
34.540000 14.960000 17.160000 206 200 173 0
34.760000 14.960000 17.160000 207 201 174 0
34.980000 14.960000 17.270000 207 201 174 0
35.200000 14.960000 17.820000 206 200 173 0
35.420000 14.960000 18.920000 207 199 171 0
35.640000 14.960000 20.130000 205 197 169 0
35.860000 14.960000 20.790000 212 185 161 0
36.080000 14.960000 15.950000 204 177 153 0
36.300000 14.960000 5.610000 209 160 140 0
36.520000 14.960000 0.770000 198 149 129 0
36.740000 14.960000 0.770000 207 130 115 0
36.960000 14.960000 1.540000 196 119 104 0
37.180000 14.960000 2.310000 198 98 93 0
0.000000 15.180000 5.170000 146 66 54 0
0.220000 15.180000 5.060000 145 62 49 0
0.440000 15.180000 5.610000 142 59 46 0
0.660000 15.180000 5.610000 139 59 45 0
0.880000 15.180000 5.610000 139 59 45 0
1.100000 15.180000 5.610000 140 57 44 0
1.320000 15.180000 5.610000 140 57 44 0
1.540000 15.180000 4.950000 139 56 45 0
1.760000 15.180000 4.950000 139 56 45 0
1.980000 15.180000 4.950000 139 56 43 0
2.200000 15.180000 5.060000 140 57 44 0
2.420000 15.180000 5.060000 140 57 44 0
2.640000 15.180000 5.170000 140 57 44 0
2.860000 15.180000 5.720000 139 56 45 0
3.080000 15.180000 5.610000 138 55 44 0
3.300000 15.180000 5.720000 138 55 44 0
3.520000 15.180000 5.280000 138 55 44 0
3.740000 15.180000 5.500000 138 55 42 0
3.960000 15.180000 6.710000 138 55 42 0
4.180000 15.180000 9.350000 136 53 40 0
4.400000 15.180000 12.100000 137 54 41 0
4.620000 15.180000 14.190000 138 55 44 0
4.840000 15.180000 14.960000 137 54 43 0
5.060000 15.180000 14.960000 137 54 43 0
5.280000 15.180000 11.550000 137 54 43 0
5.500000 15.180000 5.390000 135 55 43 0
5.720000 15.180000 3.410000 136 56 44 0
5.940000 15.180000 3.410000 129 60 52 0
6.160000 15.180000 3.410000 135 66 58 0
6.380000 15.180000 2.640000 133 69 64 0
6.600000 15.180000 3.410000 137 73 68 0
6.820000 15.180000 6.820000 136 77 74 0
7.040000 15.180000 12.320000 137 78 75 0
7.260000 15.180000 14.960000 138 78 72 0
7.480000 15.180000 14.300000 136 76 70 0
7.700000 15.180000 14.410000 139 75 68 0
7.920000 15.180000 15.070000 139 75 68 0
8.140000 15.180000 15.840000 138 74 67 0
8.360000 15.180000 16.500000 138 74 67 0
8.580000 15.180000 16.500000 137 72 65 0
8.800000 15.180000 17.160000 137 72 65 0
9.020000 15.180000 18.590000 139 71 63 0
9.240000 15.180000 18.590000 138 70 62 0
9.460000 15.180000 19.250000 138 69 61 0
9.680000 15.180000 14.410000 138 69 61 0
9.900000 15.180000 4.730000 136 68 60 0
10.120000 15.180000 0.550000 136 68 60 0
10.340000 15.180000 1.210000 136 68 60 0
10.560000 15.180000 1.870000 137 69 61 0
10.780000 15.180000 2.530000 136 71 60 0
11.000000 15.180000 3.300000 137 72 61 0
11.220000 15.180000 3.960000 136 73 61 0
11.440000 15.180000 5.390000 139 76 64 0
11.660000 15.180000 5.390000 139 80 71 0
11.880000 15.180000 5.390000 140 81 72 0
12.100000 15.180000 6.160000 140 86 71 0
12.320000 15.180000 6.820000 141 87 72 0
12.540000 15.180000 8.030000 141 91 79 0
12.760000 15.180000 9.130000 142 92 80 0
12.980000 15.180000 9.020000 141 92 82 0
13.200000 15.180000 7.700000 140 91 81 0
13.420000 15.180000 7.040000 144 90 77 0
13.640000 15.180000 7.040000 142 88 75 0
13.860000 15.180000 8.470000 144 84 68 0
14.080000 15.180000 9.130000 142 82 66 0
14.300000 15.180000 9.240000 142 78 61 0
14.520000 15.180000 8.580000 141 77 60 0
14.740000 15.180000 7.920000 139 72 58 0
14.960000 15.180000 7.260000 139 72 58 0
15.180000 15.180000 8.030000 139 72 58 0
15.400000 15.180000 8.690000 139 72 58 0
15.620000 15.180000 10.120000 135 71 56 0
15.840000 15.180000 12.210000 136 72 57 0
16.060000 15.180000 13.640000 137 74 54 0
16.280000 15.180000 10.890000 137 74 54 0
16.500000 15.180000 5.390000 138 72 55 0
16.720000 15.180000 2.640000 137 71 54 0
16.940000 15.180000 3.960000 138 72 55 0
17.160000 15.180000 6.710000 139 73 56 0
17.380000 15.180000 8.140000 136 72 55 0
17.600000 15.180000 8.140000 138 74 57 0
17.820000 15.180000 8.140000 138 75 55 0
18.040000 15.180000 8.140000 139 76 56 0
18.260000 15.180000 6.820000 132 84 65 0
18.480000 15.180000 4.070000 138 90 71 0
18.700000 15.180000 2.750000 129 108 82 0
18.920000 15.180000 1.320000 135 114 88 0
19.140000 15.180000 1.320000 136 121 93 0
19.360000 15.180000 1.320000 141 126 98 0
19.580000 15.180000 2.090000 142 132 102 0
19.800000 15.180000 2.750000 144 134 104 0
20.020000 15.180000 3.300000 146 135 103 0
20.240000 15.180000 4.400000 146 135 103 0
20.460000 15.180000 4.950000 149 135 104 0
20.680000 15.180000 4.840000 147 133 102 0
20.900000 15.180000 4.840000 148 133 105 0
21.120000 15.180000 4.840000 146 131 103 0
21.340000 15.180000 4.950000 144 133 101 0
21.560000 15.180000 4.510000 143 132 100 0
21.780000 15.180000 4.620000 144 130 98 0
22.000000 15.180000 5.280000 143 129 97 0
22.220000 15.180000 5.280000 144 128 98 0
22.440000 15.180000 5.280000 143 127 97 0
22.660000 15.180000 5.280000 140 126 94 0
22.880000 15.180000 5.280000 139 125 93 0
23.100000 15.180000 5.280000 142 126 96 0
23.320000 15.180000 5.280000 141 125 95 0
23.540000 15.180000 6.050000 141 127 95 0
23.760000 15.180000 5.280000 141 127 95 0
23.980000 15.180000 5.280000 144 128 97 0
24.200000 15.180000 5.280000 147 131 100 0
24.420000 15.180000 5.390000 149 133 102 0
24.640000 15.180000 5.390000 151 135 104 0
24.860000 15.180000 5.390000 152 138 106 0
25.080000 15.180000 5.390000 156 142 110 0
25.300000 15.180000 6.050000 160 146 115 0
25.520000 15.180000 6.160000 164 150 119 0
25.740000 15.180000 6.160000 166 157 121 0
25.960000 15.180000 6.820000 170 161 125 0
26.180000 15.180000 6.820000 170 169 133 0
26.400000 15.180000 6.820000 175 174 138 0
26.620000 15.180000 7.480000 178 180 151 0
26.840000 15.180000 8.580000 184 186 157 0
27.060000 15.180000 9.020000 187 191 164 0
27.280000 15.180000 9.020000 194 198 171 0
27.500000 15.180000 9.020000 199 202 180 0
27.720000 15.180000 9.790000 201 204 182 0
27.940000 15.180000 10.450000 202 205 183 0
28.160000 15.180000 11.220000 203 206 184 0
28.380000 15.180000 11.220000 204 205 182 0
28.600000 15.180000 11.880000 205 206 183 0
28.820000 15.180000 11.990000 204 205 182 0
29.040000 15.180000 12.650000 204 205 182 0
29.260000 15.180000 13.420000 204 205 182 0
29.480000 15.180000 13.530000 205 206 183 0
29.700000 15.180000 13.750000 204 206 180 0
29.920000 15.180000 13.750000 204 206 180 0
30.140000 15.180000 14.300000 206 205 180 0
30.360000 15.180000 15.400000 205 204 179 0
30.580000 15.180000 15.950000 207 205 179 0
30.800000 15.180000 15.950000 206 204 178 0
31.020000 15.180000 16.060000 204 202 174 0
31.240000 15.180000 16.060000 204 202 174 0
31.460000 15.180000 16.060000 206 201 174 0
31.680000 15.180000 16.060000 204 199 172 0
31.900000 15.180000 16.170000 206 201 174 0
32.120000 15.180000 16.170000 205 200 173 0
32.340000 15.180000 16.280000 207 201 172 0
32.560000 15.180000 16.280000 206 200 171 0
32.780000 15.180000 16.280000 206 200 171 0
33.000000 15.180000 16.280000 206 200 171 0
33.220000 15.180000 16.280000 206 200 173 0
33.440000 15.180000 16.390000 205 199 172 0
33.660000 15.180000 16.390000 206 200 173 0
33.880000 15.180000 17.050000 204 198 171 0
34.100000 15.180000 17.160000 205 199 168 0
34.320000 15.180000 17.160000 205 199 168 0
34.540000 15.180000 17.160000 206 200 171 0
34.760000 15.180000 17.160000 205 199 170 0
34.980000 15.180000 17.160000 205 199 170 0
35.200000 15.180000 17.930000 206 200 171 0
35.420000 15.180000 18.370000 206 200 171 0
35.640000 15.180000 19.470000 206 200 171 0
35.860000 15.180000 20.020000 205 198 167 0
36.080000 15.180000 15.950000 198 191 160 0
36.300000 15.180000 6.930000 204 173 148 0
36.520000 15.180000 2.860000 195 164 139 0
36.740000 15.180000 1.540000 201 147 130 0
36.960000 15.180000 0.880000 190 136 119 0
37.180000 15.180000 1.540000 198 115 106 0
0.000000 15.400000 5.170000 145 65 53 0
0.220000 15.400000 5.720000 145 62 49 0
0.440000 15.400000 5.610000 143 60 47 0
0.660000 15.400000 5.610000 140 60 46 0
0.880000 15.400000 5.610000 139 59 45 0
1.100000 15.400000 5.610000 140 57 44 0
1.320000 15.400000 5.610000 141 58 45 0
1.540000 15.400000 5.610000 140 57 46 0
1.760000 15.400000 4.950000 139 56 45 0
1.980000 15.400000 4.950000 140 57 44 0
2.200000 15.400000 5.060000 139 56 43 0
2.420000 15.400000 5.060000 139 56 43 0
2.640000 15.400000 5.830000 139 56 43 0
2.860000 15.400000 5.720000 139 56 45 0
3.080000 15.400000 6.270000 138 55 44 0
3.300000 15.400000 5.720000 139 56 45 0
3.520000 15.400000 5.940000 138 55 44 0
3.740000 15.400000 6.050000 138 55 42 0
3.960000 15.400000 8.140000 137 54 41 0
4.180000 15.400000 10.780000 137 54 41 0
4.400000 15.400000 12.760000 138 55 42 0
4.620000 15.400000 14.190000 137 54 43 0
4.840000 15.400000 14.960000 138 55 44 0
5.060000 15.400000 14.300000 138 55 44 0
5.280000 15.400000 10.890000 138 55 44 0
5.500000 15.400000 6.160000 136 56 44 0
5.720000 15.400000 3.410000 137 57 45 0
5.940000 15.400000 3.410000 132 63 55 0
6.160000 15.400000 3.410000 136 67 59 0
6.380000 15.400000 2.750000 136 72 67 0
6.600000 15.400000 5.390000 140 76 71 0
6.820000 15.400000 11.550000 138 79 76 0
7.040000 15.400000 14.960000 139 80 77 0
7.260000 15.400000 14.850000 139 79 73 0
7.480000 15.400000 14.300000 138 78 72 0
7.700000 15.400000 15.070000 139 75 68 0
7.920000 15.400000 16.500000 139 75 68 0
8.140000 15.400000 17.160000 139 75 68 0
8.360000 15.400000 17.160000 138 74 67 0
8.580000 15.400000 17.160000 138 73 66 0
8.800000 15.400000 17.820000 137 72 65 0
9.020000 15.400000 17.160000 139 71 63 0
9.240000 15.400000 15.840000 137 69 61 0
9.460000 15.400000 14.410000 137 68 60 0
9.680000 15.400000 10.890000 137 68 60 0
9.900000 15.400000 3.960000 135 67 59 0
10.120000 15.400000 0.550000 136 68 60 0
10.340000 15.400000 1.210000 136 68 60 0
10.560000 15.400000 1.870000 136 68 60 0
10.780000 15.400000 2.640000 136 71 60 0
11.000000 15.400000 3.300000 137 72 61 0
11.220000 15.400000 4.730000 138 75 63 0
11.440000 15.400000 5.390000 140 77 65 0
11.660000 15.400000 5.390000 139 80 71 0
11.880000 15.400000 6.160000 140 81 72 0
12.100000 15.400000 6.160000 139 85 70 0
12.320000 15.400000 7.480000 142 88 73 0
12.540000 15.400000 8.580000 141 91 79 0
12.760000 15.400000 9.020000 141 91 79 0
12.980000 15.400000 8.360000 141 92 82 0
13.200000 15.400000 6.930000 140 91 81 0
13.420000 15.400000 6.270000 143 89 76 0
13.640000 15.400000 7.040000 141 87 74 0
13.860000 15.400000 8.470000 142 82 66 0
14.080000 15.400000 8.470000 139 79 63 0
14.300000 15.400000 7.810000 140 76 59 0
14.520000 15.400000 7.150000 138 74 57 0
14.740000 15.400000 7.150000 139 72 58 0
14.960000 15.400000 7.920000 139 72 58 0
15.180000 15.400000 8.690000 138 71 57 0
15.400000 15.400000 9.460000 138 71 57 0
15.620000 15.400000 10.780000 137 73 58 0
15.840000 15.400000 11.550000 137 73 58 0
16.060000 15.400000 10.890000 137 74 54 0
16.280000 15.400000 7.480000 137 74 54 0
16.500000 15.400000 3.960000 138 72 55 0
16.720000 15.400000 3.960000 138 72 55 0
16.940000 15.400000 6.050000 139 73 56 0
17.160000 15.400000 9.460000 139 73 56 0
17.380000 15.400000 10.890000 138 74 57 0
17.600000 15.400000 10.230000 137 73 56 0
17.820000 15.400000 8.800000 139 76 56 0
18.040000 15.400000 6.820000 141 78 58 0
18.260000 15.400000 4.730000 136 88 69 0
18.480000 15.400000 2.750000 141 93 74 0
18.700000 15.400000 2.090000 133 112 86 0
18.920000 15.400000 1.320000 137 116 90 0
19.140000 15.400000 1.320000 138 123 95 0
19.360000 15.400000 1.320000 145 130 102 0
19.580000 15.400000 2.090000 144 134 104 0
19.800000 15.400000 2.750000 143 133 103 0
20.020000 15.400000 3.850000 145 134 102 0
20.240000 15.400000 4.290000 145 134 102 0
20.460000 15.400000 4.840000 147 133 102 0
20.680000 15.400000 4.840000 147 133 102 0
20.900000 15.400000 4.840000 146 131 103 0
21.120000 15.400000 4.950000 146 131 103 0
21.340000 15.400000 5.060000 143 132 100 0
21.560000 15.400000 4.620000 142 131 99 0
21.780000 15.400000 4.620000 143 129 97 0
22.000000 15.400000 5.280000 142 128 96 0
22.220000 15.400000 5.280000 142 126 96 0
22.440000 15.400000 5.280000 141 125 95 0
22.660000 15.400000 5.280000 139 125 93 0
22.880000 15.400000 5.280000 140 126 94 0
23.100000 15.400000 5.280000 141 125 95 0
23.320000 15.400000 5.280000 140 124 94 0
23.540000 15.400000 5.280000 140 126 94 0
23.760000 15.400000 5.280000 141 127 95 0
23.980000 15.400000 5.280000 144 128 97 0
24.200000 15.400000 5.280000 146 130 99 0
24.420000 15.400000 5.390000 148 132 101 0
24.640000 15.400000 5.390000 150 134 103 0
24.860000 15.400000 5.390000 152 138 106 0
25.080000 15.400000 5.390000 155 141 109 0
25.300000 15.400000 5.390000 159 145 114 0
25.520000 15.400000 6.160000 164 150 119 0
25.740000 15.400000 6.160000 166 157 121 0
25.960000 15.400000 6.820000 171 162 126 0
26.180000 15.400000 6.820000 170 169 133 0
26.400000 15.400000 6.820000 177 176 140 0
26.620000 15.400000 7.370000 179 181 152 0
26.840000 15.400000 8.470000 185 187 158 0
27.060000 15.400000 9.020000 190 194 167 0
27.280000 15.400000 9.020000 196 200 173 0
27.500000 15.400000 9.020000 199 202 180 0
27.720000 15.400000 9.790000 201 204 182 0
27.940000 15.400000 10.450000 203 206 184 0
28.160000 15.400000 10.450000 204 207 185 0
28.380000 15.400000 11.220000 205 206 183 0
28.600000 15.400000 11.880000 205 206 183 0
28.820000 15.400000 11.990000 204 205 182 0
29.040000 15.400000 12.650000 204 205 182 0
29.260000 15.400000 13.420000 204 205 182 0
29.480000 15.400000 13.530000 205 206 183 0
29.700000 15.400000 13.640000 205 207 181 0
29.920000 15.400000 13.750000 205 207 181 0
30.140000 15.400000 14.410000 206 205 180 0
30.360000 15.400000 14.740000 207 206 181 0
30.580000 15.400000 15.290000 206 204 178 0
30.800000 15.400000 15.950000 206 204 178 0
31.020000 15.400000 15.950000 205 203 175 0
31.240000 15.400000 16.060000 204 202 174 0
31.460000 15.400000 16.060000 206 201 174 0
31.680000 15.400000 16.060000 204 199 172 0
31.900000 15.400000 16.170000 204 199 172 0
32.120000 15.400000 16.170000 204 199 172 0
32.340000 15.400000 16.280000 205 199 170 0
32.560000 15.400000 16.280000 205 199 170 0
32.780000 15.400000 16.280000 205 199 170 0
33.000000 15.400000 16.280000 205 199 170 0
33.220000 15.400000 16.280000 205 199 172 0
33.440000 15.400000 16.390000 204 198 171 0
33.660000 15.400000 16.390000 204 198 171 0
33.880000 15.400000 16.390000 205 199 172 0
34.100000 15.400000 17.160000 204 198 167 0
34.320000 15.400000 17.160000 204 198 167 0
34.540000 15.400000 17.160000 204 198 169 0
34.760000 15.400000 17.820000 205 199 170 0
34.980000 15.400000 17.160000 205 199 170 0
35.200000 15.400000 17.270000 205 199 170 0
35.420000 15.400000 17.820000 205 199 170 0
35.640000 15.400000 18.920000 205 199 170 0
35.860000 15.400000 20.130000 206 199 168 0
36.080000 15.400000 16.610000 204 197 166 0
36.300000 15.400000 11.770000 212 181 156 0
36.520000 15.400000 11.110000 203 172 147 0
36.740000 15.400000 7.040000 208 154 137 0
36.960000 15.400000 2.200000 198 144 127 0
37.180000 15.400000 0.880000 207 124 115 0
0.000000 15.620000 5.170000 144 64 52 0
0.220000 15.620000 5.720000 144 61 50 0
0.440000 15.620000 5.610000 142 59 48 0
0.660000 15.620000 5.610000 142 59 48 0
0.880000 15.620000 5.610000 141 58 47 0
1.100000 15.620000 5.610000 140 57 44 0
1.320000 15.620000 6.270000 141 58 45 0
1.540000 15.620000 5.610000 139 59 45 0
1.760000 15.620000 4.950000 138 58 44 0
1.980000 15.620000 4.950000 139 56 45 0
2.200000 15.620000 5.720000 139 56 45 0
2.420000 15.620000 5.830000 139 56 45 0
2.640000 15.620000 5.720000 139 56 45 0
2.860000 15.620000 5.720000 138 55 42 0
3.080000 15.620000 5.610000 140 57 44 0
3.300000 15.620000 5.720000 135 55 41 0
3.520000 15.620000 5.940000 136 56 42 0
3.740000 15.620000 6.710000 137 54 43 0
3.960000 15.620000 8.690000 138 55 44 0
4.180000 15.620000 11.440000 136 53 42 0
4.400000 15.620000 13.530000 138 55 44 0
4.620000 15.620000 14.960000 138 55 42 0
4.840000 15.620000 14.960000 138 55 42 0
5.060000 15.620000 13.640000 135 55 41 0
5.280000 15.620000 9.570000 136 56 42 0
5.500000 15.620000 5.500000 136 58 49 0
5.720000 15.620000 4.070000 137 59 50 0
5.940000 15.620000 3.410000 135 66 58 0
6.160000 15.620000 3.410000 137 68 60 0
6.380000 15.620000 3.300000 134 74 68 0
6.600000 15.620000 5.940000 138 78 72 0
6.820000 15.620000 13.420000 138 80 73 0
7.040000 15.620000 16.060000 139 81 74 0
7.260000 15.620000 15.400000 140 80 74 0
7.480000 15.620000 14.960000 137 77 71 0
7.700000 15.620000 15.730000 136 78 71 0
7.920000 15.620000 17.160000 136 78 71 0
8.140000 15.620000 17.820000 137 77 71 0
8.360000 15.620000 17.820000 138 78 72 0
8.580000 15.620000 17.820000 137 76 66 0
8.800000 15.620000 17.820000 136 75 65 0
9.020000 15.620000 13.750000 139 71 63 0
9.240000 15.620000 7.480000 137 69 61 0
9.460000 15.620000 4.730000 138 69 61 0
9.680000 15.620000 4.730000 137 68 60 0
9.900000 15.620000 3.960000 136 68 60 0
10.120000 15.620000 1.870000 136 68 60 0
10.340000 15.620000 1.210000 136 68 60 0
10.560000 15.620000 2.640000 137 69 61 0
10.780000 15.620000 3.300000 137 72 61 0
11.000000 15.620000 3.960000 137 72 61 0
11.220000 15.620000 4.730000 138 75 63 0
11.440000 15.620000 5.390000 140 77 65 0
11.660000 15.620000 6.160000 140 80 65 0
11.880000 15.620000 6.160000 141 81 66 0
12.100000 15.620000 6.820000 142 84 68 0
12.320000 15.620000 8.030000 144 86 70 0
12.540000 15.620000 9.130000 144 90 75 0
12.760000 15.620000 9.020000 143 89 74 0
12.980000 15.620000 7.700000 145 88 76 0
13.200000 15.620000 6.270000 144 87 75 0
13.420000 15.620000 7.040000 144 84 68 0
13.640000 15.620000 7.700000 141 81 65 0
13.860000 15.620000 7.810000 141 79 63 0
14.080000 15.620000 7.810000 139 77 61 0
14.300000 15.620000 7.150000 139 75 60 0
14.520000 15.620000 6.490000 137 73 58 0
14.740000 15.620000 7.920000 138 72 55 0
14.960000 15.620000 8.690000 139 73 56 0
15.180000 15.620000 9.350000 136 74 58 0
15.400000 15.620000 9.460000 136 74 58 0
15.620000 15.620000 10.120000 137 75 57 0
15.840000 15.620000 10.890000 136 74 56 0
16.060000 15.620000 8.800000 139 75 58 0
16.280000 15.620000 5.390000 137 73 56 0
16.500000 15.620000 3.960000 139 73 54 0
16.720000 15.620000 6.710000 140 74 55 0
16.940000 15.620000 10.230000 137 73 56 0
17.160000 15.620000 12.210000 138 74 57 0
17.380000 15.620000 12.980000 138 75 55 0
17.600000 15.620000 11.550000 138 75 55 0
17.820000 15.620000 10.230000 136 78 59 0
18.040000 15.620000 6.820000 140 82 63 0
18.260000 15.620000 4.070000 129 93 74 0
18.480000 15.620000 2.090000 137 101 82 0
18.700000 15.620000 1.320000 132 114 85 0
18.920000 15.620000 0.660000 136 118 89 0
19.140000 15.620000 1.320000 139 127 98 0
19.360000 15.620000 2.090000 143 131 102 0
19.580000 15.620000 2.750000 143 133 103 0
19.800000 15.620000 3.300000 143 133 103 0
20.020000 15.620000 4.400000 147 132 104 0
20.240000 15.620000 4.950000 146 131 103 0
20.460000 15.620000 4.840000 145 131 100 0
20.680000 15.620000 4.840000 145 131 100 0
20.900000 15.620000 4.950000 142 131 99 0
21.120000 15.620000 5.060000 142 131 99 0
21.340000 15.620000 5.280000 144 130 99 0
21.560000 15.620000 4.620000 143 129 98 0
21.780000 15.620000 4.620000 142 126 96 0
22.000000 15.620000 4.620000 141 125 95 0
22.220000 15.620000 5.280000 141 125 94 0
22.440000 15.620000 5.280000 140 124 93 0
22.660000 15.620000 5.280000 139 123 92 0
22.880000 15.620000 5.280000 139 123 92 0
23.100000 15.620000 5.280000 139 123 93 0
23.320000 15.620000 5.280000 139 123 93 0
23.540000 15.620000 5.280000 141 124 93 0
23.760000 15.620000 5.280000 142 125 94 0
23.980000 15.620000 5.280000 142 126 95 0
24.200000 15.620000 5.390000 145 129 98 0
24.420000 15.620000 5.390000 146 132 100 0
24.640000 15.620000 5.390000 148 134 102 0
24.860000 15.620000 5.390000 149 138 103 0
25.080000 15.620000 5.390000 152 141 106 0
25.300000 15.620000 5.390000 156 146 114 0
25.520000 15.620000 5.390000 161 151 119 0
25.740000 15.620000 6.160000 163 156 123 0
25.960000 15.620000 6.160000 169 162 129 0
26.180000 15.620000 6.820000 170 169 134 0
26.400000 15.620000 6.820000 177 176 141 0
26.620000 15.620000 7.370000 180 182 153 0
26.840000 15.620000 8.470000 185 187 158 0
27.060000 15.620000 9.020000 191 195 168 0
27.280000 15.620000 9.020000 197 201 174 0
27.500000 15.620000 9.020000 198 201 179 0
27.720000 15.620000 9.790000 201 204 182 0
27.940000 15.620000 10.450000 203 204 183 0
28.160000 15.620000 10.450000 205 206 185 0
28.380000 15.620000 11.220000 206 208 182 0
28.600000 15.620000 11.880000 205 207 181 0
28.820000 15.620000 11.990000 204 206 180 0
29.040000 15.620000 12.760000 204 206 180 0
29.260000 15.620000 13.420000 206 205 182 0
29.480000 15.620000 13.530000 207 206 183 0
29.700000 15.620000 13.640000 207 206 183 0
29.920000 15.620000 13.750000 207 206 183 0
30.140000 15.620000 13.750000 207 206 181 0
30.360000 15.620000 14.300000 207 206 181 0
30.580000 15.620000 15.400000 207 205 179 0
30.800000 15.620000 15.950000 205 203 177 0
31.020000 15.620000 15.950000 204 202 176 0
31.240000 15.620000 16.060000 204 202 176 0
31.460000 15.620000 16.060000 205 200 173 0
31.680000 15.620000 16.060000 203 198 171 0
31.900000 15.620000 16.170000 203 198 171 0
32.120000 15.620000 16.170000 202 197 170 0
32.340000 15.620000 16.170000 204 198 169 0
32.560000 15.620000 16.280000 204 198 169 0
32.780000 15.620000 16.280000 204 196 168 0
33.000000 15.620000 16.280000 205 197 169 0
33.220000 15.620000 16.280000 204 198 169 0
33.440000 15.620000 16.280000 204 198 169 0
33.660000 15.620000 16.390000 203 197 168 0
33.880000 15.620000 16.390000 203 197 168 0
34.100000 15.620000 17.160000 205 197 169 0
34.320000 15.620000 17.160000 204 196 168 0
34.540000 15.620000 17.160000 204 196 168 0
34.760000 15.620000 17.160000 205 197 169 0
34.980000 15.620000 17.820000 205 197 169 0
35.200000 15.620000 17.930000 205 197 169 0
35.420000 15.620000 17.930000 205 199 170 0
35.640000 15.620000 18.370000 205 199 170 0
35.860000 15.620000 19.470000 205 199 170 0
36.080000 15.620000 18.700000 204 198 169 0
36.300000 15.620000 18.040000 204 194 164 0
36.520000 15.620000 18.700000 196 186 156 0
36.740000 15.620000 13.200000 202 169 147 0
36.960000 15.620000 4.290000 193 160 138 0
37.180000 15.620000 0.110000 201 137 122 0
0.000000 15.840000 5.170000 144 64 52 0
0.220000 15.840000 5.720000 143 60 49 0
0.440000 15.840000 5.610000 142 59 48 0
0.660000 15.840000 5.610000 141 58 47 0
0.880000 15.840000 5.610000 141 58 47 0
1.100000 15.840000 5.610000 140 57 44 0
1.320000 15.840000 6.270000 140 57 44 0
1.540000 15.840000 5.610000 138 58 44 0
1.760000 15.840000 5.610000 138 58 44 0
1.980000 15.840000 4.950000 140 57 46 0
2.200000 15.840000 5.720000 139 56 45 0
2.420000 15.840000 5.720000 139 56 45 0
2.640000 15.840000 5.720000 139 56 45 0
2.860000 15.840000 5.720000 139 56 43 0
3.080000 15.840000 5.830000 138 55 42 0
3.300000 15.840000 5.830000 136 56 42 0
3.520000 15.840000 5.940000 136 56 42 0
3.740000 15.840000 7.370000 138 55 44 0
3.960000 15.840000 9.350000 138 55 44 0
4.180000 15.840000 11.440000 137 54 43 0
4.400000 15.840000 13.530000 137 54 43 0
4.620000 15.840000 14.960000 137 54 41 0
4.840000 15.840000 14.300000 138 55 42 0
5.060000 15.840000 12.320000 135 55 41 0
5.280000 15.840000 8.140000 137 57 43 0
5.500000 15.840000 5.390000 136 58 49 0
5.720000 15.840000 3.960000 140 62 53 0
5.940000 15.840000 3.960000 136 67 59 0
6.160000 15.840000 3.850000 138 69 61 0
6.380000 15.840000 3.740000 137 77 71 0
6.600000 15.840000 7.810000 138 78 72 0
6.820000 15.840000 13.970000 138 80 73 0
7.040000 15.840000 15.950000 139 81 74 0
7.260000 15.840000 15.400000 140 80 74 0
7.480000 15.840000 15.620000 139 79 73 0
7.700000 15.840000 16.500000 137 79 72 0
7.920000 15.840000 17.820000 136 78 71 0
8.140000 15.840000 17.820000 138 78 72 0
8.360000 15.840000 17.820000 137 77 71 0
8.580000 15.840000 17.160000 138 77 67 0
8.800000 15.840000 13.640000 137 76 66 0
9.020000 15.840000 6.710000 140 72 64 0
9.240000 15.840000 1.870000 137 69 61 0
9.460000 15.840000 0.550000 137 68 60 0
9.680000 15.840000 3.960000 137 68 60 0
9.900000 15.840000 7.480000 135 67 59 0
10.120000 15.840000 3.960000 137 69 61 0
10.340000 15.840000 1.870000 137 69 61 0
10.560000 15.840000 3.300000 138 70 62 0
10.780000 15.840000 3.960000 137 72 61 0
11.000000 15.840000 4.730000 138 73 62 0
11.220000 15.840000 5.390000 140 77 65 0
11.440000 15.840000 5.500000 141 78 66 0
11.660000 15.840000 6.160000 141 81 66 0
11.880000 15.840000 6.820000 141 81 66 0
12.100000 15.840000 7.370000 142 84 68 0
12.320000 15.840000 8.470000 144 86 70 0
12.540000 15.840000 9.020000 142 88 73 0
12.760000 15.840000 8.360000 142 88 73 0
12.980000 15.840000 6.930000 142 85 73 0
13.200000 15.840000 6.270000 143 86 74 0
13.420000 15.840000 7.040000 143 83 67 0
13.640000 15.840000 7.810000 140 80 64 0
13.860000 15.840000 7.150000 140 78 62 0
14.080000 15.840000 6.490000 138 76 60 0
14.300000 15.840000 6.490000 136 72 57 0
14.520000 15.840000 7.150000 136 72 57 0
14.740000 15.840000 8.580000 138 72 55 0
14.960000 15.840000 9.350000 139 73 56 0
15.180000 15.840000 8.690000 136 74 58 0
15.400000 15.840000 8.690000 137 75 59 0
15.620000 15.840000 9.460000 138 76 58 0
15.840000 15.840000 10.120000 137 75 57 0
16.060000 15.840000 9.460000 139 75 58 0
16.280000 15.840000 7.370000 138 74 57 0
16.500000 15.840000 7.370000 141 75 56 0
16.720000 15.840000 10.230000 140 74 55 0
16.940000 15.840000 12.980000 139 75 58 0
17.160000 15.840000 13.640000 138 74 57 0
17.380000 15.840000 13.640000 139 76 56 0
17.600000 15.840000 12.320000 139 76 56 0
17.820000 15.840000 11.000000 137 79 60 0
18.040000 15.840000 7.590000 141 83 64 0
18.260000 15.840000 3.410000 133 97 78 0
18.480000 15.840000 2.090000 139 103 84 0
18.700000 15.840000 1.320000 133 115 86 0
18.920000 15.840000 0.660000 137 119 90 0
19.140000 15.840000 1.320000 141 129 100 0
19.360000 15.840000 1.980000 143 131 102 0
19.580000 15.840000 2.750000 142 132 102 0
19.800000 15.840000 3.300000 142 132 102 0
20.020000 15.840000 4.290000 145 130 102 0
20.240000 15.840000 4.840000 145 130 102 0
20.460000 15.840000 4.840000 145 131 100 0
20.680000 15.840000 4.840000 144 130 99 0
20.900000 15.840000 4.950000 141 130 98 0
21.120000 15.840000 4.510000 141 130 98 0
21.340000 15.840000 4.620000 142 128 97 0
21.560000 15.840000 4.620000 140 126 95 0
21.780000 15.840000 4.620000 140 124 94 0
22.000000 15.840000 4.620000 140 124 94 0
22.220000 15.840000 4.620000 137 121 90 0
22.440000 15.840000 5.280000 139 123 92 0
22.660000 15.840000 5.280000 138 122 91 0
22.880000 15.840000 5.280000 137 121 90 0
23.100000 15.840000 5.280000 137 121 91 0
23.320000 15.840000 5.280000 138 122 92 0
23.540000 15.840000 5.280000 140 123 92 0
23.760000 15.840000 5.280000 140 123 92 0
23.980000 15.840000 5.280000 141 125 94 0
24.200000 15.840000 5.390000 144 128 97 0
24.420000 15.840000 5.390000 145 131 99 0
24.640000 15.840000 5.390000 146 132 100 0
24.860000 15.840000 5.390000 149 138 103 0
25.080000 15.840000 5.390000 152 141 106 0
25.300000 15.840000 5.390000 155 145 113 0
25.520000 15.840000 5.390000 160 150 118 0
25.740000 15.840000 6.160000 163 156 123 0
25.960000 15.840000 6.160000 171 164 131 0
26.180000 15.840000 6.820000 172 171 136 0
26.400000 15.840000 6.930000 176 175 140 0
26.620000 15.840000 7.370000 180 182 153 0
26.840000 15.840000 8.470000 187 189 160 0
27.060000 15.840000 9.020000 192 196 169 0
27.280000 15.840000 9.020000 197 201 174 0
27.500000 15.840000 9.130000 198 201 179 0
27.720000 15.840000 9.790000 200 203 181 0
27.940000 15.840000 10.450000 202 203 182 0
28.160000 15.840000 10.450000 205 206 185 0
28.380000 15.840000 11.220000 206 208 182 0
28.600000 15.840000 11.220000 205 207 181 0
28.820000 15.840000 11.990000 203 205 179 0
29.040000 15.840000 12.760000 204 206 180 0
29.260000 15.840000 13.420000 206 205 182 0
29.480000 15.840000 13.530000 206 205 182 0
29.700000 15.840000 13.640000 207 206 183 0
29.920000 15.840000 13.750000 207 206 183 0
30.140000 15.840000 13.750000 207 206 181 0
30.360000 15.840000 14.300000 206 205 180 0
30.580000 15.840000 15.400000 206 204 178 0
30.800000 15.840000 15.290000 205 203 177 0
31.020000 15.840000 15.950000 204 202 176 0
31.240000 15.840000 16.060000 203 201 175 0
31.460000 15.840000 16.060000 204 199 172 0
31.680000 15.840000 16.060000 203 198 171 0
31.900000 15.840000 16.170000 202 197 170 0
32.120000 15.840000 16.170000 202 197 170 0
32.340000 15.840000 16.170000 203 197 168 0
32.560000 15.840000 16.280000 203 197 168 0
32.780000 15.840000 16.280000 204 196 168 0
33.000000 15.840000 16.280000 204 196 168 0
33.220000 15.840000 16.280000 203 197 168 0
33.440000 15.840000 16.280000 204 198 169 0
33.660000 15.840000 16.390000 203 197 168 0
33.880000 15.840000 16.390000 203 197 168 0
34.100000 15.840000 16.390000 204 196 168 0
34.320000 15.840000 17.160000 204 196 168 0
34.540000 15.840000 17.160000 204 196 168 0
34.760000 15.840000 17.160000 204 196 168 0
34.980000 15.840000 17.820000 205 197 169 0
35.200000 15.840000 17.930000 205 197 169 0
35.420000 15.840000 17.930000 204 198 169 0
35.640000 15.840000 17.820000 204 198 169 0
35.860000 15.840000 18.920000 205 199 170 0
36.080000 15.840000 19.470000 204 198 169 0
36.300000 15.840000 20.130000 207 197 167 0
36.520000 15.840000 20.790000 204 194 164 0
36.740000 15.840000 15.950000 207 174 152 0
36.960000 15.840000 5.610000 200 167 145 0
37.180000 15.840000 0.110000 209 145 130 0
0.000000 16.060000 5.830000 147 64 51 0
0.220000 16.060000 5.720000 144 61 48 0
0.440000 16.060000 5.610000 142 59 46 0
0.660000 16.060000 5.610000 142 59 46 0
0.880000 16.060000 5.610000 141 58 45 0
1.100000 16.060000 6.270000 141 58 45 0
1.320000 16.060000 6.270000 140 57 44 0
1.540000 16.060000 5.610000 141 58 45 0
1.760000 16.060000 5.610000 140 57 44 0
1.980000 16.060000 5.610000 139 56 43 0
2.200000 16.060000 5.610000 138 55 42 0
2.420000 16.060000 5.720000 140 57 46 0
2.640000 16.060000 5.720000 139 56 45 0
2.860000 16.060000 5.720000 139 55 42 0
3.080000 16.060000 5.830000 139 55 42 0
3.300000 16.060000 5.720000 138 55 42 0
3.520000 16.060000 6.490000 137 54 41 0
3.740000 16.060000 7.920000 138 55 44 0
3.960000 16.060000 10.120000 137 54 43 0
4.180000 16.060000 12.210000 135 52 41 0
4.400000 16.060000 13.530000 136 53 42 0
4.620000 16.060000 14.300000 137 53 40 0
4.840000 16.060000 13.640000 137 53 40 0
5.060000 16.060000 11.550000 135 55 43 0
5.280000 16.060000 7.370000 138 58 46 0
5.500000 16.060000 5.280000 133 62 53 0
5.720000 16.060000 4.510000 137 66 57 0
5.940000 16.060000 4.400000 136 73 63 0
6.160000 16.060000 4.290000 139 76 66 0
6.380000 16.060000 7.150000 138 80 73 0
6.600000 16.060000 11.880000 139 81 74 0
6.820000 16.060000 14.630000 141 80 74 0
7.040000 16.060000 15.950000 142 81 75 0
7.260000 16.060000 15.510000 140 82 75 0
7.480000 16.060000 16.390000 139 81 74 0
7.700000 16.060000 17.160000 139 81 74 0
7.920000 16.060000 17.820000 139 81 74 0
8.140000 16.060000 18.590000 138 79 70 0
8.360000 16.060000 18.590000 138 79 70 0
8.580000 16.060000 15.730000 140 76 69 0
8.800000 16.060000 8.140000 140 76 69 0
9.020000 16.060000 3.300000 140 72 64 0
9.240000 16.060000 2.640000 137 69 61 0
9.460000 16.060000 2.530000 137 66 59 0
9.680000 16.060000 6.050000 137 66 59 0
9.900000 16.060000 9.460000 135 68 57 0
10.120000 16.060000 6.050000 136 69 58 0
10.340000 16.060000 3.300000 135 70 59 0
10.560000 16.060000 3.960000 137 72 61 0
10.780000 16.060000 4.730000 135 74 64 0
11.000000 16.060000 5.390000 137 76 66 0
11.220000 16.060000 6.160000 138 79 68 0
11.440000 16.060000 6.160000 139 80 69 0
11.660000 16.060000 6.820000 140 81 68 0
11.880000 16.060000 7.370000 140 81 68 0
12.100000 16.060000 8.470000 141 84 70 0
12.320000 16.060000 9.020000 142 85 71 0
12.540000 16.060000 8.360000 142 85 71 0
12.760000 16.060000 6.930000 143 86 72 0
12.980000 16.060000 7.040000 143 84 71 0
13.200000 16.060000 7.040000 142 83 70 0
13.420000 16.060000 7.700000 143 81 65 0
13.640000 16.060000 7.810000 141 79 63 0
13.860000 16.060000 7.150000 139 75 58 0
14.080000 16.060000 6.490000 138 74 57 0
14.300000 16.060000 6.490000 138 70 52 0
14.520000 16.060000 7.920000 139 71 53 0
14.740000 16.060000 8.580000 136 72 55 0
14.960000 16.060000 7.920000 138 74 57 0
15.180000 16.060000 8.030000 137 75 57 0
15.400000 16.060000 8.030000 139 77 59 0
15.620000 16.060000 9.460000 139 77 59 0
15.840000 16.060000 10.120000 139 77 59 0
16.060000 16.060000 10.890000 139 77 57 0
16.280000 16.060000 11.550000 138 76 56 0
16.500000 16.060000 12.210000 138 76 56 0
16.720000 16.060000 12.980000 139 77 57 0
16.940000 16.060000 13.640000 140 77 57 0
17.160000 16.060000 13.640000 139 76 56 0
17.380000 16.060000 12.980000 137 78 57 0
17.600000 16.060000 11.660000 139 80 59 0
17.820000 16.060000 11.000000 131 85 64 0
18.040000 16.060000 8.250000 135 89 68 0
18.260000 16.060000 3.410000 130 101 80 0
18.480000 16.060000 1.320000 135 106 85 0
18.700000 16.060000 0.660000 131 117 86 0
18.920000 16.060000 0.660000 137 123 92 0
19.140000 16.060000 1.320000 141 127 96 0
19.360000 16.060000 1.980000 142 128 97 0
19.580000 16.060000 2.750000 143 129 98 0
19.800000 16.060000 3.300000 144 130 99 0
20.020000 16.060000 4.290000 144 130 99 0
20.240000 16.060000 4.840000 143 129 98 0
20.460000 16.060000 4.840000 143 128 100 0
20.680000 16.060000 4.950000 142 127 99 0
20.900000 16.060000 5.060000 142 128 97 0
21.120000 16.060000 4.620000 142 128 97 0
21.340000 16.060000 4.620000 142 126 95 0
