ply
format ascii 1.0
element vertex 1170
property float x
property float y
property float z
property uchar red
property uchar green
property uchar blue
property uchar alpha
end_header
24.640000 3.520000 3.520000 204 109 112 0
24.860000 3.520000 3.520000 196 101 104 0
25.080000 3.520000 4.290000 195 92 96 0
25.300000 3.520000 4.290000 191 88 92 0
25.520000 3.520000 3.630000 190 84 91 0
25.740000 3.520000 3.630000 189 83 90 0
25.960000 3.520000 3.740000 187 84 88 0
26.180000 3.520000 4.400000 186 83 87 0
26.400000 3.520000 4.400000 188 81 86 0
26.620000 3.520000 4.400000 186 79 84 0
26.840000 3.520000 4.510000 186 76 82 0
27.060000 3.520000 3.850000 184 74 80 0
27.280000 3.520000 3.850000 184 74 80 0
27.500000 3.520000 3.850000 182 72 78 0
27.720000 3.520000 3.850000 182 72 78 0
27.940000 3.520000 3.960000 181 71 77 0
28.160000 3.520000 3.960000 183 73 79 0
28.380000 3.520000 4.620000 182 72 78 0
28.600000 3.520000 4.730000 184 72 81 0
28.820000 3.520000 4.730000 182 70 79 0
29.040000 3.520000 4.730000 181 69 78 0
29.260000 3.520000 4.730000 181 69 78 0
29.480000 3.520000 4.730000 180 70 76 0
29.700000 3.520000 4.840000 180 70 76 0
29.920000 3.520000 5.500000 181 69 76 0
30.140000 3.520000 6.160000 182 70 77 0
30.360000 3.520000 6.710000 181 69 76 0
30.580000 3.520000 7.260000 181 69 76 0
30.800000 3.520000 7.040000 180 68 75 0
31.020000 3.520000 6.930000 179 67 74 0
31.240000 3.520000 6.270000 182 70 77 0
31.460000 3.520000 6.270000 182 70 77 0
31.680000 3.520000 6.270000 182 70 77 0
31.900000 3.520000 6.270000 181 69 76 0
32.120000 3.520000 5.610000 182 70 77 0
32.340000 3.520000 4.950000 182 70 77 0
32.560000 3.520000 4.290000 182 70 77 0
32.780000 3.520000 3.630000 182 70 77 0
33.000000 3.520000 2.310000 184 72 79 0
33.220000 3.520000 2.310000 186 74 81 0
33.440000 3.520000 2.200000 187 75 82 0
33.660000 3.520000 2.200000 192 80 87 0
33.880000 3.520000 2.200000 194 83 87 0
34.100000 3.520000 2.860000 192 81 85 0
34.320000 3.520000 2.860000 189 77 84 0
34.540000 3.520000 3.630000 187 75 82 0
34.760000 3.520000 4.400000 186 74 81 0
34.980000 3.520000 5.060000 185 73 80 0
35.200000 3.520000 5.610000 185 72 79 0
35.420000 3.520000 6.270000 185 72 79 0
35.640000 3.520000 6.270000 183 70 77 0
35.860000 3.520000 6.380000 185 72 79 0
36.080000 3.520000 5.830000 187 74 79 0
36.300000 3.520000 6.380000 186 73 78 0
36.520000 3.520000 6.930000 186 73 80 0
36.740000 3.520000 6.270000 186 73 80 0
36.960000 3.520000 5.610000 186 75 79 0
37.180000 3.520000 5.610000 188 77 81 0
0.000000 3.740000 11.000000 203 198 164 0
0.220000 3.740000 11.000000 204 199 165 0
0.440000 3.740000 11.660000 205 200 166 0
0.660000 3.740000 11.660000 206 201 167 0
0.880000 3.740000 11.660000 207 201 170 0
1.100000 3.740000 12.430000 207 201 170 0
1.320000 3.740000 12.430000 208 202 173 0
1.540000 3.740000 12.980000 209 203 174 0
1.760000 3.740000 13.970000 209 203 174 0
1.980000 3.740000 14.520000 209 203 174 0
2.200000 3.740000 14.630000 212 206 179 0
2.420000 3.740000 13.860000 215 209 182 0
2.640000 3.740000 13.970000 213 210 186 0
2.860000 3.740000 13.310000 212 209 185 0
3.080000 3.740000 13.310000 214 209 184 0
3.300000 3.740000 13.310000 213 208 183 0
3.520000 3.740000 13.310000 211 205 174 0
3.740000 3.740000 14.080000 209 203 172 0
3.960000 3.740000 15.510000 214 198 170 0
4.180000 3.740000 16.940000 207 191 163 0
4.400000 3.740000 17.710000 219 167 148 0
4.620000 3.740000 15.620000 209 157 138 0
4.840000 3.740000 12.210000 215 146 134 0
5.060000 3.740000 11.550000 207 138 126 0
5.280000 3.740000 11.550000 211 115 111 0
5.500000 3.740000 11.660000 200 104 100 0
5.720000 3.740000 10.890000 194 92 90 0
5.940000 3.740000 10.780000 193 91 89 0
6.160000 3.740000 10.560000 190 99 93 0
6.380000 3.740000 11.110000 197 106 100 0
6.600000 3.740000 11.110000 203 104 102 0
6.820000 3.740000 11.770000 199 100 98 0
7.040000 3.740000 11.880000 182 101 95 0
7.260000 3.740000 11.880000 184 103 97 0
7.480000 3.740000 11.990000 198 120 115 0
7.700000 3.740000 12.650000 199 121 116 0
7.920000 3.740000 13.310000 209 104 103 0
8.140000 3.740000 13.970000 192 87 86 0
8.360000 3.740000 14.630000 189 84 83 0
8.580000 3.740000 14.630000 188 83 82 0
8.800000 3.740000 15.290000 187 82 81 0
9.020000 3.740000 15.290000 187 82 81 0
9.240000 3.740000 15.290000 187 85 83 0
9.460000 3.740000 15.290000 188 86 84 0
9.680000 3.740000 15.400000 188 88 85 0
9.900000 3.740000 15.400000 194 94 91 0
10.120000 3.740000 16.170000 192 101 101 0
10.340000 3.740000 17.600000 206 115 115 0
10.560000 3.740000 18.260000 201 135 131 0
10.780000 3.740000 19.030000 211 145 141 0
11.000000 3.740000 19.690000 211 167 163 0
11.220000 3.740000 17.710000 215 171 167 0
11.440000 3.740000 10.120000 219 167 164 0
11.660000 3.740000 1.870000 212 160 157 0
11.880000 3.740000 0.550000 221 139 138 0
12.100000 3.740000 6.050000 207 125 124 0
12.320000 3.740000 13.750000 209 115 111 0
12.540000 3.740000 18.590000 201 107 103 0
12.760000 3.740000 19.360000 201 101 99 0
12.980000 3.740000 19.140000 197 97 95 0
13.200000 3.740000 20.240000 197 92 91 0
13.420000 3.740000 20.790000 195 90 89 0
13.640000 3.740000 21.450000 194 89 88 0
13.860000 3.740000 21.560000 194 89 88 0
14.080000 3.740000 20.790000 193 88 87 0
14.300000 3.740000 20.900000 192 87 86 0
14.520000 3.740000 20.240000 192 85 86 0
14.740000 3.740000 18.920000 192 85 86 0
14.960000 3.740000 12.760000 193 87 86 0
15.180000 3.740000 3.740000 193 87 86 0
15.400000 3.740000 0.330000 193 87 86 0
15.620000 3.740000 0.330000 194 88 87 0
15.840000 3.740000 0.330000 194 88 87 0
16.060000 3.740000 0.440000 192 86 85 0
16.280000 3.740000 0.440000 193 86 87 0
16.500000 3.740000 0.550000 193 86 87 0
16.720000 3.740000 0.550000 192 86 85 0
17.160000 3.740000 3.410000 194 87 88 0
17.380000 3.740000 6.820000 194 87 88 0
17.600000 3.740000 3.300000 195 90 90 0
17.820000 3.740000 0.880000 195 90 90 0
18.040000 3.740000 2.090000 196 89 90 0
18.260000 3.740000 2.860000 196 89 90 0
18.480000 3.740000 3.630000 194 87 88 0
18.700000 3.740000 3.630000 193 86 87 0
18.920000 3.740000 3.630000 194 87 88 0
19.140000 3.740000 4.290000 195 88 89 0
19.360000 3.740000 4.290000 195 88 89 0
19.580000 3.740000 4.180000 195 88 89 0
19.800000 3.740000 4.290000 194 89 91 0
20.020000 3.740000 6.380000 196 91 93 0
20.240000 3.740000 10.670000 178 101 106 0
20.460000 3.740000 12.870000 185 108 113 0
20.680000 3.740000 11.550000 178 153 154 0
20.900000 3.740000 10.230000 221 196 197 0
21.120000 3.740000 8.250000 249 208 211 0
21.340000 3.740000 6.160000 251 210 213 0
21.560000 3.740000 3.850000 250 159 159 0
21.780000 3.740000 3.630000 208 117 117 0
22.000000 3.740000 6.930000 196 93 95 0
22.220000 3.740000 10.450000 194 91 93 0
22.440000 3.740000 4.950000 185 98 102 0
22.660000 3.740000 0.110000 199 112 116 0
22.880000 3.740000 0.110000 212 213 212 0
23.100000 3.740000 0.880000 240 241 240 0
23.320000 3.740000 0.770000 240 241 240 0
23.540000 3.740000 1.430000 240 241 240 0
23.760000 3.740000 2.090000 249 237 236 0
23.980000 3.740000 2.750000 237 225 224 0
24.200000 3.740000 3.520000 214 142 148 0
24.420000 3.740000 3.520000 201 129 135 0
24.640000 3.740000 2.860000 203 121 128 0
24.860000 3.740000 2.860000 189 107 114 0
25.080000 3.740000 3.630000 195 94 97 0
25.300000 3.740000 3.630000 189 88 91 0
25.520000 3.740000 3.630000 189 86 90 0
25.740000 3.740000 2.970000 189 86 90 0
25.960000 3.740000 3.740000 189 83 88 0
26.180000 3.740000 3.740000 188 82 87 0
26.400000 3.740000 4.400000 186 79 84 0
26.620000 3.740000 4.400000 185 78 83 0
26.840000 3.740000 4.510000 184 77 82 0
27.060000 3.740000 3.850000 183 76 81 0
27.280000 3.740000 3.850000 183 73 79 0
27.500000 3.740000 3.850000 183 73 79 0
27.720000 3.740000 3.850000 182 72 78 0
27.940000 3.740000 3.960000 182 72 78 0
28.160000 3.740000 3.960000 182 72 78 0
28.380000 3.740000 4.620000 182 72 78 0
28.600000 3.740000 4.730000 183 73 79 0
28.820000 3.740000 4.730000 182 72 78 0
29.040000 3.740000 4.730000 181 71 77 0
29.260000 3.740000 4.730000 180 70 76 0
29.480000 3.740000 4.730000 182 70 77 0
29.700000 3.740000 4.840000 182 70 77 0
29.920000 3.740000 5.500000 182 70 77 0
30.140000 3.740000 6.050000 181 69 76 0
30.360000 3.740000 7.260000 181 71 77 0
30.580000 3.740000 7.700000 179 69 75 0
30.800000 3.740000 6.930000 179 69 75 0
31.020000 3.740000 6.930000 179 69 75 0
31.240000 3.740000 6.270000 181 69 76 0
31.460000 3.740000 6.270000 181 69 76 0
31.680000 3.740000 6.270000 182 70 77 0
31.900000 3.740000 6.270000 182 70 77 0
32.120000 3.740000 5.610000 181 71 77 0
32.340000 3.740000 4.950000 180 70 76 0
32.560000 3.740000 4.290000 182 70 77 0
32.780000 3.740000 3.630000 183 71 78 0
33.000000 3.740000 2.310000 184 72 79 0
33.220000 3.740000 2.310000 186 74 81 0
33.440000 3.740000 2.200000 188 76 83 0
33.660000 3.740000 2.200000 193 81 88 0
33.880000 3.740000 2.200000 193 82 86 0
34.100000 3.740000 2.860000 190 79 83 0
34.320000 3.740000 2.860000 187 74 81 0
34.540000 3.740000 3.630000 186 73 80 0
34.760000 3.740000 4.400000 185 72 77 0
34.980000 3.740000 4.290000 185 72 77 0
35.200000 3.740000 4.950000 184 71 76 0
35.420000 3.740000 5.610000 185 72 77 0
35.640000 3.740000 5.610000 186 70 76 0
35.860000 3.740000 5.720000 185 69 75 0
36.080000 3.740000 5.170000 185 69 75 0
36.300000 3.740000 5.830000 187 71 77 0
36.520000 3.740000 6.270000 187 71 77 0
36.740000 3.740000 6.270000 187 71 77 0
36.960000 3.740000 5.610000 186 70 76 0
37.180000 3.740000 5.720000 187 71 77 0
0.000000 3.960000 10.890000 203 198 164 0
0.220000 3.960000 11.000000 204 199 165 0
0.440000 3.960000 11.000000 205 200 166 0
0.660000 3.960000 11.660000 206 201 167 0
0.880000 3.960000 11.660000 207 201 170 0
1.100000 3.960000 11.660000 208 202 171 0
1.320000 3.960000 12.430000 208 202 173 0
1.540000 3.960000 12.980000 209 203 174 0
1.760000 3.960000 13.970000 209 203 174 0
1.980000 3.960000 14.520000 210 204 175 0
2.200000 3.960000 14.520000 213 207 180 0
2.420000 3.960000 13.860000 215 209 182 0
2.640000 3.960000 13.200000 212 209 185 0
2.860000 3.960000 13.310000 212 209 185 0
3.080000 3.960000 13.310000 214 209 184 0
3.300000 3.960000 13.310000 212 207 182 0
3.520000 3.960000 13.310000 210 204 173 0
3.740000 3.960000 14.080000 210 204 173 0
3.960000 3.960000 15.510000 214 198 170 0
4.180000 3.960000 16.940000 206 190 162 0
4.400000 3.960000 17.710000 215 163 144 0
4.620000 3.960000 14.960000 206 154 135 0
4.840000 3.960000 11.550000 214 145 133 0
5.060000 3.960000 11.550000 202 133 121 0
5.280000 3.960000 11.550000 209 113 109 0
5.500000 3.960000 10.890000 196 100 96 0
5.720000 3.960000 10.890000 194 92 90 0
5.940000 3.960000 10.780000 193 91 89 0
6.160000 3.960000 10.560000 190 99 93 0
6.380000 3.960000 11.110000 195 104 98 0
6.600000 3.960000 11.110000 199 100 98 0
6.820000 3.960000 11.770000 198 99 97 0
7.040000 3.960000 11.880000 179 98 92 0
7.260000 3.960000 11.990000 197 116 110 0
7.480000 3.960000 11.990000 208 130 125 0
7.700000 3.960000 12.760000 200 122 117 0
7.920000 3.960000 13.310000 205 100 99 0
8.140000 3.960000 13.970000 191 86 85 0
8.360000 3.960000 14.630000 189 84 83 0
8.580000 3.960000 15.290000 188 83 82 0
8.800000 3.960000 15.290000 188 83 82 0
9.020000 3.960000 15.950000 189 84 83 0
9.240000 3.960000 15.290000 188 86 84 0
9.460000 3.960000 15.290000 189 87 85 0
9.680000 3.960000 16.060000 188 88 85 0
9.900000 3.960000 16.060000 192 92 89 0
10.120000 3.960000 16.830000 190 99 99 0
10.340000 3.960000 17.600000 199 108 108 0
10.560000 3.960000 17.600000 192 126 122 0
10.780000 3.960000 18.370000 206 140 136 0
11.000000 3.960000 19.030000 199 155 151 0
11.220000 3.960000 18.370000 213 169 165 0
11.440000 3.960000 13.530000 222 170 167 0
11.660000 3.960000 6.710000 215 163 160 0
11.880000 3.960000 6.710000 221 139 138 0
12.100000 3.960000 13.750000 205 123 122 0
12.320000 3.960000 18.590000 204 110 106 0
12.540000 3.960000 19.250000 200 106 102 0
12.760000 3.960000 19.360000 200 100 98 0
12.980000 3.960000 19.140000 196 96 94 0
13.200000 3.960000 20.240000 197 92 91 0
13.420000 3.960000 20.790000 195 90 89 0
13.640000 3.960000 20.790000 193 88 87 0
13.860000 3.960000 20.790000 194 89 88 0
14.080000 3.960000 20.790000 192 87 86 0
14.300000 3.960000 20.900000 193 88 87 0
14.520000 3.960000 20.240000 193 86 87 0
14.740000 3.960000 16.170000 193 86 87 0
14.960000 3.960000 7.150000 193 87 86 0
15.180000 3.960000 0.990000 193 87 86 0
15.620000 3.960000 0.330000 193 87 86 0
15.840000 3.960000 0.440000 193 87 86 0
16.060000 3.960000 0.440000 193 87 86 0
16.280000 3.960000 0.440000 192 85 86 0
16.500000 3.960000 0.550000 193 86 87 0
17.160000 3.960000 4.730000 193 86 87 0
17.380000 3.960000 9.680000 195 88 89 0
17.600000 3.960000 5.390000 194 89 89 0
17.820000 3.960000 1.540000 195 90 90 0
18.040000 3.960000 2.860000 196 89 90 0
18.260000 3.960000 2.860000 195 88 89 0
18.480000 3.960000 3.630000 194 87 88 0
18.700000 3.960000 3.630000 194 87 88 0
18.920000 3.960000 4.290000 195 88 89 0
19.140000 3.960000 4.290000 195 88 89 0
19.360000 3.960000 4.180000 195 88 89 0
19.580000 3.960000 4.180000 196 89 90 0
19.800000 3.960000 4.290000 196 91 93 0
20.020000 3.960000 5.720000 198 93 95 0
20.240000 3.960000 9.350000 183 106 111 0
20.460000 3.960000 11.550000 200 123 128 0
20.680000 3.960000 11.550000 204 179 180 0
20.900000 3.960000 10.230000 236 211 212 0
21.120000 3.960000 8.910000 247 206 209 0
21.340000 3.960000 6.050000 231 190 193 0
21.560000 3.960000 5.170000 232 141 141 0
21.780000 3.960000 4.290000 201 110 110 0
22.000000 3.960000 6.270000 193 90 92 0
22.220000 3.960000 8.360000 193 90 92 0
22.440000 3.960000 3.630000 184 97 101 0
22.660000 3.960000 0.110000 196 109 113 0
22.880000 3.960000 0.770000 193 194 193 0
23.100000 3.960000 0.770000 240 241 240 0
23.320000 3.960000 0.770000 240 241 240 0
23.540000 3.960000 1.430000 240 241 240 0
23.760000 3.960000 2.090000 249 237 236 0
23.980000 3.960000 2.750000 245 233 232 0
24.200000 3.960000 3.520000 223 151 157 0
24.420000 3.960000 3.520000 209 137 143 0
24.640000 3.960000 2.860000 211 129 136 0
24.860000 3.960000 2.860000 200 118 125 0
25.080000 3.960000 2.860000 201 100 103 0
25.300000 3.960000 3.630000 192 91 94 0
25.520000 3.960000 2.970000 190 87 91 0
25.740000 3.960000 2.970000 189 86 90 0
25.960000 3.960000 2.970000 189 83 88 0
26.180000 3.960000 3.740000 188 82 87 0
26.400000 3.960000 3.740000 187 80 85 0
26.620000 3.960000 4.400000 185 78 83 0
26.840000 3.960000 3.740000 185 78 83 0
27.060000 3.960000 3.850000 182 75 80 0
27.280000 3.960000 3.850000 184 74 80 0
27.500000 3.960000 3.850000 184 74 80 0
27.720000 3.960000 3.960000 183 73 79 0
27.940000 3.960000 3.960000 183 73 79 0
28.160000 3.960000 3.960000 181 71 77 0
28.380000 3.960000 4.730000 182 72 78 0
28.600000 3.960000 4.730000 182 72 78 0
28.820000 3.960000 4.730000 181 71 77 0
29.040000 3.960000 4.730000 181 71 77 0
29.260000 3.960000 4.730000 181 71 77 0
29.480000 3.960000 4.840000 182 70 77 0
29.700000 3.960000 4.840000 181 69 76 0
29.920000 3.960000 4.730000 182 70 77 0
30.140000 3.960000 5.940000 180 68 75 0
30.360000 3.960000 7.040000 180 70 76 0
30.580000 3.960000 7.590000 182 72 78 0
30.800000 3.960000 6.930000 180 70 76 0
31.020000 3.960000 6.270000 179 69 75 0
31.240000 3.960000 6.270000 181 69 76 0
31.460000 3.960000 5.610000 181 69 76 0
31.680000 3.960000 6.270000 180 68 75 0
31.900000 3.960000 6.380000 180 68 75 0
32.120000 3.960000 5.610000 180 70 76 0
32.340000 3.960000 4.290000 181 71 77 0
32.560000 3.960000 3.520000 183 71 78 0
32.780000 3.960000 2.970000 182 70 77 0
33.000000 3.960000 2.310000 183 71 78 0
33.220000 3.960000 2.310000 186 74 81 0
33.440000 3.960000 2.200000 187 75 82 0
33.660000 3.960000 2.090000 190 78 85 0
33.880000 3.960000 2.200000 190 79 83 0
34.100000 3.960000 2.860000 188 77 81 0
34.320000 3.960000 3.630000 185 72 79 0
34.540000 3.960000 3.630000 184 71 78 0
34.760000 3.960000 3.630000 183 70 75 0
34.980000 3.960000 3.630000 185 72 77 0
35.200000 3.960000 4.290000 184 71 76 0
35.420000 3.960000 4.840000 184 71 76 0
35.640000 3.960000 5.610000 185 69 75 0
35.860000 3.960000 5.720000 184 68 74 0
36.080000 3.960000 5.170000 184 68 74 0
36.300000 3.960000 5.170000 184 68 74 0
36.520000 3.960000 6.380000 185 69 75 0
36.740000 3.960000 6.270000 184 68 74 0
36.960000 3.960000 5.610000 185 69 75 0
37.180000 3.960000 5.720000 185 69 75 0
0.000000 4.180000 10.890000 203 197 166 0
0.220000 4.180000 11.000000 204 198 167 0
0.440000 4.180000 11.000000 205 201 169 0
0.660000 4.180000 11.660000 205 201 169 0
0.880000 4.180000 11.660000 205 201 171 0
1.100000 4.180000 11.660000 206 202 172 0
1.320000 4.180000 12.430000 206 201 174 0
1.540000 4.180000 12.980000 208 203 176 0
1.760000 4.180000 13.970000 208 204 174 0
1.980000 4.180000 14.520000 209 205 175 0
2.200000 4.180000 13.860000 210 208 180 0
2.420000 4.180000 13.860000 210 208 180 0
2.640000 4.180000 13.200000 211 209 183 0
2.860000 4.180000 13.310000 211 209 183 0
3.080000 4.180000 13.310000 211 206 181 0
3.300000 4.180000 13.310000 212 207 182 0
3.520000 4.180000 13.310000 211 205 174 0
3.740000 4.180000 14.080000 207 201 170 0
3.960000 4.180000 14.850000 214 192 166 0
4.180000 4.180000 15.620000 205 183 157 0
4.400000 4.180000 14.960000 214 160 145 0
4.620000 4.180000 13.530000 205 151 136 0
4.840000 4.180000 11.550000 211 138 126 0
5.060000 4.180000 11.550000 200 127 115 0
5.280000 4.180000 11.550000 205 107 103 0
5.500000 4.180000 10.890000 195 97 93 0
5.720000 4.180000 10.890000 192 92 90 0
5.940000 4.180000 10.780000 191 91 89 0
6.160000 4.180000 10.560000 193 94 92 0
6.380000 4.180000 10.560000 195 96 94 0
6.600000 4.180000 11.220000 195 95 93 0
6.820000 4.180000 11.880000 192 92 90 0
7.040000 4.180000 11.880000 176 101 93 0
7.260000 4.180000 11.990000 196 121 113 0
7.480000 4.180000 12.100000 213 129 124 0
7.700000 4.180000 12.760000 204 120 115 0
7.920000 4.180000 13.310000 201 99 97 0
8.140000 4.180000 13.970000 188 86 84 0
8.360000 4.180000 14.630000 186 84 82 0
8.580000 4.180000 15.290000 185 83 81 0
8.800000 4.180000 15.950000 187 85 83 0
9.020000 4.180000 15.950000 189 87 85 0
9.240000 4.180000 15.950000 188 86 85 0
9.460000 4.180000 15.950000 188 86 85 0
9.680000 4.180000 16.060000 189 89 86 0
9.900000 4.180000 16.830000 191 91 88 0
10.120000 4.180000 17.490000 190 98 98 0
10.340000 4.180000 17.490000 198 106 106 0
10.560000 4.180000 17.600000 190 122 116 0
10.780000 4.180000 17.600000 206 138 132 0
11.000000 4.180000 18.370000 206 156 152 0
11.220000 4.180000 18.370000 216 166 162 0
11.440000 4.180000 17.710000 225 164 164 0
11.660000 4.180000 15.730000 214 153 153 0
11.880000 4.180000 15.730000 218 129 128 0
12.100000 4.180000 18.480000 206 117 116 0
12.320000 4.180000 19.910000 204 105 105 0
12.540000 4.180000 19.250000 200 101 101 0
12.760000 4.180000 19.360000 198 96 95 0
12.980000 4.180000 19.250000 197 95 94 0
13.200000 4.180000 19.580000 195 93 92 0
13.420000 4.180000 20.130000 192 90 89 0
13.640000 4.180000 20.790000 191 89 88 0
13.860000 4.180000 20.790000 190 88 87 0
14.080000 4.180000 20.790000 191 89 88 0
14.300000 4.180000 20.900000 190 88 87 0
14.520000 4.180000 20.240000 192 87 87 0
14.740000 4.180000 15.400000 193 88 88 0
14.960000 4.180000 5.170000 191 86 86 0
17.160000 4.180000 3.410000 193 88 88 0
17.380000 4.180000 6.930000 193 88 88 0
17.600000 4.180000 3.960000 193 88 88 0
17.820000 4.180000 1.540000 193 88 88 0
18.040000 4.180000 2.860000 194 89 89 0
18.260000 4.180000 2.860000 193 88 88 0
18.480000 4.180000 3.630000 194 89 89 0
18.700000 4.180000 3.630000 193 88 88 0
18.920000 4.180000 4.290000 193 88 88 0
19.140000 4.180000 4.290000 194 89 89 0
19.360000 4.180000 4.180000 193 90 92 0
19.580000 4.180000 4.180000 193 90 92 0
19.800000 4.180000 4.950000 193 94 96 0
20.020000 4.180000 5.830000 195 96 98 0
20.240000 4.180000 8.030000 170 117 122 0
20.460000 4.180000 10.120000 195 142 147 0
20.680000 4.180000 10.890000 216 210 209 0
20.900000 4.180000 11.000000 236 230 229 0
21.120000 4.180000 8.910000 255 207 205 0
21.340000 4.180000 6.050000 235 173 171 0
21.560000 4.180000 4.510000 219 118 121 0
21.780000 4.180000 3.740000 196 95 98 0
22.000000 4.180000 4.400000 192 89 91 0
22.220000 4.180000 3.740000 192 89 91 0
22.440000 4.180000 1.100000 189 92 96 0
22.880000 4.180000 0.220000 188 133 149 0
23.100000 4.180000 0.220000 255 206 222 0
23.320000 4.180000 0.330000 240 241 240 0
23.540000 4.180000 1.540000 240 241 240 0
23.760000 4.180000 2.090000 244 239 238 0
23.980000 4.180000 2.750000 242 237 236 0
24.200000 4.180000 2.750000 225 156 172 0
24.420000 4.180000 2.860000 206 137 153 0
24.640000 4.180000 2.860000 210 138 145 0
24.860000 4.180000 2.200000 200 128 135 0
25.080000 4.180000 2.860000 202 102 107 0
25.300000 4.180000 3.630000 191 91 96 0
25.520000 4.180000 2.970000 189 90 92 0
25.740000 4.180000 2.310000 188 89 91 0
25.960000 4.180000 2.310000 186 84 90 0
26.180000 4.180000 3.080000 183 81 87 0
26.400000 4.180000 3.740000 187 80 85 0
26.620000 4.180000 3.740000 185 78 83 0
26.840000 4.180000 3.740000 184 77 82 0
27.060000 4.180000 3.850000 182 75 80 0
27.280000 4.180000 3.850000 182 75 80 0
27.500000 4.180000 3.850000 181 74 79 0
27.720000 4.180000 3.960000 181 73 81 0
27.940000 4.180000 3.960000 180 72 80 0
28.160000 4.180000 3.960000 180 73 78 0
28.380000 4.180000 3.960000 180 73 78 0
28.600000 4.180000 4.730000 180 73 78 0
28.820000 4.180000 4.730000 178 71 76 0
29.040000 4.180000 4.730000 181 71 77 0
29.260000 4.180000 4.730000 181 71 77 0
29.480000 4.180000 4.840000 181 71 79 0
29.700000 4.180000 4.840000 181 71 79 0
29.920000 4.180000 5.390000 180 70 78 0
30.140000 4.180000 6.490000 179 69 77 0
30.360000 4.180000 6.930000 179 69 75 0
30.580000 4.180000 7.590000 180 70 76 0
30.800000 4.180000 6.930000 180 70 76 0
31.020000 4.180000 6.270000 180 70 76 0
31.240000 4.180000 5.610000 178 68 74 0
31.460000 4.180000 5.610000 179 69 75 0
31.680000 4.180000 5.610000 179 69 75 0
31.900000 4.180000 5.610000 180 70 76 0
32.120000 4.180000 4.950000 180 70 76 0
32.340000 4.180000 4.290000 180 70 76 0
32.560000 4.180000 3.520000 179 69 75 0
32.780000 4.180000 2.970000 181 71 77 0
33.000000 4.180000 2.310000 184 72 79 0
33.220000 4.180000 2.310000 185 73 80 0
33.440000 4.180000 2.200000 187 77 83 0
33.660000 4.180000 2.860000 190 80 86 0
33.880000 4.180000 2.860000 190 78 85 0
34.100000 4.180000 2.860000 188 76 83 0
34.320000 4.180000 3.520000 185 73 80 0
34.540000 4.180000 3.630000 182 70 77 0
34.760000 4.180000 3.630000 183 71 78 0
34.980000 4.180000 3.630000 181 69 76 0
35.200000 4.180000 4.180000 182 69 74 0
35.420000 4.180000 4.840000 182 69 74 0
35.640000 4.180000 4.840000 181 68 73 0
35.860000 4.180000 5.610000 182 69 74 0
36.080000 4.180000 5.720000 185 69 77 0
36.300000 4.180000 5.720000 183 67 75 0
36.520000 4.180000 6.270000 180 67 72 0
36.740000 4.180000 6.270000 181 68 73 0
36.960000 4.180000 5.610000 183 67 73 0
37.180000 4.180000 5.720000 183 67 73 0
0.000000 4.400000 10.230000 202 196 165 0
0.220000 4.400000 11.000000 204 198 167 0
0.440000 4.400000 11.000000 203 199 167 0
0.660000 4.400000 11.000000 204 200 168 0
0.880000 4.400000 11.660000 204 200 170 0
1.100000 4.400000 11.660000 205 201 171 0
1.320000 4.400000 12.430000 205 200 173 0
1.540000 4.400000 12.980000 206 201 174 0
1.760000 4.400000 13.970000 207 203 173 0
1.980000 4.400000 14.520000 208 204 174 0
2.200000 4.400000 13.860000 208 206 178 0
2.420000 4.400000 13.860000 209 207 179 0
2.640000 4.400000 13.200000 209 207 181 0
2.860000 4.400000 13.310000 209 207 181 0
3.080000 4.400000 13.310000 211 206 181 0
3.300000 4.400000 13.310000 209 204 179 0
3.520000 4.400000 13.310000 208 202 171 0
3.740000 4.400000 14.080000 205 199 168 0
3.960000 4.400000 14.190000 211 189 163 0
4.180000 4.400000 12.870000 202 180 154 0
4.400000 4.400000 10.120000 210 156 141 0
4.620000 4.400000 10.120000 198 144 129 0
4.840000 4.400000 10.780000 206 133 121 0
5.060000 4.400000 11.440000 194 121 109 0
5.280000 4.400000 11.440000 198 100 96 0
5.500000 4.400000 10.780000 192 94 90 0
5.720000 4.400000 10.780000 190 90 88 0
5.940000 4.400000 10.560000 189 89 87 0
6.160000 4.400000 10.560000 190 91 89 0
6.380000 4.400000 10.010000 191 92 90 0
6.600000 4.400000 10.780000 191 91 89 0
6.820000 4.400000 11.330000 190 90 88 0
7.040000 4.400000 11.220000 176 101 93 0
7.260000 4.400000 11.330000 202 127 119 0
7.480000 4.400000 11.440000 213 129 124 0
7.700000 4.400000 12.100000 203 119 114 0
7.920000 4.400000 13.310000 195 93 91 0
8.140000 4.400000 13.970000 188 86 84 0
8.360000 4.400000 14.630000 186 84 82 0
8.580000 4.400000 15.290000 185 83 81 0
8.800000 4.400000 15.950000 186 84 82 0
9.020000 4.400000 15.950000 188 86 84 0
9.240000 4.400000 15.950000 188 86 85 0
9.460000 4.400000 15.950000 187 85 84 0
9.680000 4.400000 16.720000 187 87 84 0
9.900000 4.400000 16.720000 190 90 87 0
10.120000 4.400000 17.490000 188 96 96 0
10.340000 4.400000 17.490000 195 103 103 0
10.560000 4.400000 17.600000 187 119 113 0
10.780000 4.400000 16.940000 204 136 130 0
11.000000 4.400000 17.600000 204 154 150 0
11.220000 4.400000 17.600000 210 160 156 0
11.440000 4.400000 18.370000 218 157 157 0
11.660000 4.400000 19.140000 210 149 149 0
11.880000 4.400000 19.800000 216 127 126 0
12.100000 4.400000 19.910000 201 112 111 0
12.320000 4.400000 19.910000 201 102 102 0
12.540000 4.400000 19.250000 196 97 97 0
12.760000 4.400000 18.590000 198 96 95 0
12.980000 4.400000 18.590000 194 92 91 0
13.200000 4.400000 19.140000 192 90 89 0
13.420000 4.400000 19.580000 191 89 88 0
13.640000 4.400000 20.130000 191 89 88 0
13.860000 4.400000 20.790000 189 87 86 0
14.080000 4.400000 20.790000 190 88 87 0
14.300000 4.400000 20.790000 190 88 87 0
14.520000 4.400000 20.900000 191 86 86 0
14.740000 4.400000 16.830000 192 87 87 0
14.960000 4.400000 8.580000 192 87 87 0
15.180000 4.400000 3.740000 190 85 85 0
15.400000 4.400000 1.100000 191 86 86 0
17.160000 4.400000 0.660000 192 87 87 0
17.380000 4.400000 2.090000 191 86 86 0
17.600000 4.400000 1.870000 192 87 87 0
17.820000 4.400000 2.310000 193 88 88 0
18.040000 4.400000 2.860000 192 87 87 0
18.260000 4.400000 3.630000 193 88 88 0
18.480000 4.400000 3.630000 193 88 88 0
18.700000 4.400000 4.400000 192 87 87 0
18.920000 4.400000 4.290000 193 88 88 0
19.140000 4.400000 4.180000 194 89 89 0
19.360000 4.400000 4.180000 193 90 92 0
19.580000 4.400000 4.950000 193 90 92 0
19.800000 4.400000 5.060000 192 93 95 0
20.020000 4.400000 5.830000 195 96 98 0
20.240000 4.400000 7.370000 173 120 125 0
20.460000 4.400000 9.460000 204 151 156 0
20.680000 4.400000 10.230000 222 216 215 0
20.900000 4.400000 10.340000 241 235 234 0
21.120000 4.400000 8.910000 255 210 208 0
21.340000 4.400000 5.500000 214 152 150 0
21.560000 4.400000 3.300000 204 103 106 0
21.780000 4.400000 3.190000 192 91 94 0
22.000000 4.400000 3.080000 190 87 89 0
22.220000 4.400000 1.100000 189 86 88 0
23.320000 4.400000 0.440000 234 235 234 0
23.540000 4.400000 1.540000 240 241 240 0
23.760000 4.400000 2.090000 244 239 238 0
23.980000 4.400000 2.750000 243 238 237 0
24.200000 4.400000 2.860000 233 164 180 0
24.420000 4.400000 2.860000 205 136 152 0
24.640000 4.400000 2.090000 209 137 144 0
24.860000 4.400000 2.200000 199 127 134 0
25.080000 4.400000 2.860000 203 103 108 0
25.300000 4.400000 2.970000 190 90 95 0
25.520000 4.400000 2.970000 187 88 90 0
25.740000 4.400000 2.310000 187 88 90 0
25.960000 4.400000 2.310000 186 84 90 0
26.180000 4.400000 2.310000 184 82 88 0
26.400000 4.400000 3.080000 186 79 84 0
26.620000 4.400000 3.740000 183 76 81 0
26.840000 4.400000 3.740000 183 76 81 0
27.060000 4.400000 3.850000 183 76 81 0
27.280000 4.400000 3.850000 181 74 79 0
27.500000 4.400000 3.960000 180 73 78 0
27.720000 4.400000 3.960000 181 73 81 0
27.940000 4.400000 3.960000 179 71 79 0
28.160000 4.400000 3.960000 179 72 77 0
28.380000 4.400000 4.070000 179 72 77 0
28.600000 4.400000 4.070000 178 71 76 0
28.820000 4.400000 4.730000 178 71 76 0
29.040000 4.400000 4.730000 181 71 77 0
29.260000 4.400000 4.840000 180 70 76 0
29.480000 4.400000 4.840000 180 70 78 0
29.700000 4.400000 4.840000 180 70 78 0
29.920000 4.400000 5.390000 179 69 77 0
30.140000 4.400000 6.380000 179 69 77 0
30.360000 4.400000 6.930000 179 69 75 0
30.580000 4.400000 6.930000 180 70 76 0
30.800000 4.400000 6.930000 181 71 77 0
31.020000 4.400000 6.270000 179 69 75 0
31.240000 4.400000 5.610000 177 67 73 0
31.460000 4.400000 5.610000 178 68 74 0
31.680000 4.400000 5.610000 178 68 74 0
31.900000 4.400000 4.950000 179 69 75 0
32.120000 4.400000 4.290000 177 67 73 0
32.340000 4.400000 3.520000 179 69 75 0
32.560000 4.400000 3.520000 180 70 76 0
32.780000 4.400000 2.860000 182 72 78 0
33.000000 4.400000 2.200000 184 72 79 0
33.220000 4.400000 2.200000 185 73 80 0
33.440000 4.400000 2.860000 186 76 82 0
33.660000 4.400000 2.860000 187 77 83 0
33.880000 4.400000 2.860000 189 77 84 0
34.100000 4.400000 3.520000 187 75 82 0
34.320000 4.400000 3.520000 184 72 79 0
34.540000 4.400000 3.630000 183 71 78 0
34.760000 4.400000 3.630000 182 70 77 0
34.980000 4.400000 3.630000 180 68 75 0
35.200000 4.400000 4.180000 181 68 73 0
35.420000 4.400000 4.840000 181 68 73 0
35.640000 4.400000 4.840000 182 69 74 0
35.860000 4.400000 5.610000 181 68 73 0
36.080000 4.400000 5.500000 182 66 74 0
36.300000 4.400000 6.270000 182 66 74 0
36.520000 4.400000 6.270000 181 68 73 0
36.740000 4.400000 6.270000 180 67 72 0
36.960000 4.400000 6.380000 182 66 72 0
37.180000 4.400000 5.720000 183 67 73 0
0.000000 4.620000 10.230000 201 197 163 0
0.220000 4.620000 11.000000 202 198 164 0
0.440000 4.620000 11.000000 202 198 164 0
0.660000 4.620000 11.000000 203 199 165 0
0.880000 4.620000 11.660000 204 200 168 0
1.100000 4.620000 11.660000 205 201 169 0
1.320000 4.620000 11.770000 203 201 171 0
1.540000 4.620000 12.980000 204 202 172 0
1.760000 4.620000 13.970000 206 202 172 0
1.980000 4.620000 13.860000 208 204 174 0
2.200000 4.620000 13.860000 207 205 175 0
2.420000 4.620000 13.200000 207 205 175 0
2.640000 4.620000 13.200000 207 205 177 0
2.860000 4.620000 13.310000 208 206 178 0
3.080000 4.620000 13.310000 209 205 175 0
3.300000 4.620000 13.310000 207 203 173 0
3.520000 4.620000 12.650000 207 201 170 0
3.740000 4.620000 13.420000 203 197 166 0
3.960000 4.620000 13.420000 215 184 159 0
4.180000 4.620000 10.780000 205 174 149 0
4.400000 4.620000 8.030000 214 150 135 0
4.620000 4.620000 8.690000 202 138 123 0
4.840000 4.620000 10.120000 212 121 115 0
5.060000 4.620000 10.780000 199 108 102 0
5.280000 4.620000 11.440000 195 95 92 0
5.500000 4.620000 10.780000 191 91 88 0
5.720000 4.620000 10.780000 189 89 87 0
5.940000 4.620000 10.560000 190 90 88 0
6.160000 4.620000 10.560000 189 90 88 0
6.380000 4.620000 10.120000 190 91 89 0
6.600000 4.620000 10.230000 189 90 88 0
6.820000 4.620000 10.780000 191 92 90 0
7.040000 4.620000 11.330000 181 105 100 0
7.260000 4.620000 11.330000 202 126 121 0
7.480000 4.620000 11.550000 211 130 124 0
7.700000 4.620000 12.210000 203 122 116 0
7.920000 4.620000 13.310000 194 92 91 0
8.140000 4.620000 13.310000 188 86 85 0
8.360000 4.620000 14.080000 188 83 83 0
8.580000 4.620000 15.400000 187 82 82 0
8.800000 4.620000 15.950000 185 83 81 0
9.020000 4.620000 15.950000 185 83 81 0
9.240000 4.620000 15.950000 186 84 82 0
9.460000 4.620000 15.950000 188 86 84 0
9.680000 4.620000 16.720000 187 87 85 0
9.900000 4.620000 17.490000 189 89 87 0
10.120000 4.620000 17.490000 190 94 91 0
10.340000 4.620000 17.490000 195 99 96 0
10.560000 4.620000 17.600000 196 120 115 0
10.780000 4.620000 16.940000 204 128 123 0
11.000000 4.620000 16.940000 209 145 141 0
11.220000 4.620000 16.940000 213 149 145 0
11.440000 4.620000 16.940000 219 147 146 0
11.660000 4.620000 18.370000 212 140 139 0
11.880000 4.620000 19.140000 212 126 124 0
12.100000 4.620000 19.140000 199 113 111 0
12.320000 4.620000 19.250000 200 104 103 0
12.540000 4.620000 19.250000 196 100 99 0
12.760000 4.620000 18.590000 197 97 95 0
12.980000 4.620000 18.590000 193 93 91 0
13.200000 4.620000 18.590000 192 90 89 0
13.420000 4.620000 19.140000 190 88 87 0
13.640000 4.620000 19.580000 191 89 88 0
13.860000 4.620000 20.240000 190 88 87 0
14.080000 4.620000 20.790000 191 89 88 0
14.300000 4.620000 20.790000 191 89 88 0
14.520000 4.620000 20.790000 192 87 87 0
14.740000 4.620000 19.470000 190 85 85 0
14.960000 4.620000 16.830000 192 87 87 0
15.180000 4.620000 12.760000 192 87 87 0
15.400000 4.620000 5.940000 190 85 85 0
15.620000 4.620000 0.440000 191 86 86 0
17.600000 4.620000 0.550000 191 86 86 0
17.820000 4.620000 2.310000 192 87 87 0
18.040000 4.620000 2.860000 193 88 88 0
18.260000 4.620000 3.630000 192 87 87 0
18.480000 4.620000 3.630000 193 86 87 0
18.700000 4.620000 4.290000 193 86 87 0
18.920000 4.620000 4.290000 193 88 90 0
19.140000 4.620000 4.950000 193 88 90 0
19.360000 4.620000 4.950000 192 90 89 0
19.580000 4.620000 4.950000 194 92 91 0
19.800000 4.620000 5.060000 187 98 99 0
20.020000 4.620000 5.830000 191 102 103 0
20.240000 4.620000 7.370000 165 134 137 0
20.460000 4.620000 8.800000 202 171 174 0
20.680000 4.620000 10.230000 237 212 202 0
20.900000 4.620000 10.340000 240 215 205 0
21.120000 4.620000 8.910000 255 179 179 0
21.340000 4.620000 5.500000 214 129 129 0
21.560000 4.620000 2.750000 202 97 99 0
21.780000 4.620000 2.530000 192 87 89 0
22.000000 4.620000 2.420000 189 86 90 0
22.220000 4.620000 1.210000 189 86 90 0
22.660000 4.620000 0.660000 192 91 94 0
22.880000 4.620000 1.980000 191 100 104 0
23.100000 4.620000 1.210000 199 108 112 0
23.320000 4.620000 0.330000 230 168 178 0
23.540000 4.620000 1.540000 255 213 223 0
23.760000 4.620000 2.750000 255 220 230 0
23.980000 4.620000 2.860000 255 198 208 0
24.200000 4.620000 2.860000 210 158 165 0
24.420000 4.620000 2.200000 200 148 155 0
24.640000 4.620000 2.200000 206 143 149 0
24.860000 4.620000 2.200000 196 133 139 0
25.080000 4.620000 2.200000 204 104 111 0
25.300000 4.620000 2.200000 192 92 99 0
25.520000 4.620000 2.310000 188 88 93 0
25.740000 4.620000 1.650000 186 86 91 0
25.960000 4.620000 1.650000 186 85 88 0
26.180000 4.620000 2.420000 184 83 86 0
26.400000 4.620000 3.080000 185 79 84 0
26.620000 4.620000 3.080000 184 78 83 0
26.840000 4.620000 3.850000 185 78 83 0
27.060000 4.620000 3.850000 183 76 81 0
27.280000 4.620000 3.850000 184 74 80 0
27.500000 4.620000 3.960000 182 72 78 0
27.720000 4.620000 3.960000 179 71 79 0
27.940000 4.620000 3.960000 179 71 79 0
28.160000 4.620000 4.070000 178 71 76 0
28.380000 4.620000 4.070000 180 73 78 0
28.600000 4.620000 4.070000 178 71 76 0
28.820000 4.620000 4.070000 178 71 76 0
29.040000 4.620000 4.070000 180 70 76 0
29.260000 4.620000 4.070000 181 71 77 0
29.480000 4.620000 4.070000 180 70 78 0
29.700000 4.620000 4.730000 181 71 79 0
29.920000 4.620000 5.280000 180 70 76 0
30.140000 4.620000 6.380000 178 68 74 0
30.360000 4.620000 6.930000 179 69 75 0
30.580000 4.620000 6.930000 179 69 75 0
30.800000 4.620000 6.270000 179 69 75 0
31.020000 4.620000 5.610000 177 67 73 0
31.240000 4.620000 5.610000 178 68 76 0
31.460000 4.620000 5.610000 178 68 76 0
31.680000 4.620000 4.950000 178 66 73 0
31.900000 4.620000 4.290000 179 67 74 0
32.120000 4.620000 4.290000 179 67 74 0
32.340000 4.620000 4.290000 179 67 74 0
32.560000 4.620000 3.520000 181 71 77 0
32.780000 4.620000 2.860000 183 73 79 0
33.000000 4.620000 2.860000 185 73 82 0
33.220000 4.620000 2.860000 185 73 82 0
33.440000 4.620000 2.860000 185 73 80 0
33.660000 4.620000 2.860000 186 74 81 0
33.880000 4.620000 3.520000 186 74 81 0
34.100000 4.620000 3.520000 185 73 80 0
34.320000 4.620000 4.180000 184 72 79 0
34.540000 4.620000 4.290000 183 71 78 0
34.760000 4.620000 4.290000 183 70 77 0
34.980000 4.620000 4.290000 183 70 77 0
35.200000 4.620000 4.180000 182 69 76 0
35.420000 4.620000 4.840000 180 67 74 0
35.640000 4.620000 4.840000 180 67 72 0
35.860000 4.620000 5.610000 181 68 73 0
36.080000 4.620000 5.500000 181 65 71 0
36.300000 4.620000 6.270000 181 65 71 0
36.520000 4.620000 6.270000 181 65 73 0
36.740000 4.620000 6.270000 181 65 73 0
36.960000 4.620000 6.380000 182 66 72 0
37.180000 4.620000 5.720000 181 65 71 0
0.000000 4.840000 10.230000 201 197 163 0
0.220000 4.840000 11.000000 202 198 164 0
0.440000 4.840000 11.000000 202 198 164 0
0.660000 4.840000 11.000000 203 199 165 0
0.880000 4.840000 11.660000 203 199 167 0
1.100000 4.840000 11.660000 205 201 169 0
1.320000 4.840000 12.320000 203 201 171 0
1.540000 4.840000 12.870000 203 201 171 0
1.760000 4.840000 13.970000 206 202 172 0
1.980000 4.840000 13.860000 207 203 173 0
2.200000 4.840000 13.860000 206 204 174 0
2.420000 4.840000 13.200000 206 204 174 0
2.640000 4.840000 12.540000 207 205 177 0
2.860000 4.840000 12.540000 206 204 176 0
3.080000 4.840000 12.650000 208 204 174 0
3.300000 4.840000 12.650000 205 201 171 0
3.520000 4.840000 12.650000 205 199 168 0
3.740000 4.840000 12.760000 203 197 166 0
3.960000 4.840000 12.760000 214 183 158 0
4.180000 4.840000 10.780000 202 171 146 0
4.400000 4.840000 8.030000 210 146 131 0
4.620000 4.840000 8.690000 198 134 119 0
4.840000 4.840000 10.120000 206 115 109 0
5.060000 4.840000 10.780000 194 103 97 0
5.280000 4.840000 11.440000 193 93 90 0
5.500000 4.840000 11.550000 191 91 88 0
5.720000 4.840000 10.780000 189 89 87 0
5.940000 4.840000 10.560000 190 90 88 0
6.160000 4.840000 10.560000 190 91 89 0
6.380000 4.840000 10.120000 192 93 91 0
6.600000 4.840000 10.230000 193 94 92 0
6.820000 4.840000 10.890000 193 94 92 0
7.040000 4.840000 10.890000 185 109 104 0
7.260000 4.840000 10.890000 200 124 119 0
7.480000 4.840000 11.660000 207 126 120 0
7.700000 4.840000 12.210000 200 119 113 0
7.920000 4.840000 13.310000 196 94 93 0
8.140000 4.840000 13.310000 187 85 84 0
8.360000 4.840000 14.190000 188 83 83 0
8.580000 4.840000 15.400000 187 82 82 0
8.800000 4.840000 15.950000 185 83 81 0
9.020000 4.840000 15.950000 187 85 83 0
9.240000 4.840000 16.610000 187 85 83 0
9.460000 4.840000 16.720000 188 86 84 0
9.680000 4.840000 16.720000 188 88 86 0
9.900000 4.840000 16.720000 189 89 87 0
10.120000 4.840000 17.490000 190 94 91 0
10.340000 4.840000 17.490000 195 99 96 0
10.560000 4.840000 17.490000 193 117 112 0
10.780000 4.840000 16.830000 199 123 118 0
11.000000 4.840000 16.940000 200 136 132 0
11.220000 4.840000 16.940000 210 146 142 0
11.440000 4.840000 17.710000 218 146 145 0
11.660000 4.840000 18.370000 211 139 138 0
11.880000 4.840000 19.140000 209 123 121 0
12.100000 4.840000 19.140000 203 117 115 0
12.320000 4.840000 19.140000 203 107 106 0
12.540000 4.840000 18.590000 197 101 100 0
12.760000 4.840000 18.590000 199 99 97 0
12.980000 4.840000 18.590000 196 96 94 0
13.200000 4.840000 18.590000 194 92 91 0
13.420000 4.840000 18.590000 192 90 89 0
13.640000 4.840000 19.250000 192 90 89 0
13.860000 4.840000 19.800000 192 90 89 0
14.080000 4.840000 20.350000 193 91 90 0
14.300000 4.840000 20.240000 193 91 90 0
14.520000 4.840000 20.130000 194 89 89 0
14.740000 4.840000 20.240000 194 89 89 0
14.960000 4.840000 20.350000 194 89 89 0
15.180000 4.840000 19.030000 193 88 88 0
15.400000 4.840000 12.870000 192 87 87 0
15.620000 4.840000 3.190000 192 87 87 0
17.600000 4.840000 1.210000 193 88 88 0
17.820000 4.840000 2.310000 194 89 89 0
18.040000 4.840000 2.860000 193 88 88 0
18.260000 4.840000 3.630000 193 88 88 0
18.480000 4.840000 3.630000 194 87 88 0
18.700000 4.840000 4.290000 194 87 88 0
18.920000 4.840000 4.950000 193 88 90 0
19.140000 4.840000 4.950000 194 89 91 0
19.360000 4.840000 4.950000 193 91 90 0
19.580000 4.840000 4.950000 195 93 92 0
19.800000 4.840000 5.830000 190 101 102 0
20.020000 4.840000 6.600000 196 107 108 0
20.240000 4.840000 7.370000 176 145 148 0
20.460000 4.840000 8.910000 229 198 201 0
20.680000 4.840000 10.340000 243 218 208 0
20.900000 4.840000 10.340000 238 213 203 0
21.120000 4.840000 8.250000 247 162 162 0
21.340000 4.840000 5.500000 204 119 119 0
21.560000 4.840000 2.750000 199 94 96 0
21.780000 4.840000 1.870000 192 87 89 0
22.000000 4.840000 1.650000 189 86 90 0
22.220000 4.840000 1.100000 188 85 89 0
22.440000 4.840000 0.550000 189 88 91 0
22.660000 4.840000 3.300000 191 90 93 0
22.880000 4.840000 7.370000 189 98 102 0
23.100000 4.840000 3.740000 192 101 105 0
23.320000 4.840000 0.880000 189 127 137 0
23.540000 4.840000 1.540000 211 149 159 0
23.760000 4.840000 2.860000 223 165 175 0
23.980000 4.840000 3.520000 213 155 165 0
24.200000 4.840000 2.860000 210 158 165 0
24.420000 4.840000 2.860000 209 157 164 0
24.640000 4.840000 2.200000 220 157 163 0
24.860000 4.840000 2.200000 205 142 148 0
25.080000 4.840000 1.540000 205 105 112 0
25.300000 4.840000 1.650000 193 93 100 0
25.520000 4.840000 0.990000 189 89 94 0
25.740000 4.840000 1.650000 187 87 92 0
25.960000 4.840000 1.650000 186 85 88 0
26.180000 4.840000 1.760000 185 84 87 0
26.400000 4.840000 2.530000 186 80 85 0
26.620000 4.840000 3.190000 184 78 83 0
26.840000 4.840000 3.850000 185 78 83 0
27.060000 4.840000 3.850000 183 76 81 0
27.280000 4.840000 3.960000 184 74 80 0
27.500000 4.840000 3.960000 184 74 80 0
27.720000 4.840000 3.960000 182 74 82 0
27.940000 4.840000 4.070000 180 72 80 0
28.160000 4.840000 4.070000 179 72 77 0
28.380000 4.840000 4.070000 179 72 77 0
28.600000 4.840000 4.070000 179 72 77 0
28.820000 4.840000 4.070000 180 73 78 0
29.040000 4.840000 4.070000 180 70 76 0
29.260000 4.840000 4.070000 181 71 77 0
29.480000 4.840000 4.730000 180 70 78 0
29.700000 4.840000 5.280000 180 70 78 0
29.920000 4.840000 5.720000 180 70 76 0
30.140000 4.840000 6.930000 179 69 75 0
30.360000 4.840000 6.930000 180 70 76 0
30.580000 4.840000 6.270000 180 70 76 0
30.800000 4.840000 5.500000 180 70 76 0
31.020000 4.840000 5.610000 178 68 74 0
31.240000 4.840000 5.610000 179 69 77 0
31.460000 4.840000 4.950000 179 69 77 0
31.680000 4.840000 4.950000 178 66 73 0
31.900000 4.840000 4.290000 179 67 74 0
32.120000 4.840000 4.290000 178 66 73 0
32.340000 4.840000 4.290000 180 68 75 0
32.560000 4.840000 3.520000 181 71 77 0
32.780000 4.840000 3.520000 182 72 78 0
33.000000 4.840000 2.860000 184 72 81 0
33.220000 4.840000 2.860000 184 72 81 0
33.440000 4.840000 2.860000 184 72 79 0
33.660000 4.840000 2.860000 184 72 79 0
33.880000 4.840000 3.520000 184 72 79 0
34.100000 4.840000 4.180000 183 71 78 0
34.320000 4.840000 4.180000 183 71 78 0
34.540000 4.840000 4.180000 184 72 79 0
34.760000 4.840000 4.290000 183 70 77 0
34.980000 4.840000 4.290000 183 70 77 0
35.200000 4.840000 4.950000 182 69 76 0
35.420000 4.840000 4.840000 182 69 76 0
35.640000 4.840000 5.610000 180 67 72 0
35.860000 4.840000 5.610000 180 67 72 0
36.080000 4.840000 6.270000 182 66 72 0
36.300000 4.840000 6.270000 182 66 72 0
36.520000 4.840000 6.270000 181 65 73 0
36.740000 4.840000 6.270000 182 66 74 0
36.960000 4.840000 6.380000 182 66 72 0
37.180000 4.840000 5.720000 182 66 72 0
0.000000 5.060000 10.230000 202 196 165 0
0.220000 5.060000 11.000000 202 196 165 0
0.440000 5.060000 11.000000 203 197 166 0
0.660000 5.060000 11.000000 204 198 167 0
0.880000 5.060000 11.660000 204 198 167 0
1.100000 5.060000 11.660000 205 199 168 0
1.320000 5.060000 12.320000 204 200 170 0
1.540000 5.060000 13.420000 205 201 171 0
1.760000 5.060000 13.860000 206 200 171 0
1.980000 5.060000 13.860000 207 201 172 0
2.200000 5.060000 13.200000 206 202 170 0
2.420000 5.060000 12.540000 207 203 171 0
2.640000 5.060000 12.540000 207 203 171 0
2.860000 5.060000 12.650000 207 203 171 0
3.080000 5.060000 12.650000 207 201 172 0
3.300000 5.060000 12.650000 206 200 171 0
3.520000 5.060000 11.990000 204 198 167 0
3.740000 5.060000 12.760000 202 196 165 0
3.960000 5.060000 12.100000 216 179 155 0
4.180000 5.060000 10.120000 204 167 143 0
4.400000 5.060000 8.030000 215 142 130 0
4.620000 5.060000 8.030000 202 129 117 0
4.840000 5.060000 10.120000 205 107 103 0
5.060000 5.060000 10.890000 196 98 94 0
5.280000 5.060000 11.550000 193 93 91 0
5.500000 5.060000 11.550000 191 91 89 0
5.720000 5.060000 10.890000 190 90 87 0
5.940000 5.060000 10.670000 190 90 87 0
6.160000 5.060000 10.560000 191 93 89 0
6.380000 5.060000 10.120000 194 96 92 0
6.600000 5.060000 10.230000 193 94 92 0
6.820000 5.060000 10.890000 193 94 92 0
7.040000 5.060000 10.230000 181 110 101 0
7.260000 5.060000 11.000000 201 130 121 0
7.480000 5.060000 11.000000 214 130 123 0
7.700000 5.060000 12.210000 202 118 111 0
7.920000 5.060000 12.650000 197 92 91 0
8.140000 5.060000 13.420000 189 84 83 0
8.360000 5.060000 13.530000 189 84 84 0
8.580000 5.060000 15.400000 188 83 83 0
8.800000 5.060000 15.950000 188 83 83 0
9.020000 5.060000 16.610000 188 83 83 0
9.240000 5.060000 16.610000 187 85 83 0
9.460000 5.060000 16.720000 188 86 84 0
9.680000 5.060000 16.720000 191 86 85 0
9.900000 5.060000 16.720000 192 87 86 0
10.120000 5.060000 16.830000 191 92 90 0
10.340000 5.060000 16.830000 193 94 92 0
10.560000 5.060000 16.830000 193 102 102 0
10.780000 5.060000 16.830000 203 112 112 0
11.000000 5.060000 17.600000 197 125 124 0
11.220000 5.060000 17.600000 205 133 132 0
11.440000 5.060000 18.370000 213 132 134 0
11.660000 5.060000 18.370000 208 127 129 0
11.880000 5.060000 19.140000 204 121 124 0
12.100000 5.060000 19.140000 200 117 120 0
12.320000 5.060000 18.480000 203 112 112 0
12.540000 5.060000 18.480000 198 107 107 0
12.760000 5.060000 18.590000 199 100 98 0
12.980000 5.060000 18.590000 196 97 95 0
13.200000 5.060000 18.590000 197 95 94 0
13.420000 5.060000 18.590000 195 93 92 0
13.640000 5.060000 18.590000 194 92 91 0
13.860000 5.060000 19.250000 194 92 91 0
14.080000 5.060000 19.250000 195 90 90 0
14.300000 5.060000 19.800000 195 90 90 0
14.520000 5.060000 19.690000 195 90 90 0
14.740000 5.060000 19.800000 195 90 90 0
14.960000 5.060000 19.800000 194 89 89 0
15.180000 5.060000 20.460000 193 88 88 0
15.400000 5.060000 14.960000 194 89 89 0
15.620000 5.060000 4.620000 193 88 88 0
17.600000 5.060000 1.210000 194 89 89 0
17.820000 5.060000 2.310000 195 90 90 0
18.040000 5.060000 2.860000 195 90 90 0
18.260000 5.060000 3.630000 193 88 88 0
18.480000 5.060000 3.630000 193 88 90 0
18.700000 5.060000 4.290000 193 88 90 0
18.920000 5.060000 4.950000 193 88 90 0
19.140000 5.060000 4.950000 193 88 90 0
19.360000 5.060000 5.610000 193 94 96 0
19.580000 5.060000 5.720000 195 96 98 0
19.800000 5.060000 6.490000 186 106 112 0
20.020000 5.060000 7.260000 192 112 118 0
20.240000 5.060000 8.140000 181 176 175 0
20.460000 5.060000 8.910000 239 234 233 0
20.680000 5.060000 10.340000 255 231 228 0
20.900000 5.060000 10.340000 242 213 210 0
21.120000 5.060000 8.250000 252 161 161 0
21.340000 5.060000 5.500000 210 119 119 0
21.560000 5.060000 1.980000 198 93 95 0
21.780000 5.060000 1.210000 192 87 89 0
22.000000 5.060000 0.990000 190 87 91 0
22.220000 5.060000 1.540000 189 86 90 0
22.440000 5.060000 1.540000 190 87 91 0
22.660000 5.060000 5.060000 191 88 92 0
22.880000 5.060000 10.670000 191 94 98 0
23.100000 5.060000 8.470000 193 96 100 0
23.320000 5.060000 4.290000 186 110 118 0
23.540000 5.060000 2.970000 203 127 135 0
23.760000 5.060000 2.970000 202 144 153 0
23.980000 5.060000 3.630000 207 149 158 0
24.200000 5.060000 3.630000 198 162 169 0
24.420000 5.060000 2.970000 209 173 180 0
24.640000 5.060000 3.080000 237 160 161 0
24.860000 5.060000 1.760000 212 135 136 0
25.080000 5.060000 1.100000 193 112 114 0
25.300000 5.060000 0.440000 186 105 107 0
25.520000 5.060000 0.550000 193 93 100 0
25.740000 5.060000 1.210000 187 87 94 0
25.960000 5.060000 1.870000 187 84 88 0
26.180000 5.060000 1.980000 185 82 86 0
26.400000 5.060000 2.640000 187 80 85 0
26.620000 5.060000 3.300000 186 79 84 0
26.840000 5.060000 3.300000 186 79 84 0
27.060000 5.060000 3.960000 183 76 81 0
27.280000 5.060000 3.960000 184 74 82 0
27.500000 5.060000 3.960000 183 73 81 0
27.720000 5.060000 3.300000 183 73 79 0
27.940000 5.060000 3.300000 183 73 79 0
28.160000 5.060000 4.070000 182 72 78 0
28.380000 5.060000 4.070000 181 71 77 0
28.600000 5.060000 4.070000 181 71 77 0
28.820000 5.060000 4.070000 181 71 77 0
29.040000 5.060000 4.070000 181 71 79 0
29.260000 5.060000 4.070000 181 71 79 0
29.480000 5.060000 4.730000 180 70 76 0
29.700000 5.060000 5.830000 180 70 76 0
29.920000 5.060000 6.270000 181 69 76 0
30.140000 5.060000 6.930000 182 70 77 0
30.360000 5.060000 6.930000 179 69 75 0
30.580000 5.060000 6.270000 181 71 77 0
30.800000 5.060000 5.500000 181 69 76 0
31.020000 5.060000 4.840000 180 68 75 0
